VERSION 0.7
FIELDS x y z rgba
SIZE 4 4 4 4
TYPE F F F U
COUNT 1 1 1 1
WIDTH 920
HEIGHT 1
VIEWPOINT 0.0 0.0 0.0 1.0 0.0 0.0 0.0
POINTS 920
DATA ascii
-0.3016962409 -0.1559024006 0.5960451365 4289227072
-0.3017623127 -0.1552741528 0.5961756706 4289556037
-0.3018281460 -0.1546454877 0.5963057280 4290407996
-0.3018937409 -0.1540164053 0.5964353085 4290473789
-0.3019590974 -0.1533869207 0.5965644717 4291457587
-0.3020242155 -0.1527570337 0.5966930985 4291852345
-0.3020890951 -0.1521267444 0.5968212485 4292245311
-0.3025941849 -0.1517168730 0.5978191495 4292245311
-0.3026586771 -0.1510848403 0.5979465842 4292312131
-0.3031635582 -0.1506714076 0.5989440680 4292509510
-0.3032276630 -0.1500376612 0.5990706682 4292510275
-0.3032915294 -0.1494034976 0.5991968513 4292576068
-0.3033551276 -0.1487689465 0.5993224978 4292641347
-0.3034184873 -0.1481339931 0.5994476676 4292641347
-0.3039227128 -0.1477130353 0.6004438996 4292509761
-0.3044268787 -0.1472898275 0.6014398932 4292575554
-0.3053722680 -0.1470769048 0.6033076644 4292510791
-0.3067591488 -0.1470715106 0.6060476899 4292642377
-0.3081463277 -0.1470601708 0.6087882519 4292708172
-0.3099753857 -0.1472526342 0.6124017835 4292773965
-0.3118048608 -0.1474372894 0.6160162091 4293102160
-0.3140765727 -0.1478220522 0.6205042601 4293036367
-0.3159070611 -0.1479901373 0.6241207123 4292840019
-0.3181799352 -0.1483564526 0.6286110878 4293234777
-0.3200114071 -0.1485079676 0.6322294474 4293171041
-0.3218433559 -0.1486516297 0.6358487010 4293828971
-0.3227913380 -0.1483809352 0.6377215981 4293699966
-0.3237394392 -0.1481061131 0.6395946741 4294357896
-0.3246876001 -0.1478271782 0.6414679289 4293180327
-0.3251934052 -0.1473436356 0.6424672008 4294693566
-0.3144479692 -0.2285662144 0.6226041913 4292731372
-0.3145401478 -0.2279412597 0.6227867007 4292139235
-0.3146321177 -0.2273157537 0.6229688525 4291678684
-0.3142951429 -0.2263808548 0.6223015785 4291349206
-0.3135287762 -0.2251391411 0.6207842231 4290625483
-0.3131907582 -0.2242074311 0.6201149821 4290361023
-0.3128522933 -0.2232768685 0.6194447875 4289242542
-0.3116548359 -0.2217366546 0.6170738339 4287730326
-0.3108858168 -0.2205055952 0.6155512333 4287269775
-0.3096866012 -0.2189737260 0.6131767631 4287597966
-0.3089160919 -0.2177493125 0.6116511226 4287400587
-0.3077150881 -0.2162258178 0.6092731953 4287923846
-0.3065131903 -0.2147069424 0.6068934202 4288779155
-0.3057403266 -0.2134929895 0.6053631902 4290356898
-0.3049668074 -0.2122819424 0.6038315892 4291278000
-0.3037623465 -0.2107752860 0.6014467478 4291999662
-0.3034177125 -0.2098686546 0.6007643938 4290618009
-0.3026421070 -0.2086664140 0.5992287397 4289034855
-0.3022964597 -0.2077630758 0.5985443592 4288376925
-0.3019503951 -0.2068609446 0.5978590846 4290016347
-0.3016038537 -0.2059600353 0.5971729755 4289621589
-0.3021188676 -0.2056470960 0.5981926918 4289881927
-0.3017716706 -0.2047469020 0.5975052714 4289618755
-0.3014240563 -0.2038479447 0.5968170166 4289683513
-0.3015073538 -0.2032409906 0.5969819427 4289617720
-0.3011589944 -0.2023436278 0.5962921381 4290010671
-0.3012417555 -0.2017365396 0.5964559913 4290010671
-0.3013243079 -0.2011289299 0.5966194868 4290141226
-0.3014066815 -0.2005208433 0.5967825651 4290272812
-0.3010568917 -0.1996258348 0.5960900187 4290075949
-0.3011387289 -0.1990176141 0.5962520242 4290075949
-0.3012203276 -0.1984089017 0.5964136124 4289879853
-0.3013017476 -0.1977996975 0.5965748429 4289814060
-0.3013829589 -0.1971899867 0.5967356563 4289944874
-0.3014639616 -0.1965797991 0.5968959928 4290010667
-0.3015447557 -0.1959691197 0.5970559716 4290141993
-0.3020581007 -0.1956382245 0.5980724096 4290273579
-0.3021385968 -0.1950256824 0.5982317924 4290338856
-0.3022188842 -0.1944126487 0.5983907580 4290602028
-0.3022989631 -0.1937991232 0.5985493064 4290865200
-0.3023788333 -0.1931851208 0.5987073779 4290996786
-0.3028917909 -0.1928465068 0.5997231007 4291062579
-0.3029713333 -0.1922306567 0.5998805761 4291062579
-0.3026171327 -0.1913401783 0.5991792679 4291194163
-0.3026961386 -0.1907242388 0.5993357301 4291325749
-0.3027749658 -0.1901078075 0.5994917154 4291653685
-0.3024196625 -0.1892194152 0.5987882614 4291719478
-0.3016299009 -0.1880617291 0.5972245932 4291981878
-0.3017077148 -0.1874465197 0.5973786712 4292179257
-0.3009168804 -0.1862931848 0.5958127975 4292441914
-0.3005597293 -0.1854108721 0.5951055884 4292507707
-0.3006365597 -0.1847968996 0.5952577591 4292441653
-0.2998440564 -0.1836501360 0.5936886072 4292507446
-0.2994855940 -0.1827717274 0.5929788351 4293031478
-0.2991266549 -0.1818946302 0.5922681689 4292965685
-0.2987672985 -0.1810188591 0.5915566683 4292703282
-0.2988425195 -0.1804069877 0.5917055607 4292703282
-0.2984823883 -0.1795329601 0.5909925103 4292835379
-0.2985570729 -0.1789210737 0.5911403894 4292966965
-0.2990668416 -0.1785686463 0.5921496749 4292704306
-0.2987057269 -0.1776959151 0.5914347172 4292309548
-0.2987797558 -0.1770826578 0.5915812850 4292244525
-0.2988535464 -0.1764689386 0.5917273760 4292310318
-0.2984913588 -0.1755984128 0.5910102725 4292506925
-0.2981287241 -0.1747292280 0.5902922750 4292506925
-0.2982016504 -0.1741159558 0.5904366374 4292638252
-0.2982743382 -0.1735022217 0.5905805826 4292638252
-0.2979106307 -0.1726352721 0.5898604393 4292900911
-0.2979827821 -0.1720215380 0.5900032520 4293032497
-0.2976182997 -0.1711564064 0.5892816186 4292508983
-0.2976898849 -0.1705426872 0.5894233584 4292443190
-0.2977612615 -0.1699285209 0.5895646811 4292377140
-0.2978323996 -0.1693139225 0.5897055864 4292442933
-0.2979033291 -0.1686988771 0.5898460150 4292573747
-0.2979740202 -0.1680833995 0.5899859667 4292639540
-0.2980445027 -0.1674674898 0.5901255012 4292836921
-0.2981147468 -0.1668511331 0.5902646184 4292771128
-0.2981847823 -0.1662343442 0.5904032588 4292771128
-0.2982545793 -0.1656171083 0.5905414224 4292836921
-0.2983241379 -0.1649994552 0.5906791687 4292705850
-0.2983934879 -0.1643813699 0.5908164382 4292705850
-0.2980249524 -0.1635227352 0.5900868177 4292640318
-0.2980937362 -0.1629046947 0.5902230144 4292640318
-0.2981623113 -0.1622862220 0.5903587341 4292574785
-0.2982306182 -0.1616673321 0.5904940367 4292574785
-0.2982987165 -0.1610480100 0.5906288028 4292312895
-0.2983665764 -0.1604282707 0.5907632113 4292181309
-0.2984341979 -0.1598080993 0.5908970833 4292180282
-0.2985016108 -0.1591875106 0.5910305381 4292246075
-0.2990072072 -0.1587993503 0.5920316577 4291850545
-0.2990742326 -0.1581770182 0.5921643376 4290139927
-0.2995796502 -0.1577852815 0.5931650996 4289152262
-0.2996463180 -0.1571612060 0.5932970643 4289547020
-0.3001515865 -0.1567658931 0.5942974687 4290796828
-0.3002178669 -0.1561400592 0.5944287181 4291388965
-0.3002839088 -0.1555138230 0.5945594907 4291981361
-0.3003497422 -0.1548871547 0.5946898460 4292178740
-0.3004153073 -0.1542600989 0.5948196650 4292113717
-0.3004806638 -0.1536326110 0.5949490666 4291916338
-0.3005457520 -0.1530047208 0.5950779915 4291850545
-0.3006106317 -0.1523764282 0.5952064395 4292113717
-0.3011148572 -0.1519695818 0.5962047577 4292179516
-0.3011793196 -0.1513395607 0.5963324308 4292245309
-0.3016833365 -0.1509291530 0.5973303318 4292311615
-0.3017474413 -0.1502973884 0.5974572897 4292508994
-0.3018112779 -0.1496652365 0.5975837111 4292574785
-0.3018749058 -0.1490326822 0.5977096558 4292640578
-0.3019382656 -0.1483997256 0.5978351235 4292837699
-0.3020013869 -0.1477663815 0.5979600549 4292706113
-0.3025045991 -0.1473471075 0.5989564061 4292640833
-0.3030077219 -0.1469255984 0.5999526381 4292640833
-0.3039513230 -0.1467144638 0.6018209457 4292641861
-0.3048950434 -0.1464992464 0.6036894917 4292641861
-0.3062795401 -0.1464907080 0.6064308286 4292773195
-0.3085459173 -0.1468959004 0.6109181643 4293167953
-0.3103720546 -0.1470825225 0.6145339012 4293233748
-0.3126395941 -0.1474693120 0.6190236807 4292970576
-0.3144667447 -0.1476393640 0.6226413846 4292905813
-0.3167354763 -0.1480077207 0.6271334291 4293958501
-0.3185636103 -0.1481611878 0.6307530999 4293698161
-0.3203921616 -0.1483068019 0.6343736649 4293895540
-0.3213383853 -0.1480378658 0.6362471581 4293504393
-0.3222846687 -0.1477648169 0.6381207705 4294228116
-0.3227894604 -0.1472861618 0.6391202807 4293313720
-0.3237358332 -0.1470057815 0.6409940720 4294826959
-0.3134553730 -0.2283468843 0.6220067739 4292665579
-0.3126918375 -0.2271012515 0.6204916239 4292139235
-0.3136391342 -0.2270977348 0.6223713756 4291612891
-0.3137306869 -0.2264723480 0.6225530505 4291283413
-0.3133939207 -0.2255382836 0.6218848228 4290428104
-0.3130567074 -0.2246053964 0.6212156415 4290032058
-0.3122906685 -0.2233672589 0.6196955442 4289045163
-0.3119524419 -0.2224375606 0.6190243959 4287467922
-0.3111851215 -0.2212043405 0.6175017953 4287073164
-0.3104171157 -0.2199740112 0.6159777641 4287729806
-0.3096484244 -0.2187465876 0.6144524217 4287532427
-0.3084500432 -0.2172199488 0.6120743752 4287923846
-0.3072507083 -0.2156979293 0.6096945405 4288713362
-0.3060504496 -0.2141805440 0.6073127985 4290357159
-0.3057079911 -0.2132668793 0.6066331863 4291804605
-0.3049356043 -0.2120557278 0.6051005125 4292857030
-0.3041625321 -0.2108475268 0.6035664678 4292659651
-0.3029590547 -0.2093452960 0.6011782885 4291208344
-0.3021844923 -0.2081438303 0.5996413231 4288708210
-0.3018392026 -0.2072405219 0.5989561677 4289163104
-0.3014934957 -0.2063384354 0.5982701182 4289426276
-0.3015775383 -0.2057310492 0.5984368920 4290211924
-0.3008007407 -0.2045379281 0.5968954563 4289488201
-0.3008841276 -0.2039312720 0.5970609188 4290012738
-0.3005367815 -0.2030332237 0.5963716507 4290144324
-0.3006196618 -0.2024264187 0.5965361595 4290010416
-0.3002715409 -0.2015299797 0.5958453417 4289944623
-0.3003539145 -0.2009230554 0.5960087776 4290272558
-0.3000050187 -0.2000282258 0.5953164697 4290140972
-0.2996557057 -0.1991346478 0.5946232677 4289944876
-0.2997372150 -0.1985279769 0.5947850347 4290010669
-0.2993871272 -0.1976360232 0.5940903425 4289813806
-0.2994681299 -0.1970292330 0.5942510366 4289748013
-0.2995488942 -0.1964219511 0.5944113731 4289682474
-0.2996294796 -0.1958141774 0.5945712328 4289616681
-0.2997098565 -0.1952059120 0.5947307348 4289944615
-0.2997900248 -0.1945971549 0.5948898196 4290010408
-0.2998699546 -0.1939879060 0.5950484872 4290009891
-0.2999497056 -0.1933781803 0.5952067375 4290207270
-0.3000292480 -0.1927679628 0.5953645706 4290207786
-0.3005410135 -0.1924341619 0.5963800550 4290273579
-0.3006202579 -0.1918220967 0.5965372920 4290142507
-0.3006992638 -0.1912095398 0.5966941118 4290076714
-0.3003453016 -0.1903222799 0.5959917307 4290142507
-0.3004238009 -0.1897096485 0.5961474776 4290274093
-0.3005020618 -0.1890965402 0.5963028073 4290668337
-0.3005801141 -0.1884829551 0.5964576602 4290734130
-0.3002247512 -0.1875981838 0.5957524776 4291127343
-0.2994355857 -0.1864448935 0.5941865444 4291127343
-0.2995126843 -0.1858325303 0.5943394899 4291520812
-0.2987224162 -0.1846836060 0.5927713513 4291586605
-0.2987988591 -0.1840720922 0.5929230452 4291783723
-0.2984412909 -0.1831938177 0.5922135115 4291915309
-0.2980833054 -0.1823168695 0.5915030837 4291784499
-0.2972908616 -0.1811767370 0.5899305940 4291850292
-0.2978000939 -0.1808305085 0.5909411311 4292047671
-0.2974409163 -0.1799566001 0.5902283788 4292113464
-0.2970812917 -0.1790840328 0.5895147324 4292113463
-0.2975901067 -0.1787346303 0.5905243754 4292047670
-0.2976643741 -0.1781229675 0.5906717777 4292113976
-0.2977384031 -0.1775108278 0.5908187032 4292311355
-0.2973774672 -0.1766399890 0.5901024938 4292246073
-0.2974509895 -0.1760278493 0.5902483463 4292377659
-0.2975242734 -0.1754152477 0.5903937817 4292443450
-0.2971622348 -0.1745466292 0.5896753669 4292443450
-0.2972349823 -0.1739340276 0.5898197293 4292443193
-0.2973074913 -0.1733209789 0.5899636149 4292377400
-0.2969444096 -0.1724545956 0.5892431140 4292442680
-0.2970163524 -0.1718415469 0.5893859267 4292508473
-0.2966524959 -0.1709769815 0.5886638761 4292835890
-0.2967239320 -0.1703639477 0.5888056159 4292835890
-0.2967951298 -0.1697504669 0.5889468789 4292835890
-0.2973020077 -0.1693848968 0.5899527669 4292967476
-0.2973728776 -0.1687696278 0.5900933743 4292967478
-0.2974435091 -0.1681539267 0.5902335048 4292967478
-0.2975139022 -0.1675377786 0.5903732181 4292836662
-0.2975840867 -0.1669211984 0.5905125141 4292770869
-0.2972176075 -0.1660603434 0.5897852778 4292836919
-0.2972872257 -0.1654437929 0.5899234414 4292771126
-0.2973566353 -0.1648268104 0.5900611281 4292706103
-0.2974258065 -0.1642094105 0.5901983976 4292706103
-0.2970578969 -0.1633513421 0.5894683599 4292575290
-0.2971265316 -0.1627339870 0.5896044970 4292575290
-0.2971948981 -0.1621161997 0.5897402167 4292444222
-0.2972630560 -0.1614979804 0.5898754597 4292444222
-0.2968937457 -0.1606427580 0.5891426206 4292575554
-0.2969613373 -0.1600245982 0.5892767310 4292509761
-0.2970287204 -0.1594060361 0.5894104242 4292705852
-0.2975333929 -0.1590208858 0.5904119015 4292705852
-0.2976004183 -0.1584005654 0.5905448794 4292771129
-0.2981049418 -0.1580118537 0.5915459991 4292442164
-0.2981715798 -0.1573897749 0.5916782618 4291916338
-0.2982379794 -0.1567672938 0.5918100476 4291587373
-0.2983041406 -0.1561443806 0.5919413567 4291718189
-0.2988082170 -0.1557494402 0.5929416418 4291389224
-0.2988740206 -0.1551247835 0.5930721760 4291453986
-0.2989395857 -0.1544997245 0.5932022929 4291519779
-0.2990049124 -0.1538742632 0.5933319330 4291980330
-0.2990700006 -0.1532483697 0.5934610963 4292375088
-0.2991348803 -0.1526220888 0.5935897827 4292179510
-0.2996381819 -0.1522182524 0.5945885777 4292508475
-0.2997026742 -0.1515902430 0.5947164893 4292902980
-0.2997668982 -0.1509618163 0.5948439837 4292771394
-0.3002698720 -0.1505530924 0.5958420634 4292508222
-0.3003337383 -0.1499229372 0.5959687829 4292574015
-0.3003973365 -0.1492923945 0.5960949659 4292508221
-0.3004606962 -0.1486614347 0.5962207317 4292442428
-0.3005238175 -0.1480300874 0.5963459611 4292705854
-0.3005867004 -0.1473983377 0.5964707732 4292837440
-0.3006493449 -0.1467662007 0.5965950489 4292771906
-0.3011513948 -0.1463472992 0.5975912809 4292640320
-0.3020930886 -0.1461388916 0.5994599462 4292772164
-0.3034747243 -0.1461381614 0.6022015810 4292772164
-0.3048566282 -0.1461315006 0.6049438119 4292838988
-0.3066788614 -0.1463288218 0.6085597277 4293233746
-0.3093817234 -0.1469363421 0.6139231920 4293102932
-0.3112050295 -0.1471161842 0.6175413132 4293037139
-0.3134690821 -0.1474953443 0.6220339537 4293301087
-0.3152934015 -0.1476585865 0.6256540418 4294287982
-0.3171181679 -0.1478139907 0.6292750239 4293765500
-0.3185028434 -0.1477571875 0.6320227385 4293962879
-0.3194471896 -0.1474909633 0.6338965893 4293440918
-0.3208322823 -0.1474231184 0.6366451383 4294033055
-0.3213360608 -0.1469461471 0.6376448274 4293578183
-0.3218397498 -0.1464668959 0.6386443377 4294960350
-0.3120368123 -0.2278155833 0.6205595136 4292665579
-0.3121284246 -0.2271927893 0.6207417250 4292139235
-0.3122198582 -0.2265694439 0.6209235191 4291612891
-0.3114566207 -0.2253273726 0.6194056273 4291152340
-0.3119747639 -0.2250128835 0.6204360723 4290297031
-0.3112104833 -0.2237739861 0.6189161539 4290097849
-0.3113007545 -0.2231510282 0.6190956831 4289176747
-0.3109630644 -0.2222218663 0.6184241176 4287862164
-0.3106249571 -0.2212938666 0.6177517176 4287335820
-0.3098584116 -0.2200630903 0.6162272096 4287664011
-0.3090911806 -0.2188352197 0.6147013903 4287400839
-0.3083232343 -0.2176102400 0.6131742001 4287792774
-0.3071262538 -0.2160868049 0.6107937098 4288516497
-0.3059283495 -0.2145679891 0.6084113717 4289963429
-0.3055866957 -0.2136531323 0.6077319384 4291542461
-0.3048158884 -0.2124406844 0.6061989665 4292529353
-0.3036155701 -0.2109332383 0.6038118601 4293450455
-0.3028432727 -0.2097275257 0.6022759676 4293645003
-0.3020702899 -0.2085247487 0.6007387042 4291013283
-0.3017258048 -0.2076202631 0.6000536084 4289625975
-0.3013809025 -0.2067169845 0.5993676782 4288639080
-0.3010355532 -0.2058149278 0.5986809134 4289292109
-0.3002602160 -0.2046213746 0.5971389413 4289555281
-0.2999138534 -0.2037226409 0.5964501500 4290210635
-0.2999968827 -0.2031161487 0.5966151953 4289815877
-0.2996497750 -0.2022190094 0.5959249139 4290207797
-0.2993022203 -0.2013231218 0.5952337384 4290207797
-0.2993843853 -0.2007168680 0.5953971148 4290272558
-0.2990360558 -0.1998225898 0.5947044492 4290140972
-0.2991177142 -0.1992162019 0.5948668122 4289944363
-0.2987686396 -0.1983235478 0.5941725969 4289944363
-0.2984191477 -0.1974321455 0.5934775472 4289879085
-0.2984999418 -0.1968260258 0.5936381817 4289813292
-0.2985805273 -0.1962194145 0.5937984586 4289747497
-0.2986609042 -0.1956123114 0.5939583182 4289747497
-0.2987410724 -0.1950047165 0.5941177607 4289747495
-0.2988210618 -0.1943966299 0.5942767859 4289747495
-0.2984694839 -0.1935084164 0.5935776830 4290074403
-0.2985489368 -0.1929002404 0.5937356353 4290074403
-0.2986281812 -0.1922915876 0.5938932300 4290074918
-0.2987071872 -0.1916824281 0.5940504074 4290140711
-0.2987860143 -0.1910728067 0.5942071080 4290075433
-0.2988646030 -0.1904626936 0.5943634510 4290009640
-0.2989430130 -0.1898520887 0.5945193768 4289944363
-0.2990211844 -0.1892410219 0.5946748257 4290075949
-0.2990991473 -0.1886294633 0.5948299170 4290272558
-0.2991769314 -0.1880174428 0.5949845314 4290272558
-0.2988220155 -0.1871341169 0.5942787528 4290403883
-0.2988992333 -0.1865220219 0.5944322944 4290338090
-0.2981109023 -0.1853713542 0.5928645134 4290534441
-0.2977547050 -0.1844919324 0.5921561122 4290666027
-0.2978309393 -0.1838810742 0.5923077464 4291059756
-0.2974739671 -0.1830033809 0.5915978551 4291125549
-0.2966834605 -0.1818614900 0.5900257230 4291127081
-0.2967587411 -0.1812519133 0.5901753902 4291061288
-0.2964004576 -0.1803781539 0.5894628763 4291192615
-0.2964752018 -0.1797685325 0.5896115303 4291455787
-0.2961161435 -0.1788965166 0.5888974667 4291783469
-0.2966240048 -0.1785479188 0.5899074674 4291849262
-0.2966980934 -0.1779369116 0.5900548100 4291981102
-0.2963380814 -0.1770662069 0.5893388391 4292244274
-0.2964116335 -0.1764551997 0.5894851089 4291915307
-0.2964849472 -0.1758437306 0.5896309614 4292046893
-0.2965580821 -0.1752317995 0.5897763371 4292244272
-0.2961966395 -0.1743637621 0.5890575647 4292310065
-0.2962692082 -0.1737518311 0.5892018676 4292310065
-0.2963415682 -0.1731394529 0.5893457532 4292310065
-0.2959790528 -0.1722736508 0.5886248350 4292506929
-0.2960508466 -0.1716612726 0.5887675881 4292572722
-0.2961224318 -0.1710484624 0.5889099836 4292703796
-0.2961937785 -0.1704351902 0.5890518427 4292769589
-0.2962649167 -0.1698214859 0.5891933441 4292704055
-0.2963358164 -0.1692073345 0.5893343091 4292769848
-0.2964065075 -0.1685927510 0.5894749165 4292704571
-0.2964769602 -0.1679777205 0.5896150470 4292704571
-0.2965472043 -0.1673622578 0.5897547007 4292770364
-0.2966172099 -0.1667463630 0.5898939371 4292770364
-0.2966870070 -0.1661300212 0.5900327563 4292705082
-0.2967565656 -0.1655132473 0.5901710987 4292639289
-0.2968258858 -0.1648960412 0.5903089643 4292639543
-0.2968949974 -0.1642784029 0.5904464126 4292705336
-0.2965278029 -0.1634200215 0.5897161365 4292770616
-0.2965963483 -0.1628024280 0.5898525119 4292770616
-0.2966646850 -0.1621844172 0.5899883509 4292770616
-0.2967327833 -0.1615659744 0.5901237726 4292902202
-0.2959277034 -0.1604737341 0.5885227323 4292705082
-0.2959951460 -0.1598562598 0.5886568427 4292836668
-0.2960623503 -0.1592383683 0.5887904763 4292835894
-0.2961293161 -0.1586200595 0.5889236927 4292506929
-0.2966329455 -0.1582343578 0.5899252295 4292507957
-0.2966995537 -0.1576143056 0.5900577307 4292902715
-0.2967659235 -0.1569938213 0.5901897550 4292640833
-0.2968320847 -0.1563729197 0.5903213024 4292311868
-0.2973352671 -0.1559810042 0.5913219452 4291982390
-0.2974010408 -0.1553583592 0.5914527774 4291521839
-0.2979040444 -0.1549628675 0.5924531221 4291585572
-0.2979694307 -0.1543384790 0.5925831795 4290927642
-0.2980346084 -0.1537136883 0.5927128196 4290663183
-0.2980995476 -0.1530884951 0.5928419232 4290794769
-0.2986020744 -0.1526867747 0.5938413739 4291255837
-0.2986666262 -0.1520598382 0.5939697623 4291913767
-0.2991689742 -0.1516545415 0.5949687362 4292047670
-0.2987950444 -0.1508047581 0.5942251086 4292574014
-0.2988588810 -0.1501766145 0.5943520665 4292705084
-0.2993607819 -0.1497673392 0.5953502059 4292441912
-0.2994242311 -0.1491374671 0.5954763889 4292572985
-0.2990489602 -0.1482897699 0.5947300792 4292836157
-0.2991118431 -0.1476600170 0.5948551297 4293099329
-0.2991744876 -0.1470298767 0.5949797034 4292836157
-0.2996756434 -0.1466140002 0.5959763527 4293034819
-0.2997379005 -0.1459821463 0.5961001515 4292837440
-0.3006777763 -0.1457755119 0.5979693532 4292772164
-0.3020568192 -0.1457766742 0.6007119417 4292837957
-0.3038752973 -0.1459828466 0.6043283939 4292773195
-0.3056942523 -0.1461811960 0.6079457998 4292970574
-0.3075136542 -0.1463717371 0.6115640998 4292971603
-0.3093335032 -0.1465544552 0.6151833534 4293497947
-0.3115933239 -0.1469365805 0.6196775436 4293762927
-0.3134141862 -0.1471027136 0.6232987642 4294223478
-0.3152354956 -0.1472609937 0.6269208789 4293635464
-0.3166175187 -0.1472069919 0.6296693087 4294161808
-0.3179997802 -0.1471469998 0.6324182749 4293639847
-0.3189423978 -0.1468784213 0.6342929006 4294034605
-0.3194450736 -0.1464040577 0.6352925897 4294039764
-0.3106206357 -0.2272836715 0.6191105843 4292731372
-0.3107119203 -0.2266623825 0.6192925572 4292139235
-0.3103766739 -0.2257304788 0.6186243296 4291612891
-0.3096145093 -0.2244905233 0.6171052456 4291152340
-0.3097949326 -0.2232492566 0.6174649000 4290295228
-0.3098848462 -0.2226278186 0.6176440716 4289439919
-0.3095476031 -0.2217000425 0.6169719100 4288388508
-0.3092099428 -0.2207734287 0.6162988544 4287730578
-0.3084445894 -0.2195439339 0.6147734523 4287466632
-0.3076785505 -0.2183173299 0.6132466197 4287269253
-0.3069118559 -0.2170936316 0.6117184758 4287793287
-0.3061444461 -0.2158728391 0.6101889014 4288385424
-0.3053763211 -0.2146549672 0.6086579561 4289701286
-0.3046075404 -0.2134400010 0.6071256995 4290819767
-0.3038380742 -0.2122279853 0.6055920124 4292201418
-0.3026398718 -0.2107208371 0.6032038331 4293254106
-0.3018689156 -0.2095155418 0.6016671658 4294041306
-0.3010972738 -0.2083131820 0.6001291871 4293778134
-0.3007533550 -0.2074092329 0.5994437337 4292655800
-0.3004090190 -0.2065065056 0.5987574458 4289892494
-0.3004929125 -0.2058987319 0.5989246368 4289294431
-0.2997190356 -0.2047047317 0.5973821878 4289360224
-0.2993733883 -0.2038056701 0.5966932178 4289883218
-0.2990272939 -0.2029078603 0.5960034132 4289554253
-0.2991098762 -0.2023015320 0.5961680412 4290011708
-0.2987630367 -0.2014053166 0.5954767466 4289814329
-0.2988451123 -0.2007988542 0.5956403613 4290207537
-0.2984974980 -0.1999042630 0.5949475169 4290536502
-0.2981494367 -0.1990109086 0.5942537785 4290272558
-0.2982306778 -0.1984046996 0.5944157243 4290140972
-0.2974520326 -0.1972279698 0.5928637385 4290075179
-0.2975326478 -0.1966225058 0.5930243731 4290009386
-0.2976130247 -0.1960165650 0.5931845903 4290009640
-0.2972630262 -0.1951277554 0.5924870372 4290009640
-0.2973428965 -0.1945217103 0.5926461816 4289943845
-0.2974225581 -0.1939151734 0.5928049684 4289812259
-0.2970714569 -0.1930283904 0.5921052098 4289878052
-0.2971506119 -0.1924217641 0.5922629237 4289812259
-0.2972295284 -0.1918146610 0.5924202204 4289878052
-0.2973082364 -0.1912070662 0.5925771594 4290009638
-0.2973867655 -0.1905989796 0.5927336216 4290009638
-0.2974650562 -0.1899904311 0.5928896666 4290009638
-0.2975431383 -0.1893813908 0.5930453539 4289943845
-0.2976210117 -0.1887718737 0.5932005644 4289943845
-0.2976987064 -0.1881618649 0.5933553576 4290009125
-0.2977761626 -0.1875513941 0.5935097337 4289943332
-0.2978534102 -0.1869404465 0.5936637521 4290140194
-0.2974986434 -0.1860589832 0.5929566622 4290140194
-0.2967115939 -0.1849096566 0.5913879275 4290271521
-0.2967878580 -0.1842999607 0.5915399194 4290403107
-0.2964318097 -0.1834224015 0.5908302665 4290534180
-0.2965075374 -0.1828126460 0.5909812450 4290534180
-0.2961507440 -0.1819368154 0.5902700424 4290470179
-0.2957934737 -0.1810622960 0.5895580053 4290535972
-0.2954358160 -0.1801891178 0.5888451338 4290732581
-0.2955103517 -0.1795801669 0.5889937282 4290798374
-0.2951519191 -0.1787087321 0.5882793069 4291060775
-0.2956588268 -0.1783608943 0.5892896056 4291258154
-0.2957327366 -0.1777505726 0.5894369483 4291586090
-0.2953733206 -0.1768804491 0.5887205601 4291586090
-0.2954466939 -0.1762701124 0.5888667703 4291848748
-0.2955198288 -0.1756593138 0.5890125632 4292046127
-0.2955927551 -0.1750480682 0.5891579390 4292243504
-0.2952319384 -0.1741805971 0.5884388089 4292375090
-0.2953043282 -0.1735693514 0.5885830522 4292375090
-0.2953765094 -0.1729576439 0.5887269378 4292375090
-0.2950145900 -0.1720924228 0.5880056024 4292440881
-0.2950862348 -0.1714807302 0.5881483555 4292440881
-0.2951576412 -0.1708685905 0.5882906318 4292441904
-0.2952288091 -0.1702560037 0.5884325504 4292507697
-0.2952997684 -0.1696429700 0.5885739923 4292310577
-0.2958048582 -0.1692780703 0.5895807147 4292376370
-0.2958754897 -0.1686632633 0.5897214413 4292442680
-0.2959458828 -0.1680480093 0.5898617506 4292442680
-0.2960160375 -0.1674323231 0.5900016427 4292442680
-0.2960859835 -0.1668162048 0.5901410580 4292442680
-0.2961557209 -0.1661996394 0.5902799964 4292770875
-0.2957902253 -0.1653394997 0.5895515084 4292705082
-0.2958593965 -0.1647229642 0.5896893740 4292770875
-0.2959283292 -0.1641060114 0.5898267627 4292770875
-0.2955617607 -0.1632481962 0.5890961289 4293033018
-0.2956301570 -0.1626312882 0.5892324448 4292967225
-0.2956983149 -0.1620139629 0.5893682837 4293032761
-0.2957662344 -0.1613961905 0.5895037055 4293098554
-0.2953982353 -0.1605412215 0.5887702107 4292967743
-0.2954656184 -0.1599235237 0.5889045000 4293165122
-0.2955327630 -0.1593054086 0.5890383720 4293164604
-0.2955996692 -0.1586868614 0.5891717076 4292967225
-0.2956663668 -0.1580678970 0.5893046260 4292967995
-0.2957327962 -0.1574485153 0.5894370675 4292704823
-0.2957990170 -0.1568287164 0.5895690918 4292311096
-0.2958650291 -0.1562085152 0.5897005796 4292574268
-0.2959307730 -0.1555878818 0.5898316503 4292573498
-0.2964328825 -0.1551954001 0.5908324122 4292310326
-0.2964982688 -0.1545730382 0.5909627080 4292572209
-0.2970001698 -0.1541769952 0.5919631124 4292374830
-0.2970651984 -0.1535528749 0.5920926929 4291978789
-0.2966930270 -0.1527034640 0.5913509130 4291255066
-0.2971945107 -0.1523034424 0.5923504829 4290334481
-0.2976959646 -0.1519011706 0.5933499336 4289808137
-0.2977601290 -0.1512745023 0.5934778452 4290139157
-0.2978240550 -0.1506474465 0.5936052203 4291060259
-0.2978877425 -0.1500199884 0.5937321782 4292111918
-0.2979511917 -0.1493921131 0.5938586593 4292704055
-0.2980144024 -0.1487638503 0.5939846039 4293098554
-0.2980773747 -0.1481351852 0.5941101313 4293098554
-0.2977023125 -0.1472895145 0.5933625698 4293033020
-0.2977647185 -0.1466609836 0.5934869051 4292967227
-0.2982648313 -0.1462468058 0.5944837928 4293296708
-0.2983268499 -0.1456165612 0.5946073532 4293230915
-0.2997030914 -0.1456246227 0.5973504186 4292969286
-0.3006413877 -0.1454147547 0.5992205739 4293035079
-0.3020181358 -0.1454118490 0.6019646525 4292838988
-0.3038336337 -0.1456130892 0.6055831313 4292838988
-0.3056495786 -0.1458065212 0.6092025638 4292972632
-0.3074659705 -0.1459921300 0.6128229499 4294025320
-0.3097215593 -0.1463772357 0.6173186302 4293831040
-0.3115389645 -0.1465462595 0.6209409833 4293896833
-0.3133568168 -0.1467074305 0.6245641708 4293374611
-0.3147361577 -0.1466562152 0.6273134351 4294098334
-0.3161157370 -0.1465990245 0.6300631166 4293510064
-0.3170564771 -0.1463331431 0.6319381595 4293904822
-0.3179972768 -0.1460631490 0.6338132620 4294566367
-0.3092068732 -0.2267511785 0.6176601052 4292797166
-0.3092978001 -0.2261313945 0.6178417802 4292270822
-0.3093885481 -0.2255110741 0.6180230379 4291876064
-0.3094791174 -0.2248902023 0.6182039380 4291349719
-0.3091436327 -0.2239603102 0.6175338030 4290691789
-0.3083817959 -0.2227239460 0.6160119176 4290361793
-0.3084713817 -0.2221040130 0.6161909103 4289638070
-0.3085607588 -0.2214835435 0.6163694263 4288980134
-0.3082236350 -0.2205574661 0.6156960130 4288256411
-0.3074596226 -0.2193283886 0.6141698956 4287664013
-0.3071214855 -0.2184055299 0.6134944558 4287400841
-0.3067829013 -0.2174838781 0.6128180623 4287794316
-0.3060170710 -0.2162617743 0.6112883091 4288123281
-0.3048236370 -0.2147418410 0.6089043617 4289044385
-0.3040563166 -0.2135264426 0.6073715687 4289965487
-0.3037154675 -0.2126130164 0.6066907048 4291412163
-0.3029468954 -0.2114026099 0.6051554680 4292530644
-0.3017502427 -0.2098978311 0.6027650237 4293581531
-0.3009801805 -0.2086941749 0.6012268066 4294305254
-0.3002094626 -0.2074934691 0.5996872187 4294566115
-0.2998658121 -0.2065904289 0.5990007520 4293316048
-0.2999496162 -0.2059824318 0.5991681218 4291601309
-0.2996051908 -0.2050809711 0.5984801650 4288838003
-0.2992603481 -0.2041807324 0.5977913141 4288308567
-0.2989150882 -0.2032817304 0.5971015692 4288637532
-0.2985693514 -0.2023839653 0.5964109898 4289291335
-0.2986516654 -0.2017769217 0.5965754390 4289357128
-0.2983051836 -0.2008807659 0.5958833098 4290340671
-0.2979582846 -0.1999858469 0.5951903462 4290143292
-0.2980397642 -0.1993790567 0.5953530669 4290142257
-0.2976920903 -0.1984857619 0.5946585536 4289944878
-0.2969149053 -0.1973085999 0.5931060910 4290009640
-0.2969954014 -0.1967029423 0.5932669640 4289943847
-0.2970757186 -0.1960967928 0.5934273601 4290009127
-0.2967264056 -0.1952076554 0.5927296281 4290074920
-0.2968062162 -0.1946014017 0.5928890109 4290009125
-0.2964561582 -0.1937139183 0.5921897292 4289877539
-0.2965354025 -0.1931075603 0.5923480392 4289812258
-0.2966144681 -0.1925007254 0.5925059915 4289812258
-0.2966932952 -0.1918934137 0.5926634669 4289681696
-0.2963418365 -0.1910083890 0.5919613838 4289813282
-0.2964201570 -0.1904009730 0.5921178460 4289878821
-0.2964982688 -0.1897930950 0.5922738910 4289878821
-0.2965761721 -0.1891847253 0.5924295187 4289813029
-0.2966538668 -0.1885758787 0.5925846696 4289747236
-0.2967313528 -0.1879665554 0.5927394629 4290009637
-0.2963778377 -0.1870848387 0.5920333266 4290009637
-0.2964547873 -0.1864754409 0.5921870470 4289944098
-0.2965315282 -0.1858655810 0.5923402905 4289944098
-0.2961769402 -0.1849859804 0.5916320086 4290009376
-0.2958219051 -0.1841076761 0.5909228325 4290075169
-0.2958977818 -0.1834981740 0.5910743475 4290206241
-0.2955420017 -0.1826216131 0.5903636813 4290206241
-0.2956173420 -0.1820120513 0.5905141830 4290206241
-0.2952608168 -0.1811372191 0.5898019671 4290469413
-0.2949038446 -0.1802637130 0.5890889168 4290535720
-0.2949783206 -0.1796545535 0.5892376900 4290535720
-0.2946205735 -0.1787827909 0.5885230899 4290600999
-0.2946945429 -0.1781736016 0.5886707902 4290732585
-0.2947682440 -0.1775639653 0.5888180733 4290929449
-0.2948417664 -0.1769538522 0.5889649391 4291061035
-0.2949150503 -0.1763433069 0.5891113281 4291126569
-0.2945556045 -0.1754746139 0.5883932710 4291258155
-0.2946283519 -0.1748640537 0.5885385871 4291521327
-0.2947008908 -0.1742530316 0.5886834860 4291718706
-0.2947732210 -0.1736415625 0.5888279676 4291849777
-0.2944123447 -0.1727755666 0.5881071091 4291981363
-0.2944841087 -0.1721640974 0.5882504582 4292047154
-0.2945556641 -0.1715521812 0.5883933902 4292047154
-0.2946270108 -0.1709398180 0.5885359049 4292244784
-0.2946981192 -0.1703270078 0.5886779428 4292310577
-0.2947689891 -0.1697137654 0.5888195634 4292310577
-0.2948396802 -0.1691000760 0.5889607072 4292442163
-0.2953438163 -0.1687337160 0.5899677873 4292508471
-0.2954141498 -0.1681182384 0.5901082754 4292574264
-0.2950503528 -0.1672563553 0.5893815756 4292639543
-0.2951201200 -0.1666409075 0.5895209312 4292507957
-0.2951896787 -0.1660250276 0.5896598697 4292639543
-0.2948247790 -0.1651654691 0.5889309645 4292639543
-0.2948938012 -0.1645496190 0.5890688300 4292574266
-0.2949625552 -0.1639333516 0.5892062187 4292640059
-0.2950311005 -0.1633166373 0.5893431306 4292640059
-0.2946648300 -0.1624598950 0.5886114240 4292574266
-0.2947328091 -0.1618432403 0.5887472630 4292705336
-0.2948005795 -0.1612261534 0.5888826251 4292705336
-0.2944332063 -0.1603717655 0.5881487727 4292706114
-0.2945004106 -0.1597547531 0.5882830620 4292508735
-0.2945674062 -0.1591373086 0.5884168148 4292771647
-0.2946341336 -0.1585194468 0.5885501504 4292969026
-0.2947006524 -0.1579011679 0.5886830688 4292836411
-0.2952023745 -0.1575147957 0.5896852016 4292573239
-0.2952685058 -0.1568947732 0.5898173451 4292835639
-0.2953344584 -0.1562743336 0.5899490714 4292835639
-0.2954001427 -0.1556534618 0.5900803208 4292967225
-0.2959013879 -0.1552608609 0.5910815597 4292901432
-0.2959667146 -0.1546382457 0.5912120938 4292901432
-0.2960318029 -0.1540152431 0.5913420916 4293033018
-0.2960966527 -0.1533918083 0.5914716721 4292836411
-0.2961612940 -0.1527679861 0.5916007161 4292639032
-0.2962256670 -0.1521437466 0.5917293429 4292178227
-0.2962898314 -0.1515190899 0.5918574929 4291586090
-0.2967902124 -0.1511162668 0.5928570032 4289941517
-0.2968539596 -0.1504898965 0.5929844379 4289217794
-0.2969174981 -0.1498631090 0.5931113362 4289611011
-0.2969807982 -0.1492359340 0.5932377577 4290926871
-0.2970438600 -0.1486083418 0.5933637023 4292307754
-0.2971066833 -0.1479803622 0.5934892297 4292570926
-0.2971692383 -0.1473519802 0.5936142206 4292505904
-0.2972315848 -0.1467232108 0.5937387347 4292966455
-0.2972936928 -0.1460940391 0.5938627720 4293361987
-0.2977928221 -0.1456783861 0.5948598385 4293361987
-0.2982919216 -0.1452604979 0.5958567858 4293034566
-0.2992284000 -0.1450524330 0.5977274776 4293166152
-0.3006025553 -0.1450513899 0.6004724503 4292838990
-0.3019770384 -0.1450444013 0.6032180190 4292904783
-0.3037894964 -0.1452407241 0.6068385839 4293498977
-0.3056024611 -0.1454292238 0.6104600430 4294617458
-0.3074158728 -0.1456098855 0.6140824556 4293701522
-0.3096677065 -0.1459892094 0.6185806990 4293833108
-0.3114821017 -0.1461532712 0.6222050190 4293310882
-0.3128587604 -0.1461048573 0.6249549985 4293837226
-0.3137974441 -0.1458467543 0.6268300414 4293379767
-0.3147361875 -0.1455845386 0.6287052631 4293971904
-0.3077955246 -0.2262180895 0.6162080169 4292862959
-0.3078861237 -0.2255998105 0.6163893938 4292468201
-0.3079765141 -0.2249810100 0.6165703535 4292139236
-0.3080667257 -0.2243616432 0.6167509556 4291547098
-0.3077316880 -0.2234331369 0.6160802245 4291020754
-0.3078213930 -0.2228135467 0.6162597537 4290691528
-0.3079108894 -0.2221934199 0.6164389253 4289902012
-0.3075747788 -0.2212667167 0.6157660484 4289440431
-0.3076637387 -0.2206463665 0.6159441471 4288650915
-0.3073268533 -0.2197211534 0.6152697206 4287861138
-0.3069895208 -0.2187971175 0.6145943999 4287532173
-0.3066517413 -0.2178742737 0.6139181852 4287532173
-0.3058875203 -0.2166508734 0.6123881340 4287532173
-0.3055487275 -0.2157312781 0.6117098927 4288387484
-0.3047832251 -0.2145128548 0.6101773381 4289505965
-0.3040170372 -0.2132973522 0.6086434722 4290820026
-0.3032501936 -0.2120847851 0.6071081758 4291543749
-0.3024826348 -0.2108751386 0.6055715680 4292726483
-0.3017144203 -0.2096684575 0.6040335894 4293515999
-0.3009454906 -0.2084646970 0.6024942398 4294042084
-0.3001759052 -0.2072639018 0.6009534597 4294371049
-0.2998327613 -0.2063600272 0.6002665162 4294170845
-0.2994891703 -0.2054573745 0.5995786190 4292394434
-0.2995724678 -0.2048481703 0.5997453928 4290680209
-0.2992281318 -0.2039471120 0.5990560055 4288574833
-0.2984557450 -0.2027567923 0.5975096822 4288570448
-0.2985380888 -0.2021486908 0.5976746082 4288833620
-0.2981924415 -0.2012513280 0.5969825387 4289816647
-0.2978463173 -0.2003552169 0.5962896347 4289816647
-0.2974997759 -0.1994603574 0.5955958962 4290077238
-0.2971528172 -0.1985667497 0.5949012041 4289879859
-0.2963770926 -0.1973891407 0.5933482647 4290140972
-0.2960291207 -0.1964989156 0.5926516056 4290140972
-0.2961092591 -0.1958934367 0.5928120017 4290206506
-0.2961891592 -0.1952874810 0.5929719806 4290206506
-0.2962688804 -0.1946810186 0.5931315422 4290206504
-0.2959195077 -0.1937932074 0.5924321413 4290074918
-0.2955696881 -0.1929066777 0.5917318463 4290336287
-0.2956485748 -0.1923005134 0.5918897390 4290402080
-0.2957272232 -0.1916938722 0.5920472145 4290139937
-0.2958056629 -0.1910867393 0.5922042727 4290139937
-0.2954544723 -0.1902026683 0.5915011168 4290205989
-0.2955323756 -0.1895954609 0.5916571617 4290140196
-0.2956101000 -0.1889877617 0.5918127298 4289943334
-0.2956876159 -0.1883796006 0.5919678807 4290009127
-0.2957648933 -0.1877709478 0.5921226144 4289877543
-0.2954119742 -0.1868897825 0.5914160609 4289943336
-0.2954887450 -0.1862810701 0.5915697217 4289812261
-0.2955652773 -0.1856718808 0.5917230248 4289746468
-0.2956416309 -0.1850622147 0.5918758512 4289877541
-0.2952873111 -0.1841835976 0.5911664963 4290009127
-0.2953630984 -0.1835738868 0.5913182497 4290139943
-0.2954387069 -0.1829636991 0.5914695859 4290205736
-0.2946525216 -0.1818214059 0.5898956656 4290533664
-0.2947274745 -0.1812120676 0.5900456905 4290336285
-0.2943711877 -0.1803382337 0.5893324614 4290008349
-0.2944456041 -0.1797288656 0.5894814134 4290139935
-0.2940886021 -0.1788567752 0.5887666345 4290272032
-0.2941624522 -0.1782473773 0.5889145136 4290403618
-0.2938046753 -0.1773770452 0.5881982446 4290534945
-0.2943095565 -0.1770271957 0.5892090201 4290666531
-0.2939511240 -0.1761577427 0.5884914398 4290863396
-0.2940240204 -0.1755474210 0.5886374116 4290929189
-0.2940967083 -0.1749366373 0.5887829065 4291126568
-0.2937372029 -0.1740694046 0.5880631804 4291323947
-0.2938093543 -0.1734586209 0.5882076025 4291520812
-0.2938812673 -0.1728473753 0.5883516073 4291718191
-0.2935206890 -0.1719824076 0.5876296759 4291980848
-0.2935920656 -0.1713711619 0.5877726078 4291980848
-0.2940957248 -0.1710109711 0.5887808800 4292176947
-0.2941667438 -0.1703979522 0.5889231563 4292242740
-0.2942375839 -0.1697844863 0.5890648961 4292374325
-0.2943081856 -0.1691705734 0.5892062783 4292637497
-0.2943785489 -0.1685562134 0.5893471837 4292769335
-0.2944487035 -0.1679414213 0.5894876122 4292900921
-0.2945186496 -0.1673261821 0.5896276236 4293032248
-0.2941551208 -0.1664653569 0.5888998508 4292834869
-0.2942245007 -0.1658501476 0.5890387893 4292966968
-0.2942936718 -0.1652345210 0.5891771913 4292966968
-0.2943626046 -0.1646184474 0.5893152356 4292705082
-0.2939976752 -0.1637604088 0.5885846615 4292705082
-0.2940660715 -0.1631443948 0.5887215734 4292640059
-0.2937003970 -0.1622882187 0.5879894495 4292640059
-0.2937682271 -0.1616722494 0.5881252289 4292574777
-0.2938358188 -0.1610558629 0.5882605910 4292640570
-0.2939032018 -0.1604390293 0.5883954763 4292706111
-0.2935360968 -0.1595857143 0.5876605511 4292837697
-0.2936029136 -0.1589689553 0.5877943635 4292903231
-0.2936695218 -0.1583517790 0.5879276395 4292705852
-0.2941704094 -0.1579675227 0.5889304280 4292902202
-0.2942366302 -0.1573486030 0.5890629888 4293033788
-0.2938679159 -0.1564977467 0.5883248448 4293295419
-0.2939335704 -0.1558789015 0.5884563327 4293098040
-0.2944339216 -0.1554893106 0.5894579887 4293163831
-0.2944992185 -0.1548687220 0.5895887613 4293163831
-0.2945643067 -0.1542477310 0.5897189975 4292835894
-0.2946291268 -0.1536263078 0.5898488164 4292835894
-0.2946937382 -0.1530044973 0.5899781585 4292770615
-0.2947581112 -0.1523822695 0.5901070237 4292836408
-0.2948222458 -0.1517596245 0.5902354121 4292836922
-0.2948861420 -0.1511365771 0.5903633833 4292573750
-0.2953854799 -0.1507354528 0.5913630128 4292638515
-0.2954490185 -0.1501106918 0.5914902091 4292112171
-0.2955122888 -0.1494855136 0.5916169286 4291189273
-0.2955753505 -0.1488599330 0.5917431116 4289741827
-0.2956381440 -0.1482339650 0.5918688774 4289478400
-0.2957007289 -0.1476075947 0.5919941664 4290662672
-0.2953268290 -0.1467640400 0.5912455916 4291912997
-0.2953888476 -0.1461377889 0.5913697481 4292834099
-0.2958870232 -0.1457260996 0.5923671126 4293361474
-0.2963851392 -0.1453121454 0.5933643579 4293295681
-0.2968831956 -0.1448959559 0.5943614244 4293033796
-0.2973811924 -0.1444775313 0.5953584313 4293165382
-0.2987526655 -0.1444793046 0.5981041789 4292773197
-0.3001244366 -0.1444751173 0.6008504629 4293102162
-0.3019334674 -0.1446743309 0.6044721007 4293960041
-0.3037429452 -0.1448657215 0.6080946922 4294946936
-0.3051157594 -0.1448417753 0.6108430624 4293637533
-0.3073632717 -0.1452250034 0.6153426170 4293966498
-0.3091741204 -0.1453928798 0.6189678907 4293509809
-0.3105480075 -0.1453482062 0.6217184663 4293838774
-0.3119221628 -0.1452975273 0.6244695187 4293577407
-0.3128590286 -0.1450380236 0.6263450980 4294366923
-0.3064768612 -0.2250676453 0.6149353385 4292731373
-0.3065669239 -0.2244503498 0.6151160598 4292336615
-0.3062326312 -0.2235229164 0.6144453287 4291810271
-0.3063221872 -0.2229053825 0.6146250367 4291415513
-0.3064115345 -0.2222873122 0.6148042679 4290888390
-0.3060761690 -0.2213616818 0.6141313910 4290427839
-0.3061650097 -0.2207433879 0.6143096685 4289769396
-0.3058288991 -0.2198192477 0.6136352420 4289177259
-0.3054923117 -0.2188962847 0.6129599214 4288716708
-0.3055803180 -0.2182781100 0.6131364703 4288058778
-0.3052429855 -0.2173566520 0.6124596596 4287532175
-0.3044799566 -0.2161345333 0.6109286547 4287400589
-0.3041416109 -0.2152163386 0.6102497578 4288123796
-0.3033773601 -0.2139991969 0.6087163091 4288650140
-0.3030380011 -0.2130842656 0.6080354452 4289439143
-0.3022724688 -0.2118721157 0.6064994335 4290162866
-0.3019321263 -0.2109604478 0.6058165431 4291214782
-0.3007394075 -0.2094566375 0.6034233570 4292201677
-0.2999718487 -0.2082533091 0.6018832326 4292991193
-0.2996298075 -0.2073478848 0.6011970043 4293649123
-0.2992873490 -0.2064436972 0.6005098820 4294042859
-0.2993709147 -0.2058339268 0.6006774902 4293911273
-0.2990276814 -0.2049313188 0.5999888182 4293449945
-0.2982573211 -0.2037384659 0.5984431505 4291607741
-0.2979131043 -0.2028391808 0.5977525115 4290024330
-0.2975684702 -0.2019411474 0.5970609784 4288182126
-0.2972233593 -0.2010443360 0.5963685513 4288833616
-0.2973049879 -0.2004367709 0.5965323448 4288965202
-0.2969591618 -0.1995415837 0.5958384275 4290076731
-0.2966128588 -0.1986476481 0.5951436162 4290010938
-0.2962661386 -0.1977549791 0.5944479108 4290533933
-0.2954913676 -0.1965790689 0.5928933620 4290599726
-0.2955714166 -0.1959733814 0.5930539370 4290337065
-0.2956512272 -0.1953672171 0.5932140946 4290205479
-0.2957308590 -0.1947605610 0.5933738947 4290010667
-0.2953822017 -0.1938724220 0.5926743150 4289615909
-0.2950330973 -0.1929855794 0.5919738412 4290139684
-0.2951118946 -0.1923792064 0.5921319127 4290139684
-0.2951904535 -0.1917723566 0.5922895670 4290139676
-0.2952688336 -0.1911650151 0.5924468637 4290073883
-0.2949183285 -0.1902806312 0.5917435884 4289745953
-0.2949961722 -0.1896732002 0.5918997526 4289614367
-0.2946449220 -0.1887905002 0.5911949873 4289745187
-0.2947222292 -0.1881830096 0.5913501382 4289876773
-0.2947993279 -0.1875750273 0.5915048122 4290532385
-0.2948762476 -0.1869665831 0.5916591287 4290663971
-0.2949529290 -0.1863576621 0.5918129683 4290139676
-0.2945999503 -0.1854778826 0.5911047459 4289876504
-0.2946760952 -0.1848689020 0.5912575722 4289680926
-0.2947520316 -0.1842594445 0.5914099216 4289746719
-0.2943979800 -0.1833818108 0.5906995535 4289746717
-0.2944734097 -0.1827722937 0.5908508301 4289812510
-0.2936885953 -0.1816304624 0.5892761350 4290074144
-0.2937633693 -0.1810218096 0.5894261599 4290008351
-0.2938379049 -0.1804126799 0.5895757079 4290008349
-0.2939122319 -0.1798031032 0.5897248983 4290008349
-0.2935559154 -0.1789306849 0.5890099406 4290139422
-0.2936297357 -0.1783210784 0.5891579986 4290139422
-0.2937033176 -0.1777109951 0.5893056393 4290139676
-0.2933459282 -0.1768407822 0.5885885954 4290139676
-0.2934189737 -0.1762306988 0.5887351036 4290467871
-0.2934917808 -0.1756201535 0.5888812542 4290533664
-0.2935644090 -0.1750091463 0.5890269279 4290599455
-0.2932056189 -0.1741416007 0.5883070230 4290796834
-0.2932776809 -0.1735305935 0.5884516239 4290928163
-0.2933495343 -0.1729191244 0.5885958076 4291059749
-0.2929896414 -0.1720538288 0.5878737569 4291191335
-0.2930609584 -0.1714423746 0.5880168080 4291454507
-0.2931320369 -0.1708304733 0.5881594419 4291848484
-0.2932029068 -0.1702181250 0.5883016586 4291848484
-0.2932735682 -0.1696053445 0.5884433985 4291980072
-0.2933439910 -0.1689921170 0.5885847211 4292111658
-0.2934142053 -0.1683784425 0.5887255669 4292243502
-0.2934841812 -0.1677643359 0.5888659954 4292440881
-0.2935539484 -0.1671497822 0.5890059471 4292376117
-0.2936234772 -0.1665347964 0.5891454816 4292441910
-0.2936927974 -0.1659193635 0.5892845988 4292507703
-0.2933292389 -0.1650600582 0.5885550976 4292639289
-0.2933980227 -0.1644446701 0.5886930823 4292770618
-0.2934665382 -0.1638288498 0.5888305902 4292836411
-0.2931019068 -0.1629718691 0.5880990028 4293033018
-0.2931699157 -0.1623561084 0.5882354379 4293033018
-0.2928045094 -0.1615010053 0.5875023007 4292967480
-0.2928719521 -0.1608852893 0.5876376033 4292901687
-0.2929391563 -0.1602691561 0.5877724290 4292639543
-0.2925727069 -0.1594164222 0.5870371461 4292639543
-0.2926393449 -0.1588003486 0.5871708989 4292770875
-0.2931394279 -0.1584182084 0.5881742239 4292836668
-0.2927719951 -0.1575669497 0.5874369740 4292836157
-0.2932717800 -0.1571821421 0.5884398222 4292836157
-0.2933376133 -0.1565634757 0.5885719061 4292836409
-0.2934032381 -0.1559444070 0.5887035728 4292836409
-0.2930344641 -0.1550951451 0.5879637003 4292902201
-0.2935337424 -0.1547050029 0.5889654756 4292902201
-0.2935986519 -0.1540846974 0.5890957117 4292835892
-0.2936633527 -0.1534639597 0.5892254710 4292835892
-0.2937277853 -0.1528428197 0.5893547535 4292835894
-0.2937920094 -0.1522212774 0.5894836187 4292770101
-0.2938559651 -0.1515993327 0.5896120071 4292835894
-0.2939197123 -0.1509769708 0.5897399187 4292835894
-0.2939832211 -0.1503542066 0.5898673534 4292639032
-0.2940465212 -0.1497310549 0.5899943113 4292902204
-0.2941095531 -0.1491074860 0.5901207924 4292770867
-0.2941723466 -0.1484835148 0.5902467966 4292507695
-0.2942349315 -0.1478591561 0.5903723240 4291453467
-0.2942972481 -0.1472343802 0.5904973745 4290006021
-0.2943593264 -0.1466092318 0.5906219482 4290005002
-0.2939856648 -0.1457677186 0.5898721814 4290728725
-0.2944827974 -0.1453577280 0.5908697248 4291783469
-0.2945441902 -0.1447313875 0.5909928679 4292309813
-0.2950411141 -0.1443178207 0.5919899344 4292902204
-0.2959738970 -0.1441142708 0.5938615203 4293494341
-0.2969067991 -0.1439066082 0.5957333446 4293166411
-0.2978398204 -0.1436948478 0.5976054072 4293495376
-0.2996452749 -0.1438978910 0.6012279987 4294289271
-0.3014511764 -0.1440931112 0.6048515439 4294948743
-0.3032575548 -0.1442804933 0.6084759831 4293244590
-0.3046279550 -0.1442533731 0.6112256050 4293573555
-0.3064351678 -0.1444260031 0.6148517132 4293773242
-0.3082427979 -0.1445907950 0.6184786558 4293575863
-0.3096142113 -0.1445438564 0.6212303042 4293185219
-0.3105490804 -0.1442879885 0.6231061220 4294632665
-0.3050700128 -0.2245348841 0.6134797335 4292862959
-0.3051597476 -0.2239190936 0.6136601567 4292533994
-0.3031324148 -0.2217542082 0.6095833182 4292139236
-0.3049151003 -0.2223770320 0.6131681800 4291810271
-0.3050041199 -0.2217604816 0.6133471727 4291414735
-0.3050929308 -0.2211433947 0.6135258079 4290954184
-0.3047576845 -0.2202194631 0.6128516197 4290230461
-0.3048459888 -0.2196021527 0.6130292416 4289769910
-0.3045099676 -0.2186797410 0.6123535037 4289440431
-0.3045977652 -0.2180622220 0.6125300527 4288848294
-0.3046853542 -0.2174441665 0.6127061844 4288255898
-0.3043482602 -0.2165235877 0.6120283008 4287861140
-0.3040107489 -0.2156042010 0.6113495827 4287926163
-0.3036727607 -0.2146860212 0.6106699109 4287991956
-0.3029095232 -0.2134696245 0.6091350913 4288452761
-0.3025705516 -0.2125547081 0.6084533930 4289308070
-0.3018060625 -0.2113433331 0.6069160700 4290360243
-0.3014660776 -0.2104316950 0.6062324047 4291281345
-0.3007003367 -0.2092253268 0.6046925187 4292070861
-0.2999339402 -0.2080219239 0.6031513214 4292728791
-0.2995924056 -0.2071156651 0.6024644971 4293453029
-0.2992504239 -0.2062106431 0.6017768383 4293716201
-0.2989080250 -0.2053068280 0.6010882854 4294176237
-0.2985651791 -0.2044042647 0.6003988385 4293913065
-0.2982218862 -0.2035029233 0.5997084975 4293187537
