VERSION 0.7
FIELDS x y z rgba
SIZE 4 4 4 4
TYPE F F F U
COUNT 1 1 1 1
WIDTH 920
HEIGHT 1
VIEWPOINT 0.0 0.0 0.0 1.0 0.0 0.0 0.0
POINTS 920
DATA ascii
-0.2721499205 -0.1257037669 0.5879906416 4292137944
-0.2722010911 -0.1250739843 0.5881012082 4291940565
-0.2726645470 -0.1246324033 0.5891025662 4291874772
-0.2727153301 -0.1240009591 0.5892122984 4291940565
-0.2727659047 -0.1233691648 0.5893214941 4291808979
-0.2724034786 -0.1225513369 0.5885384679 4291874772
-0.2724534571 -0.1219198033 0.5886464715 4291940565
-0.2725032270 -0.1212879196 0.5887539983 4291874515
-0.2729656994 -0.1208385006 0.5897531509 4291611343
-0.2730150223 -0.1202049702 0.5898597836 4291348171
-0.2726510465 -0.1193902045 0.5890733600 4291150792
-0.2731130123 -0.1189368814 0.5900714397 4291279555
-0.2731616199 -0.1183023304 0.5901764631 4290687418
-0.2732099891 -0.1176674366 0.5902810097 4289898413
-0.2728447318 -0.1168551520 0.5894918442 4289043104
-0.2728925645 -0.1162205487 0.5895951390 4288121739
-0.2729401290 -0.1155856103 0.5896979570 4286871672
-0.2729874551 -0.1149503440 0.5898001790 4286015071
-0.2734482288 -0.1144879535 0.5907956958 4285291348
-0.2734951377 -0.1138510630 0.5908970833 4285157706
-0.2735418081 -0.1132138520 0.5909978747 4284631362
-0.2735882401 -0.1125763133 0.5910981894 4284825655
-0.2736344039 -0.1119384468 0.5911979079 4284365104
-0.2736803293 -0.1113002598 0.5912971497 4284887337
-0.2737260163 -0.1106617525 0.5913958549 4285018923
-0.2737714350 -0.1100229323 0.5914940238 4285542438
-0.2734023631 -0.1092183068 0.5906966329 4285674024
-0.2734472454 -0.1085798144 0.5907935500 4287119134
-0.2734918594 -0.1079410091 0.5908899307 4287579685
-0.2735362351 -0.1073018909 0.5909858346 4288237095
-0.2731658220 -0.1065008566 0.5901855826 4288434474
-0.2727950513 -0.1057014465 0.5893844962 4288696098
-0.2724238932 -0.1049036756 0.5885825753 4288827684
-0.2724670470 -0.1042662412 0.5886758566 4289352228
-0.2720952034 -0.1034707725 0.5878724456 4289286435
-0.2717229724 -0.1026769429 0.5870682001 4289943336
-0.2713503540 -0.1018847600 0.5862631798 4290140715
-0.2709773481 -0.1010942310 0.5854572654 4290271783
-0.2710190117 -0.1004591882 0.5855473280 4290205990
-0.2710604370 -0.0998238549 0.5856367946 4290271783
-0.2711015940 -0.0991882309 0.5857257247 4290271783
-0.2707272768 -0.0984013975 0.5849170089 4290271270
-0.2703526020 -0.0976162255 0.5841074586 4290271270
-0.2699775398 -0.0968327150 0.5832971334 4289944878
-0.2696020901 -0.0960508734 0.5824859738 4289944878
-0.2692262828 -0.0952707008 0.5816740394 4290533679
-0.2688501179 -0.0944922045 0.5808612704 4290599472
-0.2688891590 -0.0938604549 0.5809456706 4290730544
-0.2685122788 -0.0930843353 0.5801314116 4290664751
-0.2681350410 -0.0923098996 0.5793163776 4290534444
-0.2677574456 -0.0915371478 0.5785005689 4290600237
-0.2673794925 -0.0907660872 0.5776839256 4290402856
-0.2670011520 -0.0899967104 0.5768665075 4290205477
-0.2670383751 -0.0893682390 0.5769469738 4289878821
-0.2670753598 -0.0887394994 0.5770269036 4289878821
-0.2666960657 -0.0879732519 0.5762073398 4289747495
-0.2667324841 -0.0873449743 0.5762860775 4289813288
-0.2663524747 -0.0865811631 0.5754650831 4290402604
-0.2663883567 -0.0859533548 0.5755425692 4290336811
-0.2664239705 -0.0853252932 0.5756195188 4290271531
-0.2664593458 -0.0846969783 0.5756959319 4290337324
-0.2660780549 -0.0839370638 0.5748721957 4290337322
-0.2661128938 -0.0833092332 0.5749474168 4290337322
-0.2661474347 -0.0826811641 0.5750220418 4290337576
-0.2657651901 -0.0819244385 0.5741961598 4290337576
-0.2657991946 -0.0812968612 0.5742696524 4290337576
-0.2654162645 -0.0805426091 0.5734423399 4290337576
-0.2654497027 -0.0799155384 0.5735145807 4290469162
-0.2654828727 -0.0792882368 0.5735862851 4290534955
-0.2655158341 -0.0786606967 0.5736574531 4290534954
-0.2655484974 -0.0780329257 0.5737280250 4290534954
-0.2655809224 -0.0774049237 0.5737981200 4290666538
-0.2651961148 -0.0766561627 0.5729666948 4290798124
-0.2652280033 -0.0760286897 0.5730355382 4290732333
-0.2652595937 -0.0754009932 0.5731038451 4290666540
-0.2648738325 -0.0746555030 0.5722703934 4290864436
-0.2649048865 -0.0740283504 0.5723375082 4290798643
-0.2649357021 -0.0734009743 0.5724040270 4290667567
-0.2649662495 -0.0727733821 0.5724700093 4290799153
-0.2645792067 -0.0720319599 0.5716338158 4290931256
-0.2650265694 -0.0715175495 0.5726003647 4290997049
-0.2650563419 -0.0708893165 0.5726646781 4291128888
-0.2650858462 -0.0702608675 0.5727284551 4291392060
-0.2651151121 -0.0696322098 0.5727916956 4291457600
-0.2647265792 -0.0688946843 0.5719522238 4291326014
-0.2647552788 -0.0682666004 0.5720142722 4288248160
-0.2647837400 -0.0676383227 0.5720757246 4287853402
-0.2648119330 -0.0670098364 0.5721366405 4285954430
-0.2648398578 -0.0663811564 0.5721969604 4286151809
-0.2648675442 -0.0657522753 0.5722568035 4286349188
-0.2653127611 -0.0652259141 0.5732187033 4286349188
-0.2653399706 -0.0645956546 0.5732775331 4286415494
-0.2653669119 -0.0639651939 0.5733357072 4286547080
-0.2645577192 -0.0631350651 0.5715874434 4286875532
-0.2645840645 -0.0625062138 0.5716443062 4286941325
-0.2641921341 -0.0617794245 0.5707975030 4286612873
-0.2642179132 -0.0611511953 0.5708532333 4286349701
-0.2642434537 -0.0605227835 0.5709083676 4286087299
-0.2642686963 -0.0598941930 0.5709629655 4285824127
-0.2642937303 -0.0592654198 0.5710170269 4285626494
-0.2643184662 -0.0586364679 0.5710704923 4285626494
-0.2651794851 -0.0581909083 0.5729307532 4285757566
-0.2652038038 -0.0575596169 0.5729832649 4285625980
-0.2652278543 -0.0569281541 0.5730352402 4285297529
-0.2652516365 -0.0562965199 0.5730866194 4285100150
-0.2661119699 -0.0558403134 0.5749454498 4284968564
-0.2665537596 -0.0552931502 0.5758999586 4284836978
-0.2669953704 -0.0547438301 0.5768540502 4284113772
-0.2678552866 -0.0542771555 0.5787119865 4284113772
-0.2695522308 -0.0539739504 0.5823782086 4284376429
-0.2704119682 -0.0534969755 0.5842357874 4285034359
-0.2716902494 -0.0530976653 0.5869975090 4285363322
-0.2729684412 -0.0526922047 0.5897590518 4286087045
-0.2738278508 -0.0522007756 0.5916159153 4287666331
-0.2751058936 -0.0517840125 0.5943771005 4292271841
-0.2708354890 -0.1247458383 0.5865582824 4292861667
-0.2708862126 -0.1241173819 0.5866681933 4292598495
-0.2713484764 -0.1236762404 0.5876693130 4292269530
-0.2713988125 -0.1230461150 0.5877783298 4292137944
-0.2714489102 -0.1224156469 0.5878868103 4292072152
-0.2710867822 -0.1216000244 0.5871025324 4292072152
-0.2715483904 -0.1211536601 0.5881022811 4292072152
-0.2715977728 -0.1205221489 0.5882092118 4292072152
-0.2716469169 -0.1198902950 0.5883156061 4292006359
-0.2716957927 -0.1192580983 0.5884215236 4292006359
-0.2717444599 -0.1186255589 0.5885269046 4292267990
-0.2717928886 -0.1179926842 0.5886317492 4291939025
-0.2718410492 -0.1173594669 0.5887361169 4291610060
-0.2714764178 -0.1165487915 0.5879463553 4291281095
-0.2715240121 -0.1159158722 0.5880494714 4290820796
-0.2719841301 -0.1154578179 0.5890459418 4290097073
-0.2720313370 -0.1148232743 0.5891481638 4289372319
-0.2720782757 -0.1141883954 0.5892498493 4288517010
-0.2721250057 -0.1135531887 0.5893510580 4287725437
-0.2721714675 -0.1129176542 0.5894516706 4286738542
-0.2722176909 -0.1122817993 0.5895518064 4286144350
-0.2726768255 -0.1118150353 0.5905461311 4285486420
-0.2727226317 -0.1111775711 0.5906453133 4285418058
-0.2727681696 -0.1105397791 0.5907440186 4284760128
-0.2728134990 -0.1099016741 0.5908421278 4284626485
-0.2728585601 -0.1092632487 0.5909397006 4284560692
-0.2729033530 -0.1086245105 0.5910367966 4285017884
-0.2729479373 -0.1079854593 0.5911332965 4285346849
-0.2725786269 -0.1071834490 0.5903334618 4286397730
-0.2726226151 -0.1065447405 0.5904287696 4286858281
-0.2722526193 -0.1057450175 0.5896274447 4287513633
-0.2718822360 -0.1049469337 0.5888252854 4287711012
-0.2715114653 -0.1041504815 0.5880222917 4288695328
-0.2715542614 -0.1035134643 0.5881149769 4289024293
-0.2711828053 -0.1027193218 0.5873104930 4289943336
-0.2712250352 -0.1020826772 0.5874019861 4290074922
-0.2708528936 -0.1012908593 0.5865960121 4290009640
-0.2708945870 -0.1006545946 0.5866862535 4290075433
-0.2709360123 -0.1000180393 0.5867760181 4289944363
-0.2705628574 -0.0992292315 0.5859678388 4289746984
-0.2701893151 -0.0984420851 0.5851588845 4289681706
-0.2702298760 -0.0978066102 0.5852466822 4290010671
-0.2698556483 -0.0970218107 0.5844362378 4289879851
-0.2694810629 -0.0962386876 0.5836249590 4289879851
-0.2691060901 -0.0954572260 0.5828128457 4290534703
-0.2687307298 -0.0946774408 0.5819999576 4290534703
-0.2683550119 -0.0938993320 0.5811862946 4290468399
-0.2679789364 -0.0931229070 0.5803717971 4290402606
-0.2680173814 -0.0924913362 0.5804550052 4290533933
-0.2676406205 -0.0917172953 0.5796390772 4290533933
-0.2672634721 -0.0909449458 0.5788223147 4290730281
-0.2668859959 -0.0901742876 0.5780047178 4290664488
-0.2673383653 -0.0896838382 0.5789844394 4290402855
-0.2669602633 -0.0889146104 0.5781655908 4290402855
-0.2665817738 -0.0881470814 0.5773458481 4289944614
-0.2666182220 -0.0875175670 0.5774248242 4289878821
-0.2662390471 -0.0867524669 0.5766036510 4290140711
-0.2662749588 -0.0861234218 0.5766813755 4290140711
-0.2658951283 -0.0853607506 0.5758587718 4290205990
-0.2659304440 -0.0847321898 0.5759353042 4290337576
-0.2659655213 -0.0841033757 0.5760112405 4290337575
-0.2655847371 -0.0833438858 0.5751865506 4290337575
-0.2656192482 -0.0827155635 0.5752612948 4290403368
-0.2656535208 -0.0820869952 0.5753355026 4290337575
-0.2652717233 -0.0813307017 0.5745086670 4290271782
-0.2653054297 -0.0807026401 0.5745816827 4290271782
-0.2657547891 -0.0801998377 0.5755548477 4290337575
-0.2649561465 -0.0793212652 0.5738252401 4290403368
-0.2654050291 -0.0788170099 0.5747973919 4290403366
-0.2650216818 -0.0780654475 0.5739671588 4290337573
-0.2650540769 -0.0774371922 0.5740373135 4290337827
-0.2650862038 -0.0768087059 0.5741068721 4290403620
-0.2647019029 -0.0760603994 0.5732745528 4290469159
-0.2647334635 -0.0754324496 0.5733429193 4290534952
-0.2647647858 -0.0748042762 0.5734108090 4290798127
-0.2647958696 -0.0741758794 0.5734780431 4290732334
-0.2644102871 -0.0734316185 0.5726429820 4290469931
-0.2644407749 -0.0728037730 0.5727090836 4290469931
-0.2644710541 -0.0721757039 0.5727745891 4290535471
-0.2640845180 -0.0714347512 0.5719374418 4290535471
-0.2645307779 -0.0709189326 0.5729039907 4290798126
-0.2645602822 -0.0702902302 0.5729678273 4290995505
-0.2645894885 -0.0696613193 0.5730311275 4291061299
-0.2646184862 -0.0690321997 0.5730938911 4290798127
-0.2642304301 -0.0682951510 0.5722534657 4287193932
-0.2642588317 -0.0676666126 0.5723150373 4286404416
-0.2642869949 -0.0670378730 0.5723760128 4284308578
-0.2638980150 -0.0663041919 0.5715335608 4284571750
-0.2639256120 -0.0656760409 0.5715933442 4284638570
-0.2639529407 -0.0650477037 0.5716525316 4284835949
-0.2643970549 -0.0645209327 0.5726143718 4284968048
-0.2644239366 -0.0638912097 0.5726726055 4284968048
-0.2644505501 -0.0632612929 0.5727302432 4285164914
-0.2640597522 -0.0625324026 0.5718838573 4285164914
-0.2636686265 -0.0618053153 0.5710367560 4284836462
-0.2636943758 -0.0611768290 0.5710925460 4284573290
-0.2637198567 -0.0605481602 0.5711477399 4284573290
-0.2637450993 -0.0599193051 0.5712023973 4284639083
-0.2641874552 -0.0593840890 0.5721604228 4284376427
-0.2646296024 -0.0588467009 0.5731179714 4284442220
-0.2646541297 -0.0582153238 0.5731711388 4284573292
-0.2646784186 -0.0575837716 0.5732237101 4284507499
-0.2651199400 -0.0570418797 0.5741799474 4284376427
-0.2651437521 -0.0564089864 0.5742315054 4284310634
-0.2655848563 -0.0558637604 0.5751868486 4284244841
-0.2660258114 -0.0553163700 0.5761417747 4284179048
-0.2673018575 -0.0549385063 0.5789054036 4283719014
-0.2677424848 -0.0543848015 0.5798596740 4284047979
-0.2690183818 -0.0539966300 0.5826229453 4284310636
-0.2702942193 -0.0536023043 0.5853860378 4284968566
-0.2715699971 -0.0532018319 0.5881490707 4285626494
-0.2724278867 -0.0527143516 0.5900070071 4286284424
-0.2741213441 -0.0523824245 0.5936746001 4288191905
-0.2758148313 -0.0520423464 0.5973422527 4292600036
-0.2704953253 -0.1222797409 0.5872341394 4292664289
-0.2701338828 -0.1214647666 0.5864495039 4292466910
-0.2701832950 -0.1208352745 0.5865567327 4292269531
-0.2706437707 -0.1203884035 0.5875564218 4292203738
-0.2706927955 -0.1197572649 0.5876628160 4292072152
-0.2707415521 -0.1191257909 0.5877687335 4291940566
-0.2707901001 -0.1184939668 0.5878740549 4292071894
-0.2708383799 -0.1178618148 0.5879788995 4291874515
-0.2704747319 -0.1170511544 0.5871894360 4291808722
-0.2705224752 -0.1164192855 0.5872930884 4291677136
-0.2705699503 -0.1157870889 0.5873961449 4291807952
-0.2710290849 -0.1153298244 0.5883929729 4291807952
-0.2710761726 -0.1146959960 0.5884951353 4291412935
-0.2711229920 -0.1140618399 0.5885968208 4290820798
-0.2711696029 -0.1134273559 0.5886979699 4290556341
-0.2712159455 -0.1127925441 0.5887985826 4289701032
-0.2712620497 -0.1121574044 0.5888986588 4288647317
-0.2713078856 -0.1115219444 0.5889981985 4287792008
-0.2717658877 -0.1110546812 0.5899925232 4287001979
-0.2718113363 -0.1104176193 0.5900911093 4285883498
-0.2718565166 -0.1097802296 0.5901892185 4285027675
-0.2719014585 -0.1091425270 0.5902867913 4284435538
-0.2719461620 -0.1085045114 0.5903838277 4285025352
-0.2719905972 -0.1078661755 0.5904803276 4284367422
-0.2716220021 -0.1070648208 0.5896800756 4284234286
-0.2716658711 -0.1064268351 0.5897753835 4284168493
-0.2712965906 -0.1056277677 0.5889736414 4285019424
-0.2713398933 -0.1049901396 0.5890676975 4285282596
-0.2709698975 -0.1041933745 0.5882644653 4286726176
-0.2710126638 -0.1035561040 0.5883572698 4287252520
-0.2706419826 -0.1027616486 0.5875525475 4288827432
-0.2710974216 -0.1022806689 0.5885412693 4288959018
-0.2707261145 -0.1014875695 0.5877351761 4289418021
-0.2707678080 -0.1008500829 0.5878257155 4289615400
-0.2703958154 -0.1000593007 0.5870180726 4290139943
-0.2700234354 -0.0992701873 0.5862096548 4290074150
-0.2700642347 -0.0986337736 0.5862982869 4290139686
-0.2696911693 -0.0978469998 0.5854883790 4290402858
-0.2693177462 -0.0970618948 0.5846776366 4289748263
-0.2689439058 -0.0962784514 0.5838661194 4289748263
-0.2685697377 -0.0954966843 0.5830537677 4290206506
-0.2681951821 -0.0947165862 0.5822405815 4290206506
-0.2682341933 -0.0940833613 0.5823252797 4290009386
-0.2678589523 -0.0933056399 0.5815106630 4290075179
-0.2674833238 -0.0925296098 0.5806952119 4290272047
-0.2671073377 -0.0917552635 0.5798789859 4290337840
-0.2667309940 -0.0909826010 0.5790619254 4290598956
-0.2667685151 -0.0903519318 0.5791434050 4290664749
-0.2668057978 -0.0897209942 0.5792243481 4290468651
-0.2668428123 -0.0890897959 0.5793046951 4290402858
-0.2664651573 -0.0883209705 0.5784848332 4290141224
-0.2660871744 -0.0875538588 0.5776641965 4290075431
-0.2661233246 -0.0869238377 0.5777426958 4290140966
-0.2657446265 -0.0861591473 0.5769206285 4290140966
-0.2657802403 -0.0855296031 0.5769978762 4290271783
-0.2654008865 -0.0847673565 0.5761743188 4290337576
-0.2654359341 -0.0841382891 0.5762503743 4290271782
-0.2650558949 -0.0833784938 0.5754253864 4290271782
-0.2650903761 -0.0827499181 0.5755002499 4290337575
-0.2651246190 -0.0821210966 0.5755745769 4290337575
-0.2647436261 -0.0813645050 0.5747474432 4290337575
-0.2647773027 -0.0807361826 0.5748205185 4290337575
-0.2652257681 -0.0802331865 0.5757941604 4290403366
-0.2652589977 -0.0796034038 0.5758662820 4290337573
-0.2648767829 -0.0788497999 0.5750365257 4290337573
-0.2649094462 -0.0782205388 0.5751073956 4290271780
-0.2645265758 -0.0774694234 0.5742762089 4290271523
-0.2645586729 -0.0768406838 0.5743458867 4290403109
-0.2645905018 -0.0762117207 0.5744150281 4290534695
-0.2642066777 -0.0754638687 0.5735817552 4290600488
-0.2642379701 -0.0748354420 0.5736497045 4290731821
-0.2642689943 -0.0742067844 0.5737170577 4290731821
-0.2642997801 -0.0735779181 0.5737838745 4290469929
-0.2639146745 -0.0728341267 0.5729478598 4290338343
-0.2643605769 -0.0723195150 0.5739158392 4290534444
-0.2639748752 -0.0715772733 0.5730785131 4290468651
-0.2640045881 -0.0709485263 0.5731430054 4290534184
-0.2640340328 -0.0703195632 0.5732069612 4290534184
-0.2636473775 -0.0695806444 0.5723675489 4290796587
-0.2636762857 -0.0689522624 0.5724302530 4290401829
-0.2637049258 -0.0683236718 0.5724924207 4286534972
-0.2637332976 -0.0676948801 0.5725540519 4285613870
-0.2633453906 -0.0669600964 0.5717119575 4283321682
-0.2633732259 -0.0663318932 0.5717723370 4283453268
-0.2629846632 -0.0655996948 0.5709288120 4283323223
-0.2630119324 -0.0649720877 0.5709880590 4283520602
-0.2630389631 -0.0643442869 0.5710467100 4283981153
-0.2634819746 -0.0638171136 0.5720084310 4283915360
-0.2635084987 -0.0631879345 0.5720660686 4283980640
-0.2631184459 -0.0624597371 0.5712192655 4284046433
-0.2631444335 -0.0618311763 0.5712757111 4283849567
-0.2627537549 -0.0611055940 0.5704275370 4283586395
-0.2631956339 -0.0605735034 0.5713868141 4283586395
-0.2632208467 -0.0599443950 0.5714415312 4283849567
-0.2636623383 -0.0594089553 0.5723999739 4283849569
-0.2641036212 -0.0588713475 0.5733580589 4283849569
-0.2641281486 -0.0582397133 0.5734112263 4283915362
-0.2645690441 -0.0576987639 0.5743684173 4284046948
-0.2645930648 -0.0570657812 0.5744205713 4283981669
-0.2650335431 -0.0565214977 0.5753768682 4284113255
-0.2654738426 -0.0559750497 0.5763327479 4284179048
-0.2659139633 -0.0554264411 0.5772882104 4284179048
-0.2667707205 -0.0549615435 0.5791481733 4284047979
-0.2672104836 -0.0544076115 0.5801029205 4284442737
-0.2680669725 -0.0539354011 0.5819622874 4284771187
-0.2689233124 -0.0534590296 0.5838213563 4285297531
-0.2697795331 -0.0529785044 0.5856801867 4285955459
-0.2710526288 -0.0525747091 0.5884440541 4286284424
-0.2719086111 -0.0520848744 0.5903023481 4288981421
-0.2693291008 -0.1194419563 0.5861155391 4292664289
-0.2693776488 -0.1188121587 0.5862212181 4292401117
-0.2694259882 -0.1181820184 0.5863264203 4292532441
-0.2694740593 -0.1175515428 0.5864310265 4292335062
-0.2695218921 -0.1169207320 0.5865351558 4292137685
-0.2699804306 -0.1164668500 0.5875329971 4292006099
-0.2700278759 -0.1158344075 0.5876362324 4292136915
-0.2696639895 -0.1150262877 0.5868443251 4292202708
-0.2697108686 -0.1143941432 0.5869463682 4292333267
-0.2697575092 -0.1137616709 0.5870478749 4292135888
-0.2702151835 -0.1133013219 0.5880438685 4291937994
-0.2702614069 -0.1126672328 0.5881444216 4291937994
-0.2703073621 -0.1120328158 0.5882444978 4291345857
-0.2703531086 -0.1113980785 0.5883439779 4290687927
-0.2703985870 -0.1107630208 0.5884429812 4289898926
-0.2708554566 -0.1102952659 0.5894372463 4288912031
-0.2704888284 -0.1094919443 0.5886393785 4287531405
-0.2705335617 -0.1088559255 0.5887367725 4286412924
-0.2705780864 -0.1082196012 0.5888336301 4286671472
-0.2706223428 -0.1075829566 0.5889299512 4286013542
-0.2706663609 -0.1069460064 0.5890256763 4285552474
-0.2707101107 -0.1063087434 0.5891209245 4285091923
-0.2703415155 -0.1055103317 0.5883188248 4284695875
-0.2703847289 -0.1048734263 0.5884128213 4284103738
-0.2708399296 -0.1043951064 0.5894034505 4284430125
-0.2704703808 -0.1035986990 0.5885992646 4284364332
-0.2705128491 -0.1029608846 0.5886916518 4285873957
-0.2701426148 -0.1021667868 0.5878859758 4286334508
-0.2697720230 -0.1013743430 0.5870794654 4287580964
-0.2698135972 -0.1007375792 0.5871699452 4288041515
-0.2698549330 -0.1001005247 0.5872598886 4289222180
-0.2694833279 -0.0993110910 0.5864512324 4289353766
-0.2695240974 -0.0986744240 0.5865399241 4289680926
-0.2691518068 -0.0978873447 0.5857297778 4289549340
-0.2687791586 -0.0971019194 0.5849187970 4289418017
-0.2684061229 -0.0963181704 0.5841069818 4289615396
-0.2680326998 -0.0955360904 0.5832943916 4290140197
-0.2680719793 -0.0949019119 0.5833798647 4290271783
-0.2676979005 -0.0941222087 0.5825657248 4290074918
-0.2673234344 -0.0933441818 0.5817508698 4290140711
-0.2673618495 -0.0927111283 0.5818344355 4289944361
-0.2669866979 -0.0919354931 0.5810180306 4289812775
-0.2670245469 -0.0913028792 0.5811004043 4289877802
-0.2670621574 -0.0906700045 0.5811821818 4289943595
-0.2666860223 -0.0898974761 0.5803636909 4289878572
-0.2663095295 -0.0891266540 0.5795443654 4289944365
-0.2663462460 -0.0884949416 0.5796242952 4290010154
-0.2659690976 -0.0877265334 0.5788034797 4290010154
-0.2655915618 -0.0869598314 0.5779819489 4290402855
-0.2656274140 -0.0863293037 0.5780599713 4290402855
-0.2652492225 -0.0855650380 0.5772369504 4290140713
-0.2652845383 -0.0849349871 0.5773137212 4290140713
-0.2649056613 -0.0841731727 0.5764892697 4290140711
-0.2649404109 -0.0835436061 0.5765648484 4290074918
-0.2645608783 -0.0827842355 0.5757389069 4290206504
-0.2645950615 -0.0821551681 0.5758132935 4290272297
-0.2650431097 -0.0816534311 0.5767884254 4290272297
-0.2646626830 -0.0808962956 0.5759604573 4290338090
-0.2646960914 -0.0802664980 0.5760332346 4290403369
-0.2647292912 -0.0796364620 0.5761054158 4290337576
-0.2643478513 -0.0788825527 0.5752753615 4290271783
-0.2643804848 -0.0782530308 0.5753463507 4290271783
-0.2644128501 -0.0776232854 0.5754168034 4290271782
-0.2640304565 -0.0768726245 0.5745846629 4290403368
-0.2640622556 -0.0762434006 0.5746538639 4290534954
-0.2640938163 -0.0756139532 0.5747225285 4290534954
-0.2637104690 -0.0748665705 0.5738883018 4290600234
-0.2637414634 -0.0742376596 0.5739557743 4290666027
-0.2637722194 -0.0736085325 0.5740226507 4290535722
-0.2642174959 -0.0730939358 0.5749916434 4290469929
-0.2638329268 -0.0723496228 0.5741547942 4290469678
-0.2638629079 -0.0717198476 0.5742200017 4290403885
-0.2634777129 -0.0709780753 0.5733817220 4290469161
-0.2635071278 -0.0703488588 0.5734457374 4290469161
-0.2631212771 -0.0696096420 0.5726060271 4290534184
-0.2631501257 -0.0689810067 0.5726688504 4290205219
-0.2631787360 -0.0683521554 0.5727311373 4286534972
-0.2632070780 -0.0677231029 0.5727928281 4285745456
-0.2628199756 -0.0669880286 0.5719503760 4283584854
-0.2628477812 -0.0663595647 0.5720108747 4283650647
-0.2628753185 -0.0657309070 0.5720708370 4283257432
-0.2633179426 -0.0652048960 0.5730340481 4283257432
-0.2633450031 -0.0645748526 0.5730929375 4283520089
-0.2633717954 -0.0639446154 0.5731512904 4283585882
-0.2629829049 -0.0632143244 0.5723049641 4283651675
-0.2625936568 -0.0624858253 0.5714578629 4283783261
-0.2626196146 -0.0618570074 0.5715143681 4283717981
-0.2626453042 -0.0612280071 0.5715702772 4283586395
-0.2626707554 -0.0605988204 0.5716256499 4283454811
-0.2626959383 -0.0599694513 0.5716804266 4283454811
-0.2631365657 -0.0594337955 0.5726392865 4283652190
-0.2635769844 -0.0588959679 0.5735977888 4283783776
-0.2640172541 -0.0583559684 0.5745558739 4283915362
-0.2640415132 -0.0577229001 0.5746086836 4284112741
-0.2644813657 -0.0571795627 0.5755658746 4284113255
-0.2645051479 -0.0565451533 0.5756176710 4284244841
-0.2649445832 -0.0559984781 0.5765739679 4284376427
-0.2657997906 -0.0555365533 0.5784350634 4284442220
-0.2662388980 -0.0549845584 0.5793906450 4284114029
-0.2670938373 -0.0545153096 0.5812512040 4284574580
-0.2679486573 -0.0540419072 0.5831114650 4285034872
-0.2688033581 -0.0535643436 0.5849714875 4285561216
-0.2692418098 -0.0530007035 0.5859255791 4286021252
-0.2705123723 -0.0525967404 0.5886906385 4286481803
-0.2709504664 -0.0520267859 0.5896440148 4290099902
-0.2685700655 -0.1167901009 0.5858798623 4292796128
-0.2686175406 -0.1161596775 0.5859833956 4292598749
-0.2686647773 -0.1155289188 0.5860864520 4292663261
-0.2687117457 -0.1148978248 0.5861889720 4292334296
-0.2683481872 -0.1140919477 0.5853958130 4292267474
-0.2688050270 -0.1136346534 0.5863924026 4292267474
-0.2688512802 -0.1130025759 0.5864933133 4292661460
-0.2688972950 -0.1123701707 0.5865936875 4292858839
-0.2689430714 -0.1117374450 0.5866935849 4292530385
-0.2689886093 -0.1111043915 0.5867929459 4292135627
-0.2694446445 -0.1106396839 0.5877877474 4291610312
-0.2694897652 -0.1100050285 0.5878861547 4291215554
-0.2695346475 -0.1093700528 0.5879840851 4290558651
-0.2691683471 -0.1085690036 0.5871849656 4289769135
-0.2692126632 -0.1079343706 0.5872816443 4289240992
-0.2692567110 -0.1072994173 0.5873777866 4288188304
-0.2693005502 -0.1066641584 0.5874733925 4287069825
-0.2693441212 -0.1060285866 0.5875684619 4286214516
-0.2693874538 -0.1053927094 0.5876629949 4285556073
-0.2690191865 -0.1045965925 0.5868596435 4285161315
-0.2694733739 -0.1041200384 0.5878503919 4285027926
-0.2695159614 -0.1034832522 0.5879433155 4284369996
-0.2695583105 -0.1028461605 0.5880357027 4284301109
-0.2691887915 -0.1020527184 0.5872296095 4284103730
-0.2692305744 -0.1014160067 0.5873207450 4284954401
-0.2692721188 -0.1007789969 0.5874113441 4285085987
-0.2693133950 -0.1001416892 0.5875014067 4286134296
-0.2689425945 -0.0993519425 0.5866925120 4286660640
-0.2685713768 -0.0985638648 0.5858827233 4287973669
-0.2686117887 -0.0979276374 0.5859708786 4288500013
-0.2682399154 -0.0971419066 0.5851596594 4289287722
-0.2678676546 -0.0963578448 0.5843475461 4289419308
-0.2674950361 -0.0955754519 0.5835347176 4290139943
-0.2675342560 -0.0949410275 0.5836202502 4290139943
-0.2671609521 -0.0941610113 0.5828059316 4290271523
-0.2671996355 -0.0935270041 0.5828902721 4290271523
-0.2668256462 -0.0927493721 0.5820744038 4290075173
-0.2668637335 -0.0921158046 0.5821575522 4290075173
-0.2664890885 -0.0913405642 0.5813402534 4290009127
-0.2665266395 -0.0907074362 0.5814221501 4290009127
-0.2665639222 -0.0900740400 0.5815035105 4289813292
-0.2661882937 -0.0893019214 0.5806840658 4289813292
-0.2658122778 -0.0885315016 0.5798637867 4289879081
-0.2654359043 -0.0877627879 0.5790427327 4289879081
-0.2654720247 -0.0871312916 0.5791215301 4290337316
-0.2650949657 -0.0863650069 0.5782989860 4290271523
-0.2651305497 -0.0857339725 0.5783765912 4290075179
-0.2647528350 -0.0849701315 0.5775526166 4290009386
-0.2647878230 -0.0843395814 0.5776289701 4290009386
-0.2644094527 -0.0835781917 0.5768035650 4290075179
-0.2644439042 -0.0829481259 0.5768787265 4290075179
-0.2640648484 -0.0821891949 0.5760518312 4290140972
-0.2645120323 -0.0816872641 0.5770273805 4290272299
-0.2645457387 -0.0810564682 0.5771008730 4290206506
-0.2641657591 -0.0802997649 0.5762719512 4290206506
-0.2641988993 -0.0796694830 0.5763442516 4290140713
-0.2638182938 -0.0789152682 0.5755139589 4290074920
-0.2638508677 -0.0782854930 0.5755850077 4290074920
-0.2638831735 -0.0776554942 0.5756555200 4290337322
-0.2639152706 -0.0770252571 0.5757254958 4290337322
-0.2635333836 -0.0762750506 0.5748924017 4290403115
-0.2635648847 -0.0756453499 0.5749611855 4290468908
-0.2635961473 -0.0750154257 0.5750293732 4290599722
-0.2632133067 -0.0742685050 0.5741941929 4290599722
-0.2632440031 -0.0736391172 0.5742611289 4290404136
-0.2636884153 -0.0731243119 0.5752305984 4290404136
-0.2637186348 -0.0724935085 0.5752965808 4290338605
-0.2633346021 -0.0717496648 0.5744587779 4290404398
-0.2633642852 -0.0711194202 0.5745235085 4290404395
-0.2629795671 -0.0703781247 0.5736842752 4290338602
-0.2625945210 -0.0696386099 0.5728443265 4290403883
-0.2626233399 -0.0690097138 0.5729072094 4290009125
-0.2626519203 -0.0683806092 0.5729694963 4286404669
-0.2626802325 -0.0677513033 0.5730313063 4285680946
-0.2622939348 -0.0670159236 0.5721885562 4283650647
-0.2627360821 -0.0664920807 0.5731531382 4283716440
-0.2627636492 -0.0658621714 0.5732132792 4283454298
-0.2627909482 -0.0652320683 0.5732728243 4283388505
-0.2628179789 -0.0646017641 0.5733317733 4283388505
-0.2628447413 -0.0639712736 0.5733901858 4283585884
-0.2628712654 -0.0633405820 0.5734480619 4283717470
-0.2624828815 -0.0626107976 0.5726007819 4283783263
-0.2625088394 -0.0619807243 0.5726574063 4283783776
-0.2625345290 -0.0613504685 0.5727134943 4283849569
-0.2625599802 -0.0607200302 0.5727689862 4283717983
-0.2625851929 -0.0600894056 0.5728239417 4283520604
-0.2634398341 -0.0596464686 0.5746883750 4283849569
-0.2634645998 -0.0590134934 0.5747423768 4283915362
-0.2639040351 -0.0584722757 0.5757009983 4284112741
-0.2639282942 -0.0578379482 0.5757539868 4284310120
-0.2643673420 -0.0572933927 0.5767117143 4284376427
-0.2643911242 -0.0566577204 0.5767635703 4284508013
-0.2648297548 -0.0561098270 0.5777204037 4284704878
-0.2652681768 -0.0555597655 0.5786768794 4284704878
-0.2677822411 -0.0554372892 0.5841612816 4284311662
-0.2673900723 -0.0547080040 0.5833057165 4284772213
-0.2682432830 -0.0542324074 0.5851669908 4285298044
-0.2690963447 -0.0537526496 0.5870279670 4285561216
-0.2699493170 -0.0532687306 0.5888886452 4286284937
-0.2703867853 -0.0526997000 0.5898429751 4287798176
-0.2704086900 -0.0520485565 0.5898907185 4291876313
-0.2673510909 -0.1145936698 0.5846372247 4292795362
-0.2673976421 -0.1139639392 0.5847390294 4292465882
-0.2674439549 -0.1133338735 0.5848402977 4292400089
-0.2678996623 -0.1128760800 0.5858368278 4292925404
-0.2679455578 -0.1122444049 0.5859372020 4292728025
-0.2679912150 -0.1116123945 0.5860370398 4292596437
-0.2680366337 -0.1109800711 0.5861363411 4292530644
-0.2680818141 -0.1103474274 0.5862351060 4292202962
-0.2681267262 -0.1097144634 0.5863333344 4292005583
-0.2681713998 -0.1090811789 0.5864310861 4291808718
-0.2682158649 -0.1084475815 0.5865282416 4291742925
-0.2682600617 -0.1078136638 0.5866248608 4292134085
-0.2683039904 -0.1071794406 0.5867210031 4291739327
-0.2683477104 -0.1065449044 0.5868165493 4291081399
-0.2683911622 -0.1059100628 0.5869116187 4290028711
-0.2684343755 -0.1052749082 0.5870060921 4288778903
-0.2684773505 -0.1046394482 0.5871000886 4287857801
-0.2685200572 -0.1040036827 0.5871934891 4286805365
-0.2685625553 -0.1033676192 0.5872863531 4285818470
-0.2681940496 -0.1025741696 0.5864806175 4285028694
-0.2682359815 -0.1019384786 0.5865722299 4284370764
-0.2682776451 -0.1013024896 0.5866633654 4284303940
-0.2683190703 -0.1006662026 0.5867539644 4284172354
-0.2683602273 -0.1000296250 0.5868439674 4283710514
-0.2679901421 -0.0992405415 0.5860346556 4283184170
-0.2680307329 -0.0986043587 0.5861234665 4283644204
-0.2676599622 -0.0978176296 0.5853126049 4284367927
-0.2677000165 -0.0971818417 0.5854002237 4286792992
-0.2673285306 -0.0963974670 0.5845878720 4287187750
-0.2669566870 -0.0956147686 0.5837747455 4288433703
-0.2669958770 -0.0949800909 0.5838603973 4288828461
-0.2666233480 -0.0941997692 0.5830457807 4289681451
-0.2666619718 -0.0935655087 0.5831302404 4289681451
-0.2662887573 -0.0927875713 0.5823141336 4289877543
-0.2667384744 -0.0922961831 0.5832975507 4289877543
-0.2663646340 -0.0915196538 0.5824800730 4290204968
-0.2659904659 -0.0907448232 0.5816618204 4290204968
-0.2660277188 -0.0901111737 0.5817432404 4290009129
-0.2656528652 -0.0893387496 0.5809235573 4290140715
-0.2652776241 -0.0885680243 0.5801029801 4289945127
-0.2649020255 -0.0877990052 0.5792816877 4289945127
-0.2649381161 -0.0871672556 0.5793605447 4290206755
-0.2645618618 -0.0864006653 0.5785377622 4290140962
-0.2645973861 -0.0857693776 0.5786154270 4290140972
-0.2646326423 -0.0851378441 0.5786925554 4290009386
-0.2642554045 -0.0843744278 0.5778676867 4290009386
-0.2642901242 -0.0837433785 0.5779435635 4290075179
-0.2639122307 -0.0829824135 0.5771172047 4290009386
-0.2635339797 -0.0822231770 0.5762900114 4290009386
-0.2639802992 -0.0817210525 0.5772660375 4290141226
-0.2640139461 -0.0810900033 0.5773396492 4290075433
-0.2640473545 -0.0804587156 0.5774126649 4290075433
-0.2636678815 -0.0797024593 0.5765828490 4290141226
-0.2637007236 -0.0790716857 0.5766546726 4290140713
-0.2633205950 -0.0783179179 0.5758233666 4290140713
-0.2633528709 -0.0776876584 0.5758939981 4290206506
-0.2633849084 -0.0770571753 0.5759640336 4290140713
-0.2634166777 -0.0764264539 0.5760335326 4290140711
-0.2634482086 -0.0757955089 0.5761024952 4290272297
-0.2630665004 -0.0750465319 0.5752677917 4290468138
-0.2630974948 -0.0744161233 0.5753355026 4290533931
-0.2635412812 -0.0739013329 0.5763059855 4290338345
-0.2635717988 -0.0732695013 0.5763726830 4290404138
-0.2631888688 -0.0725235939 0.5755353570 4290338351
-0.2632188201 -0.0718923137 0.5756008625 4290338351
-0.2628352642 -0.0711489469 0.5747621059 4290207787
-0.2628646493 -0.0705182329 0.5748263597 4290076201
-0.2624804378 -0.0697774217 0.5739861727 4290404398
-0.2625092864 -0.0691472739 0.5740492344 4289943847
-0.2625378668 -0.0685169250 0.5741117597 4286339134
-0.2621527016 -0.0677794665 0.5732694864 4285615411
-0.2621807456 -0.0671496987 0.5733307600 4283584854
-0.2626220882 -0.0666246563 0.5742959380 4283650647
-0.2626496553 -0.0659934953 0.5743561983 4283388507
-0.2626769543 -0.0653621405 0.5744158626 4283388507
-0.2627039850 -0.0647305846 0.5744750500 4283520091
-0.2627307773 -0.0640988424 0.5745336413 4283783263
-0.2627573013 -0.0634668991 0.5745916367 4283914849
-0.2623697519 -0.0627358183 0.5737441182 4283783263
-0.2623957396 -0.0621044934 0.5738009214 4283717983
-0.2624214590 -0.0614729859 0.5738571882 4283981155
-0.2624469101 -0.0608412921 0.5739128590 4284112228
-0.2624721229 -0.0602094121 0.5739679337 4283914849
-0.2633251250 -0.0597652979 0.5758333206 4284046948
-0.2637639642 -0.0592240393 0.5767929554 4284046948
-0.2637884915 -0.0585886315 0.5768465996 4284178534
-0.2642269135 -0.0580440238 0.5778053403 4284375913
-0.2642509937 -0.0574072674 0.5778579712 4284442220
-0.2646889985 -0.0568593219 0.5788158178 4284639599
-0.2651268542 -0.0563092045 0.5797732472 4284770671
-0.2655644715 -0.0557569228 0.5807303190 4284836464
-0.2664162815 -0.0552884564 0.5825929642 4284640627
-0.2672679424 -0.0548158288 0.5844553709 4285166971
-0.2677050829 -0.0542550497 0.5854113102 4285363837
-0.2685564756 -0.0537750944 0.5872730613 4285561216
-0.2689932287 -0.0532089919 0.5882282257 4287206039
-0.2686008215 -0.0524787568 0.5873700380 4290100931
-0.2666313946 -0.1113164276 0.5844829679 4292795615
-0.2666766047 -0.1106857955 0.5845820904 4292532443
-0.2667216063 -0.1100548431 0.5846806765 4292335064
-0.2667663395 -0.1094235703 0.5847787857 4292269271
-0.2668108344 -0.1087919772 0.5848762989 4292269271
-0.2668550909 -0.1081600785 0.5849732757 4292466650
-0.2668990791 -0.1075278595 0.5850697756 4292465619
-0.2669428587 -0.1068953276 0.5851656795 4292268240
-0.2669863701 -0.1062624902 0.5852611065 4292333263
-0.2670296431 -0.1056293398 0.5853559971 4292070091
-0.2670726776 -0.1049958840 0.5854502916 4291543490
-0.2671154737 -0.1043621227 0.5855441093 4290885560
-0.2671580017 -0.1037280560 0.5856373310 4289832870
-0.2672002912 -0.1030936912 0.5857300758 4288714389
-0.2672423422 -0.1024590284 0.5858222246 4287792776
-0.2672841549 -0.1018240601 0.5859138370 4286411123
-0.2673256993 -0.1011887938 0.5860049725 4285358437
-0.2673670053 -0.1005532369 0.5860955119 4285029472
-0.2674080729 -0.0999173895 0.5861855149 4284831323
-0.2670386732 -0.0991289690 0.5853757858 4284239186
-0.2670791745 -0.0984935090 0.5854645371 4283450438
-0.2667091191 -0.0977074429 0.5846533179 4283055680
-0.2667490542 -0.0970723853 0.5847408772 4284102950
-0.2663782835 -0.0962886810 0.5839281678 4284300329
-0.2664176822 -0.0956540406 0.5840144753 4285087275
-0.2660462558 -0.0948727056 0.5832002759 4285679412
-0.2660850883 -0.0942384750 0.5832853913 4286599225
-0.2661236525 -0.0936039761 0.5833699703 4286993983
-0.2661619782 -0.0929691941 0.5834539533 4287977015
-0.2657892406 -0.0921916515 0.5826368928 4288108601
-0.2658270299 -0.0915573090 0.5827196836 4289155376
-0.2654536068 -0.0907821655 0.5819011927 4289286962
-0.2654908299 -0.0901482701 0.5819827318 4289811756
-0.2651167512 -0.0893755332 0.5811627507 4289943342
-0.2647423148 -0.0886045024 0.5803419352 4289944876
-0.2643675208 -0.0878351778 0.5795203447 4290010669
-0.2644035518 -0.0872031748 0.5795993209 4289944874
-0.2640280724 -0.0864362791 0.5787762403 4289944874
-0.2640635669 -0.0858047456 0.5788540244 4290140972
-0.2640987933 -0.0851729587 0.5789312720 4290075179
-0.2641337812 -0.0845409185 0.5790079236 4290075179
-0.2637570202 -0.0837779343 0.5781820416 4290140972
-0.2637914419 -0.0831463784 0.5782575011 4290075179
-0.2638256252 -0.0825145841 0.5783324242 4290140972
-0.2634479105 -0.0817547962 0.5775043964 4290207019
-0.2634814978 -0.0811235011 0.5775781274 4290207019
-0.2635148764 -0.0804919600 0.5776512623 4290141226
-0.2631361783 -0.0797353983 0.5768211484 4290075433
-0.2631689906 -0.0791043714 0.5768930316 4290075433
-0.2632015347 -0.0784731060 0.5769643784 4290141226
-0.2628219128 -0.0777197927 0.5761321783 4290206504
-0.2628538907 -0.0770890489 0.5762023330 4290140711
-0.2628856301 -0.0764580816 0.5762718916 4290206504
-0.2629171312 -0.0758268833 0.5763409138 4290272297
-0.2629483640 -0.0751954615 0.5764093995 4290337324
-0.2629793584 -0.0745638087 0.5764772892 4290403117
-0.2630100846 -0.0739319399 0.5765447021 4290272809
-0.2630405426 -0.0732998550 0.5766114593 4290338602
-0.2630707622 -0.0726675391 0.5766777396 4290338351
-0.2626883388 -0.0719221085 0.5758394003 4290338351
-0.2627180219 -0.0712903589 0.5759044290 4290338092
-0.2623349428 -0.0705474764 0.5750647187 4290206506
-0.2623640597 -0.0699162930 0.5751284957 4290469680
-0.2619803250 -0.0691759586 0.5742873549 4290009129
-0.2620088756 -0.0685453564 0.5743499398 4286339136
-0.2620371878 -0.0679145455 0.5744119883 4285615413
-0.2616525292 -0.0671775714 0.5735687613 4283651161
-0.2620930076 -0.0666523129 0.5745343566 4283585368
-0.2621205449 -0.0660208985 0.5745946765 4283257178
-0.2621478140 -0.0653892905 0.5746544600 4283257178
-0.2621748149 -0.0647574812 0.5747137070 4283454298
-0.2630273998 -0.0643274412 0.5765826702 4283651677
-0.2622280717 -0.0634932742 0.5748304725 4283783263
-0.2622543275 -0.0628608912 0.5748879910 4283717470
-0.2622803152 -0.0622283146 0.5749449134 4283652190
-0.2623060346 -0.0615955517 0.5750013590 4283783776
-0.2627446353 -0.0610586070 0.5759627819 4283980642
-0.2627698779 -0.0604244769 0.5760180950 4284112228
-0.2632080615 -0.0598841757 0.5769786835 4284112228
-0.2636460662 -0.0593416989 0.5779388547 4284112228
-0.2640838921 -0.0587970465 0.5788986087 4284046948
-0.2636949122 -0.0580681898 0.5780459046 4284244327
-0.2645456493 -0.0576112084 0.5799108148 4284310634
-0.2645694911 -0.0569720194 0.5799630880 4284508013
-0.2654199302 -0.0565087013 0.5818273425 4284836464
-0.2658567727 -0.0559541918 0.5827849507 4284968050
-0.2675339580 -0.0556555800 0.5864614844 4284771700
-0.2667299211 -0.0548386760 0.5846989751 4285298044
-0.2671661973 -0.0542776659 0.5856553316 4285692802
-0.2680158913 -0.0537975170 0.5875179172 4286811283
-0.2684518099 -0.0532311797 0.5884734988 4289705660
-0.2654086053 -0.1091323495 0.5832224488 4292992994
-0.2654528916 -0.1085024551 0.5833197832 4292598236
-0.2654969692 -0.1078722477 0.5834166408 4292466650
-0.2655407786 -0.1072417274 0.5835129023 4292728795
-0.2655843496 -0.1066108942 0.5836086869 4292465623
-0.2660363317 -0.1061427966 0.5846018791 4292596439
-0.2656707764 -0.1053483039 0.5837985873 4292530646
-0.2657136321 -0.1047165468 0.5838927031 4292267472
-0.2657562196 -0.1040844843 0.5839863420 4292267472
-0.2657985985 -0.1034521237 0.5840794444 4291939277
-0.2658407092 -0.1028194577 0.5841719508 4291412933
-0.2658825517 -0.1021864861 0.5842639804 4290425268
-0.2659241855 -0.1015532240 0.5843554139 4290030510
-0.2659655511 -0.1009196639 0.5844463706 4289306017
-0.2660067081 -0.1002858132 0.5845367312 4288121743
-0.2656382620 -0.0994983539 0.5837271214 4286805879
-0.2656788528 -0.0988648832 0.5838162899 4285884777
-0.2657191753 -0.0982311368 0.5839049220 4285029721
-0.2657592595 -0.0975970924 0.5839930177 4284437584
-0.2653895319 -0.0968133584 0.5831805468 4284173644
-0.2654290497 -0.0961797312 0.5832673907 4283844679
-0.2654683292 -0.0955458134 0.5833536983 4283450436
-0.2646878958 -0.0946186781 0.5816387534 4283647815
-0.2655461431 -0.0942771435 0.5835247040 4284043852
-0.2655846775 -0.0936423838 0.5836093426 4284504403
-0.2652130425 -0.0928638279 0.5827926993 4285617994
-0.2652510107 -0.0922295079 0.5828761458 4285749580
-0.2648787200 -0.0914533436 0.5820580125 4288239682
-0.2649161220 -0.0908194631 0.5821402669 4288437061
-0.2649532855 -0.0901853144 0.5822219253 4289550647
-0.2645800114 -0.0894122794 0.5814016461 4289550647
-0.2646166086 -0.0887785777 0.5814821124 4289616176
-0.2642426491 -0.0880079642 0.5806603432 4289484590
-0.2638683319 -0.0872390494 0.5798377991 4289287211
-0.2639040649 -0.0866065398 0.5799162984 4289353004
-0.2639395595 -0.0859737769 0.5799943209 4290074668
-0.2639748156 -0.0853407532 0.5800717473 4290140461
-0.2635992169 -0.0845757425 0.5792464018 4290272047
-0.2640445530 -0.0840739533 0.5802249908 4290403633
-0.2636683285 -0.0833104104 0.5793982744 4290403633
-0.2637025118 -0.0826773793 0.5794734359 4290403633
-0.2633256316 -0.0819163024 0.5786452293 4290338092
-0.2629484236 -0.0811569542 0.5778163075 4290338092
-0.2629817426 -0.0805251598 0.5778895020 4290140713
-0.2626038492 -0.0797683001 0.5770591497 4290009127
-0.2626366019 -0.0791370198 0.5771311522 4290009640
-0.2626691163 -0.0785055012 0.5772025585 4290075433
-0.2627013922 -0.0778737515 0.5772734880 4290009640
-0.2627333999 -0.0772417709 0.5773438215 4290075433
-0.2627651393 -0.0766095594 0.5774136186 4290141224
-0.2627966404 -0.0759771168 0.5774828196 4290141224
-0.2628279030 -0.0753444508 0.5775514841 4290140974
-0.2628588974 -0.0747115612 0.5776196122 4290140974
-0.2628896236 -0.0740784407 0.5776871443 4290076201
-0.2629201114 -0.0734451041 0.5777541399 4290141994
-0.2625388503 -0.0726976022 0.5769162774 4290272301
-0.2625687718 -0.0720648244 0.5769820809 4290272301
-0.2621868551 -0.0713198632 0.5761427879 4290403115
-0.2622162104 -0.0706876516 0.5762073398 4290337322
-0.2618336380 -0.0699452385 0.5753666759 4290403633
-0.2618624568 -0.0693135932 0.5754299760 4289943082
-0.2618910372 -0.0686817393 0.5754927397 4286141759
-0.2615075111 -0.0679426864 0.5746499896 4285418036
-0.2619473934 -0.0674174204 0.5756165981 4283520091
-0.2615632713 -0.0666799471 0.5747725368 4283454298
-0.2615907490 -0.0660482720 0.5748329163 4283060569
-0.2620300055 -0.0655194223 0.5757981539 4283126362
-0.2620570064 -0.0648863614 0.5758575201 4283388505
-0.2624958754 -0.0643541291 0.5768218637 4283520091
-0.2621102929 -0.0636196584 0.5759745836 4283651677
-0.2621365488 -0.0629860163 0.5760322809 4283783263
-0.2621625364 -0.0623521842 0.5760893822 4283849569
-0.2626005411 -0.0618152060 0.5770518780 4283783776
-0.2626260519 -0.0611800067 0.5771079063 4283914849
-0.2630636394 -0.0606396683 0.5780695081 4284243814
-0.2630886734 -0.0600031018 0.5781245232 4284243814
-0.2631134689 -0.0593663566 0.5781790018 4284243814
-0.2635504305 -0.0588214844 0.5791391730 4284244327
-0.2643996775 -0.0583654903 0.5810053945 4284375913
-0.2635987699 -0.0575451069 0.5792453885 4284376427
-0.2644476593 -0.0570847653 0.5811108351 4284639599
-0.2652964294 -0.0566202588 0.5829759240 4285099636
-0.2657324672 -0.0560645238 0.5839341283 4285362808
-0.2661682963 -0.0555066206 0.5848918557 4285165945
-0.2666039467 -0.0549465492 0.5858491659 4285955461
-0.2670393884 -0.0543843135 0.5868059993 4286877076
-0.2670618594 -0.0537368543 0.5868554115 4289245624
-0.2641415000 -0.1075840965 0.5818581581 4292664289
-0.2641851306 -0.1069552749 0.5819543004 4292597466
-0.2646362782 -0.1064902246 0.5829480886 4292334294
-0.2646794915 -0.1058598086 0.5830432773 4292268244
-0.2647224665 -0.1052290872 0.5831379294 4292334037
-0.2647652030 -0.1045980603 0.5832320452 4292268244
-0.2643996477 -0.1038065329 0.5824268460 4292136658
-0.2644418478 -0.1031758711 0.5825197697 4292070863
-0.2644837797 -0.1025449112 0.5826120973 4292005070
-0.2645254433 -0.1019136459 0.5827039480 4292004298
-0.2645668983 -0.1012820825 0.5827952623 4291675333
-0.2646080852 -0.1006502286 0.5828859806 4291280577
-0.2646490633 -0.1000180766 0.5829762220 4290754233
-0.2646897733 -0.0993856341 0.5830658674 4290030508
-0.2647302151 -0.0987529010 0.5831550360 4289175199
-0.2643618286 -0.0979684591 0.5823435187 4288056718
-0.2644017637 -0.0973361284 0.5824314356 4287069823
-0.2644414008 -0.0967035070 0.5825188160 4285689455
-0.2640720308 -0.0959221199 0.5817051530 4284834146
-0.2641111612 -0.0952899083 0.5817913413 4284308316
-0.2645589113 -0.0948039517 0.5827776790 4283979351
-0.2645975947 -0.0941702053 0.5828628540 4283846220
-0.2642269731 -0.0933916196 0.5820465088 4283714634
-0.2642650902 -0.0927582979 0.5821304321 4284500810
-0.2638938427 -0.0919821039 0.5813125968 4284961361
-0.2639313936 -0.0913492218 0.5813953280 4285618521
-0.2639687061 -0.0907160714 0.5814775229 4286605416
-0.2640057802 -0.0900826603 0.5815591812 4287133298
-0.2636332214 -0.0893102959 0.5807384849 4287593849
-0.2636697292 -0.0886773318 0.5808188915 4288052601
-0.2632964849 -0.0879073888 0.5799967647 4287789429
-0.2633324564 -0.0872748867 0.5800759792 4287982955
-0.2633681595 -0.0866421238 0.5801545978 4287193439
-0.2638132572 -0.0861428678 0.5811350942 4288829768
-0.2634387910 -0.0853758380 0.5803102255 4288500803
-0.2634737492 -0.0847423077 0.5803872347 4288957743
-0.2630986273 -0.0839777291 0.5795609355 4289155122
-0.2631330192 -0.0833446905 0.5796366930 4290008106
-0.2627572417 -0.0825825632 0.5788089037 4289942313
-0.2627910972 -0.0819500163 0.5788834691 4289812009
-0.2624146640 -0.0811903700 0.5780541897 4290140974
-0.2620378435 -0.0804324523 0.5772241950 4289748016
-0.2624809742 -0.0799260437 0.5782002807 4289879602
-0.2621035576 -0.0791696236 0.5773689151 4289682734
-0.2621360421 -0.0785378590 0.5774405003 4289551148
-0.2621682584 -0.0779058561 0.5775114298 4289877800
-0.2622002363 -0.0772736222 0.5775818825 4289812007
-0.2622319460 -0.0766411573 0.5776517391 4290073893
-0.2622634172 -0.0760084614 0.5777210593 4290402858
-0.2622946203 -0.0753755420 0.5777897835 4289944110
-0.2623255849 -0.0747423917 0.5778579712 4289944110
-0.2623562813 -0.0741090253 0.5779256225 4289748013
-0.2623867393 -0.0734754354 0.5779926777 4289748013
-0.2620062530 -0.0727276355 0.5771545768 4289944373
-0.2620361447 -0.0720945969 0.5772204399 4289878580
-0.2616550326 -0.0713493377 0.5763809085 4289682221
-0.2616843581 -0.0707168654 0.5764455199 4289748014
-0.2613025904 -0.0699741542 0.5756045580 4289814060
-0.2613313794 -0.0693422556 0.5756679177 4289221923
-0.2617708445 -0.0688181818 0.5766360164 4286139447
-0.2613881528 -0.0680778325 0.5757930279 4285613103
-0.2614161968 -0.0674453154 0.5758547783 4283257430
-0.2610328794 -0.0667075440 0.5750103593 4283191637
-0.2614714503 -0.0661796704 0.5759764910 4283453011
-0.2619098723 -0.0656496137 0.5769422650 4283518804
-0.2619369030 -0.0650152937 0.5770018101 4283454298
-0.2623749077 -0.0644818544 0.5779666901 4283454298
-0.2619901896 -0.0637460873 0.5771192312 4283652190
-0.2620164454 -0.0631111860 0.5771770477 4283717983
-0.2616311014 -0.0623780265 0.5763281584 4283652190
-0.2624796033 -0.0619379133 0.5781973004 4283717983
-0.2625051439 -0.0613014549 0.5782535672 4283849569
-0.2629418969 -0.0607598983 0.5792156458 4284112741
-0.2629669607 -0.0601220764 0.5792708397 4283849569
-0.2629917562 -0.0594840720 0.5793254375 4283981155
-0.2638394833 -0.0590300709 0.5811929107 4283850085
-0.2634522021 -0.0582986176 0.5803397298 4284113257
-0.2642996013 -0.0578392670 0.5822064281 4284310636
-0.2647351921 -0.0572866499 0.5831659436 4284573808
-0.2647588253 -0.0566437691 0.5832180381 4284968566
-0.2651939988 -0.0560878068 0.5841766000 4285494910
-0.2656289637 -0.0555296764 0.5851348042 4285824647
-0.2656518817 -0.0548842847 0.5851852894 4286811542
-0.2660864294 -0.0543228202 0.5861425400 4288916659
-0.2665207982 -0.0537591875 0.5870993137 4291548379
-0.2637323141 -0.1057396829 0.5823816657 4292729824
-0.2637751698 -0.1051096916 0.5824762583 4292466652
-0.2638177872 -0.1044793949 0.5825703740 4292400089
-0.2634529471 -0.1036885306 0.5817647576 4292268503
-0.2634949982 -0.1030585989 0.5818576217 4292268501
-0.2635368109 -0.1024283618 0.5819499493 4292268501
-0.2635783851 -0.1017978340 0.5820418000 4292268755
-0.2636197209 -0.1011670008 0.5821330547 4292137169
-0.2636608183 -0.1005358770 0.5822237730 4292136658
-0.2637016475 -0.0999044552 0.5823139548 4292005072
-0.2633346021 -0.0991193131 0.5815034509 4291807693
-0.2633748949 -0.0984882861 0.5815923810 4291544521
-0.2634149492 -0.0978569686 0.5816808343 4291149761
-0.2634547353 -0.0972253680 0.5817686915 4290689210
-0.2630864084 -0.0964439511 0.5809553266 4289637035
-0.2631256580 -0.0958127603 0.5810419917 4288715933
