VERSION 0.7
FIELDS x y z rgba
SIZE 4 4 4 4
TYPE F F F U
COUNT 1 1 1 1
WIDTH 920
HEIGHT 1
VIEWPOINT 0.0 0.0 0.0 1.0 0.0 0.0 0.0
POINTS 920
DATA ascii
-0.3449553549 -0.1253753453 0.4542497396 4285866789
-0.3450192213 -0.1248937696 0.4543338716 4286262060
-0.3450829089 -0.1244119257 0.4544177055 4285669923
-0.3445553482 -0.1237176135 0.4537230134 4287182903
-0.3446184695 -0.1232360601 0.4538061321 4287182903
-0.3446813524 -0.1227542460 0.4538889229 4286919477
-0.3447439969 -0.1222721711 0.4539714456 4286787891
-0.3448064625 -0.1217898279 0.4540536702 4286722098
-0.3442771435 -0.1210991591 0.4533566535 4286722098
-0.3443390131 -0.1206171215 0.4534381330 4287117110
-0.3444006741 -0.1201348305 0.4535193443 4287643454
-0.3444621265 -0.1196522787 0.4536002576 4288037442
-0.3439313769 -0.1189647093 0.4529013336 4287313719
-0.3439922333 -0.1184824705 0.4529815018 4286787891
-0.3434607387 -0.1177968830 0.4522815645 4287182649
-0.3429287672 -0.1171126962 0.4515810907 4287643200
-0.3429887593 -0.1166313589 0.4516600966 4287314235
-0.3430485427 -0.1161497682 0.4517388046 4287050547
-0.3431080878 -0.1156679317 0.4518171847 4285537308
-0.3431673944 -0.1151858345 0.4518952966 4285472293
-0.3432264626 -0.1147034988 0.4519731104 4285077535
-0.3426924348 -0.1140236333 0.4512698650 4283441196
-0.3421579897 -0.1133451909 0.4505660832 4283178024
-0.3422161639 -0.1128637716 0.4506427050 4282916653
-0.3422741592 -0.1123821139 0.4507190585 4282982446
-0.3423318863 -0.1119002029 0.4507950842 4282259745
-0.3417960107 -0.1112249568 0.4500894248 4282259745
-0.3418532014 -0.1107434034 0.4501647353 4284300618
-0.3413165510 -0.1100701764 0.4494580626 4288642956
-0.3413732052 -0.1095889807 0.4495326579 4289630364
-0.3414295912 -0.1091075391 0.4496069252 4287261816
-0.3408918679 -0.1084369421 0.4488988221 4282197550
-0.3409477174 -0.1079558656 0.4489723742 4281473827
-0.3410033286 -0.1074745581 0.4490455985 4281406755
-0.3410587013 -0.1069930047 0.4491185248 4282722615
-0.3405195773 -0.1063256636 0.4484085739 4284105295
-0.3405744135 -0.1058444902 0.4484807849 4285815913
-0.3406290114 -0.1053630859 0.4485526681 4285222747
-0.3412779272 -0.1050644815 0.4494071901 4282854199
-0.3413321674 -0.1045817733 0.4494785964 4282787379
-0.3413861394 -0.1040988341 0.4495497048 4282524207
-0.3426295817 -0.1039766967 0.4511871040 4283246903
-0.3426833153 -0.1034916192 0.4512578547 4284628556
-0.3427367806 -0.1030063108 0.4513282478 4285943133
-0.3433851302 -0.1026987657 0.4521820545 4285811547
-0.3434382379 -0.1022121608 0.4522519708 4284166722
-0.3434911072 -0.1017253324 0.4523215890 4283508792
-0.3435437381 -0.1012382731 0.4523908794 4282850862
-0.3435961306 -0.1007509977 0.4524598718 4284693066
-0.3436482847 -0.1002634987 0.4525285661 4285812317
-0.3437002003 -0.0997757837 0.4525969326 4285943903
-0.3437518775 -0.0992878377 0.4526649714 4285416789
-0.3438033164 -0.0987996757 0.4527327120 4285877340
-0.3438545167 -0.0983112976 0.4528001249 4284429894
-0.3439054787 -0.0978227034 0.4528672397 4284495687
-0.3445523083 -0.0975025818 0.4537190199 4285679448
-0.3446028829 -0.0970126987 0.4537856281 4284955725
-0.3446532190 -0.0965226069 0.4538519084 4283705660
-0.3447033167 -0.0960323066 0.4539178610 4286468966
-0.3447531760 -0.0955417827 0.4539835155 4289890203
-0.3448027670 -0.0950510502 0.4540488422 4290153375
-0.3454487622 -0.0947237089 0.4548995197 4287061104
-0.3454979956 -0.0942317024 0.4549643099 4283376696
-0.3455469608 -0.0937394872 0.4550288022 4285679197
-0.3461925685 -0.0934081152 0.4558789730 4286666092
-0.3462411463 -0.0929146335 0.4559429288 4283113013
-0.3462894559 -0.0924209505 0.4560065567 4285284182
-0.3463375270 -0.0919270515 0.4560698569 4286271075
-0.3469825983 -0.0915905982 0.4569193125 4283639355
-0.3470302522 -0.0910954401 0.4569820762 4283178034
-0.3470776975 -0.0906000808 0.4570445418 4283243827
-0.3471248746 -0.0901045203 0.4571066499 4283243827
-0.3471718132 -0.0896087587 0.4571684599 4282454311
-0.3478161097 -0.0892661661 0.4580169320 4282061863
-0.3478626311 -0.0887691528 0.4580781758 4286601580
-0.3479089141 -0.0882719383 0.4581391215 4290550443
-0.3485527933 -0.0879253373 0.4589870274 4288181895
-0.3485986590 -0.0874268711 0.4590474069 4287917440
-0.3486442566 -0.0869282037 0.4591074586 4289825437
-0.3492877185 -0.0865775943 0.4599547982 4289230990
-0.3493328989 -0.0860776901 0.4600142837 4286138719
-0.3499760926 -0.0857241228 0.4608612657 4284426561
-0.3500208557 -0.0852229744 0.4609202147 4283439666
-0.3506637812 -0.0848664567 0.4617668092 4283963953
-0.3507081270 -0.0843640640 0.4618252218 4284029746
-0.3507522047 -0.0838614851 0.4618832469 4283963953
-0.3513946533 -0.0835009664 0.4627292752 4284095539
-0.3514383137 -0.0829971507 0.4627867639 4284161332
-0.3514817059 -0.0824931487 0.4628439248 4284161332
-0.3515248597 -0.0819889531 0.4629007280 4284292918
-0.3521666825 -0.0816233978 0.4637458920 4284095539
-0.3528083861 -0.0812559351 0.4645909071 4283898160
-0.3534499705 -0.0808865726 0.4654358029 4284029746
-0.3534923196 -0.0803790614 0.4654915631 4284490038
-0.3541336060 -0.0800067559 0.4663360417 4284490038
-0.3553740978 -0.0797670558 0.4679695368 4284095280
-0.3554158807 -0.0792564228 0.4680245519 4283766315
-0.3560568094 -0.0788784102 0.4688685834 4283897901
-0.3560981452 -0.0783665553 0.4689230025 4284424245
-0.3567388058 -0.0779855996 0.4697666168 4285476931
-0.3567796648 -0.0774725303 0.4698204696 4285147966
-0.3574199975 -0.0770886317 0.4706636667 4285279552
-0.3574604392 -0.0765743554 0.4707168937 4285937482
-0.3581004441 -0.0761875212 0.4715596735 4286200654
-0.3581404090 -0.0756720304 0.4716123343 4285937482
-0.3587800860 -0.0752822533 0.4724546671 4285147966
-0.3594196439 -0.0748905838 0.4732968509 4284292657
-0.3600590527 -0.0744970143 0.4741388559 4284095280
-0.3612985015 -0.0742248446 0.4757710099 4284095280
-0.3619377315 -0.0738266110 0.4766127467 4284292659
-0.3625767827 -0.0734264851 0.4774543047 4284226866
-0.3632157147 -0.0730244517 0.4782956839 4284161330
-0.3644549549 -0.0727403611 0.4799275398 4284819260
-0.3644931614 -0.0722147077 0.4799778759 4285411397
-0.3651316762 -0.0718069822 0.4808186889 4285345604
-0.3657700419 -0.0713973716 0.4816592932 4284556858
-0.3670089245 -0.0711022243 0.4832907021 4284622651
-0.3658448756 -0.0703414381 0.4817578495 4284232256
-0.3412351608 -0.1447045803 0.4500090480 4282394159
-0.3383805454 -0.1429982334 0.4462444484 4282196780
-0.3431366980 -0.1445053816 0.4525167346 4282327337
-0.3461376131 -0.1452619880 0.4564742148 4282919474
-0.3444530964 -0.1440503448 0.4542527497 4284103491
-0.3486269116 -0.1452850103 0.4597570300 4283379768
-0.3504580557 -0.1455346048 0.4621718526 4282523946
-0.3522897065 -0.1457790434 0.4645873904 4281997602
-0.3529492915 -0.1455348283 0.4654572308 4282391331
-0.3530224860 -0.1450477391 0.4655537307 4283115054
-0.3525089025 -0.1443202198 0.4648764729 4283705908
-0.3531682193 -0.1440726668 0.4657459259 4283508529
-0.3526539803 -0.1433461756 0.4650677741 4283574064
-0.3521392941 -0.1426209956 0.4643890262 4283639857
-0.3516241610 -0.1418971270 0.4637096822 4284362035
-0.3511085510 -0.1411745995 0.4630297124 4285283137
-0.3500052392 -0.1402181387 0.4615747035 4288701803
-0.3506633639 -0.1399679929 0.4624426067 4288241252
-0.3501465023 -0.1392486393 0.4617610276 4288305755
-0.3496292233 -0.1385306269 0.4610788226 4288503134
-0.3496991992 -0.1380459517 0.4611711204 4288106833
-0.3491811156 -0.1373298019 0.4604878724 4286988352
-0.3492505252 -0.1368453652 0.4605794251 4287315777
-0.3493197262 -0.1363606453 0.4606707096 4289421153
-0.3488005400 -0.1356468946 0.4599860013 4288499281
-0.3488691747 -0.1351624131 0.4600765407 4287907144
-0.3489376307 -0.1346776485 0.4601667821 4287446593
-0.3484172821 -0.1339663118 0.4594805837 4287051835
-0.3484851718 -0.1334818006 0.4595701098 4286258978
-0.3485528529 -0.1329970062 0.4596593380 4285995806
-0.3480314016 -0.1322880834 0.4589716792 4285864220
-0.3480985165 -0.1318035424 0.4590601921 4285864220
-0.3481653929 -0.1313187182 0.4591484070 4285733147
-0.3476428390 -0.1306122392 0.4584592581 4287049007
-0.3477091789 -0.1301276833 0.4585467577 4288102981
-0.3471858203 -0.1294231266 0.4578565955 4288234567
-0.3460724950 -0.1285010129 0.4563883543 4287708993
-0.3455481529 -0.1278000027 0.4556968510 4286524719
-0.3456131518 -0.1273176372 0.4557825923 4287512127
-0.3456779420 -0.1268350035 0.4558680058 4286788404
-0.3451524973 -0.1261364818 0.4551750720 4285538850
-0.3452167213 -0.1256541163 0.4552597702 4284749334
-0.3446905017 -0.1249575317 0.4545658231 4284881434
-0.3447541595 -0.1244754642 0.4546497762 4285605157
-0.3448176086 -0.1239931285 0.4547334611 4286920249
-0.3448808491 -0.1235105321 0.4548168480 4287380800
-0.3449438512 -0.1230276674 0.4548999369 4286920249
-0.3444158435 -0.1223347038 0.4542036355 4286328112
-0.3444783092 -0.1218521371 0.4542859793 4286262319
-0.3445405364 -0.1213693172 0.4543680549 4286196526
-0.3440114260 -0.1206788793 0.4536702931 4286327853
-0.3440731168 -0.1201963574 0.4537516236 4286656818
-0.3441345394 -0.1197135821 0.4538326561 4285472544
-0.3441957533 -0.1192305461 0.4539133906 4285143579
-0.3436652422 -0.1185432225 0.4532137513 4285143838
-0.3437258899 -0.1180604994 0.4532937407 4285735975
-0.3431946337 -0.1173751578 0.4525931180 4286656820
-0.3426629007 -0.1166912243 0.4518918991 4286064683
-0.3427226841 -0.1162094027 0.4519707263 4286196267
-0.3427822292 -0.1157273352 0.4520492554 4285340958
-0.3428415358 -0.1152450219 0.4521274865 4285407013
-0.3429006338 -0.1147624478 0.4522054195 4284880669
-0.3429594934 -0.1142796278 0.4522830546 4283245100
-0.3424257040 -0.1136000231 0.4515790939 4282981928
-0.3424839973 -0.1131175458 0.4516559839 4282654764
-0.3425420821 -0.1126348227 0.4517325759 4282260006
-0.3420071900 -0.1119578183 0.4510271847 4282063393
-0.3420647085 -0.1114754379 0.4511030316 4284102976
-0.3415290713 -0.1108004525 0.4503966570 4288315018
-0.3415860534 -0.1103184298 0.4504717886 4289433499
-0.3410496414 -0.1096454710 0.4497644007 4287460222
-0.3411060572 -0.1091638058 0.4498387873 4283117884
-0.3411622345 -0.1086818948 0.4499128461 4281342756
-0.3412181735 -0.1081997529 0.4499866366 4281605928
-0.3412738740 -0.1077173725 0.4500600994 4282328115
-0.3407357633 -0.1070482582 0.4493504465 4285946730
-0.3407908976 -0.1065662429 0.4494231641 4288251280
-0.3408458233 -0.1060839966 0.4494956136 4285356388
-0.3409005404 -0.1056015193 0.4495677352 4287197566
-0.3409549892 -0.1051188037 0.4496395588 4284171088
-0.3416033089 -0.1048181579 0.4504945576 4281933099
-0.3416574001 -0.1043341458 0.4505658746 4283446338
-0.3417112529 -0.1038499027 0.4506368935 4286208617
-0.3417648673 -0.1033654287 0.4507076144 4287590270
-0.3418182731 -0.1028807312 0.4507780373 4287194999
-0.3424659669 -0.1025738791 0.4516322017 4288050308
-0.3425189853 -0.1020878851 0.4517021179 4284694863
-0.3425717652 -0.1016016677 0.4517717063 4281273627
-0.3426243067 -0.1011152193 0.4518409967 4285287000
-0.3426766098 -0.1006285548 0.4519099891 4288510857
-0.3427286744 -0.1001416594 0.4519786537 4288116612
-0.3427805007 -0.0996545479 0.4520469904 4288182405
-0.3428321183 -0.0991672203 0.4521150291 4289299605
-0.3434787393 -0.0988509879 0.4529677927 4288378503
-0.3435299397 -0.0983623639 0.4530353248 4284563280
-0.3441763818 -0.0980431587 0.4538878202 4286866035
-0.3442271948 -0.0975532532 0.4539548457 4288378504
-0.3442777693 -0.0970631391 0.4540215433 4285812577
-0.3449238241 -0.0967398882 0.4548735321 4285548892
-0.3443782032 -0.0960822627 0.4541539848 4290088609
-0.3444280624 -0.0955915004 0.4542197287 4290482340
-0.3444776833 -0.0951005220 0.4542851746 4287455862
-0.3451231122 -0.0947730243 0.4551363587 4284363591
-0.3451723456 -0.0942807794 0.4552012682 4283639868
-0.3452213109 -0.0937883258 0.4552658498 4286666092
-0.3458663821 -0.0934567899 0.4561165273 4284560716
-0.3459149301 -0.0929630622 0.4561805725 4285415768
-0.3459632695 -0.0924691334 0.4562443197 4287389558
-0.3466079235 -0.0921335742 0.4570944607 4284493896
-0.3466558456 -0.0916383788 0.4571576715 4283441208
-0.3467035294 -0.0911429748 0.4572205245 4283375413
-0.3467509747 -0.0906473696 0.4572830796 4283243827
-0.3467981517 -0.0901515633 0.4573453069 4282850352
-0.3468450904 -0.0896555558 0.4574072361 4282652973
-0.3474888504 -0.0893127993 0.4582561851 4284036166
-0.3475353718 -0.0888155326 0.4583175480 4289825950
-0.3475816548 -0.0883180723 0.4583785832 4289300633
-0.3476276696 -0.0878204107 0.4584392905 4283642435
-0.3476734757 -0.0873225480 0.4584996700 4286075235
-0.3483164608 -0.0869736746 0.4593476057 4286601579
-0.3483618200 -0.0864745677 0.4594074488 4283638840
-0.3496021628 -0.0862702057 0.4610431492 4282980910
-0.3496471643 -0.0857689977 0.4611025155 4283242800
-0.3496919572 -0.0852675959 0.4611615539 4283637558
-0.3503343165 -0.0849109069 0.4620086849 4284030516
-0.3503786325 -0.0844082609 0.4620671570 4283767344
-0.3504227400 -0.0839054286 0.4621253014 4283700781
-0.3510646224 -0.0835447311 0.4629718065 4283832367
-0.3511082828 -0.0830406621 0.4630293846 4284095539
-0.3511517048 -0.0825364068 0.4630866349 4284161332
-0.3511948586 -0.0820319653 0.4631435275 4284161332
-0.3518361151 -0.0816662237 0.4639891982 4284095539
-0.3524772525 -0.0812985748 0.4648347199 4283898160
-0.3531183004 -0.0809290260 0.4656800926 4284095539
-0.3537592292 -0.0805575773 0.4665253460 4284555577
-0.3544000387 -0.0801842213 0.4673704207 4284555577
-0.3550407290 -0.0798089579 0.4682153463 4284226612
-0.3550825119 -0.0792980716 0.4682704508 4283831854
-0.3557229042 -0.0789198652 0.4691149890 4283831854
-0.3563631773 -0.0785397515 0.4699593484 4284358198
-0.3564043343 -0.0780266002 0.4700136185 4285542724
-0.3570442796 -0.0776435509 0.4708575606 4285082173
-0.3570849895 -0.0771291852 0.4709112346 4285279552
-0.3577246368 -0.0767431930 0.4717547894 4285937482
-0.3577648699 -0.0762276128 0.4718078375 4286200654
-0.3584041893 -0.0758386850 0.4726509750 4285871689
-0.3584439754 -0.0753218904 0.4727034271 4285147968
-0.3590829670 -0.0749300271 0.4735461175 4284161073
-0.3597218394 -0.0745362565 0.4743885994 4284095280
-0.3603605628 -0.0741405860 0.4752309322 4284095280
-0.3621984720 -0.0739880130 0.4776547253 4284292659
-0.3628370464 -0.0735868141 0.4784968793 4284292659
-0.3634755015 -0.0731837153 0.4793388247 4284292659
-0.3641138077 -0.0727787167 0.4801805913 4284819003
-0.3647519648 -0.0723718256 0.4810221791 4285345604
-0.3647899926 -0.0718448609 0.4810723364 4285279811
-0.3654277921 -0.0714350417 0.4819134474 4284621881
-0.3660654426 -0.0710233152 0.4827543497 4284753467
-0.3481447399 -0.1463186294 0.4597946405 4282853681
-0.3464624286 -0.1451031864 0.4575727880 4283708733
-0.3506327868 -0.1463352740 0.4630805850 4283379768
-0.3489497900 -0.1451208442 0.4608578682 4282852141
-0.3531219661 -0.1463377774 0.4663680196 4282325797
-0.3520240188 -0.1453662217 0.4649179876 4282522147
-0.3532688022 -0.1453618705 0.4665619731 4283114284
-0.3527559340 -0.1446332037 0.4658846259 4283705908
-0.3528287113 -0.1441452950 0.4659807384 4283508529
-0.3523150384 -0.1434184611 0.4653023183 4283443249
-0.3518009186 -0.1426929533 0.4646233320 4283574835
-0.3524592519 -0.1424427778 0.4654927850 4284297017
-0.3507713079 -0.1412458867 0.4632635117 4284889154
-0.3502558172 -0.1405243576 0.4625827074 4288702831
-0.3497398794 -0.1398041546 0.4619013071 4288834417
-0.3498103917 -0.1393190324 0.4619944692 4289162093
-0.3492936790 -0.1386006922 0.4613120258 4288635749
-0.3499508202 -0.1383479238 0.4621798992 4288700000
-0.3494334221 -0.1376306266 0.4614965916 4287055175
-0.3489155769 -0.1369146705 0.4608126581 4286395704
-0.3489847779 -0.1364297271 0.4609040618 4289093217
-0.3490537703 -0.1359445006 0.4609951675 4288763225
-0.3485347927 -0.1352309436 0.4603097737 4288960604
-0.3486032486 -0.1347459555 0.4604001641 4289223776
-0.3480834663 -0.1340342760 0.4597137272 4288697432
-0.3481513560 -0.1335495412 0.4598033726 4286522663
-0.3482190371 -0.1330645233 0.4598927498 4285930526
-0.3471098244 -0.1321313232 0.4584278166 4285667354
-0.3471768498 -0.1316473931 0.4585162997 4285601561
-0.3472436070 -0.1311631650 0.4586045146 4285733404
-0.3473101854 -0.1306786686 0.4586924016 4287772987
-0.3467877507 -0.1299732178 0.4580024183 4288564556
-0.3462648690 -0.1292691380 0.4573118687 4288761935
-0.3463305235 -0.1287854612 0.4573985934 4288302154
-0.3458068669 -0.1280833036 0.4567070007 4287249466
-0.3452827632 -0.1273825169 0.4560148120 4288829014
-0.3453475535 -0.1268996447 0.4561003745 4287578947
-0.3448226750 -0.1262007952 0.4554071724 4286526772
-0.3448868990 -0.1257182211 0.4554919899 4286395186
-0.3443612456 -0.1250212938 0.4547977746 4285869869
-0.3444249332 -0.1245390028 0.4548818767 4286659385
-0.3444883823 -0.1240564436 0.4549656510 4287447622
-0.3445515931 -0.1235736236 0.4550491869 4288631896
-0.3446146250 -0.1230905354 0.4551323950 4288566874
-0.3446773887 -0.1226071864 0.4552153051 4288237909
-0.3441496491 -0.1219144538 0.4545182884 4288501080
-0.3442118764 -0.1214314029 0.4546004832 4288435287
-0.3442738652 -0.1209480911 0.4546823800 4288040013
-0.3437450230 -0.1202578917 0.4539839327 4287842634
-0.3438064754 -0.1197748929 0.4540650845 4285999917
-0.3438676894 -0.1192916259 0.4541459084 4285802538
-0.3433377445 -0.1186039746 0.4534460306 4285605672
-0.3433983922 -0.1181210279 0.4535261393 4285868844
-0.3428677022 -0.1174353510 0.4528252184 4287184191
-0.3429277837 -0.1169527322 0.4529046118 4286592054
-0.3423963189 -0.1162690446 0.4522026777 4286723638
-0.3424558640 -0.1157867536 0.4522813261 4285802536
-0.3425152004 -0.1153042018 0.4523596764 4285670185
-0.3425742984 -0.1148214117 0.4524377286 4284946462
-0.3426331580 -0.1143383607 0.4525154829 4283179564
-0.3420999348 -0.1136584282 0.4518112540 4283179564
-0.3421582282 -0.1131757200 0.4518882632 4282852913
-0.3422163129 -0.1126927659 0.4519649744 4282194983
-0.3416820168 -0.1120154336 0.4512592852 4283248693
-0.3417395353 -0.1115328223 0.4513352513 4287919996
-0.3412044644 -0.1108575165 0.4506286085 4289697184
-0.3412614167 -0.1103752553 0.4507038295 4288644496
-0.3407256007 -0.1097019762 0.4499961734 4283381572
-0.3407820165 -0.1092200801 0.4500706494 4281341989
-0.3408381939 -0.1087379381 0.4501448572 4281869357
-0.3408941329 -0.1082555652 0.4502187371 4282658873
-0.3409498632 -0.1077729538 0.4502923489 4286473074
-0.3410053551 -0.1072901040 0.4503656328 4289039001
-0.3404674530 -0.1066212654 0.4496552348 4286015088
-0.3405223787 -0.1061387882 0.4497277737 4281212199
-0.3405770659 -0.1056560799 0.4498000145 4285619047
-0.3406315446 -0.1051731333 0.4498719573 4284237394
-0.3412792981 -0.1048723459 0.4507274330 4282854714
-0.3413333893 -0.1043881029 0.4507988989 4286868087
-0.3413872719 -0.1039036214 0.4508700073 4288315020
-0.3414408863 -0.1034189165 0.4509408474 4286275437
-0.3420881927 -0.1031130031 0.4517957270 4286340460
-0.3421414495 -0.1026269943 0.4518660605 4288051078
-0.3421944678 -0.1021407619 0.4519360662 4284037448
-0.3422472477 -0.1016543061 0.4520057738 4285090136
-0.3422997892 -0.1011676267 0.4520751834 4289366938
-0.3423520923 -0.1006807238 0.4521442652 4288709008
-0.3424041569 -0.1001935974 0.4522130489 4284827991
-0.3424559832 -0.0997062474 0.4522815049 4287854469
-0.3425076008 -0.0992186740 0.4523496330 4290024356
-0.3431536853 -0.0989022925 0.4532029331 4286471534
-0.3432048857 -0.0984134376 0.4532705545 4283116606
-0.3438507617 -0.0980940759 0.4541235566 4287458944
-0.3439015746 -0.0976039395 0.4541906714 4286734708
-0.3439521492 -0.0971135795 0.4542574883 4285945192
-0.3445976675 -0.0967901722 0.4551100135 4289562524
-0.3446478546 -0.0962985381 0.4551762938 4291141556
-0.3441024721 -0.0956412181 0.4544560015 4288640393
-0.3441520929 -0.0951500013 0.4545215368 4283705918
-0.3447969556 -0.0948223472 0.4553732276 4282916145
-0.3448461890 -0.0943298563 0.4554382265 4284955728
-0.3454908431 -0.0939992294 0.4562896192 4287652987
-0.3455396593 -0.0935054719 0.4563541114 4286205541
-0.3455882370 -0.0930114985 0.4564182460 4287652730
-0.3456365764 -0.0925173238 0.4564820826 4285415768
-0.3462806642 -0.0921816006 0.4573327601 4283638585
-0.3469246924 -0.0918439701 0.4581833184 4283441206
-0.3469724655 -0.0913474709 0.4582463801 4282849324
-0.3470199704 -0.0908507630 0.4583091438 4283244082
-0.3470672369 -0.0903538615 0.4583715796 4282850351
-0.3471142650 -0.0898567513 0.4584336877 4283376695
-0.3471610546 -0.0893594399 0.4584954679 4288839824
-0.3478041589 -0.0890146121 0.4593448341 4290221477
-0.3478505313 -0.0885160416 0.4594060481 4284761171
-0.3478966355 -0.0880172774 0.4594669640 4283774276
-0.3479425013 -0.0875183120 0.4595275223 4286733419
-0.3479881287 -0.0870191529 0.4595877826 4284628043
-0.3486304581 -0.0866682008 0.4604361057 4283441459
-0.3492726982 -0.0863153413 0.4612843394 4283441459
-0.3493177295 -0.0858138800 0.4613437951 4283900729
-0.3499597013 -0.0854580626 0.4621916413 4283703350
-0.3500043154 -0.0849553570 0.4622505605 4284096309
-0.3500486612 -0.0844524652 0.4623091221 4283701551
-0.3500927389 -0.0839493796 0.4623673558 4283833137
-0.3507340848 -0.0835885033 0.4632143676 4283833137
-0.3507777452 -0.0830841810 0.4632720351 4284095539
-0.3508211672 -0.0825796723 0.4633293748 4284358711
-0.3508643210 -0.0820749700 0.4633863568 4284095539
-0.3515050113 -0.0817090496 0.4642325342 4283963953
-0.3515477479 -0.0812031254 0.4642889500 4283897647
-0.3521881402 -0.0808342546 0.4651347399 4284226612
-0.3528284431 -0.0804634765 0.4659803808 4284621370
-0.3534686267 -0.0800907910 0.4668258727 4284621370
-0.3541086912 -0.0797162056 0.4676712155 4284226612
-0.3547486365 -0.0793397129 0.4685163796 4283831854
-0.3559867740 -0.0790942535 0.4701516032 4283831854
-0.3560281992 -0.0785810202 0.4702062905 4284423991
-0.3560693562 -0.0780676082 0.4702606499 4285542726
-0.3567087352 -0.0776843652 0.4711050987 4285082175
-0.3567494452 -0.0771697387 0.4711588621 4285279554
-0.3573885262 -0.0767835528 0.4720028937 4286003277
-0.3580274880 -0.0763954669 0.4728467464 4286134863
-0.3580675423 -0.0758785829 0.4728996456 4285871691
-0.3587061763 -0.0754875541 0.4737430811 4285082175
-0.3587457538 -0.0749694631 0.4737953842 4284029487
-0.3593840599 -0.0745754987 0.4746383727 4284095280
-0.3600222170 -0.0741796345 0.4754812121 4284095280
-0.3606602550 -0.0737818629 0.4763238430 4284226866
-0.3618973196 -0.0735038891 0.4779576361 4284226866
-0.3631343544 -0.0732222795 0.4795914292 4284292659
-0.3637721241 -0.0728170797 0.4804336727 4284819003
-0.3638103604 -0.0722908825 0.4804841876 4285279554
-0.3644477427 -0.0718827471 0.4813259840 4285279554
-0.3644855022 -0.0713553503 0.4813758731 4284490297
-0.3651225567 -0.0709442869 0.4822171926 4284753469
-0.3413063288 -0.1441568583 0.4514252841 4282261287
-0.3472240865 -0.1461460739 0.4592523873 4282721838
-0.3443740010 -0.1444403976 0.4554827213 4283182389
-0.3491248488 -0.1459199786 0.4617663920 4283248182
-0.3509528339 -0.1461682618 0.4641841650 4282656045
-0.3521963060 -0.1461685896 0.4658288360 4282195494
-0.3522697389 -0.1456813812 0.4659259319 4282588456
-0.3529282212 -0.1454350501 0.4667968750 4283049007
-0.3524159193 -0.1447060555 0.4661192894 4283771444
-0.3524886668 -0.1442179382 0.4662155211 4283771444
-0.3525612354 -0.1437295079 0.4663114846 4283705134
-0.3520478010 -0.1430028528 0.4656324089 4283705134
-0.3515339196 -0.1422775090 0.4649527073 4284033845
-0.3504335582 -0.1413171738 0.4634973407 4285086533
-0.3499186337 -0.1405953020 0.4628162980 4288111212
-0.3505757451 -0.1403441429 0.4636854231 4288834935
-0.3494738042 -0.1393894404 0.4622279108 4289227121
-0.3495441079 -0.1389038116 0.4623209238 4288569191
-0.3490276039 -0.1381856501 0.4616377950 4289093990
-0.3490973711 -0.1377002597 0.4617300630 4288041302
-0.3485800922 -0.1369839609 0.4610458910 4287185733
-0.3492362499 -0.1367285997 0.4619137645 4289027937
-0.3487183154 -0.1360133588 0.4612286985 4289552741
-0.3481999040 -0.1352994740 0.4605430365 4289355362
-0.3488556445 -0.1350416094 0.4614103436 4289221464
-0.3483365774 -0.1343287826 0.4607237875 4289550429
-0.3472295105 -0.1333915889 0.4592595696 4286326311
-0.3472970724 -0.1329071820 0.4593489170 4285471002
-0.3467766643 -0.1321984082 0.4586605728 4285536279
-0.3468436599 -0.1317142546 0.4587492049 4285470486
-0.3463224471 -0.1310073882 0.4580598474 4285471515
-0.3463889062 -0.1305234879 0.4581477344 4287116340
-0.3458669186 -0.1298185289 0.4574573338 4287644226
-0.3459328115 -0.1293349117 0.4575445056 4288104777
-0.3454100490 -0.1286318600 0.4568530619 4287514186
-0.3448868692 -0.1279301941 0.4561610520 4287053635
-0.3449518681 -0.1274473816 0.4562470615 4289224550
-0.3450166583 -0.1269643009 0.4563327432 4287513932
-0.3444923460 -0.1262651086 0.4556392729 4287119176
-0.3445565701 -0.1257823110 0.4557242393 4287974485
-0.3446205854 -0.1252992451 0.4558088779 4287776590
-0.3440951705 -0.1246025488 0.4551139474 4287842383
-0.3441586494 -0.1241197661 0.4551979005 4287581780
-0.3442218602 -0.1236367226 0.4552815259 4287318608
-0.3442848921 -0.1231534109 0.4553648531 4287648600
-0.3443476558 -0.1226698384 0.4554479122 4288569702
-0.3444102407 -0.1221859977 0.4555306435 4288176484
-0.3438827097 -0.1214934960 0.4548329413 4287715933
-0.3439447284 -0.1210099608 0.4549149573 4287782750
-0.3440065086 -0.1205261648 0.4549966753 4287651164
-0.3440680504 -0.1200421080 0.4550780952 4286004286
-0.3435391188 -0.1193527132 0.4543784857 4287122767
-0.3441904783 -0.1190732121 0.4552400112 4287909716
-0.3430703878 -0.1181815565 0.4537585378 4287975509
-0.3431308568 -0.1176981330 0.4538384974 4287973969
-0.3426003754 -0.1170127094 0.4531368613 4286329144
-0.3426602483 -0.1165296063 0.4532160759 4287578698
-0.3421290219 -0.1158461720 0.4525134265 4285933873
-0.3421883285 -0.1153633967 0.4525918961 4285145646
-0.3422474563 -0.1148803681 0.4526700675 4284158751
-0.3423063159 -0.1143971011 0.4527479410 4282850339
-0.3417736590 -0.1137168333 0.4520434141 4283179304
-0.3418319821 -0.1132338941 0.4521205425 4282524716
-0.3418900669 -0.1127507165 0.4521973729 4282393130
-0.3413563073 -0.1120730564 0.4514914155 4286209126
-0.3414138258 -0.1115902141 0.4515675008 4289696155
-0.3408793211 -0.1109145805 0.4508605599 4289368735
-0.3409363031 -0.1104320958 0.4509359002 4284829018
-0.3404010534 -0.1097584814 0.4502279460 4281145124
-0.3404574692 -0.1092763543 0.4503025711 4281605675
-0.3405136466 -0.1087939888 0.4503768682 4281736747
-0.3405695856 -0.1083113775 0.4504508674 4285947499
-0.3406253159 -0.1078285351 0.4505245686 4289435552
-0.3406808078 -0.1073454544 0.4505979717 4287264383
-0.3407360613 -0.1068621427 0.4506710768 4285551712
-0.3407911062 -0.1063785926 0.4507438540 4283314750
-0.3408459127 -0.1058948040 0.4508163333 4286407534
-0.3409004509 -0.1054107919 0.4508884847 4285354846
-0.3409548104 -0.1049265414 0.4509603679 4287132286
-0.3410089016 -0.1044420600 0.4510319233 4288645525
-0.3416559100 -0.1041381434 0.4518876970 4286342770
-0.3417096436 -0.1036523655 0.4519587457 4283250499
-0.3417631388 -0.1031663492 0.4520294964 4286276978
-0.3424098194 -0.1028583795 0.4528848231 4285816427
-0.3418694139 -0.1021936461 0.4521700740 4284237395
-0.3419221938 -0.1017069519 0.4522398710 4289040284
-0.3419747353 -0.1012200341 0.4523093700 4289039003
-0.3420270681 -0.1007329002 0.4523785710 4284301907
-0.3420791328 -0.1002455354 0.4524474442 4285354082
-0.3421309590 -0.0997579470 0.4525160193 4289564834
-0.3421825767 -0.0992701426 0.4525842667 4287064954
-0.3428280950 -0.0989536121 0.4534380734 4282196272
-0.3428793252 -0.0984645113 0.4535058141 4282525237
-0.3429302871 -0.0979752019 0.4535732269 4283314753
-0.3429810405 -0.0974856690 0.4536403418 4284695125
-0.3430315256 -0.0969959199 0.4537071288 4288116361
-0.3436763883 -0.0966732129 0.4545600414 4291075763
-0.3437264860 -0.0961821824 0.4546263218 4289430938
-0.3437763453 -0.0956909433 0.4546922743 4284692815
-0.3438259959 -0.0951994881 0.4547578990 4282455853
-0.3438753784 -0.0947078168 0.4548232257 4283179063
-0.3445195258 -0.0943789482 0.4556752145 4283968579
-0.3451636136 -0.0940481573 0.4565271139 4286731374
-0.3452124596 -0.0935541540 0.4565916955 4286797167
-0.3452610373 -0.0930599421 0.4566559494 4285282901
-0.3453093767 -0.0925655216 0.4567199051 4283835455
-0.3459528983 -0.0922296420 0.4575710595 4283244082
-0.3465963602 -0.0918918401 0.4584221244 4282980910
-0.3466441333 -0.0913950950 0.4584853053 4283638840
-0.3466916680 -0.0908981487 0.4585481584 4283244082
-0.3467389345 -0.0904009938 0.4586106837 4283179317
-0.3467859626 -0.0899036378 0.4586729109 4287061104
-0.3468327522 -0.0894060805 0.4587347806 4290419116
-0.3474752903 -0.0890610814 0.4595846236 4286932087
-0.3475216627 -0.0885622650 0.4596459568 4283511364
-0.3475677967 -0.0880632550 0.4597069621 4286998393
-0.3476136625 -0.0875640437 0.4597676396 4285746270
-0.3476592898 -0.0870646313 0.4598279893 4282456620
-0.3483010530 -0.0867135078 0.4606768191 4284098360
-0.3483462632 -0.0862128511 0.4607366025 4283769395
-0.3489877880 -0.0858587623 0.4615851045 4283767855
-0.3490325511 -0.0853568614 0.4616443217 4283504683
-0.3490770757 -0.0848547667 0.4617032111 4283898930
-0.3491213620 -0.0843524784 0.4617617726 4283833137
-0.3497622311 -0.0839933306 0.4626094401 4283832367
-0.3498061001 -0.0834898055 0.4626674354 4283898160
-0.3504467010 -0.0831276998 0.4635147154 4284095539
-0.3510871828 -0.0827636942 0.4643618762 4284292918
-0.3511304259 -0.0822578818 0.4644190669 4284162102
-0.3511734009 -0.0817518830 0.4644758999 4284030516
-0.3518134356 -0.0813838765 0.4653224349 4283963953
-0.3518559933 -0.0808766484 0.4653787017 4284095539
-0.3524957299 -0.0805056840 0.4662248492 4284490297
-0.3531353474 -0.0801328197 0.4670708179 4284621883
-0.3537748456 -0.0797580481 0.4679166675 4284095026
-0.3544142246 -0.0793813691 0.4687623680 4283963440
-0.3550535142 -0.0790027827 0.4696078897 4283832367
-0.3556926548 -0.0786222965 0.4704532623 4284227125
-0.3557338119 -0.0781086236 0.4705076814 4285673029
-0.3563726544 -0.0777251869 0.4713526368 4285344064
-0.3564133644 -0.0772102997 0.4714064896 4285410627
-0.3570519090 -0.0768239200 0.4722510278 4286002764
-0.3576903045 -0.0764356330 0.4730953872 4286200656
-0.3577303588 -0.0759184957 0.4731483757 4285674312
-0.3583684266 -0.0755272657 0.4739923179 4284884796
-0.3584080040 -0.0750089139 0.4740446806 4284292659
-0.3590457439 -0.0746147484 0.4748881757 4284028974
-0.3596833646 -0.0742186829 0.4757314920 4284226353
-0.3603208363 -0.0738207102 0.4765746593 4284292659
-0.3609581590 -0.0734208375 0.4774176180 4284358452
-0.3621940315 -0.0731399581 0.4790522158 4284424502
-0.3634298742 -0.0728554428 0.4806868136 4284753467
-0.3634681404 -0.0723289773 0.4807373881 4285214018
-0.3635061085 -0.0718023479 0.4807876050 4285214018
-0.3635438085 -0.0712755471 0.4808374941 4284489786
-0.3635812402 -0.0707485899 0.4808869958 4284687165
-0.3461571336 -0.1469302177 0.4585147202 4282328109
-0.3427275121 -0.1449700892 0.4539719224 4282392360
-0.3492240012 -0.1472040713 0.4625770748 4282589739
-0.3452090025 -0.1450036317 0.4572588801 4282984497
-0.3522925079 -0.1474605650 0.4666415751 4283050290
-0.3511977792 -0.1464854628 0.4651915133 4282852911
-0.3518557549 -0.1462420821 0.4660630524 4282458153
-0.3525137901 -0.1459967792 0.4669346511 4282588969
-0.3525871038 -0.1455082446 0.4670317769 4282983727
-0.3520753682 -0.1447789073 0.4663539529 4283574835
-0.3521481454 -0.1442905664 0.4664503336 4283574835
-0.3522206843 -0.1438019276 0.4665464461 4283376683
-0.3522930443 -0.1433129907 0.4666422606 4283639855
-0.3517798185 -0.1425864995 0.4659624994 4283968822
-0.3506807387 -0.1416249126 0.4645066261 4284297787
-0.3495809436 -0.1406662613 0.4630498588 4286269519
-0.3502374887 -0.1404150128 0.4639195204 4286269519
-0.3491366804 -0.1394598484 0.4624613822 4286859086
-0.3486210704 -0.1387408227 0.4617784321 4286595914
-0.3492771089 -0.1384878606 0.4626474082 4287187274
-0.3487608433 -0.1377698928 0.4619635642 4287318860
-0.3488303721 -0.1372839957 0.4620556831 4287187273
-0.3488997221 -0.1367978007 0.4621475339 4288239961
-0.3483823240 -0.1360822320 0.4614622295 4288502104
-0.3484511077 -0.1355962753 0.4615533352 4288896862
-0.3485196829 -0.1351100355 0.4616441429 4288895320
-0.3474143147 -0.1341702342 0.4601800144 4288763734
-0.3468952477 -0.1334592402 0.4594924450 4286523174
-0.3469628096 -0.1329746097 0.4595819414 4285865244
-0.3464429677 -0.1322655082 0.4588933587 4286060570
-0.3459226787 -0.1315577626 0.4582041800 4285863191
-0.3465767503 -0.1312964708 0.4590705633 4286190875
-0.3460558057 -0.1305898130 0.4583805203 4287572528
-0.3455343843 -0.1298845261 0.4576898515 4288035648
-0.3450125158 -0.1291805953 0.4569986165 4288693578
-0.3450780809 -0.1286972910 0.4570854604 4287052864
-0.3445554674 -0.1279952973 0.4563931823 4286921278
-0.3446204662 -0.1275122613 0.4564793110 4288437341
-0.3446852565 -0.1270289570 0.4565651119 4287121481
-0.3447498381 -0.1265453845 0.4566506445 4287120970
-0.3442257643 -0.1258464158 0.4559564888 4288371037
-0.3442897797 -0.1253631264 0.4560412765 4288171862
-0.3443535566 -0.1248795614 0.4561257660 4287448139
-0.3438283801 -0.1241830960 0.4554301202 4286005834
-0.3438916206 -0.1236998215 0.4555138946 4286729557
-0.3439546525 -0.1232162863 0.4555973411 4286598997
-0.3440174460 -0.1227324903 0.4556805193 4287454306
-0.3440800011 -0.1222484261 0.4557633996 4287850091
-0.3435530663 -0.1215555966 0.4550654292 4287586919
-0.3436150551 -0.1210718378 0.4551475644 4287784296
-0.3436768353 -0.1205878109 0.4552294016 4287126366
-0.3437384069 -0.1201035306 0.4553109407 4285677380
-0.3437997401 -0.1196189821 0.4553921819 4288045928
-0.3432710469 -0.1189298332 0.4546918571 4288438376
-0.3427419066 -0.1182420924 0.4539909661 4288569962
-0.3428023458 -0.1177584380 0.4540710449 4287779676
-0.3428625464 -0.1172745302 0.4541507959 4285740093
-0.3423323333 -0.1165893525 0.4534484446 4287253331
-0.3423919976 -0.1161057726 0.4535274804 4285213748
-0.3418609798 -0.1154225916 0.4528241158 4284619561
-0.3419200778 -0.1149393395 0.4529024065 4284159010
-0.3419789672 -0.1144558340 0.4529803991 4282850854
-0.3414468765 -0.1137752458 0.4522756040 4283245612
-0.3415051997 -0.1132920757 0.4523528516 4282130728
-0.3415632844 -0.1128086671 0.4524298012 4284038725
-0.3410301208 -0.1121306792 0.4517235756 4288380811
-0.3410876393 -0.1116476133 0.4517997801 4289762464
-0.3405537009 -0.1109716445 0.4510925114 4287000187
-0.3406106830 -0.1104889289 0.4511680007 4281736747
-0.3400759995 -0.1098149940 0.4504597485 4281605675
-0.3401324153 -0.1093326360 0.4505344927 4281408296
-0.3401885927 -0.1088500395 0.4506089091 4284697433
-0.3402445614 -0.1083671972 0.4506830275 4289237150
-0.3403002918 -0.1078841239 0.4507568479 4287527555
-0.3403557837 -0.1074008122 0.4508303404 4284172112
-0.3404110372 -0.1069172695 0.4509035647 4284696916
-0.3404660821 -0.1064334884 0.4509764612 4286407534
-0.3405208886 -0.1059494689 0.4510490298 4287461505
-0.3405754566 -0.1054652184 0.4511213303 4287658884
-0.3406297863 -0.1049807370 0.4511933029 4289303968
-0.3406838775 -0.1044960245 0.4512649775 4287527557
-0.3413303494 -0.1041919738 0.4521212578 4282725438
-0.3413840830 -0.1037059575 0.4521924257 4282264887
-0.3414375782 -0.1032197103 0.4522632957 4283646285
-0.3414908350 -0.1027332321 0.4523338377 4283909457
-0.3421368301 -0.1024240404 0.4531894922 4288185488
-0.3415966630 -0.1017596051 0.4524739981 4289435555
-0.3416492045 -0.1012724489 0.4525436163 4285224290
-0.3417015076 -0.1007850766 0.4526129067 4282921535
-0.3417536020 -0.1002974734 0.4526818991 4288381073
-0.3418054581 -0.0998096541 0.4527505636 4289302175
-0.3418570459 -0.0993216038 0.4528189301 4283907147
-0.3425020278 -0.0990049243 0.4536732137 4282459701
-0.3425532281 -0.0985155925 0.4537410736 4282525494
-0.3426042199 -0.0980260447 0.4538086057 4282854459
-0.3426549733 -0.0975362733 0.4538758099 4286406254
-0.3432994187 -0.0972144753 0.4547294378 4290617006
-0.3433497548 -0.0967234224 0.4547961354 4290287271
-0.3433998823 -0.0962321535 0.4548625052 4285550175
-0.3434497416 -0.0957406759 0.4549285769 4281667107
-0.3434993625 -0.0952489749 0.4549942911 4283180346
-0.3435487449 -0.0947570652 0.4550597370 4283442748
-0.3441923559 -0.0944280326 0.4559122324 4283376955
-0.3448359072 -0.0940970853 0.4567646384 4284100165
-0.3448847234 -0.0936028436 0.4568293393 4284034372
-0.3449333012 -0.0931083858 0.4568936825 4282784048
-0.3449816406 -0.0926137269 0.4569577277 4282981427
-0.3456246257 -0.0922776759 0.4578093886 4283113524
-0.3462675214 -0.0919397175 0.4586609602 4284166212
-0.3463152945 -0.0914427266 0.4587242603 4283178804
-0.3463628292 -0.0909455344 0.4587872028 4282718253
-0.3464101255 -0.0904481336 0.4588498473 4284758608
-0.3470524251 -0.0901050866 0.4597006440 4290548392
-0.3470993042 -0.0896064192 0.4597627223 4289235101
-0.3471459150 -0.0891075581 0.4598244727 4283905868
-0.3471922874 -0.0886084959 0.4598858953 4286209391
-0.3478340209 -0.0882603675 0.4607359171 4285419875
-0.3478799760 -0.0877600461 0.4607968032 4282654513
-0.3479256928 -0.0872595310 0.4608573318 4282654513
-0.3479711413 -0.0867588222 0.4609175622 4283046188
-0.3480163515 -0.0862579122 0.4609774351 4283375153
-0.3486573100 -0.0859036520 0.4618264139 4283373097
-0.3487020731 -0.0854014978 0.4618857503 4283833648
-0.3493427634 -0.0850442797 0.4627343714 4283898930
-0.3493871093 -0.0845408812 0.4627931416 4283767344
-0.3494312167 -0.0840372890 0.4628515542 4283832367
-0.3500714302 -0.0836760625 0.4636995792 4283832367
-0.3501151204 -0.0831712335 0.4637574255 4284095539
-0.3501585424 -0.0826662108 0.4638149440 4284292918
-0.3507982790 -0.0823009759 0.4646623433 4284292918
-0.3514379561 -0.0819338337 0.4655096233 4284161332
-0.3514807522 -0.0814265311 0.4655663371 4283963953
-0.3521201015 -0.0810564309 0.4664131999 4284095539
-0.3521624804 -0.0805478990 0.4664693177 4284424504
-0.3528015316 -0.0801748484 0.4673158228 4284556090
-0.3534404635 -0.0797998905 0.4681621492 4284095026
-0.3540793061 -0.0794230253 0.4690083563 4283963440
-0.3547180295 -0.0790442526 0.4698543847 4283898160
-0.3553566039 -0.0786635727 0.4707002342 4284292918
-0.3553977907 -0.0781496391 0.4707547724 4285476420
-0.3560360670 -0.0777660161 0.4716002345 4285147455
-0.3560767770 -0.0772508606 0.4716541469 4285147968
-0.3567147255 -0.0768642873 0.4724991918 4285674312
-0.3573525548 -0.0764758065 0.4733440578 4285871691
-0.3573926389 -0.0759584084 0.4733971059 4285476933
-0.3580301404 -0.0755669847 0.4742415547 4284819003
-0.3586675227 -0.0751736537 0.4750858247 4284292659
-0.3593047559 -0.0747784227 0.4759299159 4283897901
-0.3599418700 -0.0743812919 0.4767738283 4284161073
-0.3605788648 -0.0739822537 0.4776175320 4284292916
-0.3612156808 -0.0735813156 0.4784610868 4284424502
-0.3618523777 -0.0731784701 0.4793044627 4284490295
-0.3630871177 -0.0728938133 0.4809399545 4284819260
-0.3619289100 -0.0721286386 0.4794058204 4285279811
-0.3619667590 -0.0716034696 0.4794559479 4285345604
-0.3626027107 -0.0711956248 0.4802983105 4284687676
-0.3452379704 -0.1467559785 0.4579709768 4282458923
-0.3441448212 -0.1457840651 0.4565209150 4282588969
-0.3483017683 -0.1470316499 0.4620352387 4282654762
-0.3477918804 -0.1463038027 0.4613588750 4282852141
-0.3501998782 -0.1468006074 0.4645531476 4282917934
-0.3514410555 -0.1468029171 0.4661996067 4282852911
-0.3526825309 -0.1468016803 0.4678464532 4282655532
-0.3527561724 -0.1463124305 0.4679441750 4282523946
-0.3522454798 -0.1455814391 0.4672667086 4282852911
-0.3529028594 -0.1453329921 0.4681387544 4283312946
-0.3518070877 -0.1443632096 0.4666851759 4283444532
-0.3518796563 -0.1438743472 0.4667814076 4283247152
-0.3519519866 -0.1433852017 0.4668773711 4283247152
-0.3514393568 -0.1426583678 0.4661973417 4283837749
-0.3509262502 -0.1419328749 0.4655167162 4284693058
-0.3498277366 -0.1409729719 0.4640594721 4287125341
-0.3498987257 -0.1404858679 0.4641536474 4287125341
-0.3493842781 -0.1397643685 0.4634712040 4287320150
-0.3494547009 -0.1392774880 0.4635646641 4286662220
-0.3483540118 -0.1383253634 0.4621045291 4286068541
-0.3484237790 -0.1378395408 0.4621970654 4285936955
-0.3479076326 -0.1371225715 0.4615123868 4286001719
-0.3479768634 -0.1366369724 0.4616042078 4286264891
-0.3474599123 -0.1359218806 0.4609184861 4286131762
-0.3475285769 -0.1354365349 0.4610095620 4286197555
-0.3475970328 -0.1349508911 0.4611003697 4286722100
-0.3470789790 -0.1342382133 0.4604131579 4286722100
-0.3465604782 -0.1335268915 0.4597253501 4284944658
-0.3466280401 -0.1330420226 0.4598149657 4284681486
-0.3466953933 -0.1325568855 0.4599043131 4285468694
-0.3461757898 -0.1318479925 0.4592150152 4285337108
-0.3462425768 -0.1313631237 0.4593036175 4285928734
-0.3457221687 -0.1306561232 0.4586133063 4287047215
-0.3457884192 -0.1301715076 0.4587011635 4287641919
-0.3452672362 -0.1294664294 0.4580098093 4288431435
-0.3447456062 -0.1287627220 0.4573178589 4287185733
-0.3448109627 -0.1282789260 0.4574045539 4286593596
-0.3442885578 -0.1275771409 0.4567115605 4287056715
-0.3443533480 -0.1270936131 0.4567975104 4286135613
-0.3444179296 -0.1266098171 0.4568831921 4286267458
-0.3438944221 -0.1259105206 0.4561887383 4287912283
-0.3439584374 -0.1254270077 0.4562736452 4288175198
-0.3440222442 -0.1249432266 0.4563582838 4287583061
-0.3440858126 -0.1244591698 0.4564426243 4285809997
-0.3435608745 -0.1237629279 0.4557462633 4287717994
-0.3436239064 -0.1232791692 0.4558298588 4287126884
-0.3436866999 -0.1227951497 0.4559131563 4287390056
-0.3437492549 -0.1223108545 0.4559961557 4287785325
-0.3438116014 -0.1218263060 0.4560788572 4287390567
-0.3432849050 -0.1211337149 0.4553801715 4287982447
-0.3433466852 -0.1206494644 0.4554621279 4287324517
-0.3434082568 -0.1201649532 0.4555438161 4285874761
-0.3428804576 -0.1194749027 0.4548436403 4288309102
-0.3435307145 -0.1191951558 0.4557062387 4288242026
-0.3430022299 -0.1185062528 0.4550051987 4288505198
-0.3424733281 -0.1178187504 0.4543035924 4287979108
-0.3419440091 -0.1171326637 0.4536014199 4286334283
-0.3420038819 -0.1166491136 0.4536808729 4286992727
-0.3420635462 -0.1161653027 0.4537599981 4284361007
-0.3421230018 -0.1156812385 0.4538388550 4284686126
-0.3415922225 -0.1149983108 0.4531347752 4284291368
-0.3416511118 -0.1145145819 0.4532128870 4283048233
-0.3411195874 -0.1138336584 0.4525078237 4283114026
-0.3411779106 -0.1133502647 0.4525851905 4282064937
-0.3412360251 -0.1128666252 0.4526622593 4286144103
-0.3407033980 -0.1121883094 0.4519557059 4289630878
-0.3407609463 -0.1117050126 0.4520320594 4289038741
-0.3402275741 -0.1110287160 0.4513245225 4284171601
-0.3396937847 -0.1103538498 0.4506164193 4281079330
-0.3397504389 -0.1098715067 0.4506915808 4281342503
-0.3398068547 -0.1093889177 0.4507664144 4282460984
-0.3398630619 -0.1089060903 0.4508409500 4287855496
-0.3399190009 -0.1084230244 0.4509151876 4289368735
-0.3399747312 -0.1079397202 0.4509891272 4284040526
-0.3400302529 -0.1074561775 0.4510627389 4280619290
-0.3400855064 -0.1069723964 0.4511360526 4283118654
-0.3401405513 -0.1064883843 0.4512090683 4285816167
-0.3407869935 -0.1061884910 0.4520666003 4285487972
-0.3408416808 -0.1057031676 0.4521391392 4288646036
-0.3408960998 -0.1052176133 0.4522113502 4288449427
-0.3409503102 -0.1047318205 0.4522832334 4284041296
-0.3404122591 -0.1040648147 0.4515694976 4281804593
-0.3404659033 -0.1035794094 0.4516406655 4281015077
-0.3411115110 -0.1032730713 0.4524970949 4281475628
-0.3411647677 -0.1027863622 0.4525677562 4286936447
-0.3418101966 -0.1024770290 0.4534239173 4289830827
-0.3418630958 -0.1019890159 0.4534940720 4287133314
-0.3419157267 -0.1015007794 0.4535639286 4282066739
-0.3419681489 -0.1010123193 0.4536334276 4286145905
-0.3420203328 -0.1005236357 0.4537026584 4289368738
-0.3420722485 -0.1000347286 0.4537715614 4286013295
-0.3421239555 -0.0995455980 0.4538401365 4282592059
-0.3421754241 -0.0990562513 0.4539084136 4284565849
-0.3422266543 -0.0985666811 0.4539763629 4281934129
-0.3422776461 -0.0980768874 0.4540439844 4283973712
-0.3423283696 -0.0975868776 0.4541113079 4289236382
-0.3429722786 -0.0972649306 0.4549654424 4290618035
-0.3436160982 -0.0969410688 0.4558194876 4287327358
-0.3436662853 -0.0964487121 0.4558860958 4282458676
-0.3437162340 -0.0959561318 0.4559523761 4283905096
-0.3437659740 -0.0954633430 0.4560183287 4285944679
-0.3438154459 -0.0949703455 0.4560839534 4285878116
-0.3438646793 -0.0944771320 0.4561492801 4284957014
-0.3439136744 -0.0939837024 0.4562142491 4282785588
-0.3439624310 -0.0934900641 0.4562789202 4282456623
-0.3440109193 -0.0929962173 0.4563432634 4282982197
-0.3440591991 -0.0925021693 0.4564073086 4285679710
-0.3447015285 -0.0921668112 0.4572593868 4286733168
-0.3459381759 -0.0919876024 0.4588998258 4286272617
-0.3459859490 -0.0914903656 0.4589632154 4283180092
-0.3460334837 -0.0909929201 0.4590262771 4282851127
-0.3466754258 -0.0906507671 0.4598778188 4288509840
-0.3467225432 -0.0901520625 0.4599403143 4290549423
-0.3467693925 -0.0896531492 0.4600024819 4285880430
-0.3468160331 -0.0891540423 0.4600643516 4285683051
-0.3474573791 -0.0888068005 0.4609150887 4286209652
-0.3475035727 -0.0883064270 0.4609763920 4284499034
-0.3475495279 -0.0878058597 0.4610373676 4287260539
-0.3475952446 -0.0873050988 0.4610980153 4287655297
-0.3476406932 -0.0868041366 0.4611583054 4286796391
-0.3482812643 -0.0864507556 0.4620080292 4286730598
-0.3483262956 -0.0859485492 0.4620677829 4284096566
-0.3483710885 -0.0854461417 0.4621271789 4283504429
-0.3490112126 -0.0850887448 0.4629763365 4283963953
-0.3490555584 -0.0845850930 0.4630351663 4283963953
-0.3490996659 -0.0840812549 0.4630936980 4283832367
-0.3491435349 -0.0835772231 0.4631518722 4283832367
-0.3491871357 -0.0830729976 0.4632096887 4284029746
-0.3492304683 -0.0825685859 0.4632672071 4284292918
-0.3504656255 -0.0823440701 0.4649056792 4284358711
-0.3511047363 -0.0819767490 0.4657534659 4284161332
-0.3511475325 -0.0814691931 0.4658102393 4284029746
-0.3517863154 -0.0810989067 0.4666576385 4284095539
-0.3518286943 -0.0805901214 0.4667138457 4284424504
-0.3524672091 -0.0802168846 0.4675608277 4284556090
-0.3525091112 -0.0797068700 0.4676164389 4284029233
-0.3531473279 -0.0793306828 0.4684630334 4284029233
-0.3543820083 -0.0790857226 0.4701008797 4283963953
-0.3550200462 -0.0787048563 0.4709472656 4284358711
-0.3550612032 -0.0781906620 0.4710018635 4285345347
-0.3556989133 -0.0778068453 0.4718478322 4285082175
-0.3557396233 -0.0772914290 0.4719018340 4285147968
-0.3557800949 -0.0767758489 0.4719555080 4285608519
-0.3564172983 -0.0763880387 0.4728007913 4285740105
-0.3576514423 -0.0761254057 0.4744379520 4285411140
-0.3582884669 -0.0757329240 0.4752829671 4284753210
-0.3589253426 -0.0753385350 0.4761278033 4284292659
-0.3595620990 -0.0749422386 0.4769724905 4283832365
-0.3596013784 -0.0744204149 0.4770245850 4284095537
-0.3602377772 -0.0740211755 0.4778687954 4284292916
-0.3608740568 -0.0736200288 0.4787128568 4284490295
-0.3615102172 -0.0732169822 0.4795567095 4284556088
-0.3621461987 -0.0728120357 0.4804003835 4284885053
-0.3615867198 -0.0721666142 0.4796582162 4285345604
-0.3610268533 -0.0715227649 0.4789155424 4285477190
-0.3490546048 -0.1480820924 0.4637171328 4282523946
-0.3467973173 -0.1466125697 0.4607183337 4282458153
-0.3521175086 -0.1483419985 0.4677861631 4282523946
-0.3492763340 -0.1466294974 0.4640116692 4282589739
-0.3528491557 -0.1476085782 0.4687581360 4282787631
-0.3523398042 -0.1468754262 0.4680814743 4282590252
-0.3529969454 -0.1466283202 0.4689544737 4282590252
-0.3530704975 -0.1461377293 0.4690522254 4282787631
-0.3519764543 -0.1451653540 0.4675987661 4283050290
-0.3514655232 -0.1444358528 0.4669199884 4283247669
-0.3515380621 -0.1439467818 0.4670163989 4283049774
-0.3516104221 -0.1434574127 0.4671125114 4283049774
-0.3516825438 -0.1429677308 0.4672083259 4283574834
-0.3505858481 -0.1420044154 0.4657513499 4285219659
-0.3489040136 -0.1408081800 0.4635170400 4289100160
-0.3495594263 -0.1405567378 0.4643877745 4290021262
-0.3484608829 -0.1396006644 0.4629283547 4289955983
-0.3485312164 -0.1391143799 0.4630217850 4289758604
-0.3486013412 -0.1386278123 0.4631149471 4288839555
-0.3480862081 -0.1379091740 0.4624305964 4288642176
-0.3475706279 -0.1371918768 0.4617456496 4288511360
-0.3476398587 -0.1367060691 0.4618376195 4288313981
