VERSION 0.7
FIELDS x y z rgba
SIZE 4 4 4 4
TYPE F F F U
COUNT 1 1 1 1
WIDTH 920
HEIGHT 1
VIEWPOINT 0.0 0.0 0.0 1.0 0.0 0.0 0.0
POINTS 920
DATA ascii
-0.3294837475 -0.1974616051 0.6383371949 4280230441
-0.3295667768 -0.1968019456 0.6384980083 4280558636
-0.3296495676 -0.1961417794 0.6386584044 4280492843
-0.3297321200 -0.1954811215 0.6388183236 4280361257
-0.3298144042 -0.1948199719 0.6389778256 4280295464
-0.3294536769 -0.1938977093 0.6382789016 4280295464
-0.3295353949 -0.1932364553 0.6384372115 4280295464
-0.3296168745 -0.1925747097 0.6385951042 4280163878
-0.3296981156 -0.1919124871 0.6387525201 4280098085
-0.3297791183 -0.1912497580 0.6389093995 4279966499
-0.3303032517 -0.1908427179 0.6399248838 4280163878
-0.3303838670 -0.1901781261 0.6400810480 4280098855
-0.3309078515 -0.1897674352 0.6410961747 4279967269
-0.3305444121 -0.1888474822 0.6403920650 4279967269
-0.3306243122 -0.1881814450 0.6405468583 4279901476
-0.3307039738 -0.1875149161 0.6407012343 4279769890
-0.3307833970 -0.1868479103 0.6408550739 4279769890
-0.3299743235 -0.1856806129 0.6392875910 4279967269
-0.3300530314 -0.1850144416 0.6394401193 4280362027
-0.3301315010 -0.1843477935 0.6395921111 4280098853
-0.3297652900 -0.1834334582 0.6388826370 4280033060
-0.3298431635 -0.1827667505 0.6390334964 4280164646
-0.3303654194 -0.1823450029 0.6400452852 4280362025
-0.3299981654 -0.1814319491 0.6393337846 4280953647
-0.3296304345 -0.1805202216 0.6386213303 4280690475
-0.3297072053 -0.1798525453 0.6387701035 4281151026
-0.3297837377 -0.1791843921 0.6389183402 4281216819
-0.3294148445 -0.1782748848 0.6382036805 4281282353
-0.3294907510 -0.1776067168 0.6383507848 4281282353
-0.3295664191 -0.1769380867 0.6384973526 4281282353
-0.3296418488 -0.1762689948 0.6386435032 4281282353
-0.3292714655 -0.1753621548 0.6379258633 4281150767
-0.3297919333 -0.1749294549 0.6389342546 4281084974
-0.3294208348 -0.1740235090 0.6382152438 4281084720
-0.3294951320 -0.1733534932 0.6383592486 4281084720
-0.3291232288 -0.1724493653 0.6376386881 4281150767
-0.3291969299 -0.1717793643 0.6377815008 4281216560
-0.3288242221 -0.1708770543 0.6370593905 4281282353
-0.3288972974 -0.1702070683 0.6372010112 4281282353
-0.3280774057 -0.1690765470 0.6356125474 4281151026
-0.3277033269 -0.1681783646 0.6348878145 4281085233
-0.3273288012 -0.1672815531 0.6341622472 4281019441
-0.3260605037 -0.1659315228 0.6317050457 4280822062
-0.3243446350 -0.1643601358 0.6283807158 4280624682
-0.3226276934 -0.1627956033 0.6250543594 4280493096
-0.3213567138 -0.1614625305 0.6225919127 4280362280
-0.2469168603 -0.0969541073 0.4783732593 4281150775
-0.2469592839 -0.0964391679 0.4784554243 4280821810
-0.2470014989 -0.0959239602 0.4785372019 4280427052
-0.2470434904 -0.0954084918 0.4786185622 4280427820
-0.2479886860 -0.0952397138 0.4804497957 4280230441
-0.2480304092 -0.0947218314 0.4805306196 4279967267
-0.2480719239 -0.0942036957 0.4806110561 4280098853
-0.2481132299 -0.0936852917 0.4806910455 4280164131
-0.2481543124 -0.0931666344 0.4807706475 4281282612
-0.2490993440 -0.0929852352 0.4826015532 4282203715
-0.2486879826 -0.0922963619 0.4818046093 4282203715
-0.2496329695 -0.0921097174 0.4836353958 4285229939
-0.2505780160 -0.0919190422 0.4854663312 4286151041
-0.2506183982 -0.0913943723 0.4855445325 4286545801
-0.2506585419 -0.0908694565 0.4856223166 4285098355
-0.2511509955 -0.0905073583 0.4865764081 4283782497
-0.2516433895 -0.0901431218 0.4875303209 4286677389
-0.2516830266 -0.0896155536 0.4876071215 4285296253
-0.2517224252 -0.0890877321 0.4876835048 4287730594
-0.2522144318 -0.0887189507 0.4886367023 4288717235
-0.2522534728 -0.0881896913 0.4887123406 4286809238
-0.2522923052 -0.0876601860 0.4887875617 4284111979
-0.2523308992 -0.0871304423 0.4888623357 4286875285
-0.2528223693 -0.0867559239 0.4898145199 4288060070
-0.2533137500 -0.0863792673 0.4907664955 4284836213
-0.2533518374 -0.0858468860 0.4908402562 4286612624
-0.2533896863 -0.0853142738 0.4909135699 4286875796
-0.2538806498 -0.0849330872 0.4918648005 4285888647
-0.2539181113 -0.0843990371 0.4919373989 4284835959
-0.2544088364 -0.0840145200 0.4928881228 4283783525
-0.2544459403 -0.0834790468 0.4929599464 4283454560
-0.2544827759 -0.0829433426 0.4930313528 4282665044
-0.2549730837 -0.0825543031 0.4939812720 4282270286
-0.2550095618 -0.0820171833 0.4940519333 4281611842
-0.2550458014 -0.0814798325 0.4941221178 4282072393
-0.2559895813 -0.0812303051 0.4959505796 4283914597
-0.2560254633 -0.0806905851 0.4960201383 4285362043
-0.2565151751 -0.0802927539 0.4969688654 4283125081
-0.2570047379 -0.0798927769 0.4979173541 4279901224
-0.2574942112 -0.0794906616 0.4988656640 4280164648
-0.2584377825 -0.0792256370 0.5006937385 4280033062
-0.2584728599 -0.0786800086 0.5007616878 4280098853
-0.2589620054 -0.0782714710 0.5017093420 4280230439
-0.2594510317 -0.0778607950 0.5026568174 4280624683
-0.2594855428 -0.0773125812 0.5027236342 4280164132
-0.2599742711 -0.0768985897 0.5036705136 4280295718
-0.2600083649 -0.0763489828 0.5037364960 4280558890
-0.2595875859 -0.0756666437 0.5029213428 4280098338
-0.2596211135 -0.0751175657 0.5029863119 4279900959
-0.2596544325 -0.0745682791 0.5030508637 4279900960
-0.2596875131 -0.0740187839 0.5031149387 4279966753
-0.2597203553 -0.0734690726 0.5031785369 4280032546
-0.2602078617 -0.0730468631 0.5041230321 4279835167
-0.2700978220 -0.0607066788 0.5232837200 4279309337
-0.2705811858 -0.0602328740 0.5242201686 4279506716
-0.2701517344 -0.0595557503 0.5233881474 4280033060
-0.2697219253 -0.0588803999 0.5225554109 4280690476
-0.2697481811 -0.0583054833 0.5226063132 4280887855
-0.2697741985 -0.0577303991 0.5226567388 4281019441
-0.2697999775 -0.0571551472 0.5227066875 4281019441
-0.2698254883 -0.0565797314 0.5227560997 4280953648
-0.2698507607 -0.0560041554 0.5228050351 4280953648
-0.2707890272 -0.0556159914 0.5246228576 4280953648
-0.2712705731 -0.0551309586 0.5255557895 4280953648
-0.2717519104 -0.0546438172 0.5264883041 4280887855
-0.3314827085 -0.2212554514 0.6435948014 4291087315
-0.3311361074 -0.2203097790 0.6429218650 4290889936
-0.3312271535 -0.2196558416 0.6430986524 4290692557
-0.3313180208 -0.2190013677 0.6432750225 4290429385
-0.3309702575 -0.2180575281 0.6425998807 4289837248
-0.3306220770 -0.2171148956 0.6419237852 4288916146
-0.3302733898 -0.2161734551 0.6412468553 4288125860
-0.3294855356 -0.2149470150 0.6397171617 4287402137
-0.3291358352 -0.2140088528 0.6390382051 4286546828
-0.3292246163 -0.2133563757 0.6392105818 4285954691
-0.3288741112 -0.2124197781 0.6385300756 4285165175
-0.3289623559 -0.2117671221 0.6387013793 4284375659
-0.3286110461 -0.2108320892 0.6380192637 4283520350
-0.3286987245 -0.2101792544 0.6381894946 4282665041
-0.3287861645 -0.2095259130 0.6383592486 4281875525
-0.3288733661 -0.2088720351 0.6385285854 4281414974
-0.3289603591 -0.2082176507 0.6386975050 4281151545
-0.3290471137 -0.2075627446 0.6388659477 4280756787
-0.3300136924 -0.2074605376 0.6407426000 4280296236
-0.3296600878 -0.2065270990 0.6400560737 4280033064
-0.3297462761 -0.2058697641 0.6402234435 4279967271
-0.3293918669 -0.2049379349 0.6395353079 4279901478
-0.3299179673 -0.2045535445 0.6405567527 4279835685
-0.3295628726 -0.2036224455 0.6398673058 4279769892
-0.3287666142 -0.2024212629 0.6383213401 4279967269
-0.3288513124 -0.2017640024 0.6384857893 4280098855
-0.3284948468 -0.2008366585 0.6377936602 4280296234
-0.3285789490 -0.2001792639 0.6379569769 4280493613
-0.3286628425 -0.1995213777 0.6381198764 4280690992
-0.3287464976 -0.1988629848 0.6382822990 4280690992
-0.3288299143 -0.1982040852 0.6384442449 4280625199
-0.3289130926 -0.1975446790 0.6386057138 4280493613
-0.3289960325 -0.1968847811 0.6387667656 4280362027
-0.3290787339 -0.1962243915 0.6389273405 4280362027
-0.3296030462 -0.1958259940 0.6399453282 4280427820
-0.3296853900 -0.1951637119 0.6401051879 4280427820
-0.3293254375 -0.1942402124 0.6394063830 4280427820
-0.3294072151 -0.1935778260 0.6395651102 4280362027
-0.3294887245 -0.1929149628 0.6397233605 4280230441
-0.3295700252 -0.1922515929 0.6398811936 4280098855
-0.3296510577 -0.1915877461 0.6400385499 4280427820
-0.3297318518 -0.1909233928 0.6401954293 4280427820
-0.3298124075 -0.1902585626 0.6403518319 4280230441
-0.3298927248 -0.1895932555 0.6405077577 4280033062
-0.3304157257 -0.1891810447 0.6415231824 4280163878
-0.3300526440 -0.1882611662 0.6408182383 4280163878
-0.3301322162 -0.1875943840 0.6409727335 4280163878
-0.3302115500 -0.1869271398 0.6411268115 4280163878
-0.3294039667 -0.1857593805 0.6395587921 4280230441
-0.3294826150 -0.1850929558 0.6397114992 4280362027
-0.3295610249 -0.1844260693 0.6398637295 4280230439
-0.3291954994 -0.1835113764 0.6391540766 4280098853
-0.3292733133 -0.1828444302 0.6393051147 4280098853
-0.3297947049 -0.1824225336 0.6403174400 4280164646
-0.3298721313 -0.1817537546 0.6404677629 4280822062
-0.3290611207 -0.1805970520 0.6388931870 4281085234
-0.3291378319 -0.1799291223 0.6390420794 4281216819
-0.3292143047 -0.1792607307 0.6391905546 4281216819
-0.3292905092 -0.1785918772 0.6393384933 4281216819
-0.3293664455 -0.1779225618 0.6394859552 4281216819
-0.3294421732 -0.1772527844 0.6396329403 4281282353
-0.3295176029 -0.1765825301 0.6397794485 4281282353
-0.3291480243 -0.1756744385 0.6390618682 4281216560
-0.3292228878 -0.1750041842 0.6392071843 4281216560
-0.3292974830 -0.1743334681 0.6393520236 4281085233
-0.3289267123 -0.1734276265 0.6386321783 4281085233
-0.3285555243 -0.1725231409 0.6379114985 4281151026
-0.3286291361 -0.1718528718 0.6380544305 4281151026
-0.3282571435 -0.1709502190 0.6373321414 4281151026
-0.3283301592 -0.1702799648 0.6374739408 4281151026
-0.3279573619 -0.1693791449 0.6367501020 4281151027
-0.3275840878 -0.1684796959 0.6360253692 4281085234
-0.3272103667 -0.1675816178 0.6352997422 4281019441
-0.3263902962 -0.1664575189 0.6337075830 4280822062
-0.3246776164 -0.1648836732 0.6303822994 4280493611
-0.3234099746 -0.1635422558 0.6279211044 4280296232
-0.3225876987 -0.1624305546 0.6263245940 4280230439
-0.2464081347 -0.0980261043 0.4784170985 4280690222
-0.2464509308 -0.0975114852 0.4785002172 4280624429
-0.2469441593 -0.0971739218 0.4794578254 4280887601
-0.2469866276 -0.0966578275 0.4795402586 4280689971
-0.2465780973 -0.0959660262 0.4787470698 4280821557
-0.2470709085 -0.0956248417 0.4797039330 4280230189
-0.2471127361 -0.0951079577 0.4797851443 4281282877
-0.2476053685 -0.0947634205 0.4807415903 4283520091
-0.2476468384 -0.0942450613 0.4808221161 4284704365
-0.2476880997 -0.0937264487 0.4809022248 4285558904
-0.2477291524 -0.0932075754 0.4809819162 4286151041
-0.2477699816 -0.0926884487 0.4810612202 4285164146
-0.2482619882 -0.0923369452 0.4820164740 4283256149
-0.2487539202 -0.0919832960 0.4829715788 4286940559
-0.2492457926 -0.0916275010 0.4839265943 4287335317
-0.2497375906 -0.0912695602 0.4848814309 4286348424
-0.2497776300 -0.0907453671 0.4849591851 4286348424
-0.2502692044 -0.0903840736 0.4859136045 4285492603
-0.2507607043 -0.0900206342 0.4868679047 4286479498
-0.2512521446 -0.0896550491 0.4878220260 4284243565
-0.2512915134 -0.0891270116 0.4878984988 4287599008
-0.2517827153 -0.0887580812 0.4888522029 4288914868
-0.2522738278 -0.0883869976 0.4898057282 4288717489
-0.2523126900 -0.0878563225 0.4898811877 4287335836
-0.2523513436 -0.0873253942 0.4899562001 4287006871
-0.2528420687 -0.0869497731 0.4909089804 4285098872
-0.2524279356 -0.0862628222 0.4901049435 4281677636
-0.2529183626 -0.0858848169 0.4910571277 4283059289
-0.2534087002 -0.0855046660 0.4920091331 4283585633
-0.2529937625 -0.0848188996 0.4912035167 4282270032
-0.2539364398 -0.0845871419 0.4930337667 4282072653
-0.2544264197 -0.0842015073 0.4939851165 4282993755
-0.2544635534 -0.0836648569 0.4940571785 4284441201
-0.2545004189 -0.0831279680 0.4941287935 4285428350
-0.2549900115 -0.0827378109 0.4950793386 4285888901
-0.2550264895 -0.0821995065 0.4951502085 4286546317
-0.2555158138 -0.0818060189 0.4961002469 4287467419
-0.2560050189 -0.0814103857 0.4970500767 4287993764
-0.2569473088 -0.0811557472 0.4988795817 4287072662
-0.2569831312 -0.0806126967 0.4989491403 4283388253
-0.2579608560 -0.0798064321 0.5008473992 4279901476
-0.2579961121 -0.0792607963 0.5009158850 4280427820
-0.2584846318 -0.0788532645 0.5018643737 4280362025
-0.2589730322 -0.0784436017 0.5028126836 4280427818
-0.2585541308 -0.0777589530 0.5019993186 4280493611
-0.2590421736 -0.0773469284 0.5029469132 4280230439
-0.2590764165 -0.0767982602 0.5030133724 4280887854
-0.2591103911 -0.0762493759 0.5030793548 4280164131
-0.2591441572 -0.0757002831 0.5031448603 4280098336
-0.2591776550 -0.0751509666 0.5032099485 4279703578
-0.2592109442 -0.0746014491 0.5032745600 4279900960
-0.2592439950 -0.0740517080 0.5033387542 4279966753
-0.2592768073 -0.0735017657 0.5034024715 4279966753
-0.2696373165 -0.0607338585 0.5235180259 4279309337
-0.2696643770 -0.0601582304 0.5235705376 4279572509
-0.2692621052 -0.0589067787 0.5227895379 4280822061
-0.2697440088 -0.0584303066 0.5237252116 4280953647
-0.2693143487 -0.0577562712 0.5228909850 4281085233
-0.2697958350 -0.0572775193 0.5238258243 4281085233
-0.2698213756 -0.0567008778 0.5238754153 4281019440
-0.2693908513 -0.0560292676 0.5230394602 4281019440
-0.2707834244 -0.0557347648 0.5257432461 4281019440
-0.2708082795 -0.0551556908 0.5257915258 4280953647
-0.3280388117 -0.2109197974 0.6382846832 4290297799
-0.3281264007 -0.2102667391 0.6384551525 4289837248
-0.3282137811 -0.2096131742 0.6386251450 4289310904
-0.3283009231 -0.2089590728 0.6387946606 4288850353
-0.3283878267 -0.2083044499 0.6389637589 4288257446
-0.3284744918 -0.2076493204 0.6391324401 4287796895
-0.3285609484 -0.2069936544 0.6393006444 4287138965
-0.3286471963 -0.2063374817 0.6394684315 4286415242
-0.3287331760 -0.2056808025 0.6396357417 4285494140
-0.3288189471 -0.2050236017 0.6398026347 4284507245
-0.3289044797 -0.2043658793 0.6399690509 4283520350
-0.3289898038 -0.2037076503 0.6401350498 4282796627
-0.3286349475 -0.2027774602 0.6394445896 4282073158
-0.3282796144 -0.2018485069 0.6387532353 4281612607
-0.3283639848 -0.2011905164 0.6389173865 4281019957
-0.3284481466 -0.2005320042 0.6390811801 4280493613
-0.3285320699 -0.1998730004 0.6392444372 4280164648
-0.3286157548 -0.1992134899 0.6394072771 4280033062
-0.3286992013 -0.1985534728 0.6395696402 4280098855
-0.3287824392 -0.1978929490 0.6397315860 4279967269
-0.3284245729 -0.1969675422 0.6390352845 4280098855
-0.3289481699 -0.1965704113 0.6400540471 4280164648
-0.3290306628 -0.1959083825 0.6402145624 4280362027
-0.3286717832 -0.1949841529 0.6395162344 4280493613
-0.3287536800 -0.1943220198 0.6396756768 4280625199
-0.3292767704 -0.1939193457 0.6406934261 4280493613
-0.3293583393 -0.1932553500 0.6408521533 4280362027
-0.3289980292 -0.1923326850 0.6401510835 4280296234
-0.3290790021 -0.1916685998 0.6403086185 4280427820
-0.3291597366 -0.1910040081 0.6404657364 4280559406
-0.3292402327 -0.1903389394 0.6406223178 4280625199
-0.3293204606 -0.1896733791 0.6407784820 4280625199
-0.3294004798 -0.1890073419 0.6409341097 4280690476
-0.3290379643 -0.1880879998 0.6402288079 4280427304
-0.3291173875 -0.1874218732 0.6403833032 4280229925
-0.3291965425 -0.1867552847 0.6405373812 4280164132
-0.3292754591 -0.1860882044 0.6406909227 4280427820
-0.3289114535 -0.1851714104 0.6399826407 4280296234
-0.3285470009 -0.1842559576 0.6392735243 4280362027
-0.3286249936 -0.1835892349 0.6394252181 4280164648
-0.3287027180 -0.1829220504 0.6395764351 4280427818
-0.3287802041 -0.1822543889 0.6397272348 4280493611
-0.3288574219 -0.1815862507 0.6398774981 4280887855
-0.3284911215 -0.1806738228 0.6391647458 4280822062
-0.3285677433 -0.1800056398 0.6393138766 4281216820
-0.3286441267 -0.1793370098 0.6394624710 4281216820
-0.3291638792 -0.1789090186 0.6404737830 4281282612
-0.3292398751 -0.1782385409 0.6406216621 4281282612
-0.3293156326 -0.1775676012 0.6407690644 4281216819
-0.3293911219 -0.1768962145 0.6409159303 4281216819
-0.3290223181 -0.1759868562 0.6401983500 4281216819
-0.3290972114 -0.1753154397 0.6403440833 4281151026
-0.3287276030 -0.1744078845 0.6396249533 4281151026
-0.3288019001 -0.1737364531 0.6397694349 4281151026
-0.3284314871 -0.1728307158 0.6390487552 4281151026
-0.3280606270 -0.1719263345 0.6383271813 4281151026
-0.3281339705 -0.1712553650 0.6384698153 4281020210
-0.3277623057 -0.1703528166 0.6377466321 4280954417
-0.3273901939 -0.1694516391 0.6370226145 4280954162
-0.3270176351 -0.1685518324 0.6362977028 4280954162
-0.3266445994 -0.1676533967 0.6355718970 4280888369
-0.3262711465 -0.1667563617 0.6348451972 4280690990
-0.3250068128 -0.1654075235 0.6323851347 4280427818
-0.3241869211 -0.1642894149 0.6307898164 4280230439
-0.3233664036 -0.1631745249 0.6291933060 4280230439
-0.3203177452 -0.1609436423 0.6232613325 4280296232
-0.2459843159 -0.0980689824 0.4786263704 4281150775
-0.2460270822 -0.0975541547 0.4787095785 4282400842
-0.2461119890 -0.0965236947 0.4788748026 4284242797
-0.2461541295 -0.0960080624 0.4789567888 4284505969
-0.2461960614 -0.0954921693 0.4790383577 4283256670
-0.2471380979 -0.0953232720 0.4808713198 4283322463
-0.2467295080 -0.0946322829 0.4800763130 4287269526
-0.2467708737 -0.0941146612 0.4801568091 4287466905
-0.2468120307 -0.0935967788 0.4802368879 4286019457
-0.2468529642 -0.0930786356 0.4803165495 4287795868
-0.2482452989 -0.0930669531 0.4830256999 4286611081
-0.2487772256 -0.0921907201 0.4840607047 4286018946
-0.2492683679 -0.0918338373 0.4850163162 4286216325
-0.2488577664 -0.0911445618 0.4842174053 4286413705
-0.2488977015 -0.0906211063 0.4842951000 4287269014
-0.2498393655 -0.0904238373 0.4861273766 4286216072
-0.2503300607 -0.0900602490 0.4870821238 4287663518
-0.2499184459 -0.0893718675 0.4862812459 4287071894
-0.2508600354 -0.0891662538 0.4881133437 4285756034
-0.2513504326 -0.0887971744 0.4890674949 4284769139
-0.2518407404 -0.0884259418 0.4900215268 4284571760
-0.2518795729 -0.0878950357 0.4900970757 4283913830
-0.2514666915 -0.0872073323 0.4892937541 4282861142
-0.2519565523 -0.0868325084 0.4902468920 4280427571
-0.2519946992 -0.0863008797 0.4903211296 4281875017
-0.2520326674 -0.0857690051 0.4903949499 4284769909
-0.2525221109 -0.0853896514 0.4913473129 4286019976
-0.2530114651 -0.0850081444 0.4922994971 4286480527
-0.2530488670 -0.0844736546 0.4923722744 4287401629
-0.2535379827 -0.0840888098 0.4933239818 4287796644
-0.2535749972 -0.0835528895 0.4933960140 4287994023
-0.2545159459 -0.0833126977 0.4952268600 4288586414
-0.2545526326 -0.0827744007 0.4952982366 4288783793
-0.2545891106 -0.0822358653 0.4953691959 4288586414
-0.2546253502 -0.0816970989 0.4954397082 4287994277
-0.2551136911 -0.0813022628 0.4963899255 4288454828
-0.2556019127 -0.0809052810 0.4973399043 4287533726
-0.2565425336 -0.0806483924 0.4991700947 4282862422
-0.2570306063 -0.0802461654 0.5001198053 4280230702
-0.2570660114 -0.0797014758 0.5001887083 4280164650
-0.2571012080 -0.0791565552 0.5002571344 4280296236
-0.2575888634 -0.0787498206 0.5012059808 4280362027
-0.2585291564 -0.0784783810 0.5030356050 4280164648
-0.2585638165 -0.0779299214 0.5031030774 4280164646
-0.2585982382 -0.0773812383 0.5031700134 4280033060
-0.2586324513 -0.0768323392 0.5032365918 4280624682
-0.2586663961 -0.0762832239 0.5033026338 4280756268
-0.2587001324 -0.0757338926 0.5033682585 4280558887
-0.2591867447 -0.0753160119 0.5043151379 4279835164
-0.2587668896 -0.0746345818 0.5034981370 4280164132
-0.2592531443 -0.0742143616 0.5044443011 4280164132
-0.2588326931 -0.0735344365 0.5036261678 4280098339
-0.2593185902 -0.0731118619 0.5045716166 4279900960
-0.2691761553 -0.0607610196 0.5237521529 4279309337
-0.2687484622 -0.0600834712 0.5229198933 4279704095
-0.2692299783 -0.0596090816 0.5238568187 4280164646
-0.2688016891 -0.0589331351 0.5230234861 4280887854
-0.2688279152 -0.0583577119 0.5230745077 4281019440
-0.2688539028 -0.0577821247 0.5231250525 4281151026
-0.2688796222 -0.0572063662 0.5231751204 4281085233
-0.2689050734 -0.0566304475 0.5232246518 4281085233
-0.2698403895 -0.0562440567 0.5250445604 4281085233
-0.2698654532 -0.0556658618 0.5250932574 4281085233
-0.2703453600 -0.0551804043 0.5260270834 4280953647
-0.2712802887 -0.0547847562 0.5278462172 4281019440
-0.2713046968 -0.0542031564 0.5278937221 4281019440
-0.3277209103 -0.2054915279 0.6390471458 4290560201
-0.3278064728 -0.2048349679 0.6392140388 4290297029
-0.3278918266 -0.2041779011 0.6393804550 4290034111
-0.3279769421 -0.2035203278 0.6395463943 4289836732
-0.3280618191 -0.2028622329 0.6397119164 4289639353
-0.3277072012 -0.2019329369 0.6390203834 4289178802
-0.3273521066 -0.2010049075 0.6383280158 4288520872
-0.3274360597 -0.2003470510 0.6384917498 4287797149
-0.3275198042 -0.1996887028 0.6386550069 4287138704
-0.3276033103 -0.1990298331 0.6388178468 4286283395
-0.3276865482 -0.1983704716 0.6389802098 4285493879
-0.3277696073 -0.1977106035 0.6391420960 4284901742
-0.3278523982 -0.1970502287 0.6393035650 4284046694
-0.3279349506 -0.1963893622 0.6394645572 4283454557
-0.3284575641 -0.1959907115 0.6404836178 4282599248
-0.3280993700 -0.1950661242 0.6397851110 4281743939
-0.3281812072 -0.1944037676 0.6399447322 4281020216
-0.3282628357 -0.1937409043 0.6401038766 4280362286
-0.3287849426 -0.1933367252 0.6411219835 4279967271
-0.3284253478 -0.1924137175 0.6404207945 4279769892
-0.3285062313 -0.1917493790 0.6405785084 4279967269
-0.3285868764 -0.1910845488 0.6407358050 4279967269
-0.3286673129 -0.1904192418 0.6408926249 4280033062
-0.3283061981 -0.1894987375 0.6401884556 4279967269
-0.3283860385 -0.1888333410 0.6403441429 4279835683
-0.3284656107 -0.1881674677 0.6404992938 4279835683
-0.3285449445 -0.1875011027 0.6406540275 4280098855
-0.3286240399 -0.1868342608 0.6408082247 4280493613
-0.3287028968 -0.1861669272 0.6409620047 4280230441
-0.3287814856 -0.1854991317 0.6411153078 4280559406
-0.3284178376 -0.1845824122 0.6404061317 4280756785
-0.3284958601 -0.1839145571 0.6405583024 4280427820
-0.3281314075 -0.1829995960 0.6398475766 4280625197
-0.3282088041 -0.1823316813 0.6399985552 4280756783
-0.3282859623 -0.1816632897 0.6401489973 4281348920
-0.3283628821 -0.1809944361 0.6402990222 4281019955
-0.3279969096 -0.1800820976 0.6395853758 4281085748
-0.3280732334 -0.1794132143 0.6397342086 4281085748
-0.3285921514 -0.1789850742 0.6407460570 4281282613
-0.3286680877 -0.1783143431 0.6408941150 4281348406
-0.3287437558 -0.1776431650 0.6410416961 4281282613
-0.3283760250 -0.1767330021 0.6403246522 4281216820
-0.3284510970 -0.1760617942 0.6404710412 4281151026
-0.3280825615 -0.1751534343 0.6397523880 4281085233
-0.3281570375 -0.1744822264 0.6398975849 4281020210
-0.3277876973 -0.1735756695 0.6391773820 4281020210
-0.3278615475 -0.1729044467 0.6393213868 4281086003
-0.3274914026 -0.1719997227 0.6385996342 4281020210
-0.3275646567 -0.1713284999 0.6387424469 4281019955
-0.3271937072 -0.1704255939 0.6380191445 4280954162
-0.3272663653 -0.1697543859 0.6381607652 4280954162
-0.3268945813 -0.1688533276 0.6374358535 4280954162
-0.3269666433 -0.1681821346 0.6375763416 4280954162
-0.3265940845 -0.1672829241 0.6368498802 4280690990
-0.3257766068 -0.1661584079 0.6352558136 4280427818
-0.3245139718 -0.1648113281 0.6327937245 4280230439
-0.3254736960 -0.1645935774 0.6346651316 4280230441
-0.3242098689 -0.1632520407 0.6322007179 4280296234
-0.3242796957 -0.1625846326 0.6323368549 4280362027
-0.2454738468 -0.0991410911 0.4786675572 4284440172
-0.2455170006 -0.0986265913 0.4787517190 4283913828
-0.2455599457 -0.0981118232 0.4788354337 4285427067
-0.2456026822 -0.0975967869 0.4789187610 4287071894
-0.2451961339 -0.0969039947 0.4781259894 4287532445
-0.2456875145 -0.0965659022 0.4790841937 4287664549
-0.2457296252 -0.0960500613 0.4791662991 4287598756
-0.2457715124 -0.0955339596 0.4792479873 4284506483
-0.2462625653 -0.0951912925 0.4802055359 4283256416
-0.2467535734 -0.0948464870 0.4811629951 4287993764
-0.2467949837 -0.0943277031 0.4812437296 4287927971
-0.2468361706 -0.0938086584 0.4813240469 4285756287
-0.2464274615 -0.0931194350 0.4805270731 4287006354
-0.2469179183 -0.0927698016 0.4814834297 4286611596
-0.2474083006 -0.0924180225 0.4824396670 4282269258
-0.2469988018 -0.0917299166 0.4816411734 4285163638
-0.2479388863 -0.0915418640 0.4834743142 4284900466
-0.2484289855 -0.0911845788 0.4844299853 4286742416
-0.2489190102 -0.0908251479 0.4853855371 4284505454
-0.2498591691 -0.0906268507 0.4872187972 4282071115
-0.2498988509 -0.0900998265 0.4872961938 4283255389
-0.2503886521 -0.0897339433 0.4882512987 4282532177
-0.2513287961 -0.0895263478 0.4900845587 4282466384
-0.2513680458 -0.0889957249 0.4901610613 4282203212
-0.2514070570 -0.0884648487 0.4902371466 4282532177
-0.2514458597 -0.0879337266 0.4903128147 4283453279
-0.2514844239 -0.0874023587 0.4903880060 4284834932
-0.2519735396 -0.0870264322 0.4913417697 4282335568
-0.2520117462 -0.0864936262 0.4914162457 4285822597
-0.2525384128 -0.0855801105 0.4924432933 4287796387
-0.2530644834 -0.0846618265 0.4934690893 4287007128
-0.2531017065 -0.0841259137 0.4935416579 4288651953
-0.2535898983 -0.0837387666 0.4944936633 4288980918
-0.2540780306 -0.0833494812 0.4954454899 4288191402
-0.2536633313 -0.0826638639 0.4946368337 4287928230
-0.2536997199 -0.0821260586 0.4947077632 4288322988
-0.2546388209 -0.0818783715 0.4965390265 4287730851
-0.2546748817 -0.0813381970 0.4966093004 4287928484
-0.2551622987 -0.0809410512 0.4975597858 4287204761
-0.2561013103 -0.0806840584 0.4993908405 4282730323
-0.2561368644 -0.0801403224 0.4994601607 4280295982
-0.2566239834 -0.0797367394 0.5004100204 4279967271
-0.2571109831 -0.0793310106 0.5013597012 4280362029
-0.2575978935 -0.0789231434 0.5023091435 4280558636
-0.2576327026 -0.0783756301 0.5023769736 4280953394
-0.2581193149 -0.0779644400 0.5033258796 4282203715
-0.2581537366 -0.0774155259 0.5033929944 4283387989
-0.2581878901 -0.0768663883 0.5034595728 4283322195
-0.2582218349 -0.0763170421 0.5035257936 4284638055
-0.2582555115 -0.0757674724 0.5035914779 4282335298
-0.2582889795 -0.0752176940 0.5036567450 4279900957
-0.2587746084 -0.0747984648 0.5046036839 4280229925
-0.2583552003 -0.0741174892 0.5037858486 4280164132
-0.2583879530 -0.0735670775 0.5038497448 4280098339
-0.2687143981 -0.0607881546 0.5239860415 4279309337
-0.2691953778 -0.0603137277 0.5249239206 4279769888
-0.2687681615 -0.0596357137 0.5240908861 4280230439
-0.2683406472 -0.0589594729 0.5232571959 4280822062
-0.2688209414 -0.0584825836 0.5241937637 4281019441
-0.2683928013 -0.0578079559 0.5233588815 4281151027
-0.2684184909 -0.0572319441 0.5234090090 4281085234
-0.2684439421 -0.0566557720 0.5234586596 4281085234
-0.2684691548 -0.0560794361 0.5235077739 4281151027
-0.2694027126 -0.0556907654 0.5253282189 4281151027
-0.2698818445 -0.0552050956 0.5262624621 4281019441
-0.2708151639 -0.0548092723 0.5280824900 4281085234
-0.3267575800 -0.1975279450 0.6385516524 4290296770
-0.3269225657 -0.1962080151 0.6388740540 4290033859
-0.3274442255 -0.1958101243 0.6398934722 4289704894
-0.3270865977 -0.1948860884 0.6391946077 4289375929
-0.3271682560 -0.1942243725 0.6393542290 4288915378
-0.3276895583 -0.1938223392 0.6403729320 4288257448
-0.3277708590 -0.1931587458 0.6405317783 4287599518
-0.3278519213 -0.1924946606 0.6406902075 4287138967
-0.3279327452 -0.1918300837 0.6408481598 4286744207
-0.3280133009 -0.1911650300 0.6410056353 4285757312
-0.3276532590 -0.1902437657 0.6403020024 4284638574
-0.3277332485 -0.1895786226 0.6404583454 4283914851
-0.3273724020 -0.1886590719 0.6397531033 4283388507
-0.3274517953 -0.1879938394 0.6399083138 4282664784
-0.3275309503 -0.1873281300 0.6400629878 4281809475
-0.3276098669 -0.1866619438 0.6402172446 4281217338
-0.3276885450 -0.1859952658 0.6403709650 4281151543
-0.3277669847 -0.1853281111 0.6405242085 4280954164
-0.3278451562 -0.1846604943 0.6406770349 4280427820
-0.3279231191 -0.1839923859 0.6408293247 4280098855
-0.3280008137 -0.1833238006 0.6409811974 4280362025
-0.3280782402 -0.1826547384 0.6411325336 4280559404
-0.3281554580 -0.1819852144 0.6412833929 4281217334
-0.3277906477 -0.1810711771 0.6405704618 4281085748
-0.3278672397 -0.1804016083 0.6407201886 4281217334
-0.3275016248 -0.1794893444 0.6400056481 4281217334
-0.3280197084 -0.1790610552 0.6410180926 4281217334
-0.3280955553 -0.1783900857 0.6411663294 4281217334
-0.3277288973 -0.1774791330 0.6404497623 4281151541
-0.3278041482 -0.1768081337 0.6405968666 4281085748
-0.3274366558 -0.1758989841 0.6398787498 4281020210
-0.3275113106 -0.1752279699 0.6400246024 4281086003
-0.3271430433 -0.1743206233 0.6393048763 4281085233
-0.3267742991 -0.1734146178 0.6385843158 4281151026
-0.3268480003 -0.1727440506 0.6387283206 4281216820
-0.3269214332 -0.1720730364 0.6388718486 4281216820
-0.3269946277 -0.1714015752 0.6390148997 4281216820
-0.3266243637 -0.1704983115 0.6382913589 4281151027
-0.3266969621 -0.1698268503 0.6384331584 4281151027
-0.3267692924 -0.1691549569 0.6385745406 4281085234
-0.3268413544 -0.1684826016 0.6387153864 4281151027
-0.3269131780 -0.1678098142 0.6388557553 4280887855
-0.3260973990 -0.1666830182 0.6372615099 4280624429
-0.3257247508 -0.1657852978 0.6365332603 4280427050
-0.3249077797 -0.1646640301 0.6349367499 4280361257
-0.3209824562 -0.1619777232 0.6272658706 4280427050
-0.3157230020 -0.1586381197 0.6169878244 4280427050
-0.2448140979 -0.0964314640 0.4784172177 4287204511
-0.2453880459 -0.0950591266 0.4795387983 4285295999
-0.2458781600 -0.0947151259 0.4804965854 4287862180
-0.2459194511 -0.0941970795 0.4805772901 4287401629
-0.2459605336 -0.0936787650 0.4806575775 4286085767
-0.2460014075 -0.0931601971 0.4807374477 4287467420
-0.2469400167 -0.0929794833 0.4825716913 4284966516
-0.2465315610 -0.0922903940 0.4817734659 4281084729
-0.2470209897 -0.0919372737 0.4827299118 4282663761
-0.2475103438 -0.0915819928 0.4836862385 4282137417
-0.2475503683 -0.0910593048 0.4837644398 4283058010
-0.2480395138 -0.0907006711 0.4847203195 4280426290
-0.2485285848 -0.0903398916 0.4856760800 4283321184
-0.2490175813 -0.0899769589 0.4866316915 4282136910
-0.2490569502 -0.0894504115 0.4867086112 4283190107
-0.2504449785 -0.0894051567 0.4894211292 4286677136
-0.2504841089 -0.0888752565 0.4894976020 4286150792
-0.2509728074 -0.0885037258 0.4904525876 4287203480
-0.2514614165 -0.0881300345 0.4914074242 4287137687
-0.2515000105 -0.0875974968 0.4914828837 4286940308
-0.2515384257 -0.0870647132 0.4915578961 4283980393
-0.2515765727 -0.0865316838 0.4916324914 4286612113
-0.2520646453 -0.0861522555 0.4925862551 4288191145
-0.2521024346 -0.0856177881 0.4926600754 4285888390
-0.2521399856 -0.0850830823 0.4927335083 4286678163
-0.2521773279 -0.0845481455 0.4928064644 4287928230
-0.2526648343 -0.0841629878 0.4937591255 4287862437
-0.2527017891 -0.0836266130 0.4938313365 4287007128
-0.2531890273 -0.0832381174 0.4947835207 4286349198
-0.2536761761 -0.0828474760 0.4957355261 4285625475
-0.2537125647 -0.0823084861 0.4958066642 4285362046
-0.2537487447 -0.0817692652 0.4958773553 4284046186
-0.2546862364 -0.0815183818 0.4977094233 4283783012
-0.2556237578 -0.0812634304 0.4995415211 4284375149
-0.2556595206 -0.0807196945 0.4996113777 4283125081
-0.2561460137 -0.0803171247 0.5005620718 4282927702
-0.2561813593 -0.0797719732 0.5006311536 4283914081
-0.2566675544 -0.0793660805 0.5015813112 4285229941
-0.2576396465 -0.0785478577 0.5034809113 4287006350
-0.2577086091 -0.0774497837 0.5036157370 4287335569
-0.2581941485 -0.0770350918 0.5045645237 4286611332
-0.2582280934 -0.0764845386 0.5046309233 4288190364
-0.2582953274 -0.0753827989 0.5047622919 4279834653
-0.2583285868 -0.0748316050 0.5048272610 4280361511
-0.2583616078 -0.0742802024 0.5048918128 4280229925
-0.2588461339 -0.0738574788 0.5058386922 4280295718
-0.2682790160 -0.0602388829 0.5242725015 4279835681
-0.2687589824 -0.0597631037 0.5252104402 4280296232
-0.2687855065 -0.0591853969 0.5252622366 4280822062
-0.2683584690 -0.0585086904 0.5244277716 4281085234
-0.2683844566 -0.0579316206 0.5244784951 4281216820
-0.2684101760 -0.0573543869 0.5245288014 4281151027
-0.2684356570 -0.0567769855 0.5245785713 4281085234
-0.2684608698 -0.0561994202 0.5246278644 4281151027
-0.2693928778 -0.0558096059 0.5264492035 4281151027
-0.3264388144 -0.1878199279 0.6393163204 4289046964
-0.3265177906 -0.1871548742 0.6394709945 4288454827
-0.3270366788 -0.1867406666 0.6404872537 4287994276
-0.3271152973 -0.1860737503 0.6406412125 4287336598
-0.3267532885 -0.1851568222 0.6399322152 4287073426
-0.3268312812 -0.1844898462 0.6400849819 4286481289
-0.3273496330 -0.1840701401 0.6411001682 4285889152
-0.3274272680 -0.1834013015 0.6412521601 4285099123
-0.3275046349 -0.1827320009 0.6414037347 4283256919
-0.3275817633 -0.1820622236 0.6415547729 4281480506
-0.3267766833 -0.1809037030 0.6399779916 4281414713
-0.3268530965 -0.1802347898 0.6401277184 4281283127
-0.3269292712 -0.1795653999 0.6402769089 4281348920
-0.3270052075 -0.1788955480 0.6404256225 4281283127
-0.3270809054 -0.1782252342 0.6405738592 4281283127
-0.3271563351 -0.1775544584 0.6407215595 4281283382
-0.3272315264 -0.1768832058 0.6408688426 4281151796
-0.3273064494 -0.1762115061 0.6410155892 4281086003
-0.3269393444 -0.1753024310 0.6402965784 4281086003
-0.3270136714 -0.1746307164 0.6404421926 4281151026
-0.3266457319 -0.1737234592 0.6397215724 4281216819
-0.3267194629 -0.1730517298 0.6398659945 4281282613
-0.3267929554 -0.1723795533 0.6400098801 4281282613
-0.3268661797 -0.1717069298 0.6401532888 4281282613
-0.3264967203 -0.1708023995 0.6394297481 4281282613
-0.3265693486 -0.1701297760 0.6395719647 4281216820
-0.3266417086 -0.1694567055 0.6397137046 4281151027
-0.3267138302 -0.1687831879 0.6398549080 4281151027
-0.3267856538 -0.1681092381 0.6399956346 4280953648
-0.3264143765 -0.1672079414 0.6392684579 4280690222
-0.3255996108 -0.1660820842 0.6376728415 4280492843
-0.3247842491 -0.1649594456 0.6360759139 4280296234
-0.3204227388 -0.1620469838 0.6275340915 4280296234
-0.3182754517 -0.1602684855 0.6233287454 4280296234
-0.2442193776 -0.0985321254 0.4782931209 4288190123
-0.2442621738 -0.0980178788 0.4783769250 4289966534
-0.2443047613 -0.0975033566 0.4784603119 4289637569
-0.2438995987 -0.0968109369 0.4776668549 4287926951
-0.2439416945 -0.0962968320 0.4777492881 4284309619
-0.2444312423 -0.0959582031 0.4787080288 4284243826
-0.2449207306 -0.0956174210 0.4796667099 4286414480
-0.2440666854 -0.0947529152 0.4779940844 4285032827
-0.2450037450 -0.0945835784 0.4798292518 4284835702
-0.2454929054 -0.0942382291 0.4807872474 4284506737
-0.2455339432 -0.0937197134 0.4808676541 4283125082
-0.2455747873 -0.0932009295 0.4809476137 4283454047
-0.2465118170 -0.0930201486 0.4827827513 4281875015
-0.2461040914 -0.0923307762 0.4819842279 4281743429
-0.2470410615 -0.0921447352 0.4838192463 4284440174
-0.2475296706 -0.0917883664 0.4847761989 4283255900
-0.2480182201 -0.0914298445 0.4857330024 4283321695
-0.2480581403 -0.0909047872 0.4858111441 4282269007
-0.2489951104 -0.0907063484 0.4876461923 4287861158
-0.2494834363 -0.0903413668 0.4886025488 4284966266
-0.2499716878 -0.0899742395 0.4895587862 4284769141
-0.2500109971 -0.0894443691 0.4896357954 4285887622
-0.2504990399 -0.0890738815 0.4905915558 4284111209
-0.2500889897 -0.0883838907 0.4897885025 4287795617
-0.2510257661 -0.0881687328 0.4916231632 4288717489
-0.2510643601 -0.0876359642 0.4916987121 4287335836
-0.2511027157 -0.0871029571 0.4917738438 4285296253
-0.2511408329 -0.0865697116 0.4918485284 4287270043
-0.2511787713 -0.0860362127 0.4919227660 4287533215
-0.2516658604 -0.0856554359 0.4928767085 4282927705
-0.2517033815 -0.0851205066 0.4929502010 4283454306
-0.2512911558 -0.0844342932 0.4921428859 4285428096
-0.2522273660 -0.0842000246 0.4939764142 4283914857
-0.2522642910 -0.0836634263 0.4940487444 4281941067
-0.2527507246 -0.0832747668 0.4950014055 4282401618
-0.2527872622 -0.0827367455 0.4950729609 4281414723
-0.2528235614 -0.0821984932 0.4951440692 4281809224
-0.2533095777 -0.0818053037 0.4960958958 4281875017
-0.2537955046 -0.0814099759 0.4970475435 4284901493
-0.2547313571 -0.0811558813 0.4988803864 4286677904
-0.2552171350 -0.0807552934 0.4998317659 4286216838
-0.2557028234 -0.0803525671 0.5007829070 4287072147
-0.2557381392 -0.0798071772 0.5008521080 4288059040
-0.2562235296 -0.0794011131 0.5018027425 4288124833
-0.2567088008 -0.0789929107 0.5027531385 4288190624
-0.2567435503 -0.0784449279 0.5028212070 4288190624
-0.2572285533 -0.0780333877 0.5037710667 4288585123
-0.2577134371 -0.0776197091 0.5047206879 4288058779
-0.2572970092 -0.0769344047 0.5039051175 4288058778
-0.2573308945 -0.0763845891 0.5039714575 4288124571
-0.2573645115 -0.0758345500 0.5040373206 4286084988
-0.2573979199 -0.0752843022 0.5041027665 4280295204
-0.2574310899 -0.0747338384 0.5041677356 4280493097
-0.2583658397 -0.0744429976 0.5059983730 4280361511
-0.2579476833 -0.0737612247 0.5051794648 4280427304
-0.2584312260 -0.0733371526 0.5061264038 4280493097
-0.2686937153 -0.0610479079 0.5262250900 4279506971
-0.2682684064 -0.0603675209 0.5253920555 4279901474
-0.2682951391 -0.0597897358 0.5254445076 4280296232
-0.2678691745 -0.0591119267 0.5246102214 4280887601
-0.2678953707 -0.0585347749 0.5246615410 4281084980
-0.2679213285 -0.0579574555 0.5247123837 4281282359
-0.2679470479 -0.0573799647 0.5247627497 4281216566
-0.2679724991 -0.0568023100 0.5248125792 4281150773
-0.2684503794 -0.0563194677 0.5257484913 4281150773
-0.2693808675 -0.0559285060 0.5275707841 4281150773
-0.2694056928 -0.0553474352 0.5276194215 4281084980
-0.2703358829 -0.0549502932 0.5294411778 4281084980
-0.2703602910 -0.0543669537 0.5294889808 4281150773
-0.3262579441 -0.1845676750 0.6403549910 4289441720
-0.3263356388 -0.1838999689 0.6405075192 4289178548
-0.3268530071 -0.1834787428 0.6415229440 4288981423
-0.3269303143 -0.1828091890 0.6416746378 4286481289
-0.3265672326 -0.1818940341 0.6409620643 4281875266
-0.3262037337 -0.1809802055 0.6402485967 4281677887
-0.3262800872 -0.1803110391 0.6403985023 4281348920
-0.3263562024 -0.1796414107 0.6405478716 4281348920
-0.3264320791 -0.1789713055 0.6406967640 4281348920
-0.3265076876 -0.1783007383 0.6408451796 4281348920
-0.3265830576 -0.1776297092 0.6409931183 4281348920
-0.3266581893 -0.1769582033 0.6411405802 4281217334
-0.3267330527 -0.1762862504 0.6412875056 4281282612
-0.3263666332 -0.1753768325 0.6405683160 4281216819
-0.3264409006 -0.1747048646 0.6407141089 4281282613
-0.3260736763 -0.1737972498 0.6399933100 4281282613
-0.3261473477 -0.1731252819 0.6401379108 4281282613
-0.3262207508 -0.1724528521 0.6402819753 4281348406
-0.3262939155 -0.1717799604 0.6404255629 4281348406
-0.3263668120 -0.1711066216 0.6405686736 4281282613
-0.3259977400 -0.1702022105 0.6398442984 4281085748
-0.3260700107 -0.1695288867 0.6399861574 4281085748
-0.3261420727 -0.1688551158 0.6401275396 4281019955
-0.3262138665 -0.1681808978 0.6402684450 4280822576
-0.3258432746 -0.1672792584 0.6395410895 4280625199
-0.3229591548 -0.1636857837 0.6338803768 4280362027
-0.3199313581 -0.1614535153 0.6279376745 4280362027
-0.2433047742 -0.0989076868 0.4775406420 4287137689
-0.2433476448 -0.0983944461 0.4776248038 4287005849
-0.2433903217 -0.0978809297 0.4777085781 4287795365
-0.2434327900 -0.0973671451 0.4777919054 4287532193
-0.2430283129 -0.0966753811 0.4769980311 4285097852
-0.2430702746 -0.0961620063 0.4770804048 4282203730
-0.2435589433 -0.0958241969 0.4780395031 4282203730
-0.2436005622 -0.0953093469 0.4781212211 4283322209
-0.2440890372 -0.0949681699 0.4790799320 4282861658
-0.2450245768 -0.0947978273 0.4809161425 4283388256
-0.2446185946 -0.0941073075 0.4801193178 4284638323
-0.2451068014 -0.0937606171 0.4810775518 4285954181
-0.2451476008 -0.0932416245 0.4811576307 4286480525
-0.2456356138 -0.0928915739 0.4821154475 4283980391
-0.2456760556 -0.0923711136 0.4821948409 4284309356
-0.2461638600 -0.0920177028 0.4831522405 4287137687
-0.2466515899 -0.0916621462 0.4841095507 4285821827
-0.2471392602 -0.0913044289 0.4850666821 4284703348
-0.2471790612 -0.0907801017 0.4851448238 4283782246
-0.2476665080 -0.0904190317 0.4861015379 4288650674
-0.2486018091 -0.0902183652 0.4879372716 4286940056
-0.2495371848 -0.0900136381 0.4897731543 4285887622
-0.2500245273 -0.0896442011 0.4907297194 4287466654
-0.2500636876 -0.0891129151 0.4908065200 4286808722
-0.2501026094 -0.0885813758 0.4908829033 4287664031
-0.2501412928 -0.0880495906 0.4909588695 4288190375
-0.2501797676 -0.0875175595 0.4910343885 4287861410
-0.2506664395 -0.0871411711 0.4919895828 4285756550
-0.2507045269 -0.0866077021 0.4920643568 4284111725
-0.2507424057 -0.0860739872 0.4921387136 4282993244
-0.2512286901 -0.0856930465 0.4930931330 4281940556
-0.2512661815 -0.0851578936 0.4931667447 4281282880
-0.2517522275 -0.0847736150 0.4941206872 4282927705
-0.2517893314 -0.0842370316 0.4941935241 4283980393
-0.2522751093 -0.0838494077 0.4951469898 4283125084
-0.2523118556 -0.0833113939 0.4952190816 4285164667
-0.2527973652 -0.0829204246 0.4961720407 4284967288
-0.2537318766 -0.0826736316 0.4980062246 4285033081
-0.2533189952 -0.0819866806 0.4971958101 4283783014
-0.2542533576 -0.0817346349 0.4990297258 4287796385
-0.2547384799 -0.0813350677 0.4999819100 4288454315
-0.2552235126 -0.0809333548 0.5009338856 4286743182
-0.2552590370 -0.0803879723 0.5010035634 4286611596
-0.2557438016 -0.0799829215 0.5019550323 4287401112
-0.2557789087 -0.0794361234 0.5020239353 4288059042
-0.2562633753 -0.0790277421 0.5029748678 4288388005
-0.2562980950 -0.0784795359 0.5030429959 4287664282
-0.2567822933 -0.0780678242 0.5039933324 4287664534
-0.2568165958 -0.0775182098 0.5040606856 4287796120
-0.2568506896 -0.0769683719 0.5041275620 4287927705
-0.2568845153 -0.0764183179 0.5041939616 4285493364
-0.2569181323 -0.0758680478 0.5042599440 4284177505
-0.2569515109 -0.0753175616 0.5043254495 4280756269
-0.2574347258 -0.0748978034 0.5052738786 4280427304
-0.2570175827 -0.0742159560 0.5044550896 4280427304
-0.2575004101 -0.0737938434 0.5054028034 4280427304
-0.2682285607 -0.0610750690 0.5264592171 4279572764
-0.2673523724 -0.0602925383 0.5247395039 4279967267
-0.2678306997 -0.0598163493 0.5256783366 4280296232
-0.2674054801 -0.0591382422 0.5248437524 4280887601
-0.2669799328 -0.0584619194 0.5240085125 4281150773
-0.2674576044 -0.0579832643 0.5249460340 4281282359
-0.2679351270 -0.0575024933 0.5258832574 4281216566
-0.2675087154 -0.0568276159 0.5250464082 4281150773
-0.2684377432 -0.0564395785 0.5268697739 4281216566
-0.2689394951 -0.0553721078 0.5278546214 4281150773
-0.2698681355 -0.0549747944 0.5296772122 4281084980
-0.3257614970 -0.1839774847 0.6407774687 4289244341
-0.3259159923 -0.1826401651 0.6410813928 4287599516
-0.3259928823 -0.1819708049 0.6412326097 4281415228
-0.3260695338 -0.1813009679 0.6413833499 4281481021
-0.3252668083 -0.1801437736 0.6398044229 4281348922
-0.3253427744 -0.1794748008 0.6399537921 4281283129
-0.3258582056 -0.1790469885 0.6409677267 4281348920
-0.3259337544 -0.1783761680 0.6411163211 4281348920
-0.3255690932 -0.1774650663 0.6403990388 4281414199
-0.3256440461 -0.1767942309 0.6405464411 4281414199
-0.3257187605 -0.1761229336 0.6406933665 4281348406
-0.3257932067 -0.1754511595 0.6408398151 4281282613
-0.3254270256 -0.1745427549 0.6401195526 4281348406
-0.3255008757 -0.1738709807 0.6402648091 4281348406
-0.3255744874 -0.1731987596 0.6404095888 4281282359
-0.3256478310 -0.1725260764 0.6405538917 4281282359
-0.3252801597 -0.1716203839 0.6398306489 4281151543
-0.3253528774 -0.1709477007 0.6399737597 4281151543
-0.3254253864 -0.1702745706 0.6401163340 4281085750
-0.3254975975 -0.1696009934 0.6402583718 4281085750
-0.3255695701 -0.1689269692 0.6403999925 4281019957
-0.3256413043 -0.1682524979 0.6405410767 4280822578
-0.3248300850 -0.1671234369 0.6389453411 4280493872
-0.3244596422 -0.1662237495 0.6382167339 4280362286
-0.3236472309 -0.1651002169 0.6366187334 4280296493
-0.3223925531 -0.1637555808 0.6341507435 4280362286
-0.3193701208 -0.1615224034 0.6282055378 4280362540
-0.2433254570 -0.0991322026 0.4786246121 4284637301
-0.2429226488 -0.0984371901 0.4778322875 4283781993
-0.2429652959 -0.0979234651 0.4779161513 4283255649
-0.2430077195 -0.0974094719 0.4779996276 4283058270
-0.2430499345 -0.0968952179 0.4780826867 4284045165
-0.2435379922 -0.0965575352 0.4790426791 4284177520
-0.2440259904 -0.0962176993 0.4800025821 4284901243
-0.2436215430 -0.0955257937 0.4792070091 4287203482
-0.2450018078 -0.0955315530 0.4819220304 4287335068
-0.2450845391 -0.0944925547 0.4820847809 4289637821
-0.2461003363 -0.0932706445 0.4840828478 4283322461
-0.2461408973 -0.0927480757 0.4841626287 4286348939
-0.2466280311 -0.0923926234 0.4851208329 4288716719
-0.2466682345 -0.0918685943 0.4851998985 4287335066
-0.2471551448 -0.0915097892 0.4861576855 4286874263
-0.2471949905 -0.0909842923 0.4862360358 4286018954
-0.2476816922 -0.0906221271 0.4871934056 4288255917
-0.2481683195 -0.0902578011 0.4881505966 4286479506
-0.2486548722 -0.0898913294 0.4891076684 4285427071
-0.2491413504 -0.0895226970 0.4900645614 4285756036
-0.2491803914 -0.0889921412 0.4901413321 4284505969
-0.2492191941 -0.0884613395 0.4902176857 4283190109
-0.2497052997 -0.0880881473 0.4911738336 4283124314
-0.2497437298 -0.0875558928 0.4912494719 4282729556
-0.2497819513 -0.0870233998 0.4913246334 4284308590
-0.2502676547 -0.0866456553 0.4922800362 4285624450
-0.2503055036 -0.0861117169 0.4923544824 4285163899
-0.2503431141 -0.0855775401 0.4924284816 4286348173
-0.2508284450 -0.0851952508 0.4933830798 4284572530
-0.2508656681 -0.0846596360 0.4934563339 4285296253
-0.2513507307 -0.0842740089 0.4944104552 4286348939
-0.2518357038 -0.0838862211 0.4953643978 4285756802
-0.2523205876 -0.0834962875 0.4963181317 4288717489
-0.2528053522 -0.0831042007 0.4972717166 4287072664
-0.2528417408 -0.0825635791 0.4973432720 4286019976
-0.2537746131 -0.0823135749 0.4991782606 4284638323
-0.2542590797 -0.0819150433 0.5001312494 4288651693
-0.2551919520 -0.0816578642 0.5019661784 4287335833
-0.2552277446 -0.0811115131 0.5020365715 4285691008
-0.2552632987 -0.0805649385 0.5021064878 4287072661
-0.2557472885 -0.0801587626 0.5030585527 4287401112
-0.2557824552 -0.0796107650 0.5031276941 4286282631
-0.2562661767 -0.0792012587 0.5040791631 4285690492
-0.2567497790 -0.0787895992 0.5050304532 4284900976
-0.2567843497 -0.0782390088 0.5050984621 4283519575
-0.2563697100 -0.0775523782 0.5042828321 4282203715
-0.2564037740 -0.0770023093 0.5043498278 4282006336
-0.2568866909 -0.0765859112 0.5052997470 4280887855
-0.2569537461 -0.0754827634 0.5054316521 4280295718
-0.2668612003 -0.0608964749 0.5249197483 4279506971
-0.2668881118 -0.0603193343 0.5249726772 4279901474
-0.2669147849 -0.0597420223 0.5250251293 4280362025
-0.2664902806 -0.0590645932 0.5241901278 4280822062
-0.2665163875 -0.0584879145 0.5242415071 4281085234
-0.2665422559 -0.0579110645 0.5242924094 4281216820
-0.2665678859 -0.0573340468 0.5243427753 4281151027
-0.2670443356 -0.0568529032 0.5252799988 4281151027
-0.2679717541 -0.0564646944 0.5271042585 4281282613
-0.2684479058 -0.0559783354 0.5280408263 4281282613
-0.2707535028 -0.0552756488 0.5325759649 4281282613
-0.3249025047 -0.1824708730 0.6404871345 4286875795
-0.3249792159 -0.1818021536 0.6406383514 4280823091
-0.3250556886 -0.1811329722 0.6407890916 4280757298
-0.3251319230 -0.1804633141 0.6409393549 4281414715
-0.3252078891 -0.1797931939 0.6410890818 4281348922
-0.3252836168 -0.1791225970 0.6412383914 4281348922
-0.3253591061 -0.1784515232 0.6413871646 4281348922
-0.3249951303 -0.1775400788 0.6406697035 4281283129
-0.3246307373 -0.1766299754 0.6399513483 4281217336
-0.3247052729 -0.1759593338 0.6400982738 4281283127
-0.3247795403 -0.1752882302 0.6402447224 4281217334
-0.3248535693 -0.1746166646 0.6403906345 4281348406
-0.3249273598 -0.1739446372 0.6405360699 4281282613
-0.3250008821 -0.1732721627 0.6406810284 4281282613
-0.3250741661 -0.1725992262 0.6408255100 4281216820
-0.3247072101 -0.1716931909 0.6401020885 4281216566
-0.3247798681 -0.1710202545 0.6402453780 4281216566
-0.3244121075 -0.1701160520 0.6395203471 4281216566
-0.3244841695 -0.1694431305 0.6396624446 4281216566
-0.3245559931 -0.1687697619 0.6398040056 4281084980
-0.3246275485 -0.1680959463 0.6399450898 4280887601
-0.3242582977 -0.1671945304 0.6392171383 4280624429
-0.3234479129 -0.1660682410 0.6376196146 4280558636
-0.3226369023 -0.1649451703 0.6360208392 4280558638
-0.3218252361 -0.1638253331 0.6344208121 4280558638
-0.3214538991 -0.1629322320 0.6336888075 4280558638
