VERSION 0.7
FIELDS x y z rgba
SIZE 4 4 4 4
TYPE F F F U
COUNT 1 1 1 1
WIDTH 920
HEIGHT 1
VIEWPOINT 0.0 0.0 0.0 1.0 0.0 0.0 0.0
POINTS 920
DATA ascii
-0.3429591060 -0.1930613965 0.5372730494 4279768853
-0.3440782726 -0.1930925101 0.5390263796 4280163611
-0.3457130194 -0.1934081614 0.5415872931 4279834394
-0.3452869058 -0.1925687790 0.5409197807 4279373843
-0.3443448544 -0.1914440244 0.5394439697 4279373845
-0.3428864479 -0.1900363714 0.5371592641 4279439638
-0.3409112692 -0.1883483082 0.5340650082 4279373590
-0.3394507170 -0.1869505346 0.5317769051 4279439383
-0.3390212059 -0.1861238778 0.5311040282 4279439895
-0.3380750716 -0.1850160062 0.5296218395 4279439895
-0.3376444876 -0.1841926575 0.5289472938 4279505942
-0.3377298415 -0.1836513728 0.5290810466 4279440149
-0.3383315206 -0.1833896637 0.5300235748 4279374356
-0.3384165764 -0.1828467250 0.5301568508 4279374356
-0.3390182257 -0.1825817078 0.5310993791 4279242516
-0.3401368558 -0.1825921237 0.5328518152 4280689962
-0.3412557840 -0.1825987995 0.5346046686 4281282099
-0.3423750103 -0.1826017350 0.5363580585 4280360997
-0.3445291519 -0.1831509471 0.5397326946 4279966239
-0.3435795009 -0.1820480824 0.5382449627 4279900446
-0.3457344770 -0.1825881451 0.5416209102 4280032032
-0.3473725915 -0.1828486174 0.5441871881 4279900446
-0.3484934270 -0.1828320175 0.5459430218 4279900446
-0.3501324952 -0.1830824912 0.5485107303 4279900446
-0.3517720699 -0.1833275408 0.5510793328 4279900446
-0.3518576026 -0.1827596873 0.5512133241 4279966239
-0.3519429266 -0.1821914017 0.5513469577 4280031775
-0.3525464535 -0.1818902045 0.5522924662 4280031775
-0.3531500101 -0.1815869063 0.5532379746 4280031775
-0.3542723060 -0.1815473437 0.5549961329 4280031775
-0.3548760414 -0.1812390387 0.5559419394 4279834905
-0.3549608290 -0.1806645095 0.5560747385 4279834905
-0.3560835421 -0.1806161404 0.5578336120 4280228384
-0.3572065234 -0.1805640012 0.5595928431 4281215279
-0.3593684137 -0.1810313016 0.5629795790 4284437582
-0.3584143817 -0.1799268574 0.5614850521 4284634961
-0.3600574732 -0.1801249832 0.5640590191 4285160003
-0.3611813486 -0.1800585687 0.5658196807 4285094210
-0.3612658679 -0.1794718951 0.5659521222 4285290306
-0.3608302474 -0.1786274165 0.5652696490 4285224513
-0.3609141707 -0.1780407578 0.5654011369 4285290306
-0.3609978557 -0.1774536967 0.5655322671 4285356099
-0.3605610430 -0.1766113788 0.5648478866 4285160000
-0.3606441319 -0.1760243475 0.5649780631 4285160000
-0.3607269824 -0.1754369140 0.5651078820 4285160514
-0.3608095944 -0.1748490781 0.5652373433 4285094721
-0.3608919680 -0.1742608398 0.5653663874 4285356869
-0.3609741330 -0.1736721992 0.5654950738 4285356869
-0.3615770340 -0.1733329147 0.5664395690 4285356869
-0.3616587818 -0.1727426201 0.5665676594 4285356869
-0.3617403209 -0.1721519232 0.5666953921 4285356869
-0.3623429835 -0.1718080342 0.5676394701 4285356869
-0.3624241352 -0.1712156832 0.5677666068 4285422660
-0.3630266488 -0.1708684415 0.5687105060 4285488453
-0.3636291325 -0.1705190986 0.5696543455 4285422660
-0.3631879687 -0.1696800590 0.5689632297 4285488453
-0.3632682860 -0.1690852791 0.5690890551 4285554246
-0.3633483350 -0.1684900969 0.5692144632 4285554246
-0.3634281456 -0.1678945273 0.5693394542 4285554246
-0.3640299737 -0.1675389409 0.5702822804 4285488453
-0.3646317720 -0.1671812385 0.5712251067 4285356867
-0.3647110760 -0.1665827781 0.5713492632 4285225281
-0.3653127253 -0.1662217379 0.5722918510 4285291329
-0.3653916419 -0.1656216383 0.5724154115 4285291329
-0.3654702902 -0.1650211513 0.5725386143 4285225536
-0.3655486703 -0.1644202918 0.5726614594 4285291329
-0.3661498725 -0.1640533954 0.5736032724 4285357122
-0.3662278950 -0.1634508967 0.5737255216 4285357122
-0.3663056195 -0.1628480107 0.5738472939 4285291329
-0.3669065237 -0.1624765098 0.5747886300 4285225536
-0.3669838607 -0.1618719995 0.5749098063 4285225536
-0.3670609593 -0.1612671018 0.5750305653 4285291329
-0.3671377897 -0.1606618315 0.5751509666 4285357122
-0.3672143817 -0.1600561738 0.5752708912 4285357122
-0.3672907054 -0.1594501287 0.5753904581 4285422660
-0.3684148788 -0.1592969149 0.5771515965 4285422660
-0.3679667413 -0.1584626585 0.5764495134 4285422660
-0.3685666621 -0.1580795050 0.5773893595 4285422660
-0.3686421514 -0.1574702263 0.5775076747 4285356867
-0.3687174022 -0.1568605900 0.5776255131 4285356867
-0.3693169653 -0.1564728320 0.5785648227 4285356867
-0.3693917990 -0.1558615714 0.5786820054 4285356867
-0.3694663644 -0.1552499533 0.5787988305 4285356867
-0.3695406616 -0.1546379477 0.5789151788 4285291074
-0.3701396883 -0.1542443633 0.5798536539 4285225536
-0.3702135682 -0.1536307633 0.5799694061 4285225536
-0.3702871799 -0.1530167907 0.5800846815 4285225536
-0.3708858490 -0.1526186317 0.5810225606 4285159743
-0.3709590435 -0.1520030648 0.5811372399 4285159743
-0.3710319400 -0.1513871253 0.5812514424 4285159743
-0.3711045980 -0.1507708281 0.5813652277 4285159743
-0.3717027009 -0.1503668427 0.5823022723 4285225536
-0.3717749119 -0.1497489512 0.5824153423 4285357122
-0.3723728061 -0.1493416429 0.5833520293 4285357122
-0.3724445701 -0.1487221420 0.5834644437 4285488453
-0.3725160658 -0.1481022984 0.5835764408 4285422660
-0.3731135726 -0.1476904154 0.5845124722 4285291074
-0.3731846213 -0.1470689774 0.5846237540 4285225281
-0.3732554018 -0.1464471966 0.5847346783 4285291074
-0.3733259141 -0.1458250582 0.5848451257 4285225281
-0.3739227951 -0.1454073638 0.5857802033 4285225281
-0.3739928603 -0.1447836459 0.5858899355 4285159488
-0.3740626574 -0.1441595703 0.5859993100 4285225281
-0.3746590912 -0.1437373161 0.5869336724 4285225281
-0.3747284412 -0.1431116611 0.5870422721 4285225281
-0.3747974932 -0.1424856633 0.5871504545 4285225281
-0.3748662770 -0.1418593377 0.5872582197 4285225281
-0.3749347627 -0.1412326545 0.5873655081 4285225281
-0.3755304217 -0.1408033818 0.5882986784 4285225281
-0.3755984604 -0.1401751339 0.5884052515 4285159488
-0.3756662011 -0.1395465434 0.5885114074 4285159488
-0.3762614131 -0.1391127110 0.5894438028 4285159488
-0.3763287067 -0.1384825706 0.5895492435 4285159488
-0.3763957024 -0.1378520727 0.5896542072 4285159488
-0.3769904375 -0.1374137104 0.5905858874 4285225281
-0.3770569563 -0.1367816627 0.5906901360 4285225281
-0.3776513934 -0.1363399625 0.5916213393 4285159488
-0.3777174652 -0.1357063651 0.5917248726 4285159488
-0.3777832389 -0.1350724399 0.5918278694 4285093695
-0.3778487444 -0.1344381720 0.5919305086 4285093695
-0.3779139519 -0.1338035762 0.5920326710 4285093695
-0.3785074949 -0.1333549172 0.5929625034 4285093695
-0.3785722256 -0.1327187866 0.5930638909 4285093695
-0.3791654706 -0.1322667897 0.5939933062 4285027902
-0.3792297244 -0.1316291243 0.5940939188 4284962109
-0.3792936802 -0.1309911311 0.5941941142 4284896316
-0.3798864186 -0.1305346191 0.5951226950 4285027387
-0.3799498677 -0.1298950911 0.5952221155 4285027387
-0.3805423081 -0.1294352561 0.5961502194 4284764730
-0.3806052804 -0.1287941933 0.5962488651 4284501558
-0.3806679547 -0.1281528175 0.5963470340 4284370487
-0.3807303309 -0.1275111288 0.5964447260 4284304694
-0.3807924092 -0.1268691272 0.5965420008 4283910197
-0.3813838959 -0.1264023632 0.5974686146 4283515439
-0.3814454973 -0.1257588267 0.5975651145 4283187503
-0.3815067708 -0.1251149923 0.5976611376 4282924331
-0.3820977211 -0.1246437207 0.5985869169 4282464297
-0.3821585178 -0.1239983737 0.5986821055 4282201125
-0.3822190166 -0.1233527139 0.5987768769 4281938212
-0.3828094006 -0.1228769422 0.5997017622 4281872419
-0.3828693628 -0.1222297773 0.5997957587 4281346590
-0.3829290569 -0.1215823069 0.5998892188 4280820246
-0.3829884231 -0.1209345385 0.5999822617 4280163357
-0.3830475211 -0.1202864721 0.6000748277 4279768599
-0.3831062913 -0.1196381003 0.6001668572 4279439636
-0.3831647635 -0.1189894304 0.6002585292 4279439636
-0.3832229674 -0.1183404699 0.6003496647 4279637015
-0.3832808435 -0.1176912114 0.6004403234 4279637015
-0.3833384216 -0.1170416549 0.6005305052 4279571222
-0.3833957016 -0.1163918152 0.6006202698 4279571222
-0.3829215765 -0.1155813709 0.5998774767 4279505429
-0.3835093379 -0.1150912568 0.6007983088 4279571222
-0.3835657239 -0.1144405454 0.6008865833 4279505431
-0.3836217821 -0.1137895435 0.6009744406 4279505431
-0.3836775422 -0.1131382659 0.6010618210 4279439638
-0.3837330043 -0.1124866977 0.6011486650 4279439638
-0.3843197227 -0.1119897440 0.6020678282 4279439638
-0.3849062920 -0.1114907116 0.6029866934 4279505431
-0.3854926825 -0.1109895855 0.6039053798 4279176723
-0.3866107464 -0.1106385589 0.6056568623 4278979344
-0.3849717677 -0.0967680216 0.6030892730 4279242516
-0.3850194812 -0.0961098596 0.6031640768 4279242770
-0.3850668967 -0.0954514518 0.6032383442 4279242770
-0.3856942654 -0.0942642987 0.6042211652 4279571220
-0.3857407868 -0.0936042517 0.6042940617 4280031508
-0.3836526573 -0.0924297646 0.6010227799 4280426266
-0.3836982846 -0.0917728990 0.6010943055 4281083165
-0.3832099140 -0.0909890831 0.6003292203 4281412130
-0.3837886453 -0.0904584825 0.6012358665 4281740835
-0.3832994998 -0.0896760300 0.6004695892 4282004007
-0.3833438456 -0.0890191570 0.6005390286 4282200093
-0.3833878338 -0.0883620530 0.6006079316 4282265886
-0.3834315240 -0.0877047330 0.6006764174 4282463265
-0.3829408288 -0.0869259462 0.5999076366 4282529058
-0.3829838336 -0.0862690955 0.5999750495 4282463265
-0.3835607171 -0.0857314244 0.6008787751 4282463265
-0.3830688894 -0.0849547237 0.6001082659 4282463265
-0.3831109107 -0.0842972174 0.6001741290 4282529058
-0.3826182783 -0.0835228339 0.5994023681 4282725921
-0.3826596439 -0.0828658119 0.5994671583 4282857507
-0.3821661770 -0.0820937604 0.5986940861 4282989093
-0.3822068274 -0.0814372301 0.5987578034 4282989093
-0.3822471797 -0.0807804987 0.5988209844 4282923300
-0.3822872043 -0.0801235512 0.5988837481 4282857507
-0.3817921877 -0.0793552622 0.5981082320 4282923300
-0.3818315268 -0.0786988288 0.5981698632 4282989093
-0.3824053705 -0.0781514943 0.5990688205 4282923302
-0.3819092512 -0.0773853585 0.5982915759 4282923302
-0.3819476068 -0.0767283216 0.5983517170 4282923302
-0.3814506829 -0.0759645477 0.5975732207 4282923302
-0.3814883530 -0.0753080398 0.5976322889 4282923300
-0.3809906244 -0.0745466352 0.5968525410 4282989093
-0.3810276091 -0.0738906637 0.5969104767 4283054886
-0.3810642958 -0.0732345060 0.5969679356 4283120679
-0.3811006546 -0.0725781545 0.5970248580 4283318058
-0.3811366856 -0.0719216168 0.5970813036 4283449644
-0.3806370497 -0.0711648017 0.5962985754 4283383849
-0.3812077940 -0.0706079826 0.5971927047 4283515435
-0.3807074130 -0.0698526502 0.5964088440 4283646764
-0.3807421029 -0.0691962987 0.5964632034 4283580971
-0.3807764649 -0.0685397759 0.5965170264 4283580971
-0.3797393441 -0.0676921234 0.5948922634 4283580971
-0.3803086281 -0.0671316460 0.5957841277 4283514924
-0.3803419769 -0.0664755180 0.5958363414 4283514924
-0.3798393011 -0.0657265186 0.5950488448 4283449131
-0.3793361783 -0.0649791956 0.5942606926 4283514924
-0.3782968223 -0.0641426966 0.5926324725 4283580971
-0.3794004619 -0.0636694506 0.5943614244 4283646764
-0.3788962066 -0.0629253238 0.5935714245 4283646764
-0.3783915341 -0.0621828921 0.5927808285 4283646764
-0.3778864741 -0.0614421479 0.5919895768 4283712557
-0.3779170215 -0.0607893206 0.5920374990 4283646764
-0.3774111867 -0.0600510351 0.5912449956 4283646764
-0.3769049048 -0.0593144484 0.5904519558 4283646764
-0.3769344389 -0.0586630106 0.5904981494 4283580971
-0.3764274120 -0.0579288974 0.5897038579 4283646764
-0.3764562309 -0.0572780780 0.5897490382 4283646764
-0.3759484291 -0.0565464497 0.5889535546 4283580971
-0.3749039173 -0.0557367876 0.5873171687 4283646762
-0.3754680455 -0.0551671237 0.5882009268 4283646762
-0.3749590814 -0.0544396974 0.5874035954 4283712555
-0.3749861717 -0.0537909381 0.5874460936 4283712555
-0.3750129640 -0.0531420372 0.5874880552 4283712555
-0.3745028973 -0.0524179041 0.5866889954 4283712555
-0.3739924133 -0.0516954884 0.5858892798 4283778348
-0.3740181625 -0.0510480404 0.5859296322 4283778348
-0.3740435839 -0.0504004546 0.5859694481 4283844141
-0.3740687072 -0.0497527383 0.5860087872 4283778348
-0.3735567629 -0.0490344428 0.5852067471 4283778348
-0.3730444312 -0.0483178794 0.5844041705 4283844141
-0.3725317121 -0.0476030484 0.5836009383 4283778348
-0.3720186055 -0.0468899496 0.5827971101 4283778348
-0.3725788295 -0.0463120565 0.5836747289 4283844141
-0.3720650077 -0.0456005782 0.5828698277 4283778348
-0.3715507984 -0.0448908433 0.5820642710 4284041519
-0.3704992533 -0.0441189110 0.5804169178 4283975726
-0.3699842393 -0.0434135944 0.5796101689 4283909933
-0.3705428839 -0.0428341851 0.5804852843 4283844140
-0.3700271845 -0.0421305075 0.5796774030 4283844140
-0.3695110977 -0.0414285809 0.5788689256 4283909933
-0.3689946234 -0.0407284126 0.5780598521 4283975726
-0.3684777915 -0.0400299951 0.5772501230 4283975726
-0.3690348864 -0.0394481830 0.5781229138 4284041262
-0.3695917428 -0.0388644040 0.5789952278 4283975469
-0.3685366511 -0.0381119847 0.5773423910 4284041262
-0.3680183887 -0.0374178253 0.5765304565 4284107055
-0.3680370152 -0.0367791206 0.5765596628 4283975469
-0.3675180376 -0.0360875614 0.5757466555 4283975469
-0.3675360084 -0.0354495980 0.5757747889 4283975469
-0.3675536811 -0.0348115414 0.5758024454 4283843883
-0.3670336306 -0.0341234356 0.5749877691 4283843883
-0.3675880134 -0.0335351601 0.5758562684 4283778090
-0.3670672774 -0.0328487456 0.5750405192 4283909676
-0.3665461838 -0.0321641080 0.5742241144 4283975469
-0.3670996726 -0.0315737091 0.5750912428 4283909676
-0.3665778935 -0.0308907703 0.5742738247 4284041262
-0.3671307862 -0.0302983411 0.5751399994 4284041262
-0.3660707772 -0.0295736827 0.5734793544 4283909676
-0.3655479252 -0.0288951769 0.5726602674 4283909421
-0.3660998940 -0.0283015799 0.5735249519 4283975214
-0.3655763566 -0.0276247915 0.5727047920 4283909421
-0.3650524616 -0.0269498006 0.5718840957 4283843628
-0.3645282090 -0.0262766052 0.5710628033 4283777835
-0.3645412624 -0.0256430320 0.5710832477 4283646249
-0.3640163243 -0.0249725059 0.5702608824 4283580456
-0.3640287220 -0.0243397336 0.5702803135 4283580456
-0.3640408218 -0.0237069000 0.5702992678 4283450163
-0.3640525937 -0.0230740029 0.5703177452 4282792233
-0.3635262847 -0.0224078968 0.5694932342 4280426264
-0.3635374010 -0.0217758156 0.5695106387 4279768334
-0.3630104065 -0.0211123992 0.5686850548 4279440660
-0.3635586798 -0.0205114819 0.5695440173 4279440660
-0.3635688722 -0.0198792331 0.5695599318 4279571472
-0.3641165495 -0.0192754045 0.5704179406 4279439886
-0.3641260862 -0.0186421182 0.5704328418 4279505679
-0.3662867844 -0.0181151871 0.5738177896 4279505679
-0.3662957549 -0.0174780618 0.5738317966 4279440660
-0.3663043976 -0.0168408919 0.5738453269 4279506453
-0.3657748103 -0.0161798820 0.5730156898 4279375383
-0.3641690314 -0.0154749854 0.5705001354 4279375383
-0.3647145927 -0.0148633523 0.5713548064 4279637524
-0.2833493948 -0.1795455366 0.4446633756 4279440408
-0.2834303379 -0.1791026294 0.4447903931 4279374615
-0.2830021381 -0.1783385873 0.4441183805 4279374615
-0.2830826044 -0.1778957099 0.4442446828 4279374615
-0.2826536596 -0.1771333069 0.4435715377 4279374615
-0.2822242677 -0.1763721257 0.4428976774 4279374615
-0.2828135490 -0.1762472838 0.4438224733 4279439895
-0.2828932703 -0.1758037060 0.4439475834 4279439895
-0.2824629843 -0.1750437915 0.4432722926 4279439895
-0.2820322514 -0.1742850989 0.4425963461 4279439895
-0.2827003002 -0.1737120897 0.4436447322 4279439895
-0.2817582190 -0.1726419330 0.4421663284 4279440149
-0.2818365693 -0.1721985340 0.4422892928 4279440149
-0.2824254930 -0.1720658988 0.4432134628 4279440149
-0.2814819515 -0.1710002571 0.4417327642 4279374356
-0.2815596759 -0.1705565453 0.4418547451 4279440149
-0.2816372514 -0.1701124758 0.4419764876 4279440149
-0.2817146778 -0.1696680337 0.4420979619 4279374354
-0.2817919254 -0.1692232192 0.4422191978 4279308561
-0.2818690240 -0.1687780470 0.4423401654 4279308561
-0.2819459438 -0.1683325022 0.4424608946 4279374354
-0.2820227146 -0.1678865999 0.4425813854 4279308820
-0.2820993364 -0.1674403250 0.4427016079 4279243027
-0.2837121189 -0.1679029167 0.4452325702 4279440149
-0.2873745859 -0.1695693284 0.4509801269 4279374356
-0.2895016670 -0.1703196615 0.4543181658 4279440147
-0.2885544896 -0.1692592800 0.4528317750 4280032284
-0.3402856290 -0.1930769533 0.5340140462 4281676848
-0.3393461704 -0.1919522136 0.5325397253 4280689953
-0.3425202966 -0.1931504458 0.5375209451 4279834646
-0.3441525698 -0.1934708357 0.5400824547 4280163611
-0.3452708721 -0.1934974790 0.5418373942 4279834394
-0.3453600705 -0.1929453015 0.5419774055 4279373843
-0.3444194496 -0.1918192506 0.5405012369 4279373845
-0.3429630995 -0.1904101670 0.5382158160 4279373845
-0.3409906924 -0.1887205392 0.5351204872 4279373590
-0.3390169740 -0.1870370805 0.5320231318 4279439383
-0.3385880888 -0.1862100959 0.5313500762 4279439895
-0.3376432657 -0.1851017475 0.5298672915 4279439895
-0.3372133076 -0.1842780709 0.5291925669 4279440149
-0.3372986317 -0.1837365776 0.5293264985 4279505942
-0.3373837173 -0.1831946671 0.5294600129 4279440147
-0.3379846513 -0.1829316467 0.5304030776 4279374354
-0.3385855854 -0.1826665401 0.5313461423 4279308309
-0.3397028744 -0.1826770008 0.5330994725 4280689962
-0.3413368464 -0.1829605103 0.5356637239 4281216306
-0.3409052789 -0.1821347922 0.5349864364 4280295204
-0.3440898061 -0.1832362115 0.5399839878 4279966239
-0.3431414366 -0.1821328700 0.5384956598 4279900446
-0.3452937603 -0.1826732308 0.5418733358 4279966239
-0.3469298482 -0.1829338670 0.5444408655 4279966239
-0.3480493426 -0.1829172969 0.5461977124 4279900446
-0.3496863842 -0.1831679344 0.5487667322 4279900446
-0.3508065641 -0.1831430197 0.5505246520 4279900446
-0.3514094949 -0.1828450561 0.5514708161 4279900446
-0.3514947593 -0.1822765619 0.5516046286 4280031775
-0.3515798151 -0.1817076504 0.5517381430 4280031775
-0.3527004719 -0.1816718578 0.5534967780 4280031775
-0.3533033729 -0.1813663840 0.5544429421 4280031775
-0.3539063036 -0.1810588092 0.5553891063 4279834905
-0.3539909422 -0.1804848909 0.5555219054 4279834905
-0.3551121950 -0.1804373860 0.5572814941 4280228384
-0.3572707772 -0.1809112430 0.5606690049 4281083693
-0.3583927751 -0.1808544993 0.5624297857 4284371789
-0.3595150709 -0.1807939708 0.5641909838 4284634961
-0.3601186872 -0.1804696172 0.5651382804 4285094210
-0.3607223332 -0.1801431626 0.5660855770 4285094210
-0.3602876663 -0.1792978942 0.5654034615 4285224513
-0.3603717983 -0.1787114143 0.5655354857 4285158720
-0.3599363267 -0.1778678596 0.5648520589 4285224513
-0.3600198627 -0.1772814095 0.5649831891 4285356099
-0.3601031601 -0.1766945571 0.5651139021 4285160000
-0.3601862490 -0.1761072874 0.5652442575 4285160000
-0.3602690697 -0.1755196154 0.5653742552 4285094721
-0.3603516519 -0.1749315411 0.5655038953 4285094721
-0.3609541357 -0.1745946407 0.5664493442 4285356869
-0.3605161309 -0.1737541705 0.5657619834 4285356869
-0.3611183465 -0.1734147668 0.5667070150 4285291076
-0.3612000942 -0.1728242189 0.5668353438 4285291076
-0.3618021905 -0.1724814624 0.5677801967 4285291076
-0.3618835509 -0.1718892753 0.5679078698 4285356869
-0.3624854982 -0.1715431511 0.5688525438 4285356867
-0.3620455861 -0.1707036942 0.5681621432 4285422660
-0.3626472652 -0.1703550816 0.5691064000 4285356867
-0.3622066379 -0.1695165336 0.5684149265 4285422660
-0.3633293509 -0.1694084704 0.5701767802 4285488453
-0.3634094894 -0.1688121855 0.5703025460 4285488453
-0.3640108705 -0.1684568524 0.5712463260 4285422660
-0.3635690212 -0.1676184386 0.5705528855 4285356867
-0.3641701639 -0.1672606170 0.5714962482 4285291329
-0.3642494082 -0.1666619033 0.5716206431 4285291329
-0.3648503721 -0.1663007140 0.5725637674 4285225536
-0.3649292588 -0.1657003760 0.5726875663 4285225536
-0.3650078773 -0.1650996357 0.5728109479 4285225536
-0.3656085432 -0.1647338569 0.5737535357 4285291329
-0.3656867743 -0.1641314775 0.5738763213 4285291329
-0.3662872612 -0.1637623310 0.5748186707 4285357122
-0.3663651049 -0.1631583273 0.5749408603 4285291329
-0.3664426804 -0.1625539511 0.5750625730 4285291329
-0.3665200174 -0.1619491726 0.5751839280 4285291074
-0.3671200275 -0.1615741849 0.5761255622 4285356867
-0.3671969473 -0.1609677970 0.5762462616 4285356867
-0.3672736287 -0.1603610069 0.5763666034 4285356867
-0.3673500121 -0.1597538590 0.5764864683 4285422660
-0.3674261868 -0.1591463238 0.5766059756 4285488453
-0.3680255711 -0.1587642431 0.5775465965 4285422660
-0.3686249256 -0.1583800614 0.5784871578 4285356867
-0.3687005043 -0.1577696651 0.5786057711 4285356867
-0.3687758148 -0.1571588963 0.5787240267 4285356867
-0.3688508868 -0.1565477401 0.5788418055 4285356867
-0.3694497347 -0.1561577320 0.5797815919 4285356867
-0.3695243597 -0.1555449665 0.5798987150 4285291074
-0.3695987463 -0.1549318284 0.5800154209 4285225281
-0.3696728647 -0.1543183327 0.5801317096 4285159488
-0.3702711761 -0.1539224833 0.5810706615 4285159488
-0.3703448772 -0.1533073783 0.5811862946 4285225536
-0.3704182804 -0.1526919007 0.5813015103 4285225536
-0.3704914451 -0.1520760655 0.5814163685 4285225536
-0.3710892200 -0.1516743898 0.5823544264 4285291329
-0.3711619377 -0.1510569602 0.5824685693 4285291329
-0.3712343872 -0.1504391581 0.5825822353 4285291329
-0.3713065684 -0.1498209983 0.5826955438 4285291329
-0.3719037771 -0.1494135112 0.5836327672 4285291329
-0.3719755411 -0.1487937421 0.5837453604 4285356867
-0.3720470071 -0.1481736302 0.5838575363 4285291074
-0.3726437986 -0.1477615684 0.5847941041 4285291074
-0.3727148473 -0.1471398622 0.5849055648 4285225281
-0.3733114004 -0.1467244625 0.5858417153 4285225281
-0.3733820021 -0.1461011618 0.5859525204 4285225281
-0.3734523058 -0.1454775184 0.5860628486 4285225281
-0.3735223413 -0.1448535323 0.5861727595 4285225281
-0.3741182983 -0.1444323212 0.5871080160 4285159488
-0.3741878867 -0.1438067406 0.5872172117 4285225281
-0.3747835755 -0.1433822066 0.5881520510 4285225281
-0.3748527169 -0.1427550465 0.5882605314 4285291074
-0.3749215603 -0.1421275586 0.5883685946 4285291074
-0.3749901354 -0.1414997131 0.5884761810 4285291074
-0.3750584424 -0.1408715248 0.5885833502 4285291074
-0.3756533265 -0.1404399574 0.5895169377 4285291074
-0.3757211566 -0.1398102045 0.5896233916 4285225281
-0.3757886887 -0.1391801089 0.5897293687 4285225281
-0.3758559823 -0.1385496855 0.5898349285 4285159488
-0.3764502108 -0.1381123364 0.5907675028 4285159488
-0.3765169978 -0.1374803483 0.5908723474 4285225281
-0.3771109581 -0.1370396912 0.5918043852 4285159488
-0.3771772683 -0.1364061385 0.5919085145 4285159488
-0.3772433102 -0.1357722580 0.5920121670 4285159488
-0.3778367937 -0.1353270411 0.5929434896 4285093695
-0.3779023588 -0.1346916109 0.5930463672 4285093695
-0.3779676259 -0.1340558380 0.5931488276 4285159488
-0.3780326247 -0.1334197521 0.5932508111 4285093695
-0.3786253929 -0.1329687834 0.5941810608 4285027902
-0.3786899149 -0.1323311478 0.5942822695 4284962109
-0.3787541091 -0.1316931844 0.5943830609 4284896316
-0.3793464005 -0.1312376857 0.5953125358 4284896316
-0.3794101179 -0.1305981874 0.5954125524 4284961594
-0.3794735670 -0.1299583614 0.5955120921 4285093180
-0.3795367181 -0.1293182224 0.5956111550 4284830523
-0.3801282644 -0.1288569868 0.5965394974 4284567351
-0.3801909089 -0.1282153130 0.5966378450 4284370487
-0.3802532852 -0.1275733262 0.5967357159 4284238901
-0.3803153336 -0.1269310266 0.5968331099 4283910195
-0.3809061646 -0.1264640540 0.5977602601 4283581230
-0.3809677362 -0.1258202344 0.5978568792 4283121710
-0.3810290098 -0.1251761019 0.5979530215 4282924331
-0.3816192746 -0.1247046217 0.5988793373 4282530090
-0.3816800416 -0.1240589768 0.5989747047 4282201125
-0.3817405105 -0.1234130263 0.5990695953 4281872419
-0.3818006814 -0.1227667630 0.5991640687 4281806626
-0.3823901713 -0.1222895756 0.6000891924 4281412383
-0.3824498355 -0.1216418073 0.6001827717 4280820246
-0.3825092018 -0.1209937409 0.6002759337 4280163359
-0.3825682700 -0.1203453690 0.6003686190 4279702808
-0.3826270401 -0.1196966991 0.6004608870 4279373843
-0.3826855123 -0.1190477312 0.6005526185 4279439636
-0.3827436566 -0.1183984727 0.6006438732 4279571222
-0.3828015327 -0.1177489087 0.6007347107 4279637015
-0.3828590810 -0.1170990542 0.6008250117 4279571222
-0.3829163611 -0.1164489090 0.6009148955 4279571222
-0.3824428916 -0.1156380922 0.6001718640 4279571222
-0.3824994564 -0.1149882674 0.6002606750 4279571222
-0.3825557530 -0.1143381521 0.6003489494 4279505431
-0.3826117218 -0.1136877537 0.6004368067 4279505431
-0.3826673925 -0.1130370721 0.6005241871 4279439638
-0.3827227652 -0.1123861000 0.6006110907 4279439638
-0.3833087087 -0.1118898243 0.6015306115 4279439638
-0.3838945329 -0.1113914624 0.6024499536 4279505431
-0.3850112259 -0.1110441759 0.6042023897 4279176723
-0.3861279190 -0.1106929928 0.6059548259 4278979344
-0.3850245476 -0.0969499722 0.6042233109 4279308309
-0.3850723207 -0.0962905884 0.6042982936 4279308563
-0.3851197958 -0.0956309587 0.6043727994 4279374356
-0.3841014802 -0.0947083682 0.6027747393 4279373841
-0.3852137923 -0.0943109691 0.6045202613 4279571220
-0.3852603137 -0.0936506093 0.6045932770 4280031508
-0.3842406571 -0.0927327797 0.6029931307 4280426266
-0.3837534487 -0.0919460729 0.6022285223 4281017372
-0.3837988377 -0.0912877470 0.6022997499 4281346337
-0.3827776611 -0.0903774425 0.6006972194 4281740580
-0.3828223050 -0.0897204876 0.6007672548 4281937959
-0.3828666210 -0.0890633017 0.6008368134 4282134300
-0.3829106092 -0.0884058848 0.6009058952 4282200093
-0.3824209273 -0.0876260325 0.6001374125 4282397472
-0.3824642301 -0.0869690850 0.6002053618 4282529058
-0.3830406964 -0.0864322931 0.6011100411 4282660130
-0.3820163608 -0.0855350643 0.5995025039 4282594337
-0.3825922608 -0.0849969164 0.6004062891 4282594337
-0.3826342821 -0.0843390822 0.6004722714 4282725923
-0.3821423054 -0.0835643336 0.5997001529 4282791716
-0.3821836412 -0.0829069912 0.5997650623 4282857509
-0.3822246790 -0.0822494403 0.5998294353 4282923300
-0.3822653890 -0.0815916732 0.5998933315 4282923300
-0.3817718327 -0.0808206648 0.5991187692 4282923300
-0.3818118274 -0.0801634043 0.5991815925 4282923300
-0.3813174665 -0.0793947354 0.5984057784 4282923300
-0.3813568056 -0.0787379816 0.5984674692 4282989093
-0.3813958168 -0.0780810267 0.5985286832 4282989095
-0.3814345002 -0.0774238780 0.5985894203 4282989095
-0.3814728558 -0.0767665207 0.5986496210 4282989095
-0.3815109134 -0.0761089697 0.5987093449 4282989095
-0.3810142577 -0.0753455460 0.5979298949 4282989095
-0.3810516298 -0.0746885240 0.5979885459 4283054888
-0.3805541694 -0.0739274770 0.5972079039 4283120679
-0.3805908263 -0.0732709989 0.5972654223 4283186472
-0.3806271851 -0.0726143271 0.5973224640 4283383851
-0.3806631863 -0.0719574690 0.5973789692 4283383851
-0.3801642060 -0.0712002814 0.5965959430 4283318056
-0.3807342947 -0.0706431940 0.5974905491 4283515435
-0.3802345395 -0.0698874891 0.5967063308 4283646764
-0.3802692294 -0.0692308247 0.5967607498 4283646764
-0.3803036213 -0.0685739741 0.5968146920 4283646764
-0.3792677820 -0.0677259043 0.5951891541 4283646764
-0.3798364103 -0.0671651512 0.5960814953 4283580717
-0.3798697591 -0.0665087029 0.5961338282 4283580717
-0.3782975674 -0.0655738339 0.5936666131 4283580717
-0.3788652718 -0.0650116429 0.5945574641 4283514924
-0.3788975775 -0.0643565357 0.5946081877 4283515178
-0.3783943355 -0.0636112839 0.5938184261 4283515178
-0.3784259558 -0.0629567653 0.5938680172 4283580971
-0.3784572184 -0.0623020902 0.5939171314 4283580971
-0.3774175048 -0.0614728555 0.5922855139 4283580971
-0.3774480820 -0.0608197078 0.5923334360 4283580971
-0.3769428730 -0.0600810610 0.5915406346 4283580971
-0.3769727349 -0.0594285280 0.5915875435 4283646764
-0.3764667809 -0.0586923510 0.5907934904 4283580971
-0.3759604096 -0.0579578727 0.5899988413 4283646764
-0.3749180436 -0.0571434684 0.5883630514 4283712557
-0.3760177493 -0.0566554517 0.5900888443 4283712557
-0.3755102456 -0.0559242368 0.5892924070 4283646764
-0.3750023544 -0.0551947355 0.5884953737 4283712557
-0.3750298023 -0.0545448698 0.5885384679 4283778348
-0.3745211363 -0.0538178682 0.5877401829 4283778348
-0.3734762669 -0.0530165210 0.5861004591 4283778348
-0.3740385175 -0.0524441563 0.5869827867 4283778348
-0.3735286891 -0.0517213829 0.5861827135 4283778348
-0.3735544384 -0.0510736108 0.5862231255 4283712555
-0.3741158545 -0.0504980534 0.5871041417 4283844141
-0.3725329340 -0.0496348366 0.5846200585 4283778348
-0.3730936646 -0.0490590185 0.5855000615 4283778348
-0.3720459342 -0.0482725389 0.5838558078 4283844141
-0.3715338409 -0.0475582816 0.5830521584 4283778348
-0.3715575039 -0.0469134599 0.5830892920 4283778348
-0.3715808690 -0.0462685153 0.5831259489 4283778348
-0.3710676730 -0.0455576107 0.5823206306 4283778348
-0.3705540895 -0.0448484533 0.5815146565 4283844140
-0.3705764115 -0.0442050137 0.5815497041 4283909933
-0.3705984354 -0.0435614549 0.5815842152 4283909933
-0.3706201017 -0.0429177880 0.5816182494 4283909933
-0.3701050878 -0.0422128253 0.5808100104 4283909933
-0.3690532744 -0.0414493717 0.5791594386 4283909933
-0.3685374558 -0.0407488532 0.5783499479 4284041519
-0.3680212796 -0.0400500894 0.5775398612 4284041519
-0.3685777187 -0.0394679867 0.5784131289 4284041262
-0.3691339195 -0.0388839133 0.5792859197 4283975469
-0.3680801392 -0.0381311215 0.5776322484 4284041262
-0.3675625324 -0.0374366120 0.5768199563 4284107055
-0.3670445681 -0.0367438719 0.5760071278 4284041262
-0.3670628369 -0.0361056849 0.5760357976 4283975469
-0.3670808077 -0.0354674049 0.5760639906 4283975469
-0.3670984805 -0.0348290317 0.5760917068 4283843883
-0.3671157956 -0.0341905653 0.5761188865 4283909676
-0.3671328127 -0.0335520133 0.5761455894 4283909676
-0.3671495020 -0.0329133682 0.5761718154 4283909676
-0.3666290939 -0.0322274566 0.5753551126 4283909676
-0.3661082983 -0.0315433256 0.5745378137 4283909676
-0.3661240041 -0.0309062973 0.5745624304 4283975469
-0.3656024933 -0.0302248038 0.5737440586 4283975469
-0.3661544323 -0.0296319984 0.5746101737 4283843883
-0.3661691546 -0.0289947316 0.5746333003 4283909421
-0.3656466305 -0.0283158105 0.5738133192 4283909421
-0.3651237786 -0.0276386831 0.5729928017 4283909421
-0.3646005392 -0.0269633513 0.5721716881 4283909421
-0.3640769422 -0.0262898207 0.5713499784 4283843628
-0.3640899956 -0.0256559290 0.5713704824 4283712042
-0.3646397591 -0.0250588767 0.5722332597 4283580456
-0.3635781407 -0.0243519768 0.5705671906 4283580456
-0.3635902107 -0.0237188246 0.5705861449 4283449909
-0.3636019826 -0.0230856109 0.5706046224 4282660393
-0.3636134267 -0.0224523358 0.5706226230 4280294678
-0.3630874455 -0.0217867717 0.5697971582 4279834127
-0.3630982637 -0.0211543161 0.5698141456 4279440660
-0.3625715971 -0.0204914454 0.5689876676 4279440660
-0.3631189167 -0.0198892374 0.5698465109 4279440145
-0.3647402823 -0.0193420779 0.5723909736 4279374352
-0.3636754751 -0.0186515003 0.5707199574 4279505679
-0.3658334911 -0.0181243047 0.5741065741 4279505679
-0.3653052449 -0.0174611807 0.5732775927 4279440660
-0.3647766411 -0.0167998839 0.5724480152 4279506453
-0.3642477095 -0.0161404144 0.5716179609 4279441176
-0.3637184203 -0.0154827759 0.5707873702 4279441176
-0.3637260497 -0.0148489019 0.5707993507 4279637526
-0.2864573598 -0.1823321730 0.4503256083 4279505942
-0.2845072448 -0.1805939674 0.4472599328 4279374615
-0.2856049538 -0.1807919145 0.4489856362 4279374615
-0.2846697569 -0.1797026992 0.4475154281 4279374615
-0.2822083831 -0.1776559800 0.4436460137 4279374615
-0.2817799151 -0.1768940687 0.4429724216 4279374615
-0.2818597555 -0.1764518917 0.4430979788 4279374615
-0.2819394469 -0.1760093272 0.4432232678 4279439895
-0.2820189893 -0.1755663902 0.4433483183 4279439895
-0.2815891802 -0.1748069823 0.4426726103 4279439895
-0.2811589241 -0.1740487963 0.4419962466 4279439895
-0.2817472219 -0.1739208400 0.4429210424 4279440149
-0.2813163698 -0.1731635183 0.4422437251 4279440149
-0.2813948393 -0.1727203280 0.4423670769 4279440149
-0.2809632421 -0.1719646603 0.4416885972 4279440149
-0.2815513313 -0.1718328148 0.4426130652 4279440149
-0.2816293240 -0.1713885218 0.4427357018 4279374356
-0.2811968327 -0.1706341654 0.4420557916 4279374354
-0.2812743783 -0.1701899171 0.4421777129 4279440147
-0.2813517451 -0.1697453260 0.4422993660 4279440147
-0.2814289629 -0.1693003476 0.4424207509 4279374354
-0.2815060318 -0.1688550115 0.4425418973 4279374354
-0.2815829515 -0.1684093177 0.4426628053 4279440147
-0.2837044001 -0.1691825837 0.4459978342 4279308822
-0.2827588916 -0.1681248546 0.4445114732 4279308822
-0.2853928804 -0.1691925079 0.4486522079 4279374102
-0.2849585116 -0.1684372723 0.4479693472 4279374102
-0.2911762297 -0.1716039330 0.4577439129 4279440147
-0.2912546396 -0.1711414158 0.4578671753 4280032284
-0.2918448746 -0.1709785014 0.4587950706 4280689952
-0.3372820914 -0.1917068958 0.5302247405 4281676848
-0.3394242525 -0.1923316121 0.5335922837 4280755746
-0.3437111378 -0.1935600489 0.5403315425 4280163611
-0.3453419805 -0.1938752681 0.5428952575 4279834394
-0.3454313278 -0.1933220625 0.5430356860 4279373843
-0.3444921076 -0.1921947151 0.5415592194 4279373845
-0.3430378437 -0.1907842010 0.5392730236 4279439638
-0.3405537307 -0.1888078004 0.5353679061 4279439638
-0.3385826349 -0.1871236116 0.5322692394 4279439638
-0.3376396894 -0.1860127300 0.5307868719 4279439895
-0.3372108340 -0.1851874739 0.5301126838 4279439895
-0.3367815018 -0.1843634546 0.5294377804 4279440149
-0.3368667960 -0.1838217527 0.5295718312 4279505942
-0.3369518816 -0.1832796335 0.5297055840 4279505940
-0.3375521004 -0.1830165237 0.5306491852 4279374354
-0.3381523490 -0.1827513427 0.5315928459 4279308309
-0.3392682970 -0.1827618480 0.5333471298 4280755755
-0.3414159715 -0.1833224595 0.5367233753 4281216306
-0.3404693305 -0.1822194755 0.5352351665 4280295204
-0.3421018720 -0.1824956834 0.5378016829 4280032032
-0.3437350094 -0.1827664822 0.5403690338 4279966239
-0.3448524177 -0.1827582866 0.5421256423 4279966239
-0.3464865088 -0.1830190867 0.5446945429 4279900446
-0.3491541445 -0.1838183254 0.5488881469 4279900446
-0.3518227935 -0.1846087724 0.5530834794 4279900446
-0.3508752584 -0.1834987104 0.5515938401 4279900446
-0.3514775932 -0.1831998229 0.5525407791 4279966239
-0.3515629768 -0.1826302558 0.5526750088 4280031775
-0.3516481221 -0.1820602864 0.5528088808 4280031775
-0.3517330587 -0.1814898849 0.5529423952 4280097568
-0.3528525233 -0.1814512014 0.5547022223 4280097568
-0.3539722562 -0.1814087480 0.5564625263 4279900698
-0.3535393775 -0.1805693805 0.5557819605 4279834905
-0.3541415036 -0.1802583635 0.5567286015 4280096798
-0.3562972844 -0.1807333231 0.5601176023 4281017900
-0.3589718342 -0.1814629883 0.5643220544 4284305996
-0.3580205142 -0.1803567559 0.5628265738 4284634961
-0.3601779342 -0.1808144748 0.5662181377 4285094210
-0.3597442806 -0.1799684167 0.5655363798 4285160003
-0.3603470922 -0.1796405911 0.5664840937 4285224513
-0.3593941331 -0.1785377711 0.5649859309 4285158720
-0.3594778776 -0.1779514849 0.5651175976 4285158720
-0.3595613837 -0.1773647964 0.5652489066 4285224513
-0.3596446812 -0.1767777056 0.5653798580 4285094207
-0.3597277105 -0.1761901975 0.5655103922 4285160000
-0.3598105311 -0.1756022871 0.5656405687 4285094721
-0.3598930836 -0.1750139594 0.5657703280 4285160514
-0.3604948521 -0.1746769398 0.5667163730 4285225283
-0.3600575030 -0.1738361269 0.5660287738 4285225283
-0.3611786962 -0.1737465858 0.5677914023 4285291076
-0.3612605333 -0.1731549501 0.5679200292 4285291076
-0.3613421321 -0.1725629270 0.5680482984 4285356869
-0.3609034419 -0.1717230529 0.5673586726 4285356869
-0.3615045846 -0.1713776588 0.5683037043 4285356867
-0.3615854681 -0.1707844287 0.5684308410 4285291074
-0.3621864617 -0.1704356670 0.5693756342 4285356867
-0.3617464602 -0.1695967615 0.5686839223 4285422660
-0.3628678322 -0.1694886833 0.5704467893 4285422660
-0.3629479408 -0.1688921601 0.5705727339 4285356867
-0.3630278111 -0.1682952344 0.5706982613 4285291074
-0.3636283875 -0.1679385155 0.5716423988 4285356867
-0.3637078702 -0.1673399508 0.5717673898 4285357122
-0.3637870848 -0.1667409986 0.5718919635 4285357122
-0.3638660908 -0.1661416441 0.5720161200 4285225536
-0.3644662201 -0.1657790840 0.5729595423 4285225536
-0.3645448387 -0.1651780903 0.5730831027 4285291329
-0.3646231592 -0.1645767242 0.5732063055 4285291329
-0.3657447696 -0.1644441336 0.5749694705 4285291074
-0.3658228219 -0.1638402492 0.5750921965 4285356867
-0.3659006357 -0.1632359922 0.5752145052 4285422660
-0.3659781814 -0.1626313627 0.5753364563 4285488453
-0.3660554886 -0.1620263308 0.5754579306 4285356867
-0.3666548133 -0.1616511941 0.5764001608 4285422660
-0.3667317331 -0.1610445380 0.5765210390 4285422662
-0.3668083549 -0.1604375094 0.5766415000 4285422662
-0.3668847382 -0.1598300934 0.5767616034 4285422662
-0.3674835861 -0.1594491154 0.5777029991 4285422662
-0.3675595820 -0.1588400751 0.5778224468 4285422662
-0.3681582510 -0.1584557295 0.5787636042 4285291076
-0.3682337999 -0.1578450799 0.5788823962 4285291074
-0.3683091104 -0.1572340429 0.5790007710 4285291074
-0.3689073920 -0.1568451077 0.5799413323 4285356867
-0.3689822853 -0.1562324613 0.5800590515 4285356867
-0.3695803881 -0.1558401734 0.5809993148 4285291074
-0.3696548641 -0.1552259028 0.5811163187 4285225281
-0.3697290421 -0.1546112746 0.5812329650 4285225281
-0.3698029816 -0.1539962739 0.5813491940 4285159488
-0.3698766530 -0.1533809006 0.5814650059 4285225281
-0.3699500561 -0.1527651548 0.5815804005 4285291074
-0.3700231910 -0.1521490514 0.5816953778 4285291329
-0.3706202507 -0.1517472118 0.5826340318 4285291329
-0.3706929684 -0.1511295140 0.5827482939 4285291329
-0.3707653880 -0.1505114436 0.5828621984 4285225536
-0.3708375692 -0.1498930007 0.5829756260 4285159743
-0.3714340925 -0.1494853497 0.5839133859 4285093950
-0.3715058267 -0.1488653272 0.5840261579 4285159488
-0.3715772629 -0.1482449323 0.5841385126 4285225281
-0.3716484606 -0.1476241946 0.5842503905 4285291074
-0.3722443879 -0.1472107321 0.5851872563 4285291074
-0.3728402555 -0.1467951536 0.5861240029 4285225281
-0.3729108274 -0.1461715847 0.5862349272 4285225281
-0.3729811311 -0.1455476582 0.5863454342 4285225281
-0.3735765815 -0.1451275051 0.5872814655 4285225281
-0.3736464083 -0.1445020139 0.5873913169 4285159488
-0.3742415905 -0.1440785229 0.5883269310 4285159488
-0.3743110001 -0.1434514374 0.5884360075 4285291074
-0.3743801117 -0.1428240091 0.5885446668 4285356867
-0.3744489253 -0.1421962380 0.5886529088 4285356867
-0.3745175004 -0.1415681094 0.5887606740 4285356867
-0.3745857775 -0.1409396380 0.5888680220 4285356867
-0.3751799762 -0.1405079067 0.5898020864 4285356867
-0.3752477765 -0.1398778707 0.5899087191 4285291074
-0.3753153086 -0.1392474920 0.5900148749 4285225281
-0.3753825724 -0.1386167705 0.5901206136 4285291074
-0.3759761155 -0.1381792575 0.5910536647 4285291074
-0.3760429025 -0.1375469714 0.5911586881 4285225281
-0.3766361475 -0.1371061206 0.5920913219 4285159488
-0.3772293329 -0.1366631538 0.5930237770 4285159488
-0.3772954345 -0.1360280961 0.5931277275 4285159488
-0.3773612678 -0.1353927106 0.5932312012 4285225281
-0.3779539466 -0.1349451989 0.5941629410 4285225281
-0.3780193031 -0.1343082637 0.5942656994 4285159488
-0.3780843616 -0.1336710006 0.5943679810 4285093695
-0.3781491518 -0.1330333948 0.5944697857 4284962109
-0.3787411153 -0.1325801313 0.5954004526 4284896316
-0.3788054287 -0.1319409907 0.5955014825 4284896316
-0.3788694143 -0.1313015223 0.5956020951 4284896316
-0.3794609010 -0.1308437139 0.5965319276 4284961594
-0.3795244098 -0.1302027106 0.5966317654 4285027387
-0.3795876205 -0.1295613945 0.5967311859 4284896571
-0.3796505630 -0.1289197505 0.5968300700 4284633399
-0.3797131777 -0.1282777935 0.5969285369 4284370487
-0.3803037405 -0.1278130263 0.5978569388 4284238901
-0.3803658783 -0.1271695495 0.5979546309 4283844402
-0.3809560835 -0.1267014742 0.5988824368 4283515437
-0.3810177147 -0.1260564625 0.5989793539 4283187503
-0.3810790479 -0.1254111379 0.5990757942 4282924331
-0.3811401129 -0.1247655079 0.5991717577 4282530090
-0.3817295730 -0.1242917180 0.6000984311 4282266918
-0.3812613189 -0.1234733164 0.5993623137 4281872419
-0.3818503320 -0.1229971126 0.6002882719 4281806626
-0.3819102943 -0.1223493516 0.6003825068 4281412383
-0.3824989796 -0.1218698546 0.6013079882 4280820246
-0.3825584054 -0.1212205887 0.6014013886 4280163359
-0.3826175332 -0.1205710173 0.6014943719 4279702808
-0.3826763630 -0.1199211553 0.6015868187 4279373843
-0.3827348948 -0.1192709878 0.6016788483 4279439636
-0.3827931285 -0.1186205223 0.6017704010 4279571222
-0.3828510642 -0.1179697588 0.6018614769 4279637015
-0.3829086721 -0.1173187047 0.6019520164 4279571222
-0.3824363053 -0.1165059954 0.6012094617 4279571222
-0.3819634914 -0.1156947911 0.6004661322 4279571222
-0.3820200562 -0.1150446609 0.6005550623 4279505429
-0.3820763230 -0.1143942475 0.6006435156 4279439636
-0.3816022873 -0.1135857925 0.5998982787 4279439636
-0.3821879327 -0.1130925640 0.6008189917 4279439638
-0.3822432756 -0.1124412939 0.6009060144 4279439638
-0.3828285635 -0.1119447872 0.6018260717 4279439638
-0.3834137022 -0.1114461944 0.6027459502 4279505431
-0.3834683001 -0.1107922718 0.6028317809 4279110930
-0.3833834529 -0.0980445817 0.6026984453 4279308052
-0.3844953477 -0.0976573452 0.6044463515 4279308309
-0.3845434189 -0.0969978943 0.6045219302 4279242516
-0.3845911920 -0.0963381901 0.6045970321 4279308563
-0.3846386373 -0.0956782475 0.6046716571 4279308563
-0.3846857846 -0.0950180516 0.6047457457 4279439634
-0.3847326040 -0.0943576247 0.6048193574 4279637013
-0.3853113353 -0.0938265473 0.6057291031 4280097046
-0.3837608099 -0.0927786827 0.6032916307 4280426011
-0.3832742274 -0.0919915959 0.6025266647 4280951579
-0.3833195865 -0.0913329571 0.6025980115 4281280544
-0.3828321993 -0.0905481502 0.6018317938 4281674787
-0.3828768730 -0.0898899585 0.6019020677 4281872166
-0.3823886812 -0.0891074389 0.6011345387 4282199325
-0.3824326694 -0.0884497091 0.6012037396 4282265118
-0.3824763298 -0.0877917483 0.6012723446 4282462751
-0.3819869459 -0.0870122164 0.6005030274 4282594337
-0.3820299208 -0.0863547251 0.6005705595 4282660130
-0.3820725679 -0.0856970176 0.6006376147 4282594337
-0.3815819919 -0.0849204883 0.5998663902 4282660130
-0.3821569383 -0.0843809471 0.6007702947 4282725923
-0.3821986616 -0.0837225839 0.6008358598 4282791716
-0.3822400570 -0.0830640048 0.6009009480 4282857509
-0.3817479610 -0.0822902843 0.6001273394 4282923300
-0.3817886710 -0.0816322044 0.6001912951 4282989093
-0.3818290234 -0.0809739158 0.6002547741 4283054373
-0.3813357651 -0.0802032426 0.5994793177 4282988580
-0.3813754618 -0.0795454532 0.5995417237 4283054373
-0.3808813691 -0.0787771344 0.5987650156 4283054373
-0.3809203804 -0.0781198591 0.5988262892 4283054888
-0.3804254830 -0.0773538947 0.5980483294 4282989095
-0.3804638088 -0.0766971409 0.5981085300 4282989095
-0.3810354471 -0.0761468336 0.5990072489 4282989095
-0.3810731769 -0.0754887685 0.5990664959 4283054888
-0.3805767894 -0.0747257024 0.5982862115 4283120681
-0.3806138337 -0.0740681663 0.5983443856 4283186472
-0.3801166415 -0.0733074844 0.5975628495 4283186472
-0.3801530004 -0.0726504922 0.5976199508 4283318058
-0.3801890016 -0.0719933137 0.5976765752 4283383851
-0.3802247047 -0.0713359490 0.5977326632 4283383849
-0.3797259927 -0.0705791339 0.5969486833 4283581228
-0.3797610104 -0.0699223280 0.5970036983 4283712557
-0.3797956705 -0.0692653358 0.5970582366 4283646764
-0.3798300326 -0.0686081648 0.5971122384 4283646764
-0.3798640668 -0.0679508224 0.5971657634 4283580971
-0.3793634772 -0.0671986565 0.5963788033 4283580717
-0.3788624704 -0.0664481670 0.5955911875 4283580717
-0.3788954616 -0.0657921433 0.5956430435 4283646510
-0.3783936501 -0.0650440902 0.5948541760 4283646510
-0.3784259558 -0.0643886551 0.5949049592 4283580971
-0.3784579039 -0.0637330562 0.5949552059 4283515178
-0.3779549599 -0.0629881993 0.5941645503 4283515178
-0.3779862523 -0.0623332001 0.5942137241 4283515178
-0.3769478500 -0.0615035594 0.5925813317 4283449385
-0.3769783974 -0.0608500913 0.5926293731 4283515178
-0.3764738739 -0.0601110794 0.5918362141 4283580971
-0.3765037358 -0.0594582222 0.5918831229 4283580971
-0.3759984374 -0.0587216839 0.5910887718 4283646764
-0.3749578297 -0.0579042435 0.5894529223 4283712557
-0.3749866188 -0.0572537109 0.5894981623 4283712557
-0.3744800985 -0.0565222874 0.5887018442 4283712557
-0.3750431836 -0.0559522063 0.5895870924 4283712557
-0.3745359480 -0.0552223437 0.5887897015 4283778350
-0.3745634258 -0.0545721576 0.5888328552 4283778350
-0.3745905459 -0.0539218262 0.5888755322 4283778350
-0.3735470176 -0.0531191528 0.5872350335 4283778350
-0.3735734224 -0.0524704009 0.5872765779 4283778350
-0.3741347790 -0.0518957563 0.5881590247 4283712555
-0.3736252785 -0.0511724912 0.5873580575 4283712555
-0.3736507297 -0.0505233370 0.5873981118 4283778348
-0.3731405139 -0.0498025976 0.5865960121 4283778348
-0.3720945120 -0.0490130633 0.5849516392 4283778348
-0.3715834618 -0.0482967161 0.5841482282 4283778348
-0.3710720241 -0.0475821048 0.5833442211 4283778348
-0.3710957170 -0.0469369628 0.5833814144 4283844141
-0.3700479865 -0.0461580977 0.5817344189 4283844141
-0.3706065118 -0.0455804430 0.5826123953 4283844141
-0.3700936139 -0.0448709317 0.5818060637 4283778347
-0.3701159358 -0.0442271717 0.5818411708 4283844140
-0.3701379299 -0.0435832925 0.5818757415 4283909933
-0.3696239293 -0.0428771637 0.5810677409 4283975726
-0.3696452677 -0.0422339924 0.5811012387 4283975726
-0.3685947657 -0.0414701588 0.5794498324 4283975726
-0.3680796325 -0.0407692902 0.5786399841 4283975726
-0.3675641119 -0.0400701798 0.5778295994 4283975726
-0.3681198657 -0.0394877866 0.5787032843 4284107055
-0.3686753809 -0.0389034227 0.5795765519 4284107055
-0.3681588471 -0.0382058658 0.5787645578 4284107055
-0.3671059906 -0.0374553986 0.5771093965 4284041262
-0.3671246171 -0.0368160568 0.5771387219 4284041262
-0.3666069508 -0.0361238047 0.5763249397 4283975469
-0.3666249216 -0.0354852080 0.5763531327 4283909676
-0.3666425645 -0.0348465145 0.5763809085 4283909676
-0.3671959639 -0.0342577435 0.5772508383 4283909676
-0.3666769266 -0.0335688591 0.5764348507 4283975469
-0.3666936159 -0.0329298973 0.5764611363 4284041262
-0.3667099774 -0.0322908498 0.5764868259 4283975469
-0.3661898673 -0.0316054411 0.5756692290 4283975469
-0.3651332557 -0.0308764800 0.5740081668 4283909676
-0.3656847775 -0.0302843917 0.5748751760 4283843883
-0.3651636243 -0.0296034142 0.5740559101 4283778090
-0.3657145500 -0.0290092994 0.5749220252 4283843628
-0.3651927114 -0.0283300374 0.5741016269 4283843628
-0.3641342223 -0.0276119038 0.5724376440 4283975214
-0.3641479313 -0.0269769002 0.5724592209 4283975214
-0.3641613424 -0.0263418276 0.5724802613 4283909421
-0.3636380732 -0.0256688241 0.5716576576 4283777835
-0.3636507988 -0.0250345487 0.5716776848 4283712042
-0.3641996086 -0.0244361944 0.5725404024 4283580456
-0.3636753261 -0.0237658005 0.5717162490 4283318323
-0.3636870980 -0.0231313333 0.5717347264 4282463014
-0.3631621599 -0.0224636234 0.5709095001 4280163094
-0.3631732762 -0.0218299702 0.5709269643 4279834129
-0.3631840944 -0.0211962610 0.5709440112 4279440660
-0.3626581132 -0.0205321219 0.5701171160 4279374867
-0.3626682758 -0.0198992398 0.5701330900 4279440145
-0.3637511432 -0.0193233043 0.5718353987 4279374352
-0.3642972112 -0.0187160093 0.5726938844 4279505681
-0.3643064499 -0.0180801656 0.5727084279 4279571474
-0.3653884828 -0.0174956545 0.5744094253 4279440660
-0.3637874424 -0.0167835802 0.5718924999 4279506453
-0.3627225757 -0.0161008984 0.5702184439 4279441176
-0.3632670939 -0.0154905636 0.5710744858 4279441176
-0.2826971412 -0.1792642176 0.4451917112 4279374615
-0.2822701931 -0.1784995794 0.4445193410 4279374615
-0.2813349664 -0.1774159223 0.4430465400 4279374615
-0.2819229066 -0.1772934049 0.4439724386 4279440408
-0.2814947665 -0.1765316278 0.4432981908 4279374615
-0.2815744281 -0.1760889143 0.4434236586 4279440149
-0.2816539407 -0.1756458133 0.4435488582 4279440149
-0.2812247574 -0.1748861074 0.4428730011 4279440149
-0.2813038230 -0.1744430661 0.4429974854 4279440149
-0.2813827097 -0.1739996523 0.4431217313 4279440149
-0.2804435194 -0.1729281843 0.4416427016 4279440149
-0.2810309529 -0.1727986783 0.4425677657 4279440149
-0.2811092436 -0.1723549515 0.4426910579 4279440149
-0.2806779742 -0.1715994328 0.4420118928 4279374356
-0.2807557881 -0.1711557657 0.4421344697 4279374356
