VERSION 0.7
FIELDS x y z rgba
SIZE 4 4 4 4
TYPE F F F U
COUNT 1 1 1 1
WIDTH 920
HEIGHT 1
VIEWPOINT 0.0 0.0 0.0 1.0 0.0 0.0 0.0
POINTS 920
DATA ascii
-0.3280429542 -0.2256810814 0.6261149049 4294770429
-0.3281363845 -0.2250495106 0.6262932420 4294835709
-0.3286719918 -0.2247198522 0.6273154616 4294835709
-0.3292075992 -0.2243879437 0.6283378005 4294835709
-0.3288580477 -0.2234522998 0.6276706457 4294835709
-0.3293935061 -0.2231176198 0.6286926270 4294770429
-0.3290432990 -0.2221826166 0.6280242205 4294770429
-0.3295785785 -0.2218451351 0.6290458441 4294572796
-0.3296707869 -0.2212080956 0.6292218566 4294835967
-0.3302060068 -0.2208669931 0.6302434206 4294901759
-0.3302979171 -0.2202280164 0.6304188371 4294573050
-0.3299461305 -0.2192937732 0.6297473907 4294507257
-0.3300375044 -0.2186546028 0.6299217343 4294901759
-0.3301286399 -0.2180148959 0.6300957203 4294705151
-0.3302195370 -0.2173746675 0.6302692294 4293915636
-0.3303102553 -0.2167339027 0.6304423213 4292993764
-0.3308448195 -0.2163830698 0.6314626336 4292796385
-0.3309352100 -0.2157403827 0.6316351891 4293389805
-0.3305810392 -0.2148084641 0.6309592128 4294574079
-0.3306708634 -0.2141655982 0.6311306357 4294639615
-0.3316496015 -0.2140961885 0.6329987049 4294376700
-0.3312945366 -0.2131644338 0.6323210001 4294704382
-0.3318286240 -0.2128043920 0.6333404183 4294835967
-0.3323627412 -0.2124421000 0.6343597770 4294309624
-0.3324518204 -0.2117940187 0.6345298290 4292993764
-0.3329858184 -0.2114280909 0.6355490685 4292336604
-0.3330745697 -0.2107781023 0.6357184052 4293126120
-0.3331630826 -0.2101276070 0.6358873844 4294178808
-0.3332513571 -0.2094765753 0.6360558867 4294639359
-0.3337850869 -0.2091042250 0.6370745301 4294770175
-0.3338730335 -0.2084513009 0.6372423768 4294704382
-0.3339607418 -0.2077978551 0.6374098063 4294770175
-0.3340482414 -0.2071439028 0.6375768185 4294770175
-0.3341355026 -0.2064894289 0.6377433538 4294770175
-0.3337762952 -0.2055596411 0.6370577812 4294770175
-0.3338629901 -0.2049050331 0.6372232437 4294770175
-0.3343958855 -0.2045229673 0.6382403374 4294770175
-0.3344822228 -0.2038664520 0.6384051442 4294770175
-0.3345683217 -0.2032094300 0.6385694742 4294770175
-0.3351009786 -0.2028223425 0.6395861506 4294770429
-0.3351867497 -0.2021634281 0.6397497654 4294770429
-0.3357192874 -0.2017726898 0.6407662034 4294770429
-0.3358046710 -0.2011118829 0.6409292221 4294770429
-0.3363370895 -0.2007174939 0.6419453621 4294770429
-0.3364221156 -0.2000548095 0.6421076655 4294770429
-0.3365069032 -0.1993916184 0.6422694921 4294639357
-0.3365914524 -0.1987279356 0.6424308419 4294639357
-0.3366757631 -0.1980637461 0.6425917745 4294639611
-0.3367598057 -0.1973990649 0.6427522302 4294573818
-0.3368436396 -0.1967338771 0.6429122090 4294508025
-0.3369272351 -0.1960681975 0.6430717707 4294508025
-0.3370105922 -0.1954020262 0.6432308555 4294639357
-0.3375419378 -0.1949943155 0.6442450285 4294705150
-0.3376249075 -0.1943262666 0.6444033980 4294639357
-0.3381561339 -0.1939149052 0.6454172730 4294507771
-0.3382387161 -0.1932449937 0.6455749273 4294639357
-0.3378723562 -0.1923191696 0.6448756456 4294573564
-0.3379543424 -0.1916491687 0.6450321674 4294573564
-0.3380360901 -0.1909786761 0.6451881528 4294573564
-0.3385666013 -0.1905604154 0.6462007165 4294573564
-0.3386479616 -0.1898880601 0.6463559866 4294573564
-0.3387290537 -0.1892152280 0.6465107799 4294639357
-0.3388099074 -0.1885418892 0.6466651559 4294639357
-0.3388905227 -0.1878680885 0.6468189955 4294574077
-0.3389708698 -0.1871938109 0.6469723582 4294574077
-0.3395006657 -0.1867664158 0.6479834914 4294574077
-0.3395806253 -0.1860902756 0.6481361389 4294574077
-0.3401102126 -0.1856592447 0.6491469145 4294574077
-0.3401897550 -0.1849812567 0.6492987275 4294574077
-0.3402690589 -0.1843027920 0.6494501233 4294574077
-0.3407983184 -0.1838667393 0.6504602432 4294574077
-0.3408772051 -0.1831864268 0.6506108642 4294507771
-0.3409558535 -0.1825056523 0.6507609487 4294507771
-0.3410342336 -0.1818244010 0.6509105563 4294507771
-0.3411123753 -0.1811426878 0.6510596871 4294507771
-0.3411902487 -0.1804604977 0.6512082815 4294507773
-0.3412678540 -0.1797778457 0.6513563991 4294507773
-0.3417961299 -0.1793313026 0.6523646712 4294507773
-0.3418733180 -0.1786468178 0.6525120139 4294507773
-0.3419502378 -0.1779618710 0.6526588798 4294441978
-0.3420269191 -0.1772764623 0.6528052092 4294507771
-0.3421033323 -0.1765905917 0.6529510617 4294639357
-0.3421794772 -0.1759042591 0.6530963778 4294705150
-0.3422553539 -0.1752174795 0.6532412171 4294705150
-0.3423309922 -0.1745302230 0.6533855796 4294573564
-0.3424063325 -0.1738425344 0.6535294056 4294507771
-0.3424814343 -0.1731543839 0.6536726952 4294573564
-0.3425562680 -0.1724657714 0.6538155675 4294770687
-0.3426308334 -0.1717767268 0.6539578438 4294507771
-0.3427051306 -0.1710872203 0.6540996432 4294376185
-0.3423269391 -0.1701724678 0.6533778310 4294441978
-0.3424006104 -0.1694829762 0.6535184383 4294507771
-0.3424739838 -0.1687930524 0.6536585093 4294507771
-0.3429996371 -0.1683247387 0.6546617746 4294507771
-0.3430725932 -0.1676330119 0.6548010111 4294507771
-0.3431452811 -0.1669408381 0.6549397707 4294639359
-0.3432177007 -0.1662482321 0.6550779939 4294507773
-0.3437427282 -0.1657736003 0.6560800672 4294507771
-0.3438147008 -0.1650792062 0.6562174559 4294441978
-0.3443394601 -0.1646009535 0.6572190523 4294178292
-0.3444109857 -0.1639047712 0.6573555470 4293454569
-0.3444822431 -0.1632081568 0.6574915051 4292599006
-0.3445532024 -0.1625111103 0.6576269865 4291941076
-0.3441704512 -0.1616007239 0.6568964124 4291875283
-0.3442407846 -0.1609037369 0.6570306420 4292072662
-0.3443108201 -0.1602063179 0.6571643353 4292533213
-0.3443805873 -0.1595084816 0.6572975516 4293388522
-0.3444500864 -0.1588102132 0.6574301720 4294178038
-0.3449732363 -0.1583198458 0.6584286690 4294507003
-0.3450422585 -0.1576198190 0.6585603952 4294572796
-0.3451110125 -0.1569193751 0.6586916447 4294638589
-0.3451794982 -0.1562185138 0.6588223577 4294901502
-0.3452476859 -0.1555172354 0.6589525342 4294967295
-0.3453156054 -0.1548155397 0.6590821147 4294967295
-0.3453832567 -0.1541134417 0.6592112184 4294901503
-0.3454506099 -0.1534109265 0.6593397856 4294769918
-0.3455176950 -0.1527079940 0.6594678164 4294704125
-0.3460391760 -0.1522046626 0.6604632139 4294704125
-0.3461057842 -0.1514999866 0.6605902910 4294769918
-0.3461720943 -0.1507949084 0.6607168913 4294441210
-0.3462381363 -0.1500894278 0.6608428955 4294441210
-0.3463038802 -0.1493835449 0.6609683633 4294507005
-0.3463693261 -0.1486772597 0.6610932946 4294572798
-0.3464345038 -0.1479705721 0.6612176895 4294638591
-0.3464993834 -0.1472634971 0.6613415480 4294770175
-0.3465639949 -0.1465560198 0.6614648104 4294770175
-0.3461728096 -0.1456564814 0.6607182026 4294704383
-0.3462367654 -0.1449491531 0.6608402729 4294704125
-0.3463003933 -0.1442414224 0.6609617472 4294243574
-0.3463637829 -0.1435333043 0.6610826850 4293651437
-0.3464268446 -0.1428247988 0.6612030864 4293125093
-0.3469455540 -0.1423029006 0.6621930599 4292598749
-0.3470081091 -0.1415926963 0.6623125076 4292269784
-0.3466143310 -0.1406969726 0.6615609527 4291875026
-0.3466762602 -0.1399869323 0.6616790891 4291611854
-0.3471941054 -0.1394597739 0.6626675129 4291677904
-0.3472555280 -0.1387480348 0.6627846956 4292006869
-0.3473166525 -0.1380359232 0.6629014015 4292533213
-0.3473774791 -0.1373234391 0.6630174518 4293125350
-0.3474380076 -0.1366105825 0.6631330252 4293717487
-0.3474982381 -0.1358973533 0.6632480025 4294112245
-0.3475581706 -0.1351837516 0.6633623838 4294375417
-0.3476178348 -0.1344697773 0.6634762287 4294572796
-0.3476771712 -0.1337554455 0.6635895371 4294638079
-0.3472793102 -0.1328659207 0.6628301144 4294506493
-0.3473379910 -0.1321517974 0.6629421115 4294374906
-0.3473963737 -0.1314373165 0.6630535126 4294177527
-0.3474544585 -0.1307224631 0.6631644368 4293980662
-0.3475122452 -0.1300072670 0.6632747054 4294112248
-0.3471124172 -0.1291215867 0.6625115871 4294309627
-0.3471695185 -0.1284066141 0.6626206040 4294507006
-0.3472263515 -0.1276912838 0.6627290249 4294441213
-0.3472828865 -0.1269756109 0.6628369093 4294441213
-0.3473390937 -0.1262595952 0.6629442573 4294441212
-0.3473950326 -0.1255432218 0.6630509496 4294507005
-0.3474506438 -0.1248265132 0.6631571651 4294572799
-0.3475059569 -0.1241094545 0.6632627249 4294572799
-0.3475609720 -0.1233920604 0.6633677483 4294440959
-0.3476157188 -0.1226743162 0.6634721756 4294375166
-0.3472120464 -0.1217955649 0.6627017856 4294441982
-0.3472661078 -0.1210780963 0.6628049016 4294441982
-0.3473198414 -0.1203602925 0.6629074812 4294507005
-0.3478315473 -0.1198000014 0.6638841629 4294507005
-0.3478847444 -0.1190805882 0.6639857292 4294507005
-0.3479376435 -0.1183608472 0.6640866399 4294507005
-0.3479902446 -0.1176407784 0.6641870737 4294375934
-0.3480425477 -0.1169203892 0.6642868519 4294310141
-0.3476358950 -0.1160465702 0.6635107398 4294441727
-0.3476875126 -0.1153264865 0.6636092067 4294375934
-0.3477388024 -0.1146060750 0.6637071371 4294441727
-0.3477897942 -0.1138853505 0.6638044715 4294375934
-0.3478404880 -0.1131643057 0.6639012098 4294178555
-0.3478908837 -0.1124429479 0.6639973521 4293981176
-0.3479409516 -0.1117212772 0.6640929580 4293849590
-0.3479907215 -0.1109992936 0.6641879678 4293718004
-0.3475810289 -0.1101315245 0.6634059548 4293520627
-0.3476301134 -0.1094098762 0.6634996533 4293454834
-0.3472195864 -0.1085443497 0.6627161503 4293389039
-0.3472679853 -0.1078230515 0.6628085375 4293257453
-0.3473160863 -0.1071014553 0.6629003286 4293125869
-0.3469043970 -0.1062388495 0.6621145606 4292928490
-0.3469517827 -0.1055176109 0.6622050405 4292928490
-0.3465392888 -0.1046572700 0.6614177227 4292994283
-0.3470456898 -0.1040742472 0.6623842120 4293060076
-0.3466324210 -0.1032152399 0.6615954638 4293125869
-0.3466785252 -0.1024937928 0.6616834402 4293257455
-0.3467243314 -0.1017720550 0.6617708802 4293257455
-0.3467698097 -0.1010500342 0.6618576646 4293125869
-0.3463550210 -0.1001946703 0.6610659957 4292994283
-0.3459397852 -0.0993409380 0.6602734327 4292928490
-0.3459842205 -0.0986199901 0.6603582501 4292862697
-0.3455681801 -0.0977685824 0.6595641971 4292863210
-0.3456119299 -0.0970480442 0.6596477032 4292994796
-0.3456553519 -0.0963272303 0.6597305536 4293192175
-0.3456984758 -0.0956061482 0.6598128676 4293389554
-0.3457412720 -0.0948847979 0.6598945856 4293389554
-0.3453233242 -0.0940377936 0.6590968966 4293192175
-0.3453654647 -0.0933168679 0.6591772437 4292994796
-0.3454072475 -0.0925956815 0.6592570543 4292863210
-0.3449881375 -0.0917517394 0.6584571600 4292928749
-0.3450292647 -0.0910309926 0.6585355997 4292862956
-0.3450700641 -0.0903099924 0.6586135030 4292862956
-0.3446498215 -0.0894691274 0.6578113437 4292862956
-0.3442291021 -0.0886299312 0.6570084095 4292731370
-0.3442688584 -0.0879101008 0.6570842862 4292731370
-0.3443083167 -0.0871900171 0.6571595669 4292797163
-0.3443474472 -0.0864696950 0.6572342515 4292797163
-0.3439252079 -0.0856343284 0.6564283967 4292994542
-0.3439636528 -0.0849144831 0.6565017700 4293060335
-0.3435406387 -0.0840815306 0.6556943655 4293191921
-0.3435783982 -0.0833621696 0.6557664275 4293323507
-0.3436158597 -0.0826425701 0.6558378935 4293520886
-0.3431916833 -0.0818127766 0.6550283432 4293652472
-0.3432284594 -0.0810936764 0.6550984979 4293784058
-0.3428035080 -0.0802663192 0.6542874575 4293849851
-0.3423781693 -0.0794406608 0.6534755826 4293521656
-0.3428753316 -0.0788289085 0.6544245481 4293587449
-0.3429107964 -0.0781098679 0.6544921994 4293521656
-0.3424843550 -0.0772864521 0.6536782980 4293521656
-0.3415958583 -0.0763615519 0.6519824862 4293521656
-0.3416302204 -0.0756447613 0.6520480514 4293455863
-0.3412025273 -0.0748264939 0.6512317657 4293390070
-0.3412362039 -0.0741102472 0.6512960196 4293324277
-0.3408077657 -0.0732944682 0.6504783034 4293390070
-0.3403789103 -0.0724804178 0.6496597528 4293324277
-0.3404115438 -0.0717654750 0.6497220397 4293258484
-0.3404438496 -0.0710503310 0.6497836709 4293258484
-0.3400138617 -0.0702395514 0.6489630342 4293258484
-0.3400454819 -0.0695249736 0.6490233541 4293324277
-0.3396147490 -0.0687167048 0.6482012272 4293324277
-0.3391835988 -0.0679101869 0.6473783255 4293390070
-0.3387520313 -0.0671054125 0.6465546489 4293258484
-0.3387822807 -0.0663929656 0.6466123462 4293126898
-0.3383499682 -0.0655907318 0.6457872391 4293191921
-0.3388417959 -0.0649675131 0.6467259526 4292994542
-0.3384087682 -0.0641668513 0.6458994746 4292731624
-0.3379753530 -0.0633679405 0.6450722218 4292534245
-0.3380039036 -0.0626565218 0.6451267600 4292534245
-0.3380321562 -0.0619449131 0.6451806426 4292468452
-0.3375976384 -0.0611493625 0.6443513036 4292599784
-0.3371627033 -0.0603555888 0.6435211897 4292731370
-0.3367273808 -0.0595635846 0.6426903009 4292928749
-0.3362916708 -0.0587733611 0.6418586969 4293126128
-0.3363181949 -0.0580647886 0.6419093013 4293191921
-0.3363443613 -0.0573560484 0.6419593096 4293126128
-0.3359075785 -0.0565692224 0.6411256194 4293060335
-0.3354703784 -0.0557841882 0.6402911544 4292994542
-0.3350327909 -0.0550009422 0.6394559741 4293060335
-0.3345948160 -0.0542194918 0.6386200190 4293060335
-0.3346192837 -0.0535138510 0.6386667490 4293060335
-0.3341805935 -0.0527350157 0.6378294230 4293126128
-0.3342043757 -0.0520300493 0.6378748417 4293126128
-0.3337649405 -0.0512538441 0.6370360851 4293126128
-0.3333251178 -0.0504794419 0.6361966729 4293126128
-0.3328849375 -0.0497068502 0.6353564858 4293191921
-0.3319813311 -0.0488679148 0.6336318254 4293191921
-0.3320033848 -0.0481671058 0.6336739659 4293323507
-0.3315620720 -0.0473999567 0.6328316331 4293389300
-0.3311203420 -0.0466346256 0.6319885254 4293455093
-0.3311414123 -0.0459353626 0.6320286989 4293718519
-0.3306989670 -0.0451726988 0.6311842799 4294179070
-0.3297929764 -0.0443495698 0.6294550896 4294244607
-0.3298130035 -0.0436528511 0.6294932961 4293981437
-0.3289062083 -0.0428353436 0.6277625561 4293191921
-0.3289255500 -0.0421403311 0.6277994514 4291612889
-0.3289445639 -0.0414451957 0.6278357506 4290165697
-0.4245470166 -0.3747947812 0.8120275140 4294375420
-0.4246934056 -0.3740214705 0.8123074770 4294507006
-0.4252687097 -0.3736243546 0.8134078979 4294441212
-0.4258441031 -0.3732249141 0.8145084381 4294441212
-0.3091863990 -0.2703248858 0.5913782120 4294310394
-0.3062852621 -0.2671374977 0.5858292580 4294310394
-0.3059602380 -0.2662037909 0.5852075219 4294310392
-0.3060646057 -0.2656441927 0.5854071975 4294376185
-0.3053088188 -0.2643394172 0.5839616656 4294376185
-0.3054126203 -0.2637802362 0.5841601491 4294376185
-0.3055162728 -0.2632204890 0.5843584538 4294376187
-0.3060502410 -0.2630301118 0.5853797197 4294376187
-0.3070149124 -0.2632067502 0.5872248411 4294441980
-0.3071185648 -0.2626429498 0.5874230862 4294441980
-0.3076529205 -0.2624461055 0.5884451866 4294507773
-0.3081874251 -0.2622471452 0.5894675255 4294507773
-0.3082908988 -0.2616800070 0.5896654129 4294573566
-0.3083941936 -0.2611123323 0.5898630023 4294573566
-0.3089288175 -0.2609084547 0.5908855796 4294704382
-0.3094635904 -0.2607024312 0.5919083953 4294704382
-0.3099984527 -0.2604942620 0.5929314494 4294704636
-0.3096696734 -0.2595598996 0.5923025608 4294638843
-0.3102045357 -0.2593489587 0.5933256149 4294638843
-0.3107395172 -0.2591358721 0.5943488479 4294704636
-0.3108423054 -0.2585610151 0.5945454240 4294704636
-0.3109449148 -0.2579855621 0.5947417021 4294770429
-0.3114799857 -0.2577675581 0.5957651138 4294705150
-0.3115824163 -0.2571901977 0.5959610939 4294770687
-0.3116846979 -0.2566122413 0.5961567163 4294770687
-0.3122198582 -0.2563893199 0.5971803069 4294705150
-0.3127551079 -0.2561642230 0.5982040763 4294770687
-0.3128571808 -0.2555829585 0.5983992815 4294705150
-0.3120921552 -0.2542947531 0.5969360471 4294573564
-0.3134944141 -0.2547711134 0.5996181369 4294573564
-0.3135961294 -0.2541873157 0.5998126864 4294770687
-0.3136976659 -0.2536029816 0.6000069380 4294770687
-0.3137990534 -0.2530180812 0.6002008319 4294770687
-0.3139002621 -0.2524325848 0.6003943682 4294770687
-0.3144356012 -0.2521948814 0.6014183164 4294770687
-0.3145366013 -0.2516074479 0.6016114950 4294770687
-0.3146374226 -0.2510194778 0.6018043756 4294770687
-0.3151728213 -0.2507768273 0.6028283834 4294770687
-0.3152734339 -0.2501868904 0.6030208468 4294705151
-0.3158088923 -0.2499406636 0.6040450335 4294639359
-0.3163444698 -0.2496922463 0.6050693989 4294705151
-0.3168801069 -0.2494416237 0.6060939431 4294770687
-0.3165450394 -0.2485051751 0.6054530740 4294770687
-0.3170806468 -0.2482517958 0.6064774394 4294705150
-0.3171806335 -0.2476560324 0.6066687107 4294705150
-0.3177162707 -0.2473990619 0.6076932549 4294573564
-0.3182519972 -0.2471399009 0.6087179184 4294770429
-0.3187878430 -0.2468785346 0.6097428203 4294704636
-0.3193237484 -0.2466149628 0.6107679009 4294770429
-0.3194234073 -0.2460131049 0.6109584570 4294770429
-0.3195228577 -0.2454106808 0.6111487150 4294770429
-0.3196221590 -0.2448076904 0.6113386154 4294770429
-0.3201580346 -0.2445377558 0.6123635769 4294836222
-0.3202570677 -0.2439328134 0.6125530005 4294836222
-0.3203559220 -0.2433273196 0.6127421260 4294704636
-0.3204546273 -0.2427212596 0.6129308343 4294704636
-0.3209904134 -0.2424449474 0.6139556766 4294638843
-0.3215263188 -0.2421664298 0.6149806976 4294638843
-0.3216246963 -0.2415570319 0.6151688695 4294704634
-0.3212851882 -0.2406192571 0.6145194769 4294704634
-0.3213830590 -0.2400095761 0.6147066951 4294704634
-0.3214807510 -0.2393993437 0.6148935556 4294770427
-0.3220163882 -0.2391138822 0.6159180403 4294770427
-0.3221138120 -0.2385016978 0.6161044240 4294770427
-0.3222110569 -0.2378889620 0.6162903905 4294770427
-0.3223081231 -0.2372756749 0.6164760590 4294770427
-0.3224050105 -0.2366618365 0.6166613102 4294770427
-0.3229404390 -0.2363685817 0.6176854968 4294770427
-0.3230370581 -0.2357528061 0.6178702712 4294770427
-0.3226944506 -0.2348169833 0.6172149181 4294770427
-0.3232297003 -0.2345195711 0.6182387471 4294770429
-0.3237650394 -0.2342199385 0.6192626357 4294770429
-0.3238610029 -0.2336011082 0.6194462180 4294770429
-0.3243963122 -0.2332978547 0.6204701066 4294770429
-0.3244920075 -0.2326770872 0.6206531525 4294770429
-0.3250273168 -0.2323701978 0.6216770411 4294770429
-0.3251227438 -0.2317474931 0.6218595505 4294770429
-0.3256580532 -0.2314369977 0.6228834391 4294770429
-0.3257532120 -0.2308123410 0.6230654120 4294770429
-0.3262884915 -0.2304982096 0.6240892410 4294770429
-0.3259429038 -0.2295614034 0.6234282255 4294770429
-0.3260374367 -0.2289351225 0.6236090660 4294770429
-0.3265725076 -0.2286168188 0.6246324778 4294770175
-0.3266667724 -0.2279885858 0.6248127818 4294770175
-0.3263198435 -0.2270530015 0.6241492629 4294770175
-0.3268546760 -0.2267305255 0.6251721978 4294770175
-0.3269483447 -0.2261006683 0.6253513098 4294769918
-0.3270417750 -0.2254702747 0.6255300641 4294769918
-0.3271349967 -0.2248393446 0.6257083416 4294835709
-0.3276696205 -0.2245104462 0.6267309189 4294835709
-0.3277625740 -0.2238775939 0.6269087195 4294835709
-0.3278552890 -0.2232441902 0.6270860434 4294835709
-0.3283897936 -0.2229102701 0.6281083822 4294770175
-0.3280401230 -0.2219757885 0.6274395585 4294770175
-0.3285744488 -0.2216390818 0.6284615993 4294835967
-0.3286664486 -0.2210026830 0.6286375523 4294770175
-0.3292007148 -0.2206623405 0.6296594739 4294770175
-0.3288498223 -0.2197282910 0.6289882660 4294704382
-0.3293839097 -0.2193851620 0.6300098300 4294770175
-0.3290323317 -0.2184517533 0.6293373704 4294704382
-0.3291232586 -0.2178127021 0.6295112967 4293718257
-0.3292139769 -0.2171731144 0.6296848059 4292599776
-0.3293044865 -0.2165329903 0.6298579574 4292863461
-0.3298380971 -0.2161829174 0.6308785677 4293916149
-0.3299282789 -0.2155408859 0.6310510635 4294573566
-0.3295746744 -0.2146094888 0.6303747296 4294770687
-0.3296643198 -0.2139672637 0.6305461526 4294573566
-0.3301975429 -0.2136116326 0.6315660477 4294441980
-0.3302868307 -0.2129675001 0.6317368746 4294639359
-0.3308199644 -0.2126082331 0.6327565908 4294178808
-0.3309089541 -0.2119621783 0.6329267621 4292862948
-0.3314419985 -0.2115992755 0.6339463592 4292336604
-0.3319750726 -0.2112340927 0.6349658966 4293191143
-0.3320636153 -0.2105847597 0.6351352930 4294572796
-0.3321519196 -0.2099348903 0.6353042126 4294901759
-0.3322400153 -0.2092845142 0.6354727149 4294704382
-0.3327727616 -0.2089129239 0.6364917159 4294573566
-0.3328605294 -0.2082606405 0.6366595626 4294770687
-0.3329480588 -0.2076078504 0.6368269324 4294770429
-0.3330353498 -0.2069545388 0.6369939446 4294770429
-0.3331224322 -0.2063007057 0.6371604800 4294770429
-0.3327637911 -0.2053714395 0.6364745498 4294770429
-0.3328503072 -0.2047174722 0.6366399527 4294770429
-0.3333822489 -0.2043361664 0.6376574636 4294770429
-0.3334684074 -0.2036803067 0.6378222108 4294770429
-0.3335542977 -0.2030239254 0.6379865408 4294770429
-0.3340860307 -0.2026375979 0.6390035152 4294770429
-0.3341715932 -0.2019793242 0.6391671896 4294770429
-0.3342569172 -0.2013205588 0.6393303871 4294770429
-0.3347883821 -0.2009291798 0.6403469443 4294770429
-0.3353198469 -0.2005355507 0.6413634419 4294770429
-0.3354046941 -0.1998735070 0.6415257454 4294770429
-0.3354893029 -0.1992109716 0.6416875720 4294770429
-0.3355736732 -0.1985479146 0.6418489218 4294770429
-0.3356577754 -0.1978843808 0.6420098543 4294705148
-0.3357416689 -0.1972203404 0.6421702504 4294639611
-0.3358253241 -0.1965557933 0.6423302889 4294639611
-0.3359087110 -0.1958907545 0.6424897909 4294639611
-0.3359918892 -0.1952252239 0.6426488757 4294639357
-0.3365223110 -0.1948182732 0.6436634064 4294705150
-0.3366051018 -0.1941508651 0.6438217759 4294639357
-0.3371353745 -0.1937402636 0.6448360085 4294507771
-0.3372177780 -0.1930709928 0.6449936032 4294639357
-0.3372999430 -0.1924012154 0.6451507807 4294573564
-0.3369338214 -0.1914763451 0.6444504857 4294573564
-0.3370153904 -0.1908064932 0.6446064711 4294573564
-0.3370966911 -0.1901361495 0.6447620392 4294639357
-0.3376261294 -0.1897172779 0.6457746625 4294639357
-0.3377070725 -0.1890450865 0.6459294558 4294705150
-0.3377877474 -0.1883724034 0.6460837722 4294705150
-0.3378681839 -0.1876992434 0.6462376118 4294639357
-0.3379483819 -0.1870255917 0.6463909745 4294639357
-0.3384771943 -0.1865989566 0.6474025249 4294639357
-0.3385570049 -0.1859234571 0.6475551128 4294639357
-0.3390856385 -0.1854931712 0.6485662460 4294639357
-0.3391650319 -0.1848158240 0.6487181187 4294639357
-0.3392441571 -0.1841380149 0.6488694549 4294639357
-0.3397724926 -0.1837027073 0.6498799920 4294639357
-0.3398512006 -0.1830230504 0.6500305533 4294573564
-0.3399296701 -0.1823429018 0.6501806378 4294573564
-0.3400079012 -0.1816623062 0.6503302455 4294573566
-0.3400858641 -0.1809812188 0.6504793763 4294573566
-0.3401635587 -0.1802996844 0.6506279707 4294573566
-0.3402410150 -0.1796176732 0.6507760882 4294573566
-0.3403182030 -0.1789352000 0.6509237289 4294573566
-0.3408453763 -0.1784880459 0.6519320607 4294573566
-0.3409221470 -0.1778037399 0.6520789266 4294573564
-0.3409986496 -0.1771189719 0.6522252560 4294507771
-0.3410749137 -0.1764337420 0.6523711085 4294441978
-0.3411508799 -0.1757480502 0.6525164247 4294573564
-0.3412266076 -0.1750619113 0.6526612639 4294573564
-0.3413020670 -0.1743753105 0.6528056264 4294376185
-0.3413772583 -0.1736882627 0.6529494524 4294376185
-0.3414522111 -0.1730007529 0.6530927420 4294507771
-0.3415268660 -0.1723127812 0.6532355547 4294638843
-0.3416012824 -0.1716243774 0.6533778906 4294770429
-0.3416754007 -0.1709355116 0.6535196900 4294901759
-0.3417492807 -0.1702462137 0.6536609530 4294901759
-0.3413713276 -0.1693324745 0.6529380679 4294770429
-0.3414445817 -0.1686431766 0.6530781388 4294836222
-0.3415175378 -0.1679534465 0.6532177329 4294901759
-0.3420420885 -0.1674845368 0.6542209983 4294901759
-0.3421146274 -0.1667930037 0.6543597579 4294572796
-0.3421868682 -0.1661010385 0.6544979811 4293783280
-0.3427110016 -0.1656271517 0.6555004120 4292928225
-0.3427827954 -0.1649333984 0.6556378007 4292336088
-0.3433066607 -0.1644558758 0.6566397548 4291875537
-0.3433780372 -0.1637603343 0.6567762494 4291809744
-0.3434491158 -0.1630643606 0.6569122672 4292335834
-0.3430673480 -0.1621540338 0.6561820507 4292862178
-0.3431378007 -0.1614581198 0.6563167572 4293717487
-0.3432079852 -0.1607617885 0.6564509869 4294243831
-0.3432778716 -0.1600650102 0.6565847397 4294638589
-0.3433475196 -0.1593678147 0.6567178965 4294835967
-0.3434168696 -0.1586702019 0.6568505168 4294770175
-0.3439390659 -0.1581805646 0.6578493714 4294572796
-0.3440079689 -0.1574811786 0.6579811573 4294507005
-0.3440765738 -0.1567813754 0.6581124067 4294704383
-0.3441449106 -0.1560811698 0.6582430601 4294901503
-0.3442129493 -0.1553805321 0.6583732367 4294835711
-0.3442807496 -0.1546794772 0.6585028768 4294703871
-0.3443482220 -0.1539780200 0.6586319804 4294703871
-0.3444154561 -0.1532761455 0.6587605476 4294769663
-0.3444823623 -0.1525738537 0.6588885188 4294769663
-0.3450029790 -0.1520712525 0.6598842740 4294769918
-0.3450694382 -0.1513672322 0.6600114107 4294835711
-0.3451355994 -0.1506627947 0.6601379514 4294967295
-0.3452014923 -0.1499579549 0.6602640152 4294967295
-0.3452670872 -0.1492527127 0.6603894830 4294901247
-0.3453324139 -0.1485470682 0.6605144143 4294769663
-0.3453974426 -0.1478410214 0.6606388092 4294506492
-0.3454622030 -0.1471345872 0.6607626677 4294045941
-0.3450720310 -0.1462350786 0.6600163579 4293453804
-0.3451361060 -0.1455287784 0.6601389647 4292927460
-0.3451999128 -0.1448220909 0.6602609754 4291546061
-0.3452634513 -0.1441150010 0.6603825092 4291085510
-0.3453266621 -0.1434075385 0.6605034471 4290822338
-0.3458446860 -0.1428876817 0.6614941955 4290822338
-0.3454522789 -0.1419914216 0.6607436538 4291217096
-0.3455146253 -0.1412827969 0.6608629227 4292072405
-0.3455767035 -0.1405737698 0.6609816551 4292927714
-0.3456384838 -0.1398643851 0.6610998511 4293322472
-0.3461554646 -0.1393379420 0.6620886326 4294112245
-0.3462167382 -0.1386268586 0.6622058153 4294309624
-0.3462777138 -0.1379153877 0.6623225212 4294572798
-0.3463384211 -0.1372035444 0.6624385715 4294704383
-0.3463988304 -0.1364913285 0.6625541449 4294770175
-0.3464589417 -0.1357787400 0.6626691222 4294704383
-0.3465187550 -0.1350657791 0.6627835035 4294638591
-0.3465782702 -0.1343524605 0.6628973484 4294704383
-0.3461813927 -0.1334629208 0.6621382833 4294834943
-0.3462402523 -0.1327498108 0.6622508168 4294769151
-0.3458425701 -0.1318623722 0.6614901423 4294572285
-0.3459007442 -0.1311494708 0.6616014838 4294374906
-0.3459586501 -0.1304362118 0.6617121696 4294112247
-0.3460162282 -0.1297225803 0.6618223190 4293980661
-0.3456169665 -0.1288384199 0.6610586643 4293981176
-0.3456738889 -0.1281250417 0.6611675620 4294046969
-0.3461872339 -0.1275796145 0.6621494293 4294112764
-0.3457868397 -0.1266972125 0.6613836288 4294244350
-0.3462997377 -0.1261492074 0.6623646021 4294310141
-0.3463555574 -0.1254334748 0.6624713540 4294375934
-0.3459540308 -0.1245528758 0.6617034078 4294507006
-0.3460091650 -0.1238374040 0.6618088484 4294507006
-0.3460640013 -0.1231215969 0.6619136930 4294638079
-0.3461185396 -0.1224054471 0.6620180011 4294835455
-0.3461727798 -0.1216889620 0.6621217728 4294441727
-0.3462266922 -0.1209721416 0.6622248888 4294441727
-0.3462803364 -0.1202549860 0.6623274684 4294572799
-0.3463336527 -0.1195374951 0.6624294519 4294572799
-0.3463866711 -0.1188196763 0.6625308990 4294638591
-0.3464393914 -0.1181015298 0.6626316905 4294638591
-0.3464918137 -0.1173830554 0.6627319455 4294441727
-0.3465439081 -0.1166642532 0.6628316045 4294375934
-0.3465957046 -0.1159451306 0.6629307270 4294244348
-0.3466472328 -0.1152256876 0.6630291939 4294310141
-0.3471564054 -0.1146571860 0.6640031338 4294375935
-0.3467493057 -0.1137858406 0.6632244587 4294441727
-0.3467998803 -0.1130654439 0.6633211970 4294375935
-0.3468501568 -0.1123447269 0.6634173989 4294375935
-0.3464418650 -0.1114762500 0.6626364589 4294310143
-0.3464914560 -0.1107558608 0.6627312899 4294244350
-0.3465407491 -0.1100351736 0.6628255844 4294244861
-0.3465897441 -0.1093141735 0.6629192829 4294179068
-0.3461799026 -0.1084492281 0.6621353626 4294179068
-0.3457696140 -0.1075858921 0.6613506079 4294047482
-0.3458175361 -0.1068658903 0.6614422798 4293915896
-0.3458651602 -0.1061455980 0.6615333557 4293850103
-0.3454536796 -0.1052851826 0.6607463956 4293784312
-0.3455006182 -0.1045652553 0.6608361602 4293784312
-0.3455472589 -0.1038450301 0.6609253287 4293850105
-0.3455935717 -0.1031245142 0.6610139012 4293652726
-0.3456395864 -0.1024037153 0.6611019373 4293323761
-0.3456852734 -0.1016826257 0.6611893177 4292994796
-0.3452715278 -0.1008271724 0.6603979468 4292797417
-0.3453165293 -0.1001064703 0.6604840755 4292797417
-0.3449019790 -0.0992533267 0.6596911550 4292929003
-0.3449463248 -0.0985330269 0.6597759128 4293060589
-0.3445309699 -0.0976822078 0.6589815021 4292863726
-0.3441151977 -0.0968330279 0.6581861973 4292995312
-0.3441584706 -0.0961138234 0.6582689881 4293192691
-0.3442014456 -0.0953943506 0.6583511829 4293192691
-0.3447037041 -0.0948010087 0.6593118906 4293126898
-0.3442864418 -0.0939545929 0.6585137844 4293061105
-0.3443284631 -0.0932343230 0.6585941911 4292995312
-0.3439103961 -0.0923902690 0.6577945352 4292929519
-0.3439517617 -0.0916704312 0.6578736305 4293126898
-0.3435329199 -0.0908287466 0.6570724845 4293192691
-0.3435735703 -0.0901093557 0.6571502686 4293324277
-0.3431539237 -0.0892700478 0.6563476324 4293390070
-0.3427338600 -0.0884324089 0.6555442214 4293455863
-0.3427734971 -0.0877141953 0.6556199789 4293521656
-0.3428128064 -0.0869957283 0.6556951404 4293522169
-0.3433119953 -0.0863928199 0.6566499472 4293653755
-0.3428904712 -0.0855580568 0.6558436751 4293653242
-0.3424685001 -0.0847249776 0.6550366282 4293653242
-0.3425064981 -0.0840065032 0.6551092863 4293653242
-0.3425441682 -0.0832877904 0.6551813483 4293653242
-0.3425815403 -0.0825688466 0.6552528143 4293587449
-0.3421580791 -0.0817396492 0.6544429064 4293587449
-0.3421947658 -0.0810211971 0.6545130610 4293587449
-0.3417704999 -0.0801944435 0.6537016034 4293587449
-0.3413458467 -0.0793693960 0.6528893709 4293521656
-0.3413814902 -0.0786521956 0.6529574990 4293455863
-0.3414168060 -0.0779347792 0.6530250907 4293521656
-0.3409910202 -0.0771129280 0.6522106528 4293521656
-0.3405648172 -0.0762927979 0.6513954401 4293455863
-0.3405990899 -0.0755766556 0.6514610052 4293455863
-0.3401721120 -0.0747589990 0.6506443024 4293390070
-0.3397447169 -0.0739430711 0.6498268843 4293324277
-0.3397779465 -0.0732282251 0.6498904228 4293324279
-0.3393498063 -0.0724147856 0.6490715146 4293324279
-0.3398434818 -0.0717979223 0.6500157714 4293324279
-0.3394145966 -0.0709860101 0.6491954327 4293390072
-0.3394465148 -0.0702713132 0.6492565274 4293390070
-0.3390168846 -0.0694619119 0.6484347582 4293324277
-0.3385868371 -0.0686542615 0.6476122141 4293258484
-0.3381564021 -0.0678483471 0.6467888951 4293192691
-0.3377255499 -0.0670441911 0.6459648013 4292995312
-0.3377557099 -0.0663324073 0.6460224986 4292797933
-0.3373241127 -0.0655307844 0.6451969743 4292732140
-0.3373536170 -0.0648195893 0.6452534199 4292600554
-0.3373827934 -0.0641082078 0.6453092098 4292403175
-0.3369500637 -0.0633099228 0.6444815993 4292468968
-0.3369785845 -0.0625991523 0.6445360780 4292666347
-0.3365451097 -0.0618034266 0.6437070370 4292797933
-0.3365729451 -0.0610932745 0.6437602639 4292995312
-0.3361387253 -0.0603001155 0.6429297328 4292995312
-0.3357041180 -0.0595087335 0.6420984864 4293061105
-0.3357309401 -0.0588000119 0.6421497464 4293061105
-0.3352955878 -0.0580112152 0.6413170695 4292995312
-0.3353217244 -0.0573031344 0.6413670778 4292929519
-0.3348856270 -0.0565169305 0.6405329108 4292929519
-0.3344491422 -0.0557325184 0.6396980882 4292929519
-0.3340122998 -0.0549498983 0.6388624907 4292929519
-0.3335750401 -0.0541690700 0.6380261779 4292929519
-0.3335994482 -0.0534640923 0.6380728483 4292929519
-0.3331614733 -0.0526858829 0.6372351646 4292929519
-0.3331852257 -0.0519815758 0.6372805834 4292995312
-0.3327465057 -0.0512059964 0.6364414692 4292995312
-0.3318452239 -0.0503620841 0.6347175837 4292995312
-0.3318679333 -0.0496602654 0.6347609758 4292995312
-0.3318903148 -0.0489583015 0.6348038316 4293126130
-0.3314501345 -0.0481889918 0.6339618564 4293126130
-0.3305472434 -0.0473552644 0.6322349310 4293126128
-0.3301062584 -0.0465905666 0.6313914657 4293126128
-0.3301272690 -0.0458919667 0.6314316392 4293257714
-0.3301479518 -0.0451932326 0.6314712167 4293520886
-0.3297059238 -0.0444320515 0.6306257248 4293849851
-0.3288010359 -0.0436113626 0.6288949847 4294113023
-0.3283582330 -0.0428548232 0.6280480623 4293849851
-0.3279150426 -0.0421001166 0.6272003651 4293849851
-0.3265650272 -0.0405387990 0.6246181726 4291481557
-0.3265832961 -0.0398470350 0.6246531606 4289836732
-0.4219523370 -0.3741958141 0.8087828755 4293915383
-0.4220981896 -0.3734261990 0.8090624213 4294178555
-0.4222438335 -0.3726558387 0.8093415499 4294441727
-0.4223892689 -0.3718846440 0.8096203804 4294310396
-0.4225345254 -0.3711126447 0.8098987341 4294244603
-0.3060783148 -0.2681771517 0.5866796970 4294244601
-0.3044678569 -0.2661177218 0.5835928917 4294310394
-0.3041430414 -0.2651861012 0.5829702616 4294310392
-0.3042469025 -0.2646287084 0.5831693411 4294310392
-0.3039213419 -0.2636982799 0.5825453401 4294376185
-0.3040247262 -0.2631405294 0.5827435255 4294376185
-0.3041279912 -0.2625822127 0.5829414725 4294310653
-0.3046608269 -0.2623934150 0.5839627385 4294310653
-0.3056236207 -0.2625717819 0.5858082175 4294376700
-0.3057268858 -0.2620093822 0.5860061049 4294376700
-0.3062601089 -0.2618141472 0.5870282054 4294441980
-0.3067934811 -0.2616167367 0.5880505443 4294507773
-0.3068965673 -0.2610510588 0.5882481337 4294507773
-0.3074300587 -0.2608501315 0.5892707109 4294507773
-0.3075329661 -0.2602825165 0.5894679427 4294507773
-0.3080665767 -0.2600780725 0.5904908180 4294573566
-0.3086003363 -0.2598714530 0.5915138721 4294704636
-0.3087030649 -0.2593005300 0.5917108059 4294573050
-0.3092369437 -0.2590903938 0.5927340984 4294638843
-0.3093394935 -0.2585175335 0.5929306746 4294638843
-0.3098734617 -0.2583038807 0.5939541459 4294704636
-0.3099758625 -0.2577290535 0.5941504240 4294704636
-0.3105099499 -0.2575118542 0.5951741338 4294573566
-0.3106121421 -0.2569351196 0.5953699946 4294376187
-0.3102820218 -0.2560012639 0.5947372913 4294244601
-0.3108160496 -0.2557799220 0.5957608819 4294244601
-0.3113501966 -0.2555564046 0.5967847109 4294244601
-0.3118844628 -0.2553307116 0.5978087783 4294113015
-0.3119861186 -0.2547495365 0.5980036259 4294047222
-0.3125204742 -0.2545202971 0.5990278721 4294178808
-0.3126219511 -0.2539371550 0.5992223620 4294376187
-0.3127232790 -0.2533534467 0.5994165540 4294376187
-0.3128243983 -0.2527691722 0.5996103883 4294376187
-0.3129253685 -0.2521843314 0.5998039246 4294376187
-0.3134597242 -0.2519474030 0.6008281708 4294507773
-0.3135605156 -0.2513606250 0.6010213494 4294639359
-0.3136610985 -0.2507732809 0.6012141705 4294770687
-0.3137615323 -0.2501853704 0.6014066935 4294770687
-0.3142959177 -0.2499421239 0.6024309397 4294508286
-0.3148303926 -0.2496966869 0.6034553647 4294508286
-0.3153649569 -0.2494490445 0.6044800282 4294574079
-0.3150305748 -0.2485136539 0.6038391590 4294639615
-0.3155650795 -0.2482632548 0.6048636436 4294705151
-0.3165344894 -0.2483517975 0.6067217588 4294705151
-0.3161994517 -0.2474155277 0.6060795784 4294770687
-0.3171691895 -0.2474988550 0.6079383492 4294770687
-0.3177040815 -0.2472396493 0.6089636087 4294573564
-0.3173683882 -0.2463025153 0.6083201170 4294573564
-0.3179031909 -0.2460405380 0.6093452573 4294770429
-0.3180024624 -0.2454401404 0.6095355153 4294770429
-0.3185373247 -0.2451745719 0.6105607152 4294704636
-0.3182004988 -0.2442376465 0.6099150777 4294704636
-0.3187352419 -0.2439693213 0.6109400988 4294704636
-0.3183977902 -0.2430329323 0.6102932692 4294770429
-0.3193687499 -0.2430939078 0.6121543646 4294704636
-0.3194671869 -0.2424885035 0.6123430729 4294704636
-0.3195654750 -0.2418825179 0.6125314236 4294770429
-0.3201002479 -0.2416056097 0.6135565042 4294836222
-0.3201982975 -0.2409976870 0.6137443781 4294836222
-0.3198591769 -0.2400612533 0.6130943894 4294704636
-0.3199566901 -0.2394530475 0.6132813096 4294704636
-0.3200540245 -0.2388442755 0.6134678721 4294704636
-0.3201511800 -0.2382349670 0.6136540771 4294770427
-0.3206856251 -0.2379497141 0.6146785021 4294770427
-0.3207825124 -0.2373384535 0.6148642302 4294770427
-0.3208792210 -0.2367266417 0.6150496006 4294770427
-0.3209757507 -0.2361142784 0.6152346134 4294770427
-0.3215101063 -0.2358226478 0.6162588000 4294770427
-0.3220445216 -0.2355287969 0.6172831655 4294770427
-0.3221407235 -0.2349130958 0.6174675822 4294770427
-0.3217982948 -0.2339780778 0.6168112159 4294639611
-0.3218939900 -0.2333621234 0.6169946194 4294639611
-0.3224281371 -0.2330627143 0.6180185080 4294639611
-0.3225235641 -0.2324448079 0.6182013750 4294639611
-0.3230577111 -0.2321417779 0.6192252636 4294639611
-0.3235919476 -0.2318365127 0.6202492118 4294639611
-0.3236870170 -0.2312152982 0.6204314828 4294770429
-0.3242212236 -0.2309064120 0.6214554310 4294770429
-0.3243160248 -0.2302832454 0.6216371655 4294770429
-0.3248502314 -0.2299707234 0.6226610541 4294770429
-0.3245050609 -0.2290352881 0.6219994426 4294770429
-0.3250390887 -0.2287199944 0.6230230927 4294770429
-0.3251332343 -0.2280938029 0.6232035160 4294770175
-0.3256672323 -0.2277748734 0.6242271066 4294770175
-0.3257610798 -0.2271467596 0.6244069934 4294770175
-0.3258547485 -0.2265180945 0.6245864630 4294770175
-0.3259481788 -0.2258888781 0.6247655749 4294704636
-0.3260414004 -0.2252591401 0.6249442697 4294704636
-0.3265751600 -0.2249324024 0.6259673238 4294770429
-0.3266680837 -0.2243007272 0.6261454821 4294770429
-0.3267608285 -0.2236685008 0.6263232231 4294770429
-0.3268533349 -0.2230357528 0.6265005469 4294770429
-0.3269456625 -0.2224024534 0.6266775131 4294770175
-0.3270377517 -0.2217686325 0.6268540621 4294770175
-0.3275711238 -0.2214326859 0.6278763413 4294770687
-0.3276629150 -0.2207969427 0.6280523539 4294573566
-0.3277544975 -0.2201606482 0.6282278895 4294507773
-0.3282877207 -0.2198196799 0.6292499304 4294705151
-0.3283790052 -0.2191814780 0.6294249296 4294573566
-0.3284700811 -0.2185427248 0.6295994520 4293455085
-0.3285609484 -0.2179034501 0.6297736168 4292468703
-0.3286515772 -0.2172636539 0.6299473643 4292995047
-0.3287419975 -0.2166233063 0.6301206350 4294048505
-0.3288322091 -0.2159824520 0.6302935481 4294443007
-0.3289221823 -0.2153410614 0.6304660439 4294705151
-0.3285691440 -0.2144101858 0.6297893524 4294573566
-0.3286585510 -0.2137686163 0.6299607158 4294572796
-0.3291908205 -0.2134137452 0.6309809685 4294704382
-0.3292799294 -0.2127702534 0.6311517358 4294310907
-0.3298121095 -0.2124117464 0.6321718097 4293389805
-0.3299008906 -0.2117663473 0.6323419809 4292073945
-0.3304329813 -0.2114042044 0.6333618760 4293126633
-0.3305214643 -0.2107568979 0.6335314512 4294638332
-0.3310534656 -0.2103910893 0.6345511675 4294967295
-0.3311415911 -0.2097418755 0.6347200871 4294769918
-0.3312294781 -0.2090921402 0.6348885894 4294704125
-0.3317612708 -0.2087213099 0.6359078884 4294639359
-0.3318488300 -0.2080696672 0.6360757351 4294639359
-0.3319361806 -0.2074175179 0.6362431645 4294770429
-0.3320232928 -0.2067648619 0.6364101171 4294770429
-0.3321101665 -0.2061116695 0.6365766525 4294770429
-0.3321968019 -0.2054579854 0.6367427111 4294770429
-0.3318383992 -0.2045296133 0.6360557675 4294770429
-0.3323694170 -0.2041490674 0.6370735765 4294770429
-0.3324553668 -0.2034938484 0.6372383237 4294770429
-0.3325411081 -0.2028381228 0.6374026537 4294770429
-0.3330718577 -0.2024525404 0.6384199858 4294770429
-0.3336026371 -0.2020646930 0.6394373775 4294770429
-0.3336879015 -0.2014056891 0.6396007538 4294770429
-0.3337728977 -0.2007461786 0.6397637129 4294770429
-0.3338576853 -0.2000861764 0.6399261951 4294639357
-0.3343880773 -0.1996919066 0.6409428716 4294639357
-0.3344725072 -0.1990300119 0.6411046982 4294639357
-0.3345566690 -0.1983676106 0.6412660480 4294639357
-0.3346406221 -0.1977047175 0.6414269209 4294508025
-0.3347243369 -0.1970413178 0.6415873766 4294573818
-0.3348077834 -0.1963774115 0.6417473555 4294639611
-0.3348910213 -0.1957130283 0.6419068575 4294573818
-0.3354206383 -0.1953082085 0.6429219842 4294573564
-0.3355034888 -0.1946419328 0.6430808306 4294573564
-0.3360329270 -0.1942334622 0.6440956593 4294573564
-0.3361154199 -0.1935653239 0.6442537308 4294507771
-0.3361976445 -0.1928966939 0.6444113851 4294573564
-0.3367268145 -0.1924832016 0.6454256773 4294639357
-0.3368086517 -0.1918126941 0.6455825567 4294705151
-0.3364428580 -0.1908878684 0.6448814273 4294705151
-0.3365240991 -0.1902172863 0.6450371146 4294705151
-0.3366051018 -0.1895462126 0.6451923847 4294573566
-0.3366858661 -0.1888746619 0.6453471780 4294573566
-0.3367663622 -0.1882026196 0.6455014944 4294573566
-0.3368466198 -0.1875301152 0.6456553340 4294639357
-0.3373746872 -0.1871055961 0.6466674805 4294639357
-0.3374545574 -0.1864312142 0.6468205452 4294639357
-0.3375341594 -0.1857563704 0.6469731331 4294639357
-0.3380618691 -0.1853268296 0.6479846835 4294639357
-0.3381410837 -0.1846501380 0.6481364965 4294639357
-0.3382200599 -0.1839729548 0.6482878327 4294639357
-0.3382987678 -0.1832953095 0.6484387517 4294639357
-0.3388260007 -0.1828593910 0.6494492888 4294573566
-0.3389042914 -0.1821798980 0.6495993733 4294573566
-0.3389823437 -0.1814999282 0.6497489810 4294573566
-0.3390601277 -0.1808194965 0.6498981118 4294573566
-0.3391376734 -0.1801386029 0.6500467062 4294573566
-0.3392149508 -0.1794572324 0.6501948237 4294573566
-0.3392919600 -0.1787753999 0.6503424644 4294573566
-0.3398182094 -0.1783289909 0.6513511539 4294573566
-0.3394452333 -0.1774103492 0.6506362557 4294639359
-0.3395214677 -0.1767271310 0.6507823467 4294639359
-0.3395974636 -0.1760434508 0.6509280205 4294639359
-0.3401230872 -0.1755915880 0.6519355178 4294639359
-0.3401986361 -0.1749060899 0.6520802975 4294573566
-0.3402739167 -0.1742201298 0.6522246599 4294507773
-0.3403489590 -0.1735337228 0.6523684859 4294376187
-0.3404237330 -0.1728468537 0.6525117755 4294441980
-0.3404982388 -0.1721595377 0.6526545882 4294572796
-0.3405724764 -0.1714717746 0.6527969241 4294704382
-0.3406464756 -0.1707835644 0.6529387236 4294704382
-0.3407201767 -0.1700948924 0.6530799866 4294704382
-0.3403428495 -0.1691817045 0.6523567438 4294835967
-0.3404159248 -0.1684930623 0.6524968147 4294704382
-0.3404887319 -0.1678039730 0.6526364088 4294046452
-0.3410123587 -0.1673357934 0.6536400318 4293191143
-0.3410847187 -0.1666449159 0.6537787914 4292270295
-0.3416081071 -0.1661731154 0.6547819376 4292007123
-0.3416800499 -0.1654804349 0.6549198031 4292072916
-0.3422031403 -0.1650050133 0.6559225321 4292533467
-0.3422746360 -0.1643105596 0.6560595632 4293191397
-0.3423458636 -0.1636156589 0.6561960578 4293849327
-0.3424167931 -0.1629203260 0.6563320160 4294441210
-0.3420356214 -0.1620105505 0.6556013823 4294770175
-0.3421059251 -0.1613152921 0.6557361484 4294704382
-0.3421759605 -0.1606195867 0.6558703780 4294770175
-0.3426978290 -0.1601347178 0.6568706632 4294704382
-0.3427673876 -0.1594372541 0.6570039988 4294572796
-0.3428366780 -0.1587393582 0.6571368575 4294507005
-0.3429057002 -0.1580410451 0.6572691202 4294507005
-0.3429744542 -0.1573422998 0.6574009061 4294441212
-0.3430429101 -0.1566431522 0.6575320959 4294507005
-0.3431110978 -0.1559435725 0.6576628089 4294638332
-0.3436317444 -0.1554483920 0.6586607695 4294638332
-0.3432466388 -0.1545431763 0.6579226255 4294572539
-0.3433139920 -0.1538423598 0.6580517292 4294638332
-0.3433810472 -0.1531411260 0.6581802368 4294835711
-0.3434478343 -0.1524394900 0.6583082676 4294901503
-0.3439675272 -0.1519376189 0.6593043804 4294900991
-0.3440338373 -0.1512342393 0.6594315171 4294835198
-0.3440998793 -0.1505304426 0.6595580578 4294308854
-0.3441656232 -0.1498262435 0.6596841216 4293782510
-0.3442310989 -0.1491216570 0.6598095894 4293058787
-0.3442962766 -0.1484166533 0.6599345207 4292203478
-0.3443611562 -0.1477112621 0.6600589156 4291610571
-0.3444257677 -0.1470054686 0.6601827741 4290952641
-0.3440362215 -0.1461065114 0.6594361067 4290557883
-0.3441001773 -0.1454008669 0.6595586538 4290492090
-0.3441638649 -0.1446948200 0.6596807241 4290953924
-0.3442272544 -0.1439883709 0.6598021984 4291480268
-0.3447445333 -0.1434705704 0.6607937813 4292335577
-0.3448074460 -0.1427624226 0.6609143019 4293256679
-0.3444156647 -0.1418667287 0.6601634026 4293914609
-0.3444778919 -0.1411587298 0.6602826715 4294440953
-0.3445398510 -0.1404503733 0.6604014039 4294638589
-0.3450561166 -0.1399259716 0.6613909602 4294770175
-0.3451175690 -0.1392159015 0.6615087390 4294770175
-0.3451786935 -0.1385054588 0.6616259217 4294835967
-0.3447847068 -0.1376130879 0.6608707309 4294770175
-0.3448452055 -0.1369028240 0.6609866619 4294638591
-0.3449054062 -0.1361921877 0.6611020565 4294572798
-0.3449653089 -0.1354811937 0.6612169147 4294572798
-0.3450249135 -0.1347698122 0.6613311768 4294572798
-0.3450842202 -0.1340580732 0.6614448428 4294507005
-0.3451432586 -0.1333459616 0.6615579724 4294572286
-0.3447465897 -0.1324585080 0.6607976556 4294638079
-0.3448049426 -0.1317466199 0.6609095335 4294638078
-0.3444074392 -0.1308612674 0.6601476073 4294703871
-0.3444651365 -0.1301495880 0.6602581739 4294638591
-0.3445225060 -0.1294375658 0.6603682041 4294572798
-0.3445796072 -0.1287251711 0.6604776382 4294310396
-0.3446364105 -0.1280124336 0.6605865359 4294244603
-0.3446929455 -0.1272993535 0.6606948376 4293981176
-0.3452051580 -0.1267533451 0.6616766453 4293915383
-0.3448050618 -0.1258721203 0.6609097123 4293915385
-0.3448606730 -0.1251579821 0.6610163450 4294112764
-0.3449159861 -0.1244435087 0.6611223817 4294507006
-0.3449710011 -0.1237286851 0.6612278223 4294572799
-0.3450257182 -0.1230135188 0.6613326669 4294572799
-0.3450801373 -0.1222980171 0.6614369750 4294572799
-0.3446777165 -0.1214213520 0.6606656909 4294572799
-0.3447314501 -0.1207061261 0.6607686877 4294572799
-0.3447849154 -0.1199905649 0.6608711481 4294638591
-0.3448380530 -0.1192746684 0.6609729528 4294572799
-0.3448908925 -0.1185584441 0.6610742807 4294441213
-0.3449434340 -0.1178418919 0.6611749530 4294375420
-0.3449956477 -0.1171250120 0.6612750888 4294309627
-0.3450475931 -0.1164078116 0.6613746285 4294375420
-0.3450992107 -0.1156902835 0.6614735723 4294375934
-0.3451505303 -0.1149724349 0.6615719795 4294375934
-0.3456587791 -0.1144055948 0.6625460982 4294310143
-0.3457095623 -0.1136861593 0.6626434922 4294244350
-0.3453026712 -0.1128169820 0.6618635654 4294244350
-0.3453527689 -0.1120978668 0.6619595885 4294310143
-0.3454025686 -0.1113784388 0.6620550752 4294375935
-0.3454520702 -0.1106586978 0.6621499062 4294375935
-0.3450436294 -0.1097930446 0.6613670588 4294114045
-0.3450924456 -0.1090736464 0.6614606380 4294114045
-0.3451409638 -0.1083539426 0.6615535617 4294114045
-0.3447313309 -0.1074911878 0.6607684493 4294048252
-0.3447791636 -0.1067718342 0.6608601213 4294114045
-0.3448266983 -0.1060521826 0.6609511971 4294114045
-0.3444159031 -0.1051923558 0.6601638198 4294113791
-0.3440046608 -0.1043341458 0.6593756080 4294047998
-0.3440511227 -0.1036155298 0.6594646573 4293982205
-0.3440972865 -0.1028966159 0.6595531106 4293719033
-0.3441431522 -0.1021774188 0.6596410275 4293455861
-0.3441886902 -0.1014579386 0.6597282887 4293258482
-0.3442339003 -0.1007381678 0.6598150134 4293324277
-0.3438203931 -0.0998849347 0.6590223908 4293521656
-0.3438649476 -0.0991655588 0.6591078043 4293719035
-0.3434506357 -0.0983146504 0.6583136916 4293784828
-0.3434945047 -0.0975956768 0.6583977342 4293981437
-0.3435380757 -0.0968764350 0.6584812403 4293981437
-0.3431226015 -0.0960285366 0.6576848626 4293981437
-0.3436242640 -0.0954371318 0.6586464047 4293915644
-0.3436668813 -0.0947170779 0.6587281227 4293915644
-0.3432503045 -0.0938712582 0.6579296589 4294047230
-0.3428332806 -0.0930270925 0.6571303606 4294047999
-0.3428748548 -0.0923081711 0.6572100520 4294113791
-0.3424570858 -0.0914663747 0.6564092040 4293719035
-0.3424979746 -0.0907478929 0.6564875841 4293784828
-0.3425385356 -0.0900291502 0.6565653682 4293784828
-0.3425787985 -0.0893101543 0.6566425562 4293784828
-0.3417002261 -0.0883534029 0.6549584866 4293784828
