VERSION 0.7
FIELDS x y z rgba
SIZE 4 4 4 4
TYPE F F F U
COUNT 1 1 1 1
WIDTH 920
HEIGHT 1
VIEWPOINT 0.0 0.0 0.0 1.0 0.0 0.0 0.0
POINTS 920
DATA ascii
-0.2489410341 -0.1708512455 0.5483741760 4293982972
-0.2490070760 -0.1702871174 0.5485196114 4293982972
-0.2490729243 -0.1697225422 0.5486646891 4293982972
-0.2491385937 -0.1691575199 0.5488093495 4293916925
-0.2488059849 -0.1683227420 0.5480766892 4293916925
-0.2488711774 -0.1677577347 0.5482202768 4293851645
-0.2493344843 -0.1674598008 0.5492408872 4293851645
-0.2493994087 -0.1668930054 0.5493838787 4293720829
-0.2494641542 -0.1663257629 0.5495265126 4293786622
-0.2495287061 -0.1657580733 0.5496687293 4294244348
-0.2495930791 -0.1651899517 0.5498104692 4294178555
-0.2496572584 -0.1646213979 0.5499518514 4294244861
-0.2497212440 -0.1640523970 0.5500928164 4294113275
-0.2497850358 -0.1634829640 0.5502333641 4293850103
-0.2498486489 -0.1629130840 0.5503734946 4291415762
-0.2499120682 -0.1623427868 0.5505132079 4290623166
-0.2499753088 -0.1617720425 0.5506525040 4293057507
-0.2500383556 -0.1612008661 0.5507913232 4294244861
-0.2497016639 -0.1603726745 0.5500497222 4294244861
-0.2497642189 -0.1598015577 0.5501875281 4294310655
-0.2502263188 -0.1594847739 0.5512053967 4294244863
-0.2502885759 -0.1589118838 0.5513426065 4294244863
-0.2507505715 -0.1585914940 0.5523602962 4294179070
-0.2508125603 -0.1580168307 0.5524968505 4294113277
-0.2508743405 -0.1574417502 0.5526329279 4294113277
-0.2509359419 -0.1568662375 0.5527685881 4294113791
-0.2509973347 -0.1562903076 0.5529038310 4294113791
-0.2514589727 -0.1559622884 0.5539206862 4294113791
-0.2511195540 -0.1551371664 0.5531730652 4294113791
-0.2515809536 -0.1548064798 0.5541895032 4294113791
-0.2516416609 -0.1542279422 0.5543231964 4294047998
-0.2517021894 -0.1536489874 0.5544564724 4293982205
-0.2513616085 -0.1528258771 0.5537062287 4293982205
-0.2518225908 -0.1524898261 0.5547217727 4293916925
-0.2518825233 -0.1519096196 0.5548537374 4293982718
-0.2519422174 -0.1513290107 0.5549852848 4294113791
-0.2516004741 -0.1505079269 0.5542324185 4294047998
-0.2516596615 -0.1499274224 0.5543628335 4294113791
-0.2517186999 -0.1493464857 0.5544928312 4294113791
-0.2517774999 -0.1487651616 0.5546224117 4294113791
-0.2522377670 -0.1484197527 0.5556362867 4294113791
-0.2518945336 -0.1476012766 0.5548802018 4294113791
-0.2523545623 -0.1472532153 0.5558936000 4294047998
-0.2524126470 -0.1466693282 0.5560215712 4293982972
-0.2528725564 -0.1463176608 0.5570346713 4293982972
-0.2529303432 -0.1457320452 0.5571619272 4294048765
-0.2529879212 -0.1451460272 0.5572887659 4294048765
-0.2530452907 -0.1445596218 0.5574151278 4294048764
-0.2531024516 -0.1439727992 0.5575410128 4294048764
-0.2531594038 -0.1433855891 0.5576664805 4294048764
-0.2532161474 -0.1427979767 0.5577914715 4294048764
-0.2532726824 -0.1422099769 0.5579159856 4293982718
-0.2533290088 -0.1416215897 0.5580400825 4293982718
-0.2529822886 -0.1408085823 0.5572763085 4294113791
-0.2530381083 -0.1402203441 0.5573992729 4294113791
-0.2530937195 -0.1396317184 0.5575218201 4294114045
-0.2531491220 -0.1390426904 0.5576438308 4294114045
-0.2532043159 -0.1384532899 0.5577654243 4294048765
-0.2528560162 -0.1376439780 0.5569981933 4294048765
-0.2529107034 -0.1370547414 0.5571186543 4294048765
-0.2529651523 -0.1364651322 0.5572386384 4293982972
-0.2534229755 -0.1360918432 0.5582470894 4294114045
-0.2538807392 -0.1357163042 0.5592554808 4294114045
-0.2539347410 -0.1351236701 0.5593744516 4294114045
-0.2539885342 -0.1345306486 0.5594929457 4294114045
-0.2540421188 -0.1339372694 0.5596109629 4294048765
-0.2540954649 -0.1333435029 0.5597285032 4293982972
-0.2541486323 -0.1327493638 0.5598455667 4294048764
-0.2542015612 -0.1321548522 0.5599622130 4293982971
-0.2542542815 -0.1315599829 0.5600783229 4294114558
-0.2543067932 -0.1309647262 0.5601939559 4294180351
-0.2543590665 -0.1303691119 0.5603091717 4294246143
-0.2544111311 -0.1297731251 0.5604238510 4294180351
-0.2544629872 -0.1291767806 0.5605381131 4293719799
-0.2541100085 -0.1283756495 0.5597605109 4293061869
-0.2541613281 -0.1277795285 0.5598735809 4292337633
-0.2546172440 -0.1273855567 0.5608778596 4292074461
-0.2546682060 -0.1267877668 0.5609901547 4292206048
-0.2547189891 -0.1261896044 0.5611019731 4292863978
-0.2547695041 -0.1255910993 0.5612133145 4293719286
-0.2548198402 -0.1249922290 0.5613241196 4294245630
-0.2548699379 -0.1243930086 0.5614345074 4294377215
-0.2549197972 -0.1237934381 0.5615443587 4294245630
-0.2553748190 -0.1233893707 0.5625466704 4294179838
-0.2554243207 -0.1227881387 0.5626557469 4294179838
-0.2554736137 -0.1221865639 0.5627642870 4294179837
-0.2555226684 -0.1215846390 0.5628724098 4294179837
-0.2555715144 -0.1209823638 0.5629799962 4294179837
-0.2556201518 -0.1203797460 0.5630871058 4294245630
-0.2556685209 -0.1197767928 0.5631936789 4294179837
-0.2557167113 -0.1191734895 0.5632997751 4294114044
-0.2557646334 -0.1185698509 0.5634053946 4294311423
-0.2558123469 -0.1179658696 0.5635104775 4294245630
-0.2558598518 -0.1173615530 0.5636151433 4294245630
-0.2563133240 -0.1169422269 0.5646139979 4294245630
-0.2559541464 -0.1161519140 0.5638228655 4294245630
-0.2560009658 -0.1155465916 0.5639259815 4294311423
-0.2564539611 -0.1151233912 0.5649238825 4294311423
-0.2565003932 -0.1145164445 0.5650261045 4294443007
-0.2565465868 -0.1139091775 0.5651279092 4294508031
-0.2565925717 -0.1133015752 0.5652291775 4294573823
-0.2566383183 -0.1126936525 0.5653299093 4294377470
-0.2566838264 -0.1120854020 0.5654301643 4294377470
-0.2567290962 -0.1114768311 0.5655299425 4294508543
-0.2571810782 -0.1110436395 0.5665255785 4294508543
-0.2572259605 -0.1104334593 0.5666244626 4294574079
-0.2572706342 -0.1098229662 0.5667228103 4294705151
-0.2573150396 -0.1092121452 0.5668206811 4294574079
-0.2573592365 -0.1086010188 0.5669180155 4294574079
-0.2574031949 -0.1079895720 0.5670148730 4294508542
-0.2574469149 -0.1073778197 0.5671111941 4294508542
-0.2574904263 -0.1067657471 0.5672069788 4294508542
-0.2575336695 -0.1061533764 0.5673022866 4294443005
-0.2575767040 -0.1055406854 0.5673970580 4294508284
-0.2576195002 -0.1049276963 0.5674912930 4294508284
-0.2576620579 -0.1043144017 0.5675850511 4294574077
-0.2577043474 -0.1037008017 0.5676782727 4294574077
-0.2577464581 -0.1030869037 0.5677709579 4294574077
-0.2577883005 -0.1024727002 0.5678631663 4294574077
-0.2578299046 -0.1018582061 0.5679547787 4294508284
-0.2582792938 -0.1014036015 0.5689447522 4294508284
-0.2583204806 -0.1007875428 0.5690354705 4294508284
-0.2583614588 -0.1001711860 0.5691257119 4294508284
-0.2584021688 -0.0995545313 0.5692154169 4294574077
-0.2584426701 -0.0989375934 0.5693045855 4294639614
-0.2580745518 -0.0981650352 0.5684937239 4294639614
-0.2581145167 -0.0975484997 0.5685817599 4294639614
-0.2585626841 -0.0970850438 0.5695689917 4294705151
-0.2586022019 -0.0964669585 0.5696560740 4294639614
-0.2586414814 -0.0958485827 0.5697426200 4294574077
-0.2586805224 -0.0952299312 0.5698286295 4294508284
-0.2587193549 -0.0946110040 0.5699141026 4294508542
-0.2587578893 -0.0939917937 0.5699990392 4294443005
-0.2592050731 -0.0935198218 0.5709840655 4294443005
-0.2592431903 -0.0928990841 0.5710680485 4294443005
-0.2592810988 -0.0922780707 0.5711515546 4294443005
-0.2593187392 -0.0916567892 0.5712344646 4294443005
-0.2597652376 -0.0911788270 0.5722180009 4294574077
-0.2593933046 -0.0904134139 0.5713987350 4294574077
-0.2594302297 -0.0897913277 0.5714800954 4294639614
-0.2594669163 -0.0891689807 0.5715608597 4294574077
-0.2595033348 -0.0885463655 0.5716410875 4294705151
-0.2599489093 -0.0880621672 0.5726225972 4294705151
-0.2599848807 -0.0874380469 0.5727018714 4294639614
-0.2600206435 -0.0868136734 0.5727806091 4294639614
-0.2600561380 -0.0861890391 0.5728588104 4294639614
-0.2596818209 -0.0854294077 0.5720342398 4294508284
-0.2597167790 -0.0848052502 0.5721112490 4294639615
-0.2597514689 -0.0841808394 0.5721877217 4294442493
-0.2597859204 -0.0835561827 0.5722635984 4294574079
-0.2602299452 -0.0830620825 0.5732417107 4294574079
-0.2602639794 -0.0824359432 0.5733166337 4294376700
-0.2602977455 -0.0818095654 0.5733910203 4294442493
-0.2603312731 -0.0811829343 0.5734648705 4294574079
-0.2607745528 -0.0806829333 0.5744413733 4294508286
-0.2608076334 -0.0800548345 0.5745142102 4294639359
-0.2608404458 -0.0794265047 0.5745865107 4294507773
-0.2612832189 -0.0789218321 0.5755618215 4294507773
-0.2613155842 -0.0782920420 0.5756331682 4294573566
-0.2613477111 -0.0776620209 0.5757039189 4294639359
-0.2613795698 -0.0770317614 0.5757741332 4294573566
-0.2614111900 -0.0764012784 0.5758437514 4293981429
-0.2614425421 -0.0757705644 0.5759128332 4293126120
-0.2618841529 -0.0752575845 0.5768855810 4292401627
-0.2619150579 -0.0746254250 0.5769537091 4292335834
-0.2623562813 -0.0741090253 0.5779256225 4293519851
-0.2623867393 -0.0734754354 0.5779926777 4294704125
-0.2624169290 -0.0728416219 0.5780591965 4294638589
-0.2628575861 -0.0723205954 0.5790299177 4294441210
-0.2628872991 -0.0716853589 0.5790953636 4294704383
-0.2629167736 -0.0710499138 0.5791603327 4294770175
-0.2629460096 -0.0704142451 0.5792247057 4294638589
-0.2629749477 -0.0697783753 0.5792884827 4294638589
-0.2630036771 -0.0691422895 0.5793517232 4292795613
-0.2642650902 -0.0688271150 0.5821303725 4291216581
-0.2638823688 -0.0680815876 0.5812873840 4293058785
-0.2643214762 -0.0675479546 0.5822545886 4294900989
-0.2647604048 -0.0670121163 0.5832214952 4294375419
-0.2651991546 -0.0664740950 0.5841879845 4294375419
-0.2660489380 -0.0660359412 0.5860599279 4294244350
-0.2664873898 -0.0654925406 0.5870257020 4294112764
-0.2673369348 -0.0650470257 0.5888971686 4293981178
-0.2694203854 -0.0648945495 0.5934866071 4293915385
-0.2702698410 -0.0644376799 0.5953578949 4293981178
-0.2711192369 -0.0639766231 0.5972288847 4294046971
-0.2719684839 -0.0635113791 0.5990996957 4294375166
-0.2728176713 -0.0630419627 0.6009702682 4294638335
-0.2744897604 -0.0627565309 0.6046535969 4294704383
-0.2745156288 -0.0620905720 0.6047106385 4293717490
-0.2757760584 -0.0617006980 0.6074870825 4291348428
-0.2766247988 -0.0612135492 0.6093567014 4290295740
-0.2770617306 -0.0606321283 0.6103191972 4292861667
-0.2779101729 -0.0601376183 0.6121882200 4294243320
-0.2787584960 -0.0596389286 0.6140568852 4294243323
-0.2791949213 -0.0590489656 0.6150182486 4294440702
-0.2796311080 -0.0584568232 0.6159790754 4294112764
-0.2800670862 -0.0578625016 0.6169394851 4294178557
-0.2805028856 -0.0572660044 0.6178994775 4294244350
-0.2805265188 -0.0565842427 0.6179515123 4294244350
-0.2801378965 -0.0558202229 0.6170954704 4294310143
-0.2793369591 -0.0549769476 0.6153311133 4294244351
-0.2785355747 -0.0541375130 0.6135658622 4294178559
-0.2760855258 -0.0529855900 0.6081688404 4294112766
-0.2777558267 -0.0526263379 0.6118481755 4294178559
-0.2703591585 -0.0505631901 0.5955545902 4294178559
-0.2670827210 -0.0492967404 0.5883371830 4294046973
-0.2642177343 -0.0481212586 0.5820260644 4293783801
-0.2609397769 -0.0468856059 0.5748053193 4293586422
-0.2626081705 -0.0465426520 0.5784805417 4293454836
-0.2597413957 -0.0453988463 0.5721654892 4293323250
-0.2585231960 -0.0445531905 0.5694820285 4293323250
-0.2589539587 -0.0439936370 0.5704308748 4293323509
-0.2589721382 -0.0433628894 0.5704709291 4293060337
-0.2577528358 -0.0425278805 0.5677850246 4292929519
-0.2573579848 -0.0418328457 0.5669152141 4292863726
-0.2569628060 -0.0411396958 0.5660447478 4292666347
-0.2553298473 -0.0402533412 0.5624476075 4292600554
-0.2553464770 -0.0396310017 0.5624842644 4292862958
-0.2545377910 -0.0388825051 0.5607028604 4292862958
-0.2549664080 -0.0383239537 0.5616470575 4292403177
-0.2537444830 -0.0375192463 0.5589553118 4292534763
-0.2537599802 -0.0369004607 0.5589894652 4292534763
-0.2533625960 -0.0362225696 0.5581140518 4292271591
-0.2533775568 -0.0356045663 0.5581470728 4291087315
-0.2525668740 -0.0348724946 0.5563612580 4289968834
-0.2521685660 -0.0342003182 0.5554838777 4290758350
-0.2517699599 -0.0335300490 0.5546058416 4292140003
-0.2517838180 -0.0329156518 0.5546363592 4292732138
-0.2509718537 -0.0321952514 0.5528476834 4292534759
-0.2501595616 -0.0314787813 0.5510583520 4292403690
-0.2497597188 -0.0308171827 0.5501775742 4292403690
-0.2493596077 -0.0301575065 0.5492962003 4292271849
-0.2489591837 -0.0294997524 0.5484141707 4292140263
-0.2485584766 -0.0288439263 0.5475314856 4292205798
-0.2485703975 -0.0282369312 0.5475577116 4292140005
-0.2481691241 -0.0275839549 0.5466737747 4292336612
-0.2481805086 -0.0269777980 0.5466988683 4292533991
-0.2481916398 -0.0263715610 0.5467233658 4292863726
-0.2506804168 -0.0260224640 0.5522057414 4293258484
-0.2486261576 -0.0252007041 0.5476805568 4293456115
-0.2507016361 -0.0247974824 0.5522524714 4293653494
-0.2519509494 -0.0243044067 0.5550045371 4294113526
-0.2532001436 -0.0238052011 0.5577562451 4294310905
-0.2548622191 -0.0233376902 0.5614175200 4294769916
-0.2569372356 -0.0228988472 0.5659884214 4294704123
-0.2569466829 -0.0222708117 0.5660092235 4294704123
-0.2402440906 -0.2212835401 0.5305142403 4293192172
-0.2399390042 -0.2204138488 0.5298405290 4293455344
-0.2388617545 -0.2188382149 0.5274617672 4293521137
-0.2408716977 -0.2200886905 0.5319001675 4293652723
-0.2386352569 -0.2174597085 0.5269615650 4293850102
-0.2375559211 -0.2158933282 0.5245781541 4293915895
-0.2407260835 -0.2181837708 0.5315786004 4293981688
-0.2357810885 -0.2131233513 0.5206589103 4293915895
-0.2354724854 -0.2122666836 0.5199774504 4293981688
-0.2390313148 -0.2148883194 0.5278362036 4294047481
-0.2352410257 -0.2109037042 0.5194663405 4294179068
-0.2376406491 -0.2124720067 0.5247652531 4294179068
-0.2353956848 -0.2098872662 0.5198078752 4294244861
-0.2350855172 -0.2090339214 0.5191229582 4294310654
-0.2347749621 -0.2081817538 0.5184371471 4294376447
-0.2344640046 -0.2073307782 0.5177505016 4294376447
-0.2337649912 -0.2061391175 0.5162069201 4294245631
-0.2334531397 -0.2052913308 0.5155183077 4294179838
-0.2346925884 -0.2058054507 0.5182552338 4294310653
-0.2328282595 -0.2035993487 0.5141384006 4294310653
-0.2325152457 -0.2027551532 0.5134471655 4294442239
-0.2325901240 -0.2022497952 0.5136125684 4294508031
-0.2322764546 -0.2014071494 0.5129199028 4294508031
-0.2323509455 -0.2009016573 0.5130843520 4294508031
-0.2320366204 -0.2000605762 0.5123902559 4294508031
-0.2321106941 -0.1995549649 0.5125538707 4294442239
-0.2317957133 -0.1987154484 0.5118582845 4294442239
-0.2314803451 -0.1978771538 0.5111619234 4294376446
-0.2315537632 -0.1973717809 0.5113239884 4294442239
-0.2316270322 -0.1968659461 0.5114858150 4294508031
-0.2317001522 -0.1963596195 0.5116472840 4294377215
-0.2317731380 -0.1958528161 0.5118084550 4294377215
-0.2318459749 -0.1953455359 0.5119693279 4294443007
-0.2319186777 -0.1948377788 0.5121298432 4294377215
-0.2319912314 -0.1943295300 0.5122900605 4294573566
-0.2316736281 -0.1934950799 0.5115886927 4294507773
-0.2321359068 -0.1933116317 0.5126095414 4294508286
-0.2322080284 -0.1928019673 0.5127688050 4294574079
-0.2322800010 -0.1922918260 0.5129277110 4294508031
-0.2323518395 -0.1917812228 0.5130863190 4294573823
-0.2324235141 -0.1912701279 0.5132446289 4294639615
-0.2324950546 -0.1907585710 0.5134025812 4294705151
-0.2329573035 -0.1905662864 0.5144233704 4294442239
-0.2330286652 -0.1900529116 0.5145809054 4294442239
-0.2334909737 -0.1898570955 0.5156018138 4294311423
-0.2335621566 -0.1893419325 0.5157589912 4294311423
-0.2340245247 -0.1891425848 0.5167800188 4294245630
-0.2344869822 -0.1889410466 0.5178012252 4294114044
-0.2353411168 -0.1890518516 0.5196873546 4294113274
-0.2361955643 -0.1891587377 0.5215741992 4293981688
-0.2366585135 -0.1889488548 0.5225964785 4293785080
-0.2363376766 -0.1881128401 0.5218879580 4293850873
-0.2371926010 -0.1882113665 0.5237758756 4293785080
-0.2372635007 -0.1876854897 0.5239323974 4293719287
-0.2377265245 -0.1874685138 0.5249549150 4293785080
-0.2377972305 -0.1869408339 0.5251110196 4293850873
-0.2382602990 -0.1867202967 0.5261335969 4293916666
-0.2387234420 -0.1864975393 0.5271562934 4294048252
-0.2395794094 -0.1865784377 0.5290464759 4293916666
-0.2404356897 -0.1866553724 0.5309373140 4293982459
-0.2401133031 -0.1858159751 0.5302254558 4293982459
-0.2409698218 -0.1858875901 0.5321168303 4293916666
-0.2414334416 -0.1856528670 0.5331405997 4293982459
-0.2418971062 -0.1854159236 0.5341644883 4293982459
-0.2423608452 -0.1851767600 0.5351885557 4293916666
-0.2428246588 -0.1849353611 0.5362127423 4293982459
-0.2432885170 -0.1846917272 0.5372370481 4293916925
-0.2437524498 -0.1844458729 0.5382615328 4293851132
-0.2442164421 -0.1841977835 0.5392861366 4293916925
-0.2442864776 -0.1836512387 0.5394407511 4293916925
-0.2443563342 -0.1831042469 0.5395950675 4293916925
-0.2448202670 -0.1828512102 0.5406194925 4293916925
-0.2448899150 -0.1823023856 0.5407733321 4293916925
-0.2449593842 -0.1817530990 0.5409266949 4293916925
-0.2450286895 -0.1812033355 0.5410797596 4293851132
-0.2447031289 -0.1803622097 0.5403608680 4293916925
-0.2447719872 -0.1798124015 0.5405128598 4293916925
-0.2448406518 -0.1792621315 0.5406645536 4293916925
-0.2449091673 -0.1787114143 0.5408158302 4293916925
-0.2449774891 -0.1781602204 0.5409666896 4293982718
-0.2450456470 -0.1776085645 0.5411171913 4293982718
-0.2451136261 -0.1770564467 0.5412673354 4293982718
-0.2451814413 -0.1765038818 0.5414170623 4294047998
-0.2456446439 -0.1762346476 0.5424399376 4294047998
-0.2457122058 -0.1756802648 0.5425891280 4294048252
-0.2457796037 -0.1751254350 0.5427379608 4294048252
-0.2458468229 -0.1745701432 0.5428863764 4294048252
-0.2459138632 -0.1740143895 0.5430344343 4294048252
-0.2463768274 -0.1737375110 0.5440567136 4294048252
-0.2464436144 -0.1731799543 0.5442042351 4294048252
-0.2469065487 -0.1728994846 0.5452265143 4293982972
-0.2469730824 -0.1723401248 0.5453734398 4293982972
-0.2470394522 -0.1717803180 0.5455199480 4293982972
-0.2471056283 -0.1712200642 0.5456660986 4293982972
-0.2475683689 -0.1709332913 0.5466879606 4293982972
-0.2476342916 -0.1703712344 0.5468335152 4293982972
-0.2477000356 -0.1698087305 0.5469787121 4293982972
-0.2477655858 -0.1692457795 0.5471234322 4293982972
-0.2478309572 -0.1686823815 0.5472677946 4293916925
-0.2474988848 -0.1678491235 0.5465345383 4293916925
-0.2475637943 -0.1672857404 0.5466778278 4293916925
-0.2480259836 -0.1669895351 0.5476984382 4293916925
-0.2480906248 -0.1664243490 0.5478411913 4293851643
-0.2481550723 -0.1658587456 0.5479835272 4293917436
-0.2482193410 -0.1652926952 0.5481254458 4294179068
-0.2486813068 -0.1649901867 0.5491455793 4294113275
-0.2483472973 -0.1641592681 0.5484080315 4294113275
-0.2484110147 -0.1635918915 0.5485486984 4294047482
-0.2484745234 -0.1630240977 0.5486889482 4293322731
-0.2485378534 -0.1624558568 0.5488287807 4290822597
-0.2486009896 -0.1618871838 0.5489681959 4291280325
-0.2486639321 -0.1613180786 0.5491071939 4293977838
-0.2487266958 -0.1607485265 0.5492457747 4294442239
-0.2483905554 -0.1599218696 0.5485035181 4294113274
-0.2484528422 -0.1593523920 0.5486410260 4294244863
-0.2485149205 -0.1587824672 0.5487781763 4294244863
-0.2489758134 -0.1584660858 0.5497959256 4294244863
-0.2490376085 -0.1578944027 0.5499323606 4294179070
-0.2494984120 -0.1575744152 0.5509499311 4294244863
-0.2495599389 -0.1570009738 0.5510857701 4294179070
-0.2496212572 -0.1564271003 0.5512211919 4293982205
-0.2500818670 -0.1561021805 0.5522383451 4293982205
-0.2501429021 -0.1555265486 0.5523731112 4293982205
-0.2502037287 -0.1549504846 0.5525074005 4293982205
-0.2502643466 -0.1543740183 0.5526413321 4294047998
-0.2503247857 -0.1537971199 0.5527747869 4294113791
-0.2503850460 -0.1532198191 0.5529077649 4294113791
-0.2504450679 -0.1526420861 0.5530403852 4294179583
-0.2505049109 -0.1520639509 0.5531725287 4294179583
-0.2505645752 -0.1514853984 0.5533042550 4294179583
-0.2510243654 -0.1511474848 0.5543195605 4294047998
-0.2506832480 -0.1503270417 0.5535663366 4294047998
-0.2507422864 -0.1497472525 0.5536966920 4294113791
-0.2508011460 -0.1491670609 0.5538266897 4294113791
-0.2508597970 -0.1485864520 0.5539561510 4294179583
-0.2509182394 -0.1480054408 0.5540851951 4294179583
-0.2509764731 -0.1474240273 0.5542138219 4294179838
-0.2510344982 -0.1468421966 0.5543419719 4294179838
-0.2514934540 -0.1464936286 0.5553554296 4294048765
-0.2515511811 -0.1459100693 0.5554829240 4294048765
-0.2516086996 -0.1453261077 0.5556099415 4294048765
-0.2516660094 -0.1447417438 0.5557364821 4294048765
-0.2517231107 -0.1441569924 0.5558626056 4294048765
-0.2517800331 -0.1435718387 0.5559882522 4294048765
-0.2518367171 -0.1429862827 0.5561134815 4294048764
-0.2518932223 -0.1424003392 0.5562382340 4294048764
-0.2519495189 -0.1418139935 0.5563625097 4294114303
-0.2520055771 -0.1412272751 0.5564863086 4294048511
-0.2520614564 -0.1406401396 0.5566096902 4294113791
-0.2521171272 -0.1400526315 0.5567326546 4294047998
-0.2521725595 -0.1394647360 0.5568550825 4294048252
-0.2522278130 -0.1388764381 0.5569770932 4294048252
-0.2518804967 -0.1380672157 0.5562101007 4293982972
-0.2519352138 -0.1374790967 0.5563309789 4293982972
-0.2515872121 -0.1366719157 0.5555624962 4293982972
-0.2516414523 -0.1360839754 0.5556822419 4293982972
-0.2520981729 -0.1357124448 0.5566908121 4294048252
-0.2521520555 -0.1351228058 0.5568097830 4294114045
-0.2522057593 -0.1345327795 0.5569283366 4294114045
-0.2526621819 -0.1341563612 0.5579362512 4294114045
-0.2527155280 -0.1335646361 0.5580540895 4294114558
-0.2531718016 -0.1331846267 0.5590616465 4294048765
-0.2532247901 -0.1325912178 0.5591786504 4293917179
-0.2532775998 -0.1319974512 0.5592952371 4293917179
-0.2533301711 -0.1314032972 0.5594112873 4293982972
-0.2533825040 -0.1308087707 0.5595269203 4293982972
-0.2534346581 -0.1302138865 0.5596420765 4294114558
-0.2534865737 -0.1296186447 0.5597566962 4294246143
-0.2531345487 -0.1288175732 0.5589793921 4294311935
-0.2531859577 -0.1282225400 0.5590928793 4294114558
-0.2532371581 -0.1276271492 0.5592058897 4294048251
-0.2532881200 -0.1270313859 0.5593184829 4293390321
-0.2533388734 -0.1264352798 0.5594305396 4292535013
-0.2533894181 -0.1258388013 0.5595421195 4292140255
-0.2538439333 -0.1254417300 0.5605458617 4292271841
-0.2534898221 -0.1246447936 0.5597638488 4292732392
-0.2535396814 -0.1240472645 0.5598739982 4293324528
-0.2539938092 -0.1236462668 0.5608767867 4293719286
-0.2540433109 -0.1230470687 0.5609861016 4294245630
-0.2540926039 -0.1224475279 0.5610949397 4294245630
-0.2541416585 -0.1218476370 0.5612033010 4294245630
-0.2545952797 -0.1214404702 0.5622050166 4294245630
-0.2546439767 -0.1208389327 0.5623125434 4294311423
-0.2542875409 -0.1200458929 0.5615254641 4294311423
-0.2547407150 -0.1196348220 0.5625261664 4294311423
-0.2547887564 -0.1190322563 0.5626322031 4294179837
-0.2548365593 -0.1184293479 0.5627377629 4294114044
-0.2548841536 -0.1178261042 0.5628428459 4294114044
-0.2549315095 -0.1172225177 0.5629474521 4294245630
-0.2553839982 -0.1168040037 0.5639466643 4294443007
-0.2554309666 -0.1161987931 0.5640503764 4294508543
-0.2554777265 -0.1155932471 0.5641536117 4294443007
-0.2555242479 -0.1149873659 0.5642563701 4294311423
-0.2555705607 -0.1143811569 0.5643585920 4294245630
-0.2556166351 -0.1137746200 0.5644603372 4294245630
-0.2556624711 -0.1131677553 0.5645615458 4294377215
-0.2557080686 -0.1125605628 0.5646622777 4294443007
-0.2557534575 -0.1119530499 0.5647625327 4294508543
-0.2557986081 -0.1113452092 0.5648621917 4294508543
-0.2558435202 -0.1107370555 0.5649614334 4294443007
-0.2558882236 -0.1101285741 0.5650600791 4294311677
-0.2563389242 -0.1096936166 0.5660553575 4294311677
-0.2563832104 -0.1090835407 0.5661531687 4294377470
-0.2560209036 -0.1083012372 0.5653530955 4294377470
-0.2560646832 -0.1076914966 0.5654497743 4294377470
-0.2561082244 -0.1070814431 0.5655458570 4294311677
-0.2565580904 -0.1066400781 0.5665393472 4294311677
-0.2566012442 -0.1060284376 0.5666345954 4294311677
-0.2566441298 -0.1054164916 0.5667293668 4294311677
-0.2566868067 -0.1048042327 0.5668235421 4294311677
-0.2567292452 -0.1041916758 0.5669172406 4294311675
-0.2567714453 -0.1035788134 0.5670104623 4294311675
-0.2572203875 -0.1031288281 0.5680018663 4294377468
-0.2572622001 -0.1025143936 0.5680941343 4294443005
-0.2573037446 -0.1018996537 0.5681859255 4294443005
-0.2573450804 -0.1012846231 0.5682771802 4294443005
-0.2569788992 -0.1005100086 0.5674685836 4294377468
-0.2570196986 -0.0998953581 0.5675586462 4294311675
-0.2570602298 -0.0992804244 0.5676481724 4294180089
-0.2571005225 -0.0986651927 0.5677371621 4294311675
-0.2571406066 -0.0980496779 0.5678256750 4294377468
-0.2571804225 -0.0974338725 0.5679135919 4294377468
-0.2572200298 -0.0968177766 0.5680010319 4294574077
-0.2572593689 -0.0962014049 0.5680879354 4294508284
-0.2577062547 -0.0957362279 0.5690747499 4294442491
-0.2577452064 -0.0951183140 0.5691606998 4294442491
-0.2577838898 -0.0945001245 0.5692461729 4294377468
-0.2578223348 -0.0938816518 0.5693310499 4294377468
-0.2578605413 -0.0932629034 0.5694154501 4294377468
-0.2583065927 -0.0927904695 0.5704004169 4294377468
-0.2587524951 -0.0923158079 0.5713850856 4294508284
-0.2587901056 -0.0916942805 0.5714681149 4294508284
-0.2584192157 -0.0909288377 0.5706491470 4294508284
-0.2584562898 -0.0903077573 0.5707309842 4294574077
-0.2584930956 -0.0896864086 0.5708122849 4294639614
-0.2585296929 -0.0890647918 0.5708930492 4294574077
-0.2585660219 -0.0884429142 0.5709732771 4294574077
-0.2586020827 -0.0878207758 0.5710529685 4294508284
-0.2586379349 -0.0871983841 0.5711320639 4294508284
-0.2586735189 -0.0865757242 0.5712106824 4294574077
-0.2587088645 -0.0859528109 0.5712887645 4294639614
-0.2587439716 -0.0853296444 0.5713662505 4294574077
-0.2587788403 -0.0847062245 0.5714432597 4294574079
-0.2588134408 -0.0840825588 0.5715196729 4294574079
-0.2592567205 -0.0835904852 0.5724985600 4294639615
-0.2588819265 -0.0828344673 0.5716708899 4294574079
-0.2589157820 -0.0822100565 0.5717456937 4294508286
-0.2589494288 -0.0815853998 0.5718199015 4294639615
-0.2593919337 -0.0810884014 0.5727970600 4294639615
-0.2594251037 -0.0804622695 0.5728703737 4294508286
-0.2598672807 -0.0799618289 0.5738467574 4294441980
-0.2599000037 -0.0793342367 0.5739190578 4294441980
-0.2599324882 -0.0787064061 0.5739907622 4294441980
-0.2599647343 -0.0780783445 0.5740619302 4294441980
-0.2604061365 -0.0775720105 0.5750367045 4294573566
-0.2604379356 -0.0769424960 0.5751069188 4294770687
-0.2608790100 -0.0764327347 0.5760808587 4294705151
-0.2609103322 -0.0758017749 0.5761500597 4294507773
-0.2609413862 -0.0751705766 0.5762186646 4293914866
-0.2609722316 -0.0745391622 0.5762867332 4292862178
-0.2610027790 -0.0739075243 0.5763542652 4292335577
-0.2614428997 -0.0733906925 0.5773261189 4293125093
-0.2614730000 -0.0727576241 0.5773925781 4294309367
-0.2615028620 -0.0721243322 0.5774585009 4294572539
-0.2615324557 -0.0714908242 0.5775238872 4294441212
-0.2619717717 -0.0709681660 0.5784940124 4294704383
-0.2620009184 -0.0703332424 0.5785583258 4294770175
-0.2628499269 -0.0699162483 0.5804331303 4294835967
-0.2628786564 -0.0692789182 0.5804965496 4293716717
-0.2629070878 -0.0686413720 0.5805593729 4291282376
-0.2633455098 -0.0681097135 0.5815274715 4291413962
-0.2637837231 -0.0675758645 0.5824952126 4293716717
-0.2638114989 -0.0669357181 0.5825565457 4294507005
-0.2654803097 -0.0667077824 0.5862416625 4294375419
-0.2663284838 -0.0662674606 0.5881145597 4294112764
-0.2671765387 -0.0658229589 0.5899873376 4293981178
-0.2684349716 -0.0654743835 0.5927662253 4293915385
-0.2680514157 -0.0647231638 0.5919191837 4293981178
-0.2701306939 -0.0645624623 0.5965107679 4294243580
-0.2713889778 -0.0641973391 0.5992893577 4294309373
-0.2722366154 -0.0637299195 0.6011611223 4294440959
-0.2730841637 -0.0632583126 0.6030327082 4294572543
-0.2747529745 -0.0629707724 0.6067178249 4294638591
-0.2756003439 -0.0624888018 0.6085889935 4294243834
-0.2760368586 -0.0619105138 0.6095529199 4292664288
-0.2768839598 -0.0614211708 0.6114234924 4290427326
-0.2773200870 -0.0608375147 0.6123865843 4291545807
-0.2777560353 -0.0602516755 0.6133492589 4293716976
-0.2790136039 -0.0598399118 0.6161262989 4294440700
-0.2778053880 -0.0588991903 0.6134582758 4294638079
-0.2794736326 -0.0585671924 0.6171420813 4294178557
-0.2794977725 -0.0578865036 0.6171953678 4294244350
-0.2795216143 -0.0572056361 0.6172480583 4294310143
-0.2791340947 -0.0564414710 0.6163923144 4294310143
-0.2779239714 -0.0555148944 0.6137201190 4294244350
-0.2775356770 -0.0547564030 0.6128627062 4294178557
-0.2742686868 -0.0534389205 0.6056483984 4294178559
-0.2751131654 -0.0529284701 0.6075132489 4294178559
-0.2681435347 -0.0509297028 0.5921226144 4294178559
-0.2710435987 -0.0508155227 0.5985266566 4294112766
-0.2648946345 -0.0490127914 0.5849483609 4293849594
-0.2603899240 -0.0475404225 0.5750008821 4293586422
-0.2632892430 -0.0474237874 0.5814032555 4293454582
-0.2596060336 -0.0461234190 0.5732698441 4293322996
-0.2583906949 -0.0452735350 0.5705861449 4293191923
-0.2575864196 -0.0445006229 0.5688101053 4293191923
-0.2559587359 -0.0435914285 0.5652158260 4293191923
-0.2572113276 -0.0431736857 0.5679818392 4293191923
-0.2568175793 -0.0424774922 0.5671123266 4292995312
-0.2560119033 -0.0417161100 0.5653332472 4292797933
-0.2560291290 -0.0410907455 0.5653712153 4292666347
-0.2552227676 -0.0403351448 0.5635906458 4292732140
-0.2556510866 -0.0397755951 0.5645364523 4292862958
-0.2536090016 -0.0388356410 0.5600270033 4292731372
-0.2528015673 -0.0380917490 0.5582440495 4292600556
-0.2524055243 -0.0374127962 0.5573694706 4292271591
-0.2524209619 -0.0367957689 0.5574035645 4292205796
-0.2528479397 -0.0362376496 0.5583464503 4291482073
-0.2520392239 -0.0355033688 0.5565606356 4290166213
-0.2520538867 -0.0348870158 0.5565930009 4290560971
-0.2508326471 -0.0341025665 0.5538961887 4292140003
-0.2508467138 -0.0334890261 0.5539272428 4292732140
-0.2500366867 -0.0327674188 0.5521385074 4292534761
-0.2492263019 -0.0320497416 0.5503490567 4292337382
-0.2475916594 -0.0312320646 0.5467393398 4292206311
-0.2484285086 -0.0307281073 0.5485873222 4292206311
-0.2472051531 -0.0299702734 0.5458858609 4292205543
-0.2472175062 -0.0293652229 0.5459131598 4292271336
-0.2468175590 -0.0287121478 0.5450299978 4292468200
-0.2472414672 -0.0281548537 0.5459660888 4292468200
-0.2472530752 -0.0275495388 0.5459917188 4292599784
-0.2468523234 -0.0268992335 0.5451067686 4292797163
-0.2472755313 -0.0263386592 0.5460413098 4293191921
-0.2481106669 -0.0258188751 0.5478854775 4293652472
-0.2489456236 -0.0252949726 0.5497292280 4293850103
-0.2489560395 -0.0246852171 0.5497522354 4294047482
-0.2502027750 -0.0241949651 0.5525053740 4294376185
-0.2526860237 -0.0238151327 0.5579888821 4294507771
-0.2584670186 -0.0237258300 0.5707546473 4294769916
-0.2568278015 -0.0229452308 0.5671349168 4294704123
-0.2394523621 -0.2175629139 0.5300659537 4293060329
-0.2426176071 -0.2198420912 0.5370727777 4293191915
-0.2376819700 -0.2147852033 0.5261469483 4293257965
-0.2366026193 -0.2132278979 0.5237576365 4293389551
-0.2362945825 -0.2123691142 0.5230757594 4293323758
-0.2390759885 -0.2142808735 0.5292328000 4293389551
-0.2387681752 -0.2134177387 0.5285514593 4293586673
-0.2361410856 -0.2104887664 0.5227359533 4293784052
-0.2358317375 -0.2096329778 0.5220511556 4293915638
-0.2351352572 -0.2084355652 0.5205093622 4293981431
-0.2348250002 -0.2075829655 0.5198225975 4293981688
-0.2368362844 -0.2087784111 0.5242748857 4293915895
-0.2334291041 -0.2052007467 0.5167325139 4294112762
-0.2331174165 -0.2043534070 0.5160425901 4294112762
-0.2331927270 -0.2038458735 0.5162093043 4294244348
-0.2328803986 -0.2030000687 0.5155178905 4294310141
-0.2333429009 -0.2028293163 0.5165417194 4294244861
-0.2326423079 -0.2016481459 0.5149908662 4294310654
-0.2327167988 -0.2011403441 0.5151557326 4294376446
-0.2324031740 -0.2002976686 0.5144614577 4294376446
-0.2332534790 -0.2004568130 0.5163437724 4294376446
-0.2313865125 -0.1982832402 0.5122109056 4294310653
-0.2314599454 -0.1977768838 0.5123735070 4294442239
-0.2315332443 -0.1972700506 0.5125357509 4294442239
-0.2316063941 -0.1967627406 0.5126976967 4294376446
-0.2312906832 -0.1959256530 0.5119987726 4294442239
-0.2317522615 -0.1957466602 0.5130205750 4294508031
-0.2310470492 -0.1945827454 0.5114594698 4294376446
-0.2307302952 -0.1937484890 0.5107582808 4294310653
-0.2315807939 -0.1938930899 0.5126410127 4294376446
-0.2308743000 -0.1927337199 0.5110770464 4294376446
-0.2309460789 -0.1922256202 0.5112359524 4294442239
-0.2306281477 -0.1913937628 0.5105321407 4294508031
-0.2303098142 -0.1905631274 0.5098274946 4294508031
-0.2303809226 -0.1900553405 0.5099849105 4294442239
-0.2308418155 -0.1898677945 0.5110051632 4294508031
-0.2309127450 -0.1893581897 0.5111621618 4294442239
-0.2309835255 -0.1888481230 0.5113188624 4294442239
-0.2310541719 -0.1883375943 0.5114752650 4294311423
-0.2315150648 -0.1881438643 0.5124955177 4294311423
-0.2315855324 -0.1876315325 0.5126515031 4294311423
-0.2320464849 -0.1874342710 0.5136718750 4294179837
-0.2325075269 -0.1872348189 0.5146924853 4294179067
-0.2325777709 -0.1867193580 0.5148479939 4294047481
-0.2326478660 -0.1862034202 0.5150031447 4293850873
-0.2331089377 -0.1859991103 0.5160238147 4293850873
-0.2335700840 -0.1857925802 0.5170446038 4293850873
-0.2332485914 -0.1849631816 0.5163329244 4293850873
-0.2341011465 -0.1850634515 0.5182201862 4293850873
-0.2341708243 -0.1845425814 0.5183744431 4293850873
-0.2342403382 -0.1840212494 0.5185283422 4293916666
-0.2347015291 -0.1838063151 0.5195492506 4293982459
-0.2355547398 -0.1838951409 0.5214379430 4293982205
-0.2360161841 -0.1836749017 0.5224594474 4294047998
-0.2364777178 -0.1834524572 0.5234811306 4293982205
-0.2369393110 -0.1832277924 0.5245029330 4293916412
-0.2374009788 -0.1830009073 0.5255249143 4293916412
-0.2382552326 -0.1830734015 0.5274159312 4293982205
-0.2387171537 -0.1828412116 0.5284384489 4293982205
-0.2391791344 -0.1826067865 0.5294611454 4293982205
-0.2396411747 -0.1823701411 0.5304839611 4293916925
-0.2401032895 -0.1821312755 0.5315068960 4293916925
-0.2405654639 -0.1818901747 0.5325300097 4293916925
-0.2410276979 -0.1816468537 0.5335532427 4293982718
-0.2410966903 -0.1811058670 0.5337059498 4293982718
-0.2411655039 -0.1805644035 0.5338582993 4293982718
-0.2416276932 -0.1803161502 0.5348814130 4293916925
-0.2416962981 -0.1797728837 0.5350332856 4293916925
-0.2421584725 -0.1795210540 0.5360563993 4293982205
-0.2422268540 -0.1789759845 0.5362077355 4293982205
-0.2422950566 -0.1784304380 0.5363587141 4294047998
-0.2423630804 -0.1778844446 0.5365093350 4294047998
-0.2424309403 -0.1773379892 0.5366595387 4294047998
-0.2428929508 -0.1770785302 0.5376822352 4294047998
-0.2429605722 -0.1765302718 0.5378319621 4294047998
-0.2430280298 -0.1759815365 0.5379812717 4294047998
-0.2434899509 -0.1757171601 0.5390038490 4293982718
-0.2435571700 -0.1751666367 0.5391526222 4293982718
-0.2436242104 -0.1746156514 0.5393010378 4293982718
-0.2440860420 -0.1743463278 0.5403233767 4293982718
-0.2441528589 -0.1737935394 0.5404712558 4293982718
-0.2442194819 -0.1732403040 0.5406187773 4293982718
-0.2442859262 -0.1726866066 0.5407658815 4293982972
-0.2447475940 -0.1724109948 0.5417878628 4293982972
-0.2448137999 -0.1718555093 0.5419343710 4294048252
-0.2452754378 -0.1715763062 0.5429562926 4294048252
-0.2453413904 -0.1710190177 0.5431022644 4294048252
-0.2454071641 -0.1704612821 0.5432478786 4294048252
-0.2454727590 -0.1699030995 0.5433930755 4294048252
-0.2455381751 -0.1693444550 0.5435379148 4294048252
-0.2456034124 -0.1687853783 0.5436823368 4294048252
-0.2456684709 -0.1682258546 0.5438263416 4294048252
-0.2457333356 -0.1676658839 0.5439699292 4293916925
-0.2454015762 -0.1668359488 0.5432355404 4293916925
-0.2458625287 -0.1665446311 0.5442559123 4294113277
-0.2459268570 -0.1659833342 0.5443983078 4294179070
-0.2459909916 -0.1654216051 0.5445402861 4293982972
-0.2464518100 -0.1651253253 0.5455603600 4293982972
-0.2469126582 -0.1648268104 0.5465804935 4294179068
-0.2469764352 -0.1642619371 0.5467217565 4294179068
-0.2470400482 -0.1636966467 0.5468625426 4294244603
-0.2467061877 -0.1628686339 0.5461235046 4294178810
-0.2467693239 -0.1623033732 0.5462632179 4292860640
-0.2468322664 -0.1617376804 0.5464025736 4290492092
-0.2468950152 -0.1611715555 0.5465414524 4292332243
-0.2469575703 -0.1606049985 0.5466799736 4294700791
-0.2470199466 -0.1600380093 0.5468180776 4294311677
-0.2470821440 -0.1594705880 0.5469557047 4294048505
-0.2471441329 -0.1589027345 0.5470929742 4294113791
-0.2472059429 -0.1583344638 0.5472297668 4294179583
-0.2476657331 -0.1580198258 0.5482475758 4294113791
-0.2477272600 -0.1574497819 0.5483837724 4294047998
-0.2477885932 -0.1568793207 0.5485195518 4294113791
-0.2478497326 -0.1563084275 0.5486549139 4294113791
-0.2479106784 -0.1557371169 0.5487897992 4294047998
-0.2483700961 -0.1554148495 0.5498067737 4294047998
-0.2484307438 -0.1548417807 0.5499410629 4294047998
-0.2484912127 -0.1542682946 0.5500749350 4294047998
-0.2485514730 -0.1536943913 0.5502083302 4294047998
-0.2486115396 -0.1531200707 0.5503413081 4294047998
-0.2486714274 -0.1525453329 0.5504738688 4294113791
-0.2491303533 -0.1522141099 0.5514897704 4294113791
-0.2491899282 -0.1516376138 0.5516216159 4294047998
-0.2492492944 -0.1510607153 0.5517530441 4293982205
-0.2493084818 -0.1504833996 0.5518840551 4294113791
-0.2493674606 -0.1499056667 0.5520146489 4294113791
-0.2490265220 -0.1490882188 0.5512599349 4294047998
-0.2494848222 -0.1487489939 0.5522744656 4293982205
-0.2491433024 -0.1479325891 0.5515184402 4293982205
-0.2496013939 -0.1475906819 0.5525324941 4293982205
-0.2492592782 -0.1467753202 0.5517751575 4293982459
-0.2497171462 -0.1464307606 0.5527887344 4294048252
-0.2497747242 -0.1458501816 0.5529161692 4294048765
-0.2498321086 -0.1452692151 0.5530431867 4294048765
-0.2498892695 -0.1446878463 0.5531697273 4293982972
-0.2499462366 -0.1441060901 0.5532958508 4293982972
-0.2504036427 -0.1437539309 0.5543084145 4293982972
-0.2500595748 -0.1429413557 0.5535467267 4293982972
-0.2501159310 -0.1423584074 0.5536714792 4294048765
-0.2505729795 -0.1420022696 0.5546832681 4294048765
-0.2506290376 -0.1414175928 0.5548073053 4293982718
-0.2502837479 -0.1406071931 0.5540429950 4293982718
-0.2507404685 -0.1402470618 0.5550540090 4293982718
-0.2503946126 -0.1394377649 0.5542883873 4293982718
-0.2508510947 -0.1390749812 0.5552989244 4294048765
-0.2505046427 -0.1382667869 0.5545319915 4294048765
-0.2505593598 -0.1376807243 0.5546530485 4294114558
-0.2506138384 -0.1370942742 0.5547736883 4294048765
-0.2502664030 -0.1362886727 0.5540046096 4294114558
-0.2503204048 -0.1357024014 0.5541241169 4294048765
-0.2507760823 -0.1353326291 0.5551328063 4294048765
-0.2508297265 -0.1347446591 0.5552515984 4294048765
-0.2508831620 -0.1341563165 0.5553699136 4293982972
-0.2509363890 -0.1335676014 0.5554877520 4293982972
-0.2513916492 -0.1331916153 0.5564954877 4294048765
-0.2518468499 -0.1328133643 0.5575031638 4294048765
-0.2518996298 -0.1322216243 0.5576199889 4294048765
-0.2519521713 -0.1316295266 0.5577362776 4294114558
-0.2520045042 -0.1310370564 0.5578521490 4294048511
-0.2520566285 -0.1304442137 0.5579675436 4293982718
-0.2521085441 -0.1298510134 0.5580824614 4293916925
-0.2521602213 -0.1292574406 0.5581968427 4293982718
-0.2522116899 -0.1286634952 0.5583108068 4294048765
-0.2518599927 -0.1278646141 0.5575322509 4294114558
-0.2519109547 -0.1272709072 0.5576450229 4294377215
-0.2519616783 -0.1266768426 0.5577573776 4294377215
-0.2520122230 -0.1260824054 0.5578691959 4294245631
-0.2520625293 -0.1254876256 0.5579805970 4293719287
-0.2525160015 -0.1250923127 0.5589843988 4293192943
-0.2525659502 -0.1244958565 0.5590950251 4292600806
-0.2522121370 -0.1237011328 0.5583118200 4292271841
-0.2522615790 -0.1231049374 0.5584212542 4292271841
-0.2527144849 -0.1227044016 0.5594238043 4292600805
-0.2527635694 -0.1221065447 0.5595324636 4293061356
-0.2528124154 -0.1215083450 0.5596405864 4293719286
-0.2532649934 -0.1211029440 0.5606424212 4294179837
-0.2533134818 -0.1205030978 0.5607497692 4294311423
-0.2529576421 -0.1197116747 0.5599620938 4294377215
-0.2530056238 -0.1191120967 0.5600682497 4294377215
-0.2534576058 -0.1187014952 0.5610687733 4294443007
-0.2535052001 -0.1181002855 0.5611741543 4294508543
-0.2535525560 -0.1174987331 0.5612789989 4294377215
-0.2535997033 -0.1168968379 0.5613833666 4294245630
-0.2540511787 -0.1164800972 0.5623827577 4294179837
-0.2540979385 -0.1158765778 0.5624862909 4294376700
-0.2537398040 -0.1150891706 0.5616934896 4294442493
-0.2541908026 -0.1146685407 0.5626918674 4294442493
-0.2542369068 -0.1140640303 0.5627939105 4294508286
-0.2542827725 -0.1134591922 0.5628954768 4294311423
-0.2543283999 -0.1128540263 0.5629964471 4294311423
-0.2543738186 -0.1122485325 0.5630970001 4294311423
-0.2544189990 -0.1116427183 0.5631970167 4294311423
-0.2544639409 -0.1110365838 0.5632964969 4294311423
-0.2545086741 -0.1104301289 0.5633955002 4294377215
-0.2549585104 -0.1099982262 0.5643913150 4294443007
-0.2550028563 -0.1093901694 0.5644894242 4294443007
-0.2550469339 -0.1087817922 0.5645870566 4294377215
-0.2550908327 -0.1081731021 0.5646842122 4294377215
-0.2547288537 -0.1073930860 0.5638828874 4294377215
-0.2551778853 -0.1069547758 0.5648769140 4294377215
-0.2552210689 -0.1063451543 0.5649725199 4294377215
-0.2552640140 -0.1057352200 0.5650675893 4294377215
-0.2553067207 -0.1051249728 0.5651621222 4294377215
-0.2553491890 -0.1045144275 0.5652561784 4294377215
-0.2553914487 -0.1039035767 0.5653496981 4294245884
-0.2554334700 -0.1032924205 0.5654426813 4294245884
-0.2558813989 -0.1028442085 0.5664342642 4294311677
-0.2559230030 -0.1022314802 0.5665263534 4294377470
-0.2559643686 -0.1016184539 0.5666179657 4294377470
-0.2560055256 -0.1010051370 0.5667090416 4294311677
-0.2560464144 -0.1003915146 0.5667995811 4294311677
-0.2556805909 -0.0996192321 0.5659897923 4294245884
-0.2557209730 -0.0990060046 0.5660791397 4294311677
-0.2557610869 -0.0983924866 0.5661679506 4294377470
-0.2558009923 -0.0977786854 0.5662562847 4294508286
-0.2558406591 -0.0971645936 0.5663440824 4294574079
-0.2558800578 -0.0965502188 0.5664313436 4294574079
-0.2559192479 -0.0959355608 0.5665180683 4294508286
-0.2563651204 -0.0954721645 0.5675050616 4294442493
-0.2564038932 -0.0948559642 0.5675908923 4294442493
-0.2564423978 -0.0942394882 0.5676761270 4294377470
-0.2564806938 -0.0936227292 0.5677608848 4294311677
-0.2565187216 -0.0930057019 0.5678451061 4294442493
-0.2573710084 -0.0926816985 0.5697317719 4294442493
-0.2574086785 -0.0920621604 0.5698151588 4294442493
-0.2574461401 -0.0914423540 0.5698980689 4294442493
-0.2570759058 -0.0906785727 0.5690785050 4294442493
-0.2571128011 -0.0900592059 0.5691602230 4294442493
-0.2571494579 -0.0894395784 0.5692413449 4294442493
-0.2571858764 -0.0888196900 0.5693219304 4294508286
-0.2576296926 -0.0883393064 0.5703043938 4294508286
-0.2576656640 -0.0877179131 0.5703840256 4294442493
-0.2577014267 -0.0870962515 0.5704631805 4294442493
-0.2573291063 -0.0863375068 0.5696389675 4294508286
-0.2573643029 -0.0857163221 0.5697168708 4294508286
-0.2573992312 -0.0850948766 0.5697942376 4294508286
-0.2578419149 -0.0846070573 0.5707741976 4294442493
-0.2574684024 -0.0838512406 0.5699473619 4294574079
-0.2579106987 -0.0833609477 0.5709264874 4294574079
-0.2579447329 -0.0827375203 0.5710017681 4294376700
-0.2579784989 -0.0821138471 0.5710765123 4294376700
-0.2580120265 -0.0814899281 0.5711507797 4294574079
-0.2580453157 -0.0808657631 0.5712244511 4294639615
-0.2584866881 -0.0803683326 0.5722014904 4294508286
-0.2585195303 -0.0797426999 0.5722742081 4294639359
-0.2585521042 -0.0791168362 0.5723463297 4294639359
-0.2585844696 -0.0784907341 0.5724179149 4294573567
-0.2590250969 -0.0779874101 0.5733933449 4294507775
-0.2590569854 -0.0773598552 0.5734639764 4294507775
-0.2590886354 -0.0767320618 0.5735340118 4294507775
-0.2591200471 -0.0761040449 0.5736035109 4294639359
-0.2595599294 -0.0755948499 0.5745772719 4294705151
-0.2595908642 -0.0749653876 0.5746457577 4294705151
-0.2596215606 -0.0743357018 0.5747137070 4294113017
-0.2600609064 -0.0738218650 0.5756862760 4293256936
-0.2600911260 -0.0731907412 0.5757531524 4292335834
-0.2597121000 -0.0724453181 0.5749141574 4292598749
-0.2597417831 -0.0718147531 0.5749798417 4293783023
-0.2609984875 -0.0715202764 0.5777617693 4294572796
-0.2606186569 -0.0707751885 0.5769209266 4294572796
-0.2614660263 -0.0703622252 0.5787967443 4294704383
-0.2619040906 -0.0698359534 0.5797665119 4294572798
-0.2619327307 -0.0691993535 0.5798298717 4294374906
-0.2627797425 -0.0687768087 0.5817048550 4292072151
-0.2632173300 -0.0682439357 0.5826734900 4290624448
-0.2636547089 -0.0677088723 0.5836417675 4292598238
-0.2645013928 -0.0672757551 0.5855159760 4294374906
-0.2649384737 -0.0667353049 0.5864835978 4294177527
-0.2657849491 -0.0662948117 0.5883573294 4294177787
-0.2654025853 -0.0655466765 0.5875109434 4294111994
-0.2682967782 -0.0656015724 0.5939177275 4294243834
-0.2695527077 -0.0652456805 0.5966978669 4294375420
-0.2687601149 -0.0643928126 0.5949433446 4294441213
-0.2704254985 -0.0641267076 0.5986299515 4294507006
-0.2712713778 -0.0636600927 0.6005024910 4294507006
-0.2725269794 -0.0632844642 0.6032819748 4294441213
-0.2733727098 -0.0628084764 0.6051540971 4294572799
-0.2746281922 -0.0624214746 0.6079332829 4294441213
-0.2754737139 -0.0619361214 0.6098049879 4293980662
-0.2759091556 -0.0613554120 0.6107689142 4291151563
-0.2763443887 -0.0607725196 0.6117323637 4290625219
-0.2767794132 -0.0601874404 0.6126953959 4293125353
-0.2776243389 -0.0596883446 0.6145657301 4294572285
-0.2780590057 -0.0590979010 0.6155279279 4294572285
-0.2780832946 -0.0584191121 0.6155817509 4294440959
-0.2781073451 -0.0577401482 0.6156349182 4294440959
-0.2781310976 -0.0570610091 0.6156875491 4294440959
-0.2777443230 -0.0562985353 0.6148313284 4294440959
-0.2761263251 -0.0552914254 0.6112496257 4294375166
-0.2761490643 -0.0546167828 0.6112999916 4294375166
-0.2741197646 -0.0535412207 0.6068077683 4294244350
-0.2683963180 -0.0517631806 0.5941380262 4294244350
-0.2651342154 -0.0504819453 0.5869168639 4294046973
-0.2659759223 -0.0499880277 0.5887801051 4293981180
-0.2590181828 -0.0480433181 0.5733780861 4293718008
-0.2602695227 -0.0476352759 0.5761480927 4293520629
-0.2590574920 -0.0467762873 0.5734650493 4293389302
-0.2570238411 -0.0457769260 0.5689632893 4293257716
-0.2566320896 -0.0450759567 0.5680960417 4293191923
-0.2562400103 -0.0443768576 0.5672281384 4293126130
-0.2562582791 -0.0437497459 0.5672686100 4292994544
-0.2550442219 -0.0429151841 0.5645810366 4293060337
-0.2550618947 -0.0422908254 0.5646201372 4292929521
-0.2534362972 -0.0413979553 0.5610216260 4292797935
-0.2538641095 -0.0408434533 0.5619686842 4292666349
-0.2530593276 -0.0400915630 0.5601871610 4292600556
-0.2530758381 -0.0394717306 0.5602236986 4292731372
-0.2526812255 -0.0387887061 0.5593501925 4292731372
-0.2518754303 -0.0380455144 0.5575664043 4292403175
-0.2514801919 -0.0373672880 0.5566914678 4292403175
-0.2506736815 -0.0366309099 0.5549061894 4291416280
-0.2510997355 -0.0360755809 0.5558493137 4290232006
-0.2507036030 -0.0354020558 0.5549724102 4290889936
-0.2498961687 -0.0346734077 0.5531849861 4292271589
-0.2499104440 -0.0340607241 0.5532166362 4292732140
-0.2495134175 -0.0333929248 0.5523377061 4292600554
-0.2491160780 -0.0327270404 0.5514581800 4292337382
-0.2478962392 -0.0319570787 0.5487578511 4292271589
-0.2474982738 -0.0312970430 0.5478768945 4292271591
-0.2471000105 -0.0306389313 0.5469952822 4292271591
-0.2462902963 -0.0299327709 0.5452028513 4292271336
-0.2458914220 -0.0292795170 0.5443198681 4292402922
-0.2463146895 -0.0287240967 0.5452568531 4292599786
-0.2459152788 -0.0280726831 0.5443726778 4292665579
-0.2459268272 -0.0274691358 0.5443982482 4292797163
-0.2463493943 -0.0269104317 0.5453336835 4292928749
-0.2475943267 -0.0264374558 0.5480895042 4293323761
-0.2484278083 -0.0259154364 0.5499345660 4293718519
-0.2509063780 -0.0255568847 0.5554212928 4294047224
-0.2496828884 -0.0248181559 0.5527128577 4294244603
-0.2513385117 -0.0243645478 0.5563778877 4294441978
-0.2542281151 -0.0240193829 0.5627744794 4294573564
-0.2525924444 -0.0232435837 0.5591536164 4294769916
-0.2399679124 -0.2138354182 0.5325164795 4293060329
