VERSION 0.7
FIELDS x y z rgba
SIZE 4 4 4 4
TYPE F F F U
COUNT 1 1 1 1
WIDTH 920
HEIGHT 1
VIEWPOINT 0.0 0.0 0.0 1.0 0.0 0.0 0.0
POINTS 920
DATA ascii
-0.2670476437 -0.2418143898 0.5518082380 4294113017
-0.2671387196 -0.2412835807 0.5519964695 4293915638
-0.2672296762 -0.2407522202 0.5521844625 4291876055
-0.2673205137 -0.2402203083 0.5523720980 4291481297
-0.2678169608 -0.2400515825 0.5533979535 4293586673
-0.2679076493 -0.2395177782 0.5535853505 4294375419
-0.2684042454 -0.2393455356 0.5546114445 4294638591
-0.2689009607 -0.2391711324 0.5556378365 4294375419
-0.2689915001 -0.2386340946 0.5558249354 4294572798
-0.2690818906 -0.2380965054 0.5560116768 4294374906
-0.2687655091 -0.2371995300 0.5553579926 4294374906
-0.2688554823 -0.2366616726 0.5555438399 4294769663
-0.2689453065 -0.2361232787 0.5557294488 4293519597
-0.2690349817 -0.2355843484 0.5559147596 4291611343
-0.2691245079 -0.2350448817 0.5560997128 4292071894
-0.2696211636 -0.2348596454 0.5571259856 4294177270
-0.2697105110 -0.2343182713 0.5573106408 4294900991
-0.2702072859 -0.2341295034 0.5583371520 4293847535
-0.2707041800 -0.2339385599 0.5593639016 4292400089
-0.2707933784 -0.2333939523 0.5595481992 4292334296
-0.2708824277 -0.2328487933 0.5597321987 4294176500
-0.2709713280 -0.2323030978 0.5599159002 4294900991
-0.2714682817 -0.2321058959 0.5609427691 4294900991
-0.2719653845 -0.2319065183 0.5619699359 4294703871
-0.2720540762 -0.2313575596 0.5621532202 4294506492
-0.2721426487 -0.2308080792 0.5623362064 4294638078
-0.2726397812 -0.2306037843 0.5633634925 4294703871
-0.2727281749 -0.2300523967 0.5635461211 4293782512
-0.2724073827 -0.2291564047 0.5628832579 4293387754
-0.2724953294 -0.2286047637 0.5630649924 4294637821
-0.2729923725 -0.2283950299 0.5640920997 4294835199
-0.2730801404 -0.2278414965 0.5642734170 4294703871
-0.2735773027 -0.2276282012 0.5653007030 4294638078
-0.2736648619 -0.2270727754 0.5654816628 4294638078
-0.2737523019 -0.2265168279 0.5656622648 4294703871
-0.2738395333 -0.2259603292 0.5658425689 4294835199
-0.2743367255 -0.2257407457 0.5668699145 4294703614
-0.2744237781 -0.2251823545 0.5670498013 4294638591
-0.2749210298 -0.2249591947 0.5680772662 4294507006
-0.2750079036 -0.2243989110 0.5682567954 4294441213
-0.2750946283 -0.2238380909 0.5684359670 4294309627
-0.2755918801 -0.2236099988 0.5694634914 4294178041
-0.2756783962 -0.2230472863 0.5696423054 4294046455
-0.2757647634 -0.2224840373 0.5698207021 4294046454
-0.2758509517 -0.2219202667 0.5699988008 4293191145
-0.2763482034 -0.2216858566 0.5710263252 4293520110
-0.2764342129 -0.2211201936 0.5712040067 4294507005
-0.2769314945 -0.2208821923 0.5722315907 4294638591
-0.2770172954 -0.2203146368 0.5724088550 4294704383
-0.2775146365 -0.2200730592 0.5734365582 4294704382
-0.2771883607 -0.2191779166 0.5727623105 4294770175
-0.2772736251 -0.2186087668 0.5729385018 4294573566
-0.2777708471 -0.2183630764 0.5739659667 4294705151
-0.2778559029 -0.2177920341 0.5741417408 4294704636
-0.2783531845 -0.2175427526 0.5751692653 4294704636
-0.2784380317 -0.2169698179 0.5753445625 4294704382
-0.2789353430 -0.2167169452 0.5763721466 4294770175
-0.2790199518 -0.2161421031 0.5765470266 4294638589
-0.2795172930 -0.2158856392 0.5775746703 4294638589
-0.2796016932 -0.2153089046 0.5777490735 4294638591
-0.2800990343 -0.2150488347 0.5787767768 4294572798
-0.2805964649 -0.2147865295 0.5798045993 4294310141
-0.2806805968 -0.2142065316 0.5799784064 4294178555
-0.2807645202 -0.2136259973 0.5801518559 4294112766
-0.2812619209 -0.2133587152 0.5811796784 4294046973
-0.2813456357 -0.2127762884 0.5813526511 4293981439
-0.2818430364 -0.2125054002 0.5823804140 4294047231
-0.2823404968 -0.2122322768 0.5834083557 4294112511
-0.2824239135 -0.2116465867 0.5835807323 4294046719
-0.2825071514 -0.2110603601 0.5837526917 4293916414
-0.2825902104 -0.2104736269 0.5839243531 4293916414
-0.2826730907 -0.2098863870 0.5840955973 4293850621
-0.2827557623 -0.2092986256 0.5842664242 4293850621
-0.2828382850 -0.2087103426 0.5844368935 4293784828
-0.2829205990 -0.2081215382 0.5846070051 4293719035
-0.2825877666 -0.2072279304 0.5839192867 4293653755
-0.2826696038 -0.2066389769 0.5840883851 4293653755
-0.2827512324 -0.2060495168 0.5842570662 4293653757
-0.2828327119 -0.2054595351 0.5844253898 4293653757
-0.2833293974 -0.2051698864 0.5854517817 4293588475
-0.2838261724 -0.2048779875 0.5864782333 4293588475
-0.2839072943 -0.2042847425 0.5866459012 4293588221
-0.2839882374 -0.2036909908 0.5868131518 4293588221
-0.2840690017 -0.2030967474 0.5869799852 4293588221
-0.2841495574 -0.2025019825 0.5871464610 4293654014
-0.2842299342 -0.2019067109 0.5873125196 4293719550
-0.2843101025 -0.2013109326 0.5874782205 4293785343
-0.2839737236 -0.2004207969 0.5867831111 4293785343
-0.2840534151 -0.1998248845 0.5869477391 4293719550
-0.2841328979 -0.1992284805 0.5871120095 4293719550
-0.2842121720 -0.1986315697 0.5872758627 4293719550
-0.2838744223 -0.1977437884 0.5865779519 4293719550
-0.2839532197 -0.1971467733 0.5867407322 4293719550
-0.2844488919 -0.1968378574 0.5877649784 4293719550
-0.2845274210 -0.1962389648 0.5879272223 4293653757
-0.2846057415 -0.1956395656 0.5880890489 4293719550
-0.2846838534 -0.1950396895 0.5882504582 4293785343
-0.2851793170 -0.1947244108 0.5892742872 4293719550
-0.2852571607 -0.1941226423 0.5894351006 4293719550
-0.2853347957 -0.1935203969 0.5895955563 4293785343
-0.2854122221 -0.1929176599 0.5897555947 4293785343
-0.2854894698 -0.1923144311 0.5899151564 4293719550
-0.2855665088 -0.1917107254 0.5900743604 4293719550
-0.2852251530 -0.1908267140 0.5893689990 4293719550
-0.2853016555 -0.1902229041 0.5895271301 4293653757
-0.2853780091 -0.1896186173 0.5896848440 4293587964
-0.2854541242 -0.1890138388 0.5898421407 4293456378
-0.2851113677 -0.1881323159 0.5891338587 4293324792
-0.2851869762 -0.1875274628 0.5892901421 4293258999
-0.2856812775 -0.1871966124 0.5903114676 4293061620
-0.2857565880 -0.1865898967 0.5904670954 4293127413
-0.2858316898 -0.1859827191 0.5906223059 4293193206
-0.2863258123 -0.1856468767 0.5916432738 4293258999
-0.2864005864 -0.1850378364 0.5917978287 4293456378
-0.2860557437 -0.1841583103 0.5910853148 4293587964
-0.2861300409 -0.1835492104 0.5912387967 4293653757
-0.2862040997 -0.1829396486 0.5913918018 4293719550
-0.2862779796 -0.1823296100 0.5915444493 4293587964
-0.2867714763 -0.1819855571 0.5925642252 4293719550
-0.2868450284 -0.1813736856 0.5927162170 4293719550
-0.2869183719 -0.1807613373 0.5928677320 4293653757
-0.2865713239 -0.1798847616 0.5921506286 4293653757
-0.2866441309 -0.1792723835 0.5923010707 4293719550
-0.2862963378 -0.1783975661 0.5915824175 4293719550
-0.2863686085 -0.1777851582 0.5917317271 4293851135
-0.2864406705 -0.1771722734 0.5918806791 4293719550
-0.2865125239 -0.1765589267 0.5920291543 4293719550
-0.2865841687 -0.1759451330 0.5921772122 4293719550
-0.2866556048 -0.1753308624 0.5923247933 4293719550
-0.2867268324 -0.1747161448 0.5924719572 4293719550
-0.2872189581 -0.1743566245 0.5934888721 4293719550
-0.2872898579 -0.1737400889 0.5936353207 4293785343
-0.2877818644 -0.1733769327 0.5946519971 4293785343
-0.2878524363 -0.1727585793 0.5947978497 4293785343
-0.2879227698 -0.1721397787 0.5949431658 4293719550
-0.2879928946 -0.1715205163 0.5950880647 4293719550
-0.2880628109 -0.1709008068 0.5952324867 4293719550
-0.2872887552 -0.1697820127 0.5936330557 4293719550
-0.2873580158 -0.1691632122 0.5937762260 4293653757
-0.2874270678 -0.1685439646 0.5939188600 4293653755
-0.2874958813 -0.1679242849 0.5940610766 4293587962
-0.2875644863 -0.1673041433 0.5942028165 4293785341
-0.2876328528 -0.1666835696 0.5943441391 4293851134
-0.2877010107 -0.1660625488 0.5944849253 4293851134
-0.2877689600 -0.1654410958 0.5946252942 4293851134
-0.2878366709 -0.1648191959 0.5947652459 4293982718
-0.2874813974 -0.1639557481 0.5940310955 4293982718
-0.2879714072 -0.1635740846 0.5950436592 4293982718
-0.2880384624 -0.1629508734 0.5951821804 4294048511
-0.2881052792 -0.1623272300 0.5953202844 4293916927
-0.2881718576 -0.1617031544 0.5954578519 4293916927
-0.2878149748 -0.1608421057 0.5947204232 4293916927
-0.2878810167 -0.1602180898 0.5948568583 4293916927
-0.2879468203 -0.1595936418 0.5949928761 4293916927
-0.2880124152 -0.1589687616 0.5951283574 4293851134
-0.2880777717 -0.1583434492 0.5952634215 4293851134
-0.2881428897 -0.1577177197 0.5953980088 4293785341
-0.2882077992 -0.1570915729 0.5955321193 4293982207
-0.2882724702 -0.1564649940 0.5956657529 4293916414
-0.2883369029 -0.1558379978 0.5957989097 4293850621
-0.2884011269 -0.1552105695 0.5959315896 4293850621
-0.2888893187 -0.1548100710 0.5969403386 4293850621
-0.2889531553 -0.1541808844 0.5970723033 4293850621
-0.2885923684 -0.1533258110 0.5963267684 4293850621
-0.2890801430 -0.1529212892 0.5973346829 4293784828
-0.2891432941 -0.1522908658 0.5974651575 4293851132
-0.2892062068 -0.1516600251 0.5975951552 4293916925
-0.2892689109 -0.1510287821 0.5977246761 4294047484
-0.2897562087 -0.1506179720 0.5987316370 4293981691
-0.2898184955 -0.1499849856 0.5988603830 4294113277
-0.2898805737 -0.1493515819 0.5989885926 4294047484
-0.2899423838 -0.1487177759 0.5991163850 4293719033
-0.2895787656 -0.1478664428 0.5983650088 4293784826
-0.2896400392 -0.1472327560 0.5984915495 4293653240
-0.2901264727 -0.1468139440 0.5994967222 4293784826
-0.2901873291 -0.1461785287 0.5996224880 4292467937
-0.2898223996 -0.1453292966 0.5988684297 4290559940
-0.2898827195 -0.1446940154 0.5989930630 4291744214
-0.2895170152 -0.1438467950 0.5982373953 4293915383
-0.2895767689 -0.1432116628 0.5983608365 4294113275
-0.2896362841 -0.1425761282 0.5984838009 4294113275
-0.2896955311 -0.1419402212 0.5986062884 4293850621
-0.2897545695 -0.1413038969 0.5987282395 4293850621
-0.2893871367 -0.1404603422 0.5979690552 4293850621
-0.2894456089 -0.1398241967 0.5980898142 4293916414
-0.2895038128 -0.1391876638 0.5982100964 4293850621
-0.2895617783 -0.1385507435 0.5983299017 4293850621
-0.2896195054 -0.1379134506 0.5984491706 4293916414
-0.2901036143 -0.1374779344 0.5994495153 4293850621
-0.2901609540 -0.1368389428 0.5995679498 4293785341
-0.2902180254 -0.1361995637 0.5996859074 4293851134
-0.2911286056 -0.1359585226 0.6015674472 4293785341
-0.2911853492 -0.1353165060 0.6016847491 4293785341
-0.2912418544 -0.1346741319 0.6018015146 4293851134
-0.2912981212 -0.1340313703 0.6019177437 4293851134
-0.2917813361 -0.1335838288 0.6029162407 4293785339
-0.2918371856 -0.1329393834 0.6030316353 4293851132
-0.2918927968 -0.1322945654 0.6031465530 4293851645
-0.2919481397 -0.1316493899 0.6032609344 4293851645
-0.2920032442 -0.1310038418 0.6033747792 4293851645
-0.2920580804 -0.1303579360 0.6034880877 4293851645
-0.2921126783 -0.1297116578 0.6036009192 4293851645
-0.2925948203 -0.1292539835 0.6045971513 4293851645
-0.2926489711 -0.1286060512 0.6047090888 4293851645
-0.2927029133 -0.1279577464 0.6048204899 4293851645
-0.2927565873 -0.1273090839 0.6049314141 4293785852
-0.2923819125 -0.1264748871 0.6041572094 4293785852
-0.2924349904 -0.1258264631 0.6042668819 4293785852
-0.2924878299 -0.1251776963 0.6043760777 4293785852
-0.2925404012 -0.1245285720 0.6044846773 4293851645
-0.2930211127 -0.1240604743 0.6054779887 4293851645
-0.2926447988 -0.1232292801 0.6047003865 4293851645
-0.2926965952 -0.1225791126 0.6048074365 4293851645
-0.2927481532 -0.1219285950 0.6049140096 4293851645
-0.2927994430 -0.1212777421 0.6050199866 4293851645
-0.2928504944 -0.1206265464 0.6051254869 4293851645
-0.2929012775 -0.1199750155 0.6052303910 4293851645
-0.2933807373 -0.1194978431 0.6062210798 4293851645
-0.2934310734 -0.1188446805 0.6063250899 4293851645
-0.2930520773 -0.1180183813 0.6055420041 4293982718
-0.2935309708 -0.1175373420 0.6065315604 4293916925
-0.2940097451 -0.1170540601 0.6075208783 4293916925
-0.2940591276 -0.1163986027 0.6076229215 4293982718
-0.2941082418 -0.1157428175 0.6077243686 4293982718
-0.2941571176 -0.1150867119 0.6078253388 4293982718
-0.2946352065 -0.1145973206 0.6088132262 4294047998
-0.2942540348 -0.1137735099 0.6080256104 4294047998
-0.2943021059 -0.1131164283 0.6081249714 4293982205
-0.2947795987 -0.1126231924 0.6091116667 4294047998
-0.2948272228 -0.1119645089 0.6092100143 4293982718
-0.2948745787 -0.1113055050 0.6093078852 4293982718
-0.2949216664 -0.1106461808 0.6094051600 4294047998
-0.2953984439 -0.1101468801 0.6103903651 4294113791
-0.2954450846 -0.1094859689 0.6104866862 4294114045
-0.2954914272 -0.1088247448 0.6105824709 4294114045
-0.2959676981 -0.1083206534 0.6115666628 4294114045
-0.2960135937 -0.1076578498 0.6116614342 4294114045
-0.2956289053 -0.1068392247 0.6108665466 4294114045
-0.2961045802 -0.1063313186 0.6118494272 4294114045
-0.2961496413 -0.1056675985 0.6119425893 4294244861
-0.2961944640 -0.1050035730 0.6120352149 4294244861
-0.2962390184 -0.1043392494 0.6121272445 4294244860
-0.2962832749 -0.1036746204 0.6122187376 4294244860
-0.2963272929 -0.1030097008 0.6123096943 4294244860
-0.2963710427 -0.1023444831 0.6124000549 4294244860
-0.2968453467 -0.1018267646 0.6133801341 4294441212
-0.2973195016 -0.1013068184 0.6143598557 4294507005
-0.2973625362 -0.1006387919 0.6144488454 4294441212
-0.2974053025 -0.0999704674 0.6145372391 4294178040
-0.2974478304 -0.0993018672 0.6146250367 4292139227
-0.2974900603 -0.0986329764 0.6147122979 4290691781
-0.2975319922 -0.0979638025 0.6147989631 4292862950
-0.2975736856 -0.0972943455 0.6148851514 4294310396
-0.2984777391 -0.0969046727 0.6167532206 4294310396
-0.2985189855 -0.0962327197 0.6168384552 4294310396
-0.2981285155 -0.0954223871 0.6160315871 4294179067
-0.2981691658 -0.0947508439 0.6161155701 4294244860
-0.2977779806 -0.0939428806 0.6153072715 4294310654
-0.2982496321 -0.0934069455 0.6162818074 4294310654
-0.2982894480 -0.0927345902 0.6163641214 4294244861
-0.2983289659 -0.0920619667 0.6164457798 4294310654
-0.2983682454 -0.0913890749 0.6165269017 4294310653
-0.2984071970 -0.0907159224 0.6166074872 4294310653
-0.2984459102 -0.0900425017 0.6166874170 4294376189
-0.2984843254 -0.0893688202 0.6167668104 4294310396
-0.2989544868 -0.0888232440 0.6177383065 4294310653
-0.2989924252 -0.0881480649 0.6178166866 4294244860
-0.2990300655 -0.0874726400 0.6178944707 4294244860
-0.2990674078 -0.0867969617 0.6179716587 4294244860
-0.2991044819 -0.0861210227 0.6180482507 4294180091
-0.2991412878 -0.0854448378 0.6181243062 4294114298
-0.2996101379 -0.0848909020 0.6190931201 4294180091
-0.2996464372 -0.0842132419 0.6191681027 4294180091
-0.2996824384 -0.0835353434 0.6192424893 4294180091
-0.3001506627 -0.0829767585 0.6202099919 4294180091
-0.3006187081 -0.0824159756 0.6211771369 4294114555
-0.3010865450 -0.0818529949 0.6221438646 4294048762
-0.3011215627 -0.0811711848 0.6222162247 4294114298
-0.3011563122 -0.0804891437 0.6222879887 4294114298
-0.3016235232 -0.0799215361 0.6232534051 4294114298
-0.3020905256 -0.0793517232 0.6242184043 4294180091
-0.3025573492 -0.0787797272 0.6251829863 4294180091
-0.3025910854 -0.0780938119 0.6252527237 4294245884
-0.3026245534 -0.0774076656 0.6253218651 4294245884
-0.3026577234 -0.0767212957 0.6253904104 4294245884
-0.3026905954 -0.0760347024 0.6254583597 4294245884
-0.3031562567 -0.0754556805 0.6264205575 4294245884
-0.3031886220 -0.0747676566 0.6264873743 4294245884
-0.3032206595 -0.0740794167 0.6265536547 4294311677
-0.3032524288 -0.0733909607 0.6266192794 4294311677
-0.3032839000 -0.0727022886 0.6266843081 4294311677
-0.3033151031 -0.0720134005 0.6267487407 4294311677
-0.3033460081 -0.0713243037 0.6268126369 4294311677
-0.3038100004 -0.0707359016 0.6277713776 4294508286
-0.3038403392 -0.0700454041 0.6278341413 4294574079
-0.3047373891 -0.0695525706 0.6296876669 4294443007
-0.3047672510 -0.0688596889 0.6297493577 4294377470
-0.3047968149 -0.0681666061 0.6298104525 4294443007
-0.3048260808 -0.0674733147 0.6298709512 4294377470
-0.3044213951 -0.0666848421 0.6290347576 4294311677
-0.3044500649 -0.0659921467 0.6290939450 4294377470
-0.3040446639 -0.0652062371 0.6282563210 4294245630
-0.3040726781 -0.0645141453 0.6283141971 4294245630
-0.3036665916 -0.0637308210 0.6274750829 4294245630
-0.3032601476 -0.0629492775 0.6266351938 4294179837
-0.3037210703 -0.0623476617 0.6275876760 4294179837
-0.3037478924 -0.0616558082 0.6276430488 4294179837
-0.3033404350 -0.0608766787 0.6268010736 4294114044
-0.3029325902 -0.0600993484 0.6259583831 4294114044
-0.3029584289 -0.0594089329 0.6260117888 4294114044
-0.3025498986 -0.0586342178 0.6251676679 4294114044
-0.3025751412 -0.0579444394 0.6252197623 4294114044
-0.3021658957 -0.0571723469 0.6243741512 4294048251
-0.3021905124 -0.0564832203 0.6244249940 4294048251
-0.3026490211 -0.0558740869 0.6253724098 4294048251
-0.3022387922 -0.0551044643 0.6245247722 4294048252
-0.3018282354 -0.0543366596 0.6236764193 4293982459
-0.3018516004 -0.0536478646 0.6237246990 4293851386
-0.3018746972 -0.0529589131 0.6237724423 4293917179
-0.3018974960 -0.0522698015 0.6238195300 4293982972
-0.3019199669 -0.0515805371 0.6238659620 4293982972
-0.3015077412 -0.0508178957 0.6230141521 4293917179
-0.3019640744 -0.0502015501 0.6239571571 4293917179
-0.3019856811 -0.0495118313 0.6240018010 4293982718
-0.3015724719 -0.0487517193 0.6231479049 4293916925
-0.3015934527 -0.0480627008 0.6231912971 4294047998
-0.3011795282 -0.0473052785 0.6223359704 4294047998
-0.3007652760 -0.0465497039 0.6214799881 4294047998
-0.3007853031 -0.0458622500 0.6215214133 4293982205
-0.3012397587 -0.0452399440 0.6224604249 4293982205
-0.3008244932 -0.0444869362 0.6216024160 4293982205
-0.3008436561 -0.0437990800 0.6216419935 4293982205
-0.3008625209 -0.0431110933 0.6216809154 4293982205
-0.3008810878 -0.0424229801 0.6217193007 4293982205
-0.3004645109 -0.0416744277 0.6208585501 4293982205
-0.3004824519 -0.0409870557 0.6208956242 4294047998
-0.3005000949 -0.0402995646 0.6209320426 4293982205
-0.3000825644 -0.0395546257 0.6200692654 4293982205
-0.3000995815 -0.0388678908 0.6201044321 4293916412
-0.2996813655 -0.0381257050 0.6192402840 4293850619
-0.2992627919 -0.0373853929 0.6183753610 4293850619
-0.2988438904 -0.0366469659 0.6175097823 4293785339
-0.2988596559 -0.0359627642 0.6175423861 4293785339
-0.2984400988 -0.0352271050 0.6166754365 4293719546
-0.2988903224 -0.0345940441 0.6176057458 4293719546
-0.2989051938 -0.0339095294 0.6176365018 4293719546
-0.2989197969 -0.0332249142 0.6176666021 4293719546
-0.2989341021 -0.0325401984 0.6176961660 4293653753
-0.2985129356 -0.0318090171 0.6168259382 4293653753
-0.2985266149 -0.0311251041 0.6168541908 4293522167
-0.2985399961 -0.0304410998 0.6168818474 4293587960
-0.2981178761 -0.0297136270 0.6160095930 4293522169
-0.2985658646 -0.0290728193 0.6169353127 4293456376
-0.2985783815 -0.0283885486 0.6169611216 4293522169
-0.2981553078 -0.0276638083 0.6160869598 4293522169
-0.2977319062 -0.0269409791 0.6152120829 4293456376
-0.2973081768 -0.0262200646 0.6143364906 4293456376
-0.2968841195 -0.0255010687 0.6134603024 4293455863
-0.2973304093 -0.0248567797 0.6143824458 4293455863
-0.2973410785 -0.0241750237 0.6144044995 4293390070
-0.2973514497 -0.0234931950 0.6144258976 4293324277
-0.2969261408 -0.0227778982 0.6135470867 4293324790
-0.2969359159 -0.0220969301 0.6135672927 4293258997
-0.2969453931 -0.0214158967 0.6135868430 4293193204
-0.2965191305 -0.0207043942 0.6127060652 4293193204
-0.2965280116 -0.0200242326 0.6127243638 4293193204
-0.2969720066 -0.0193724167 0.6136418581 4293193204
-0.2969802916 -0.0186911393 0.6136589646 4293193204
-0.2969882786 -0.0180098042 0.6136754751 4293127411
-0.2969959676 -0.0173284151 0.6136913896 4293127411
-0.2970033586 -0.0166469757 0.6137066483 4293193204
-0.2974459827 -0.0159888938 0.6146212220 4293390583
-0.2974527776 -0.0153063564 0.6146352887 4293522169
-0.2974593043 -0.0146237733 0.6146487594 4293785341
-0.2974655330 -0.0139411464 0.6146616340 4293785341
-0.2974714339 -0.0132584767 0.6146738529 4293785341
-0.2974770665 -0.0125757679 0.6146854758 4293719548
-0.2974824011 -0.0118930219 0.6146965027 4293653755
-0.2979229987 -0.0112266522 0.6156069040 4293653755
-0.2979277372 -0.0105428370 0.6156166792 4293719548
-0.2979321778 -0.0098589901 0.6156258583 4293785341
-0.2979363203 -0.0091751134 0.6156344414 4293719550
-0.2975045741 -0.0084787952 0.6147423387 4293785343
-0.2966369390 -0.0077730366 0.6129494905 4293785343
-0.2966401875 -0.0070920833 0.6129562259 4293719550
-0.2957719266 -0.0063922801 0.6111620665 4293653757
-0.2953389585 -0.0057048723 0.6102674603 4293522171
-0.2944700718 -0.0050120326 0.6084720492 4293456378
-0.2931652963 -0.0043167640 0.6057759523 4293390585
-0.2927314043 -0.0036383108 0.6048793793 4293456376
-0.2927328646 -0.0029662612 0.6048823595 4293390583
-0.2931696177 -0.0022976166 0.6057848334 4293587449
-0.2931704819 -0.0016245510 0.6057866216 4293916414
-0.2962203622 -0.0009613771 0.6120886803 4294179583
-0.2949137688 -0.0002800619 0.6093888879 4294376959
-0.2988339961 0.0010883649 0.6174893379 4294179583
-0.2975265086 0.0017666761 0.6147876382 4293653494
-0.3001392782 0.0024712621 0.6201865077 4293850873
-0.2997024357 0.0031557339 0.6192838550 4294047482
-0.3018789887 0.0038717175 0.6237812638 4293060587
-0.2742404938 -0.2646753192 0.5679745674 4293060074
-0.2719318569 -0.2618214786 0.5631932020 4293454832
-0.2700226009 -0.2593618333 0.5592389703 4293718004
-0.2677104175 -0.2565249205 0.5544502735 4293915383
-0.2653964162 -0.2536968887 0.5496577621 4294243834
-0.2638838589 -0.2516437769 0.5465251207 4294243834
-0.2623700500 -0.2495964319 0.5433899164 4294441212
-0.2608549595 -0.2475548685 0.5402520299 4294507005
-0.2629573047 -0.2489449233 0.5446061492 4294507005
-0.2594299018 -0.2450084984 0.5373006463 4294572798
-0.2591186762 -0.2441183329 0.5366560817 4294638591
-0.2592095733 -0.2436074764 0.5368443131 4294638591
-0.2588976920 -0.2427186072 0.5361983776 4294638591
-0.2589881718 -0.2422074676 0.5363857746 4294572798
-0.2582726777 -0.2409440279 0.5349039435 4294769663
-0.2595718205 -0.2415586859 0.5375945568 4294703871
-0.2604684532 -0.2417937368 0.5394515395 4294769663
-0.2609621882 -0.2416515648 0.5404741168 4294769663
-0.2614560723 -0.2415072620 0.5414969921 4294703871
-0.2623537183 -0.2417327017 0.5433560610 4294703871
-0.2632517815 -0.2419544160 0.5452160835 4294704383
-0.2637463808 -0.2418020964 0.5462403893 4294638591
-0.2642411292 -0.2416476160 0.5472650528 4294638591
-0.2651401758 -0.2418596894 0.5491271019 4294507005
-0.2656353414 -0.2417001128 0.5501525998 4294441212
-0.2661306560 -0.2415383905 0.5511784554 4294375419
-0.2662215233 -0.2410082370 0.5513666272 4294046454
-0.2663122118 -0.2404775470 0.5515545011 4292138457
-0.2664028108 -0.2399463058 0.5517420769 4291415504
-0.2668982446 -0.2397783846 0.5527681708 4293455087
-0.2669886649 -0.2392452657 0.5529554486 4294441212
-0.2674842477 -0.2390738279 0.5539818406 4294507005
-0.2675745487 -0.2385388017 0.5541688204 4294441212
-0.2680702507 -0.2383638471 0.5551954508 4294441212
-0.2681603730 -0.2378269285 0.5553821921 4294309626
-0.2682503760 -0.2372894734 0.5555685759 4294375419
-0.2683402300 -0.2367514819 0.5557546616 4294572285
-0.2684299648 -0.2362129390 0.5559404492 4294243320
-0.2685195208 -0.2356738597 0.5561259985 4292729824
-0.2686089575 -0.2351342440 0.5563111901 4291545550
-0.2686982155 -0.2345940918 0.5564960837 4292992996
-0.2691939771 -0.2344074845 0.5575228333 4294440442
-0.2692831159 -0.2338654399 0.5577074289 4294506235
-0.2697789967 -0.2336753011 0.5587344170 4293387754
-0.2702749670 -0.2334829867 0.5597617030 4292071124
-0.2703639269 -0.2329376787 0.5599458814 4292597468
-0.2704527080 -0.2323918343 0.5601297617 4294045941
-0.2705413699 -0.2318454534 0.5603133440 4294638078
-0.2710374296 -0.2316468805 0.5613407493 4294703871
-0.2711258829 -0.2310985923 0.5615239739 4294440699
-0.2716220617 -0.2308964729 0.5625515580 4294638078
-0.2717103660 -0.2303462923 0.5627344847 4294506492
-0.2717984915 -0.2297955751 0.5629169941 4293453804
-0.2718864977 -0.2292443365 0.5630992651 4293716976
-0.2715659738 -0.2283491641 0.5624353886 4294572285
-0.2720620036 -0.2281402349 0.5634627938 4294769663
-0.2721495330 -0.2275873721 0.5636440516 4294638078
-0.2726456821 -0.2273748815 0.5646715760 4294638078
-0.2727330327 -0.2268201411 0.5648524761 4294703871
-0.2728202045 -0.2262648493 0.5650330782 4294703871
-0.2729072273 -0.2257090360 0.5652133226 4294638078
-0.2729941010 -0.2251526862 0.5653932095 4294572285
-0.2734902501 -0.2249325365 0.5664207339 4294638591
-0.2735769153 -0.2243742943 0.5666002631 4294572799
-0.2736634314 -0.2238155156 0.5667794347 4294638591
-0.2737497985 -0.2232562155 0.5669583082 4294507006
-0.2742459178 -0.2230297625 0.5679858327 4294507006
-0.2743320763 -0.2224685699 0.5681642890 4294243834
-0.2748282850 -0.2222385406 0.5691919327 4293914868
-0.2749142349 -0.2216754407 0.5693699718 4292862180
-0.2754105031 -0.2214418352 0.5703977346 4293323501
-0.2754962444 -0.2208768427 0.5705753565 4294178810
-0.2759925425 -0.2206396461 0.5716032386 4294441213
-0.2760781050 -0.2200727612 0.5717804432 4294572799
-0.2761634886 -0.2195053399 0.5719572902 4294572799
-0.2762487233 -0.2189373970 0.5721337795 4294638591
-0.2763337791 -0.2183689326 0.5723099113 4294507775
-0.2764186561 -0.2177999318 0.5724857450 4294573567
-0.2765033841 -0.2172304243 0.5726611614 4294704121
-0.2769995034 -0.2169827819 0.5736887455 4294769914
-0.2770839930 -0.2164113820 0.5738637447 4294770429
-0.2775801718 -0.2161601484 0.5748913288 4294770429
-0.2780764103 -0.2159067094 0.5759190917 4294704382
-0.2781606615 -0.2153320312 0.5760935545 4294638589
-0.2786569297 -0.2150749862 0.5771213770 4294572798
-0.2791532576 -0.2148157060 0.5781493187 4294572798
-0.2792372406 -0.2142377645 0.5783232450 4294441727
-0.2793210149 -0.2136592865 0.5784967542 4294310141
-0.2798173130 -0.2133950442 0.5795246363 4294113023
-0.2799008787 -0.2128146738 0.5796976686 4293981437
-0.2803972065 -0.2125468105 0.5807256103 4293849853
-0.2804805338 -0.2119645476 0.5808981657 4293784060
-0.2809768617 -0.2116930783 0.5819261670 4293849340
-0.2810599506 -0.2111089230 0.5820981860 4293783547
-0.2811428308 -0.2105242461 0.5822699070 4293653242
-0.2812255621 -0.2099390477 0.5824412107 4293653242
-0.2813080847 -0.2093533427 0.5826121569 4293653242
-0.2813904583 -0.2087671161 0.5827827454 4293653242
-0.2814726233 -0.2081803828 0.5829529166 4293587962
-0.2815546095 -0.2075931281 0.5831227303 4293587962
-0.2816364169 -0.2070053667 0.5832921267 4293587964
-0.2813037336 -0.2061135322 0.5826031566 4293587964
-0.2813850641 -0.2055256069 0.5827715397 4293653757
-0.2814661860 -0.2049371749 0.5829395652 4293653757
-0.2819617689 -0.2046491951 0.5839659572 4293588221
-0.2820426524 -0.2040588856 0.5841335058 4293588221
-0.2821233273 -0.2034680545 0.5843005776 4293588221
-0.2822038233 -0.2028767318 0.5844672918 4293588221
-0.2822841406 -0.2022848874 0.5846336484 4293588222
-0.2823642492 -0.2016925514 0.5847995877 4293588222
-0.2824441791 -0.2010997087 0.5849651098 4293654014
-0.2825239301 -0.2005063593 0.5851302743 4293654014
-0.2826034725 -0.1999125183 0.5852950215 4293719550
-0.2826828361 -0.1993181705 0.5854593515 4293719550
-0.2827620208 -0.1987233162 0.5856233239 4293719550
-0.2828409970 -0.1981279701 0.5857868791 4293653757
-0.2825036943 -0.1972416341 0.5850883722 4293654014
-0.2829983532 -0.1969357729 0.5861127973 4293654014
-0.2830767334 -0.1963389367 0.5862751603 4293588221
-0.2831549346 -0.1957415938 0.5864371061 4293522428
-0.2836494744 -0.1954307407 0.5874613523 4293653757
-0.2837273777 -0.1948315352 0.5876227021 4293587964
-0.2838051021 -0.1942318380 0.5877836943 4293522171
-0.2838826478 -0.1936316490 0.5879442692 4293456378
-0.2839599550 -0.1930309683 0.5881044269 4293325049
-0.2840370834 -0.1924297959 0.5882641673 4293259256
-0.2836968303 -0.1915464550 0.5875594020 4293324792
-0.2837734520 -0.1909451932 0.5877181292 4293258999
-0.2838498652 -0.1903434396 0.5878763795 4293258999
-0.2839260697 -0.1897411942 0.5880342126 4293258999
-0.2840020955 -0.1891384721 0.5881916881 4293258999
-0.2840779126 -0.1885352731 0.5883486867 4293324792
-0.2841535211 -0.1879315823 0.5885053277 4293390585
-0.2842289507 -0.1873274148 0.5886614919 4293456378
-0.2843041718 -0.1867227703 0.5888172388 4293390585
-0.2839609683 -0.1858439296 0.5881064534 4293456378
-0.2840356529 -0.1852392107 0.5882611275 4293587964
-0.2845285535 -0.1849059463 0.5892820358 4293653757
-0.2846029401 -0.1842993796 0.5894360542 4293719550
-0.2846771479 -0.1836923510 0.5895897150 4293785343
-0.2847511172 -0.1830848306 0.5897429585 4293785343
-0.2848248780 -0.1824768484 0.5898957253 4293719550
-0.2848984599 -0.1818684042 0.5900480747 4293522169
-0.2849718034 -0.1812594682 0.5902000070 4293587962
-0.2850449681 -0.1806500703 0.5903515220 4293653755
-0.2851178944 -0.1800402105 0.5905025601 4293719548
-0.2851906419 -0.1794298887 0.5906532407 4293785341
-0.2852631509 -0.1788190901 0.5908033848 4293785341
-0.2849158645 -0.1779457480 0.5900841355 4293785341
-0.2849878371 -0.1773349196 0.5902332067 4293719548
-0.2850596309 -0.1767236292 0.5903818607 4293851134
-0.2851311862 -0.1761118770 0.5905300975 4293719548
-0.2852025628 -0.1754996628 0.5906779170 4293653755
-0.2852737010 -0.1748870015 0.5908252597 4293653755
-0.2853446305 -0.1742738634 0.5909721255 4293522169
-0.2854153514 -0.1736602783 0.5911185741 4293522169
-0.2859062850 -0.1733010858 0.5921353698 4293522169
-0.2859766781 -0.1726856977 0.5922811627 4293587962
-0.2860468626 -0.1720698327 0.5924265385 4293456376
-0.2861168087 -0.1714535356 0.5925713778 4293390583
-0.2861865461 -0.1708367765 0.5927158594 4293390583
-0.2862560749 -0.1702195555 0.5928598046 4293390583
-0.2863253653 -0.1696019024 0.5930033326 4293258997
-0.2863944471 -0.1689838022 0.5931464434 4293193204
-0.2864633203 -0.1683652401 0.5932890773 4293127411
-0.2861106098 -0.1674995571 0.5925585628 4292995825
-0.2857574522 -0.1666352600 0.5918271542 4292995825
-0.2858254611 -0.1660171896 0.5919679999 4292995825
-0.2858932316 -0.1653986871 0.5921083689 4292995825
-0.2859607935 -0.1647797525 0.5922483206 4292995825
-0.2860281467 -0.1641603708 0.5923877954 4292995823
-0.2860952616 -0.1635405421 0.5925267935 4293061616
-0.2861621678 -0.1629202962 0.5926653147 4293062129
-0.2862288356 -0.1622996032 0.5928034186 4293062129
-0.2862952948 -0.1616784781 0.5929410458 4293193204
-0.2863615155 -0.1610569358 0.5930781960 4293258997
-0.2864274979 -0.1604349464 0.5932148695 4293324790
-0.2864933014 -0.1598125398 0.5933511257 4293456376
-0.2865588367 -0.1591896862 0.5934869051 4293587962
-0.2866241634 -0.1585664302 0.5936221480 4293653755
-0.2866892517 -0.1579427272 0.5937569737 4293653755
-0.2867541313 -0.1573186070 0.5938913226 4293653755
-0.2868187726 -0.1566940695 0.5940251946 4293719035
-0.2868831754 -0.1560691148 0.5941586494 4293719035
-0.2869473696 -0.1554437280 0.5942915678 4293719035
-0.2870113254 -0.1548179239 0.5944240093 4293784828
-0.2874984741 -0.1544191241 0.5954329371 4293850621
-0.2875620425 -0.1537915617 0.5955646038 4293916414
-0.2872018218 -0.1529380232 0.5948185325 4293916414
-0.2872648537 -0.1523105502 0.5949490666 4293916414
-0.2877514362 -0.1519064009 0.5959568620 4293916925
-0.2878141105 -0.1512771845 0.5960866213 4293916925
-0.2878765166 -0.1506475508 0.5962159038 4294047484
-0.2883627713 -0.1502384692 0.5972229838 4293981691
-0.2884248495 -0.1496070921 0.5973514915 4293981691
-0.2880624235 -0.1487562358 0.5966008902 4294113277
-0.2881239057 -0.1481249779 0.5967282653 4293850619
-0.2881851494 -0.1474933177 0.5968551040 4293719033
-0.2882461846 -0.1468612701 0.5969815254 4293719033
-0.2883069515 -0.1462288052 0.5971074104 4293653240
-0.2883675098 -0.1455959529 0.5972327590 4293191662
-0.2880030274 -0.1447491944 0.5964779258 4291283665
-0.2884878814 -0.1443290412 0.5974820852 4290691528
-0.2881227732 -0.1434833556 0.5967258811 4293191662
-0.2881822586 -0.1428498477 0.5968491435 4293982205
-0.2882415354 -0.1422159523 0.5969718695 4294047998
-0.2883005738 -0.1415816545 0.5970941186 4293916414
-0.2883593440 -0.1409469843 0.5972158909 4293850621
-0.2884179056 -0.1403119117 0.5973371863 4293916414
-0.2884761989 -0.1396764666 0.5974579453 4293916414
-0.2885342836 -0.1390406191 0.5975781679 4293850621
-0.2885921001 -0.1384043992 0.5976979136 4293850621
-0.2890754342 -0.1379709989 0.5986989141 4293851134
-0.2891328335 -0.1373330802 0.5988178849 4293785341
-0.2891900241 -0.1366947740 0.5989362597 4293851134
-0.2892469466 -0.1360560954 0.5990542173 4293851134
-0.2893036604 -0.1354170442 0.5991716385 4293851132
-0.2897862494 -0.1349761039 0.6001711488 4293851132
-0.2898425460 -0.1343353540 0.6002876759 4293851132
-0.2898985744 -0.1336942315 0.6004037261 4293851132
-0.2899543643 -0.1330527514 0.6005192995 4293851132
-0.2904363871 -0.1326056123 0.6015176177 4293851132
-0.2904917896 -0.1319624335 0.6016322970 4293916925
-0.2901202440 -0.1311260611 0.6008628607 4293916925
-0.2901750505 -0.1304831058 0.6009763479 4293916925
-0.2902296185 -0.1298397779 0.6010893583 4293916925
-0.2907108068 -0.1293860972 0.6020859480 4293916925
-0.2907649279 -0.1287411004 0.6021980643 4293916925
-0.2912458479 -0.1282838434 0.6031940579 4293916925
-0.2912995815 -0.1276371926 0.6033053398 4293916925
-0.2909258306 -0.1268039644 0.6025312543 4293851132
-0.2909789383 -0.1261575520 0.6026412845 4293851132
-0.2910318077 -0.1255107671 0.6027507782 4293851132
-0.2910844386 -0.1248636469 0.6028597951 4293916925
-0.2911368012 -0.1242161691 0.6029682159 4293916925
-0.2911889255 -0.1235683411 0.6030761600 4293916925
-0.2912407815 -0.1229201704 0.6031835675 4293916925
-0.2912923992 -0.1222716570 0.6032904387 4293916925
-0.2913437486 -0.1216227934 0.6033968329 4293916925
-0.2913948298 -0.1209735870 0.6035026312 4293916925
-0.2914456725 -0.1203240454 0.6036079526 4293916925
-0.2914962769 -0.1196741611 0.6037126780 4293916925
-0.2919747233 -0.1191987172 0.6047036052 4293916925
-0.2915966511 -0.1183733791 0.6039206386 4293916925
-0.2920747399 -0.1178953573 0.6049107909 4293982718
-0.2921243608 -0.1172431707 0.6050135493 4293982718
-0.2921737432 -0.1165906563 0.6051157713 4293916925
-0.2922228575 -0.1159378141 0.6052175164 4293982718
-0.2927002609 -0.1154536828 0.6062062383 4294047998
-0.2927488983 -0.1147992313 0.6063070297 4294047998
-0.2927972972 -0.1141444445 0.6064072847 4294047998
-0.2928454578 -0.1134893447 0.6065070033 4294047998
-0.2928933203 -0.1128339171 0.6066061258 4294047998
-0.2933698595 -0.1123424098 0.6075930595 4294113791
-0.2934172750 -0.1116853803 0.6076912880 4294048511
-0.2934644520 -0.1110280380 0.6077889204 4294048511
-0.2935113311 -0.1103703752 0.6078860760 4294113791
-0.2939871550 -0.1098727956 0.6088715196 4294113791
-0.2940335870 -0.1092135459 0.6089677215 4294114045
-0.2940797508 -0.1085539833 0.6090633273 4294114045
-0.2941256762 -0.1078941077 0.6091583967 4294114045
-0.2941713035 -0.1072339267 0.6092529297 4294114045
-0.2946462035 -0.1067290232 0.6102364659 4294179838
-0.2946913838 -0.1060672626 0.6103300452 4294179838
-0.2947362661 -0.1054052040 0.6104230285 4294310654
-0.2943512201 -0.1045901552 0.6096255183 4294244861
-0.2943955064 -0.1039284617 0.6097172499 4294244860
-0.2944395542 -0.1032664627 0.6098085046 4294244860
-0.2949132323 -0.1027539596 0.6107894778 4294244860
-0.2949568033 -0.1020904109 0.6108797193 4294244860
-0.2950000763 -0.1014265642 0.6109694242 4294441212
-0.2950431108 -0.1007624269 0.6110585332 4294572798
-0.2955160141 -0.1002439186 0.6120379567 4294441212
-0.2959887683 -0.0997231826 0.6130170822 4294309626
-0.2960311174 -0.0990562439 0.6131047606 4292731364
-0.2960731983 -0.0983890146 0.6131918430 4290494402
-0.2961149812 -0.0977215096 0.6132784486 4292533985
-0.2965869606 -0.0971947834 0.6142559052 4294244603
-0.2966282666 -0.0965257436 0.6143414974 4294244860
-0.2966693044 -0.0958564207 0.6144264340 4294310653
-0.2967100441 -0.0951868296 0.6145108938 4294244861
-0.2963198423 -0.0943797752 0.6137027144 4294244861
-0.2963599861 -0.0937106013 0.6137858629 4294310654
-0.2963998616 -0.0930411592 0.6138684154 4294310654
-0.2964394689 -0.0923714489 0.6139504313 4294310654
-0.2969097197 -0.0918347538 0.6149243712 4294244861
-0.2969488204 -0.0911635384 0.6150053740 4294310654
-0.2969876528 -0.0904920474 0.6150857806 4294310654
-0.2970261872 -0.0898203030 0.6151656508 4294310654
-0.2970644534 -0.0891482979 0.6152449250 4294310654
-0.2975336611 -0.0886044428 0.6162166595 4294244861
-0.2975714505 -0.0879309401 0.6162948608 4294244861
-0.2976089418 -0.0872571915 0.6163725257 4294114044
-0.2976461351 -0.0865831822 0.6164495945 4294114044
-0.2976830900 -0.0859089196 0.6165261269 4294179837
-0.2977197468 -0.0852344111 0.6166020036 4294114044
-0.2977561057 -0.0845596492 0.6166773438 4294179837
-0.2977921963 -0.0838846415 0.6167520881 4294179837
-0.2982596457 -0.0833299905 0.6177202463 4294180091
-0.2982952297 -0.0826535150 0.6177939177 4294180091
-0.2987622917 -0.0820954368 0.6187612414 4294114555
-0.2996609211 -0.0816528201 0.6206223965 4294114555
-0.2996958196 -0.0809726864 0.6206946373 4294114298
-0.2997304201 -0.0802923217 0.6207663417 4294114298
-0.2997647524 -0.0796117187 0.6208373904 4294114044
-0.3002307713 -0.0790446252 0.6218025684 4294114044
-0.3002645671 -0.0783625767 0.6218725443 4294179837
-0.3007301688 -0.0777920708 0.6228368878 4294179837
-0.3007634580 -0.0771085843 0.6229057908 4294180091
-0.3007964492 -0.0764248744 0.6229740977 4294180091
-0.3008291423 -0.0757409409 0.6230418682 4294245884
-0.3008615673 -0.0750567839 0.6231089830 4294245884
-0.3013260067 -0.0744792596 0.6240708828 4294245630
-0.3009255230 -0.0736878142 0.6232414842 4294245630
-0.3009570837 -0.0730030015 0.6233068109 4294245630
-0.3009883463 -0.0723179728 0.6233716011 4294311423
-0.3014518321 -0.0717356578 0.6243314743 4294311677
-0.3014825583 -0.0710492209 0.6243951321 4294311677
-0.3019455969 -0.0704635307 0.6253541112 4294442493
-0.3019757867 -0.0697756931 0.6254166365 4294442493
-0.3028710485 -0.0692856088 0.6272707582 4294442493
-0.3029007316 -0.0685953945 0.6273322701 4294508286
-0.3029301465 -0.0679049715 0.6273931861 4294508286
-0.3029592633 -0.0672143549 0.6274535060 4294508286
-0.3029880822 -0.0665235370 0.6275132298 4294377470
-0.3030166328 -0.0658325255 0.6275722980 4294377470
-0.3026119471 -0.0650482625 0.6267341971 4294245630
-0.3022069037 -0.0642657802 0.6258952618 4294245630
-0.3022344708 -0.0635761619 0.6259524226 4294245630
-0.3018287122 -0.0627962649 0.6251120567 4294245630
-0.3022887409 -0.0621963739 0.6260647774 4294245630
-0.3018823266 -0.0614180863 0.6252230406 4294179837
-0.3019086719 -0.0607287213 0.6252776980 4294179837
-0.3015015721 -0.0599530376 0.6244344711 4294179837
-0.3015273213 -0.0592643060 0.6244878173 4294310653
-0.3011195064 -0.0584912375 0.6236431599 4294244860
-0.3007113039 -0.0577199794 0.6227977872 4294114044
-0.3007360995 -0.0570327044 0.6228491664 4294114044
-0.3007605970 -0.0563452654 0.6228998899 4294048251
-0.3007847965 -0.0556576587 0.6229500175 4294048251
-0.3003752828 -0.0548906773 0.6221018434 4294048251
-0.3003988564 -0.0542037338 0.6221507192 4294048251
-0.3004221320 -0.0535166301 0.6221989393 4293982459
-0.3004451394 -0.0528293662 0.6222465634 4293982459
-0.3004678488 -0.0521419458 0.6222935915 4293982459
-0.3004902601 -0.0514543690 0.6223399639 4294048252
-0.3009459972 -0.0508398972 0.6232838631 4293982459
-0.3005341887 -0.0500787608 0.6224309802 4294048252
-0.3005557060 -0.0493907332 0.6224755645 4294048252
-0.3005769551 -0.0487025566 0.6225195527 4293982459
-0.3005978763 -0.0480142385 0.6225628853 4294047998
-0.3001847267 -0.0472574830 0.6217072010 4294047998
-0.3002050519 -0.0465698764 0.6217492819 4294047998
-0.2997912169 -0.0458158217 0.6208922267 4293982205
-0.2998109162 -0.0451289341 0.6209329963 4293982205
-0.2998303175 -0.0444419086 0.6209731698 4293982205
-0.2998494208 -0.0437547490 0.6210127473 4293982205
-0.2994342744 -0.0430051349 0.6201529503 4293982205
-0.2994527519 -0.0423187129 0.6201912165 4293916412
-0.2994709611 -0.0416321680 0.6202289462 4293982205
-0.2990548015 -0.0408861525 0.6193670630 4293982205
-0.2990723848 -0.0402003564 0.6194034815 4293982205
-0.2990896702 -0.0395144373 0.6194392443 4293916412
-0.2986725271 -0.0387720466 0.6185753345 4293916412
-0.2986891866 -0.0380868874 0.6186098456 4293850619
-0.2982714176 -0.0373472571 0.6177445650 4293784826
-0.2978532612 -0.0366095044 0.6168785691 4293719546
-0.2974347770 -0.0358736366 0.6160118580 4293719546
-0.2970159650 -0.0351396538 0.6151444912 4293719546
-0.2970310748 -0.0344579332 0.6151757240 4293653753
-0.2974801660 -0.0338254943 0.6161058545 4293587962
-0.2974946797 -0.0331425741 0.6161359549 4293587962
-0.2975089252 -0.0324595571 0.6161653996 4293522169
-0.2975228727 -0.0317764431 0.6161943078 4293522169
-0.2971021533 -0.0310478415 0.6153229475 4293522169
-0.2971154749 -0.0303655360 0.6153505445 4293522169
-0.2971285284 -0.0296831410 0.6153775454 4293456376
-0.2975756824 -0.0290430542 0.6163036823 4293456376
-0.2971537113 -0.0283180829 0.6154297590 4293456376
-0.2967314124 -0.0275950246 0.6145551205 4293456376
-0.2967432439 -0.0269132834 0.6145796180 4293390583
-0.2963202894 -0.0261930563 0.6137036681 4293324790
-0.2958970368 -0.0254747458 0.6128270626 4293324792
-0.2963424623 -0.0248311758 0.6137495637 4293324792
-0.2963531017 -0.0241501220 0.6137716174 4293324790
-0.2959288955 -0.0234345850 0.6128930449 4293258997
-0.2959389389 -0.0227543898 0.6129138470 4293193204
-0.2959486842 -0.0220741257 0.6129339933 4293193204
-0.2959581316 -0.0213937946 0.6129536033 4293127413
-0.2959672809 -0.0207134001 0.6129725575 4293127413
-0.2959761322 -0.0200329423 0.6129908562 4293193206
-0.2964193225 -0.0193808433 0.6139087677 4293193206
-0.2964276075 -0.0186992679 0.6139258742 4293258997
-0.2964355946 -0.0180176385 0.6139424443 4293324790
-0.2964432836 -0.0173359532 0.6139583588 4293456376
-0.2964506447 -0.0166542176 0.6139736772 4293522169
-0.2968924344 -0.0159958508 0.6148886085 4293719550
-0.2973339558 -0.0153354360 0.6158030033 4293851135
-0.2973404527 -0.0146515565 0.6158165336 4293982207
-0.2973466814 -0.0139676323 0.6158294082 4293916414
-0.2973526120 -0.0132836662 0.6158416867 4293850621
-0.2973582447 -0.0125996610 0.6158533096 4293784828
-0.2973635793 -0.0119156176 0.6158643961 4293719035
-0.2973686159 -0.0112315379 0.6158747673 4293784828
-0.2973733544 -0.0105474256 0.6158846021 4293784828
-0.2969430089 -0.0098488610 0.6149933934 4293850621
-0.2969471514 -0.0091656866 0.6150019169 4293850623
-0.2965162098 -0.0084700659 0.6141094565 4293850623
-0.2960849702 -0.0077764196 0.6132162809 4293784830
-0.2956534326 -0.0070847515 0.6123225093 4293653244
-0.2952215672 -0.0063950624 0.6114280820 4293521658
-0.2943546176 -0.0056989375 0.6096325517 4293455865
-0.2930525541 -0.0049993792 0.6069359183 4293390072
-0.2917501926 -0.0043058088 0.6042386293 4293390072
-0.2917519212 -0.0036344782 0.6042422056 4293522171
-0.2917533517 -0.0029631364 0.6042451262 4293653757
-0.2926241159 -0.0022986168 0.6060485244 4293916412
-0.2926249504 -0.0016252581 0.6060503125 4294179583
-0.2934951484 -0.0009547235 0.6078525186 4294311423
-0.2956694365 -0.0002814254 0.6123557091 4294311423
-0.2974086404 0.0004012923 0.6159577370 4294113791
-0.2987127602 0.0010904259 0.6186586618 4293850619
-0.2995817363 0.0017829717 0.6204583645 4294113277
-0.3017548323 0.0024902793 0.6249590516 4294508031
-0.3030580282 0.0031984069 0.6276580095 4294705151
-0.2715034187 -0.2613854408 0.5636022687 4292929001
-0.2679947019 -0.2573893964 0.5563187599 4293257966
-0.2696928382 -0.2583982944 0.5598438382 4293849076
-0.2657797337 -0.2540360689 0.5517207384 4294112248
-0.2638687491 -0.2516009212 0.5477538109 4294374907
-0.2691770494 -0.2560416162 0.5587731004 4294506493
-0.2612460256 -0.2478950620 0.5423094630 4294572798
-0.2605351806 -0.2466196269 0.5408337712 4294572798
-0.2594220340 -0.2449675947 0.5385230780 4294572798
-0.2587096393 -0.2436981946 0.5370442271 4294572798
-0.2583984137 -0.2428090572 0.5363981724 4294638591
-0.2576847672 -0.2415441573 0.5349168181 4294572798
-0.2585790455 -0.2417860031 0.5367731452 4294703871
-0.2582668662 -0.2408984452 0.5361251235 4294769663
-0.2591615617 -0.2411352396 0.5379824042 4294703871
-0.2588490248 -0.2402473986 0.5373336077 4294638078
-0.2601468563 -0.2408519685 0.5400277376 4294703871
-0.2610425651 -0.2410791665 0.5418871045 4294703871
-0.2615357041 -0.2409313917 0.5429108143 4294703871
-0.2624321282 -0.2411519140 0.5447716117 4294769663
-0.2629257143 -0.2409990430 0.5457962155 4294835967
-0.2642262280 -0.2415816933 0.5484959483 4294704383
-0.2639133036 -0.2406868786 0.5478463173 4294638591
-0.2652146518 -0.2412620038 0.5505477786 4294507005
-0.2653052807 -0.2407325208 0.5507358313 4294112247
-0.2653957307 -0.2402025014 0.5509236455 4292335836
-0.2654860616 -0.2396719307 0.5511111617 4291480527
-0.2659804821 -0.2395048141 0.5521374941 4293520110
-0.2660706937 -0.2389723659 0.5523247123 4294375419
-0.2665652335 -0.2388017327 0.5533513427 4294441212
-0.2670599222 -0.2386289388 0.5543782115 4294572798
-0.2671499550 -0.2380932271 0.5545651317 4294309626
-0.2672398686 -0.2375569791 0.5547517538 4294441212
-0.2669245601 -0.2366610765 0.5540972948 4294507005
-0.2674192488 -0.2364828736 0.5551241636 4294243320
-0.2675087154 -0.2359450012 0.5553098917 4294374906
-0.2675980330 -0.2354065925 0.5554953218 4293980148
-0.2680928111 -0.2352235168 0.5565223694 4291874772
-0.2681819797 -0.2346832156 0.5567075014 4291742929
-0.2686768472 -0.2344965935 0.5577347875 4293321961
-0.2687658668 -0.2339543998 0.5579195619 4294703614
-0.2692608535 -0.2337642461 0.5589470863 4294637821
-0.2693497241 -0.2332201451 0.5591315627 4293189605
-0.2694384158 -0.2326755226 0.5593156815 4291939538
-0.2695269883 -0.2321303487 0.5594995022 4292664288
-0.2700220346 -0.2319339365 0.5605272055 4294111734
-0.2701104283 -0.2313868701 0.5607106686 4294572798
-0.2697917521 -0.2304916084 0.5600491166 4294375419
-0.2706938088 -0.2306379378 0.5619217157 4294441212
-0.2707818747 -0.2300884426 0.5621045232 4294046454
-0.2708697915 -0.2295383960 0.5622870326 4292993253
-0.2709575593 -0.2289878279 0.5624691844 4293848562
-0.2710451484 -0.2284367085 0.5626510382 4294638078
-0.2715403140 -0.2282277495 0.5636789203 4294769663
-0.2712199092 -0.2273328900 0.5630137920 4294507005
-0.2717150152 -0.2271212041 0.5640415549 4294507005
-0.2718021274 -0.2265671343 0.5642223954 4294704383
-0.2718890905 -0.2260125130 0.5644029379 4294638591
-0.2719759047 -0.2254573852 0.5645831227 4294638078
-0.2720625401 -0.2249017060 0.5647629499 4294638078
-0.2721490264 -0.2243455052 0.5649424791 4294638591
-0.2726441026 -0.2241247892 0.5659701824 4294507006
-0.2723214924 -0.2232315093 0.5653005242 4294638079
-0.2724075019 -0.2226737291 0.5654790401 4294703871
-0.2729024887 -0.2224489152 0.5665065646 4294769663
-0.2733975649 -0.2222218961 0.5675343275 4294572286
-0.2734833360 -0.2216608524 0.5677123666 4294046455
-0.2739785016 -0.2214302570 0.5687401891 4292862181
-0.2740640640 -0.2208673060 0.5689178705 4293520111
-0.2745592594 -0.2206331342 0.5699458122 4294243834
-0.2746446431 -0.2200682908 0.5701230168 4294243580
-0.2751398981 -0.2198305428 0.5711510777 4294309373
-0.2752250433 -0.2192637920 0.5713278651 4294375166
-0.2753100395 -0.2186965346 0.5715043545 4294506751
-0.2749844491 -0.2178036571 0.5708284378 4294310141
-0.2750689983 -0.2172361910 0.5710039139 4294441727
-0.2755640447 -0.2169915885 0.5720315576 4294769914
-0.2756483555 -0.2164222151 0.5722066164 4294835707
-0.2761434317 -0.2161740214 0.5732343197 4294770429
-0.2762275338 -0.2156027704 0.5734089017 4294704636
-0.2767226696 -0.2153509706 0.5744367242 4294704382
-0.2768065333 -0.2147778273 0.5746108294 4294704382
-0.2773016989 -0.2145224363 0.5756387115 4294572798
-0.2777968943 -0.2142648250 0.5766667128 4294507005
-0.2782921791 -0.2140049785 0.5776948333 4294441213
-0.2783757448 -0.2134271860 0.5778682828 4294441213
-0.2784591317 -0.2128488719 0.5780413747 4294310399
-0.2789543867 -0.2125840485 0.5790694952 4294244607
-0.2790375650 -0.2120038420 0.5792421103 4293981439
-0.2791205347 -0.2114231139 0.5794143677 4293718267
-0.2796157300 -0.2111532986 0.5804423690 4293586681
-0.2796984911 -0.2105706781 0.5806140900 4293389302
-0.2797810435 -0.2099875510 0.5807855129 4293258484
-0.2798634470 -0.2094038874 0.5809565187 4293192691
-0.2799456418 -0.2088197321 0.5811271667 4293192689
