VERSION 0.7
FIELDS x y z rgba
SIZE 4 4 4 4
TYPE F F F U
COUNT 1 1 1 1
WIDTH 921
HEIGHT 1
VIEWPOINT 0.0 0.0 0.0 1.0 0.0 0.0 0.0
POINTS 921
DATA ascii
-0.2454882711 -0.0772892237 0.5253445506 4292072878
-0.2455205023 -0.0767156035 0.5254135728 4292007837
-0.2455525249 -0.0761417598 0.5254820585 4291942044
-0.2455843091 -0.0755676925 0.5255500674 4291877005
-0.2456158549 -0.0749934018 0.5256175995 4291811212
-0.2460670769 -0.0745460987 0.5265831947 4291811463
-0.2460982203 -0.0739703923 0.5266498327 4291877256
-0.2461291254 -0.0733944550 0.5267159939 4291613571
-0.2465798557 -0.0729425773 0.5276805162 4291613571
-0.2466103435 -0.0723652318 0.5277457833 4291745411
-0.2466405928 -0.0717876703 0.5278105140 4291416446
-0.2466706038 -0.0712099001 0.5278747678 4291218297
-0.2471206635 -0.0707522482 0.5288378596 4291547262
-0.2471502572 -0.0701730773 0.5289012194 4292073354
-0.2471796125 -0.0695936978 0.5289640427 4292468112
-0.2472087443 -0.0690141097 0.5290263891 4292008064
-0.2468171567 -0.0683179349 0.5281883478 4291613306
-0.2468457520 -0.0677389279 0.5282495618 4291350134
-0.2472946942 -0.0672741309 0.5292102695 4291481720
-0.2477434874 -0.0668071583 0.5301706791 4291021169
-0.2477714568 -0.0662255809 0.5302305818 4290757997
-0.2477992028 -0.0656438097 0.5302899480 4291415927
-0.2478267103 -0.0650618374 0.5303488374 4291547513
-0.2478539795 -0.0644796789 0.5304071903 4291942012
-0.2478810102 -0.0638973266 0.5304650068 4291744633
-0.2483287007 -0.0634222776 0.5314230919 4291942010
-0.2483552843 -0.0628385618 0.5314799547 4292073596
-0.2483816445 -0.0622546524 0.5315364003 4292073594
-0.2484077662 -0.0616705604 0.5315922499 4292073594
-0.2484336346 -0.0610862859 0.5316476226 4291876470
-0.2488803864 -0.0606043711 0.5326036811 4291679091
-0.2489058077 -0.0600187443 0.5326581001 4291547505
-0.2489310056 -0.0594329387 0.5327119827 4292205435
-0.2489559501 -0.0588469543 0.5327653885 4292468102
-0.2489806563 -0.0582607947 0.5328182578 4292731274
-0.2490051240 -0.0576744638 0.5328706503 4293059739
-0.2490293533 -0.0570879579 0.5329224467 4293322911
-0.2490533292 -0.0565012842 0.5329737663 4293519789
-0.2494985163 -0.0560090505 0.5339264870 4293256617
-0.2495220453 -0.0554210469 0.5339768529 4293125039
-0.2499668598 -0.0549254976 0.5349287391 4292532902
-0.2499899417 -0.0543361716 0.5349781513 4291414170
-0.2500127852 -0.0537466817 0.5350270271 4289900931
-0.2500353754 -0.0531570315 0.5350753665 4288782966
-0.2504794002 -0.0526558682 0.5360255837 4288454001
-0.2505015433 -0.0520649105 0.5360729694 4287993450
-0.2509452105 -0.0515604466 0.5370223522 4287532899
-0.2505450845 -0.0508825220 0.5361661315 4287401826
-0.2505664825 -0.0502910987 0.5362119079 4288257135
-0.2501657903 -0.0496158525 0.5353544354 4288782970
-0.2506085634 -0.0491078012 0.5363019705 4290033037
-0.2506292164 -0.0485159308 0.5363461375 4291348377
-0.2514935732 -0.0480852723 0.5381958485 4291743135
-0.2506697774 -0.0473317541 0.5364329815 4292598693
-0.2515337765 -0.0468968228 0.5382819176 4292993451
-0.2515535057 -0.0463023856 0.5383241773 4293125291
-0.2503066957 -0.0454777367 0.5356559753 4293585842
-0.2507479787 -0.0449617095 0.5366002917 4293519795
-0.2516112328 -0.0445182472 0.5384476781 4293256623
-0.2516299784 -0.0439232662 0.5384877920 4292993192
-0.2524929345 -0.0434735455 0.5403345227 4292598434
-0.2529334724 -0.0429480039 0.5412772894 4292663714
-0.2533738613 -0.0424203351 0.5422196984 4293058472
-0.2529693842 -0.0417511351 0.5413541794 4292599725
-0.2534093261 -0.0412212126 0.5422956347 4292139174
-0.2534266710 -0.0406214669 0.5423327684 4292467376
-0.2534437776 -0.0400215983 0.5423693657 4292862134
-0.2543055117 -0.0395530127 0.5442134142 4293782219
-0.2543221712 -0.0389509052 0.5442490578 4294374356
-0.2539160848 -0.0382849760 0.5433800817 4294637795
-0.2543547153 -0.0377463363 0.5443187356 4294440416
-0.2543706000 -0.0371438786 0.5443527699 4294441194
-0.2548088133 -0.0366020128 0.5452905297 4294046436
-0.2548242509 -0.0359983332 0.5453234911 4293389277
-0.2548393905 -0.0353945419 0.5453559756 4293060312
-0.2552769482 -0.0348483436 0.5462923050 4292666068
-0.2561369538 -0.0343567319 0.5481327176 4292139724
-0.2561514080 -0.0337496214 0.5481636524 4291613635
-0.2561656237 -0.0331424102 0.5481941104 4291482049
-0.2561795712 -0.0325351022 0.5482239127 4291611590
-0.2561932802 -0.0319276936 0.5482532382 4292861657
-0.2562067211 -0.0313201882 0.5482820272 4293519849
-0.2566426992 -0.0307632666 0.5492150187 4293256677
-0.2570784688 -0.0302042495 0.5501475930 4292927720
-0.2575140297 -0.0296431333 0.5510796905 4292993513
-0.2575265169 -0.0290322509 0.5511063933 4292731113
-0.2575387359 -0.0284212809 0.5511325002 4292467941
-0.2579735816 -0.0278558899 0.5520631075 4292665320
-0.2579852939 -0.0272437446 0.5520882010 4292731113
-0.2584196925 -0.0266751759 0.5530177951 4292731622
-0.2592768371 -0.0261471737 0.5548520684 4292797415
-0.2597108185 -0.0255734269 0.5557807684 4292731621
-0.2597215772 -0.0249569472 0.5558037758 4292797414
-0.2601550817 -0.0243800338 0.5567314625 4292863459
-0.2601653039 -0.0237624012 0.5567533970 4292731873
-0.2601752877 -0.0231446959 0.5567747951 4292863210
-0.2610311508 -0.0226001795 0.5586062670 4292863210
-0.2610406280 -0.0219803266 0.5586265922 4292928490
-0.2614729404 -0.0213950258 0.5595517159 4292928490
-0.2614819109 -0.0207740385 0.5595709682 4292928492
-0.2614906430 -0.0201529860 0.5595895648 4292928492
-0.2614990771 -0.0195318721 0.5596076846 4292928492
-0.2619304061 -0.0189413000 0.5605307221 4292994285
-0.2627846599 -0.0183782540 0.5623588562 4292994031
-0.2632155418 -0.0177825429 0.5632808805 4292994031
-0.2636461556 -0.0171847660 0.5642024279 4293060078
-0.2636533380 -0.0165583473 0.5642178059 4292994285
-0.2636602819 -0.0159318782 0.5642325878 4292994285
-0.2640901506 -0.0153299300 0.5651525259 4292928492
-0.2649430037 -0.0147494841 0.5669776797 4292994285
-0.2649491429 -0.0141198589 0.5669907928 4292994285
-0.2649550438 -0.0134901907 0.5670033693 4292797935
-0.2653838992 -0.0128810257 0.5679211617 4292797935
-0.2662357986 -0.0122893471 0.5697442293 4292797935
-0.2653943300 -0.0116194803 0.5679435134 4292797935
-0.2666690052 -0.0110412315 0.5706713200 4292797935
-0.2670968771 -0.0104238726 0.5715869069 4292797935
-0.2666778862 -0.0097734425 0.5706902742 4292797935
-0.2671052217 -0.0091540106 0.5716047883 4292797935
-0.2675322890 -0.0085325371 0.5725187063 4292928751
-0.2683824003 -0.0079215206 0.5743380189 4292928751
-0.2679623365 -0.0072719897 0.5734390020 4292928751
-0.2683886290 -0.0066454131 0.5743512511 4292928751
-0.2683913112 -0.0060073282 0.5743570328 4292928751
-0.2688170671 -0.0053776936 0.5752681494 4292928751
-0.2696658969 -0.0047534918 0.5770846605 4292928751
-0.2696678042 -0.0041123386 0.5770887136 4292928751
-0.2696694136 -0.0034711724 0.5770921707 4292994031
-0.2700940967 -0.0028344386 0.5780009627 4292994031
-0.2700951695 -0.0021922467 0.5780032873 4292994031
-0.2705193162 -0.0015524779 0.5789109468 4292994031
-0.2709431946 -0.0009106912 0.5798180699 4292994031
-0.2713667750 -0.0002668884 0.5807245374 4292994031
-0.2717901170 0.0003789283 0.5816304684 4292928751
-0.2717898190 0.0010251602 0.5816298127 4292928751
-0.2722125947 0.0016739925 0.5825345516 4292994544
-0.2730584145 0.0023284426 0.5843446255 4292994544
-0.2730573118 0.0029776790 0.5843422413 4292994544
-0.2734792233 0.0036325296 0.5852451921 4292994544
-0.2734775543 0.0042827525 0.5852415562 4292994544
-0.2738989294 0.0049405983 0.5861433148 4292994544
-0.2747433484 0.0056090849 0.5879503489 4293060337
-0.2751641572 0.0062719313 0.5888508558 4293060337
-0.2751613259 0.0069261161 0.5888448358 4292665066
-0.2755815685 0.0075919419 0.5897441506 4292730859
-0.2781180739 0.0083230985 0.5951722860 4292928492
-0.2764211595 0.0089295600 0.5915408731 4291875804
-0.2772638202 0.0096160294 0.5933441520 4292533730
-0.2673554122 -0.2232846916 0.5735033154 4287533977
-0.2674398124 -0.2227177769 0.5736843348 4287270803
-0.2675240338 -0.2221503258 0.5738650560 4287205010
-0.2672093213 -0.2212521136 0.5731899142 4286678153
-0.2668941617 -0.2203550637 0.5725138783 4285888637
-0.2665785849 -0.2194591761 0.5718369484 4285362293
-0.2658634186 -0.2182367593 0.5703028440 4284046433
-0.2663455606 -0.2179977298 0.5713370442 4283322710
-0.2660288811 -0.2171044946 0.5706577897 4283717468
-0.2657117844 -0.2162124366 0.5699775815 4285625720
-0.2657939792 -0.2156458199 0.5701538920 4286809994
-0.2654761672 -0.2147552669 0.5694721937 4287336083
-0.2655579150 -0.2141884714 0.5696474910 4286941325
-0.2656394839 -0.2136211544 0.5698224902 4286743946
-0.2649205327 -0.2124115825 0.5682802200 4287533462
-0.2646012008 -0.2115249187 0.5675953031 4288454564
-0.2642814815 -0.2106394470 0.5669094324 4288980908
-0.2639613450 -0.2097551674 0.5662227273 4289309875
-0.2636407912 -0.2088721097 0.5655351281 4289244082
-0.2637206316 -0.2083068043 0.5657063723 4289244082
-0.2625975609 -0.2067938596 0.5632972717 4289309875
-0.2622756660 -0.2059152722 0.5626067519 4289375927
-0.2615522146 -0.2047238946 0.5610548854 4289441720
-0.2612293661 -0.2038486004 0.5603623390 4289507513
-0.2605047226 -0.2026622593 0.5588079095 4289507513
-0.2597794235 -0.2014788687 0.5572521091 4289638842
-0.2582502365 -0.1996773481 0.5539718270 4289638842
-0.2595321536 -0.2000499815 0.5567216873 4289770426
-0.2592071593 -0.1991816759 0.5560245514 4289836219
-0.2588817477 -0.1983146220 0.5553265214 4289902012
-0.2581538260 -0.1971417367 0.5537650585 4289967805
-0.2578274906 -0.1962780207 0.5530650020 4289967807
-0.2570984066 -0.1951102316 0.5515010357 4289902014
-0.2567711473 -0.1942498833 0.5507990122 4289902012
-0.2560408711 -0.1930872053 0.5492325425 4289902012
-0.2557126880 -0.1922302395 0.5485285521 4289967805
-0.2549812496 -0.1910727024 0.5469595790 4289967805
-0.2542492151 -0.1899181604 0.5453892350 4290033598
-0.2535165250 -0.1887666285 0.5438175797 4290099391
-0.2531863451 -0.1879173666 0.5431092978 4290099391
-0.2528557777 -0.1870693713 0.5424002409 4290099391
-0.2517180443 -0.1856276840 0.5399596095 4290165186
-0.2521934509 -0.1853772104 0.5409794450 4290230979
-0.2514580488 -0.1842373461 0.5394019485 4290230979
-0.2515294850 -0.1836902052 0.5395551920 4290230979
-0.2507930696 -0.1825546622 0.5379754901 4290165186
-0.2500559986 -0.1814221889 0.5363944173 4290165186
-0.2497224063 -0.1805849671 0.5356788039 4290165186
-0.2497925907 -0.1800403744 0.5358293653 4290165186
-0.2490539998 -0.1789144427 0.5342450142 4290165186
-0.2483147681 -0.1777915806 0.5326592922 4290165186
-0.2479794621 -0.1769604683 0.5319400430 4290165186
-0.2472390980 -0.1758428812 0.5303518772 4290165186
-0.2477123886 -0.1755891144 0.5313671231 4290230979
-0.2465662509 -0.1741890311 0.5289085507 4290230979
-0.2458242476 -0.1730789542 0.5273169279 4290230979
-0.2454867363 -0.1722562313 0.5265928507 4290296772
-0.2451488078 -0.1714348346 0.5258679986 4290231490
-0.2444051802 -0.1703322977 0.5242728591 4290165697
-0.2440663576 -0.1695144773 0.5235460401 4290231490
-0.2433216125 -0.1684172899 0.5219484568 4290297283
-0.2437931746 -0.1681626439 0.5229600668 4290297283
-0.2430475354 -0.1670690477 0.5213605762 4290297283
-0.2427071333 -0.1662566066 0.5206303596 4290297283
-0.2423663437 -0.1654455066 0.5198993683 4290231490
-0.2424312532 -0.1649120152 0.5200385451 4290363076
-0.2416835874 -0.1638274044 0.5184347630 4290297283
-0.2413416207 -0.1630204022 0.5177012086 4290296770
-0.2414056808 -0.1624883115 0.5178386569 4290230977
-0.2414695621 -0.1619558036 0.5179756284 4290296770
-0.2411266267 -0.1611511111 0.5172400475 4290296770
-0.2407833189 -0.1603477895 0.5165036321 4290165184
-0.2408464551 -0.1598158181 0.5166390538 4290033598
-0.2405024618 -0.1590143591 0.5159011483 4289967805
-0.2405651361 -0.1584824324 0.5160356164 4289573047
-0.2402204871 -0.1576828510 0.5152962804 4289441461
-0.2398754358 -0.1568846554 0.5145561099 4289309875
-0.2399373651 -0.1563532948 0.5146889687 4288849324
-0.2399991155 -0.1558215320 0.5148214102 4288520359
-0.2400606871 -0.1552893519 0.5149534941 4288716968
-0.2401220798 -0.1547567695 0.5150851607 4288782761
-0.2405910641 -0.1544856131 0.5160912275 4288782504
-0.2406522036 -0.1539513171 0.5162223577 4288848297
-0.2407131493 -0.1534166038 0.5163530707 4288913577
-0.2407739311 -0.1528814882 0.5164834857 4288847784
-0.2412427068 -0.1526041776 0.5174890757 4288847784
-0.2413032204 -0.1520673484 0.5176188350 4288913577
-0.2417719513 -0.1517865062 0.5186243057 4288912809
-0.2418321967 -0.1512479484 0.5187535286 4288649637
-0.2418922633 -0.1507090032 0.5188823938 4288387746
-0.2423608303 -0.1504233181 0.5198875070 4288256160
-0.2399678081 -0.1483661383 0.5147542357 4288256160
-0.2416624278 -0.1488379091 0.5183894038 4288190367
-0.2404946387 -0.1475454867 0.5158843398 4287927706
-0.2425988913 -0.1482582688 0.5203981996 4287796120
-0.2422487289 -0.1474669129 0.5196470618 4287664534
-0.2414888889 -0.1464288086 0.5180171132 4287598741
-0.2423660606 -0.1463830471 0.5198987126 4287664533
-0.2424244434 -0.1458405256 0.5200240016 4287467154
-0.2424826324 -0.1452976018 0.5201488137 4287335566
-0.2421309352 -0.1445097774 0.5193943977 4287072394
-0.2421886623 -0.1439670026 0.5195181966 4286743683
-0.2422461808 -0.1434238404 0.5196415782 4286809476
-0.2414835393 -0.1423967779 0.5180056691 4286678404
-0.2419505864 -0.1420955211 0.5190075040 4286481025
-0.2415972501 -0.1413122118 0.5182495713 4286152062
-0.2412435412 -0.1405303478 0.5174908638 4285888890
-0.2404790819 -0.1395118833 0.5158510208 4285493616
-0.2401245087 -0.1387338787 0.5150904059 4284440928
-0.2401801348 -0.1381935775 0.5152097344 4283782734
-0.2377716005 -0.1362410784 0.5100431442 4283585355
-0.2370047569 -0.1352368146 0.5083982348 4282861873
-0.2370590419 -0.1347027868 0.5085146427 4282532908
-0.2367021888 -0.1339358836 0.5077491999 4283190825
-0.2367560118 -0.1334020495 0.5078646541 4283453997
-0.2359873801 -0.1324065179 0.5062158108 4283387944
-0.2360406220 -0.1318738312 0.5063300729 4282532635
-0.2332144827 -0.1297390461 0.5002676845 4283847725
-0.2332666963 -0.1292121410 0.5003797412 4286216273
-0.2329072356 -0.1284579188 0.4996086359 4287860585
-0.2325473875 -0.1277052164 0.4988367260 4287663206
-0.2321871817 -0.1269540191 0.4980640411 4286874718
-0.2318265885 -0.1262043267 0.4972905517 4286216788
-0.2318774909 -0.1256794035 0.4973997474 4285360964
-0.2319282144 -0.1251541227 0.4975085557 4284834620
-0.2319787443 -0.1246284992 0.4976169169 4285887055
-0.2324412018 -0.1243229583 0.4986089468 4287071329
-0.2320792079 -0.1235762239 0.4978324473 4286874468
-0.2317168564 -0.1228310093 0.4970551729 4286940261
-0.2317665368 -0.1223049611 0.4971617162 4286940515
-0.2314035296 -0.1215618849 0.4963830411 4287335273
-0.2310401499 -0.1208203435 0.4956035614 4289111935
-0.2306764126 -0.1200803444 0.4948233068 4289901451
-0.2303123027 -0.1193418875 0.4940422475 4289572233
-0.2303606570 -0.1188179180 0.4941459894 4288124787
-0.2299959064 -0.1180816218 0.4933635592 4286150494
-0.2304567993 -0.1177689806 0.4943522215 4283650360
-0.2305045873 -0.1172440276 0.4944547117 4282137134
-0.2305521667 -0.1167187393 0.4945568144 4283124029
-0.2310128212 -0.1164013669 0.4955449402 4283453763
-0.2314734608 -0.1160817817 0.4965330362 4283519556
-0.2319340557 -0.1157599837 0.4975210726 4284045896
-0.2323946208 -0.1154359803 0.4985090494 4284374861
-0.2324415743 -0.1149053127 0.4986097515 4284177736
-0.2316609621 -0.1139672920 0.4969352484 4283782978
-0.2329486310 -0.1140455753 0.4996974468 4283453761
-0.2334089130 -0.1137146205 0.5006847978 4284309070
-0.2338691652 -0.1133814529 0.5016720891 4284901469
-0.2335013449 -0.1126466170 0.5008831024 4283585609
-0.2327190936 -0.1117145792 0.4992050529 4282072370
-0.2344213277 -0.1119730175 0.5028565526 4281743405
-0.2340527624 -0.1112391353 0.5020658970 4282203441
-0.2332694829 -0.1103109047 0.5003857017 4282335027
-0.2345577627 -0.1103610769 0.5031491518 4282203443
-0.2337738425 -0.1094350740 0.5014675856 4282400822
-0.2358914167 -0.1098641455 0.5060099959 4282203441
-0.2367656082 -0.1097069979 0.5078852177 4282203441
-0.2355662733 -0.1085898429 0.5053125620 4282532406
-0.2364403009 -0.1084292233 0.5071874261 4283058750
-0.2364846766 -0.1078859419 0.5072826147 4283519301
-0.2369437963 -0.1075306758 0.5082674623 4283387715
-0.2374028563 -0.1071731895 0.5092521906 4283585094
-0.2374467552 -0.1066270918 0.5093463659 4284637782
-0.2362448573 -0.1055243164 0.5067681670 4285163611
-0.2375339270 -0.1055339798 0.5095333457 4285229404
-0.2375771850 -0.1049869731 0.5096261501 4285689955
-0.2388665080 -0.1049874276 0.5123918653 4287466366
-0.2380785942 -0.1040736958 0.5107017159 4288255880
-0.2389524579 -0.1038861796 0.5125762224 4286150504
-0.2394107580 -0.1035148278 0.5135593414 4284703058
-0.2394532710 -0.1029625088 0.5136505365 4283979335
-0.2399113625 -0.1025876924 0.5146331787 4284242509
-0.2399535328 -0.1020338237 0.5147235990 4283716165
-0.2404114157 -0.1016555429 0.5157058239 4283650889
-0.2408692241 -0.1012750491 0.5166878700 4284571991
-0.2400787324 -0.1003704891 0.5149921775 4284308819
-0.2409523427 -0.1001614481 0.5168662071 4283979854
-0.2401611358 -0.0992601588 0.5151689649 4284111440
-0.2397857159 -0.0985334963 0.5143636465 4283585096
-0.2398263067 -0.0979785845 0.5144507289 4283585609
-0.2398666739 -0.0974233970 0.5145373344 4283848781
-0.2399068326 -0.0968679190 0.5146234632 4282598712
-0.2399467826 -0.0963121727 0.5147091746 4282203954
-0.2399865091 -0.0957561433 0.5147943497 4282598711
-0.2404427230 -0.0953651145 0.5157729983 4283848778
-0.2404820919 -0.0948075727 0.5158574581 4285427302
-0.2409380823 -0.0944131017 0.5168355703 4284900958
-0.2409770638 -0.0938540474 0.5169191957 4283979854
-0.2414328158 -0.0934561267 0.5178968310 4283256131
-0.2414714396 -0.0928955674 0.5179796815 4283519556
-0.2419269532 -0.0924942046 0.5189568400 4284506451
-0.2419651896 -0.0919321403 0.5190388560 4286282858
-0.2420032173 -0.0913698003 0.5191203952 4288256648
-0.2420410216 -0.0908072069 0.5192015171 4290164649
-0.2420786023 -0.0902443454 0.5192821026 4290625200
-0.2421159595 -0.0896812230 0.5193622708 4290559667
-0.2421530932 -0.0891178399 0.5194419026 4290822839
-0.2421900034 -0.0885542035 0.5195210576 4292007111
-0.2422266901 -0.0879903063 0.5195997953 4292533455
-0.2422631532 -0.0874261484 0.5196779966 4292598988
-0.2427171618 -0.0870115012 0.5206518769 4292993746
-0.2427532375 -0.0864458680 0.5207293034 4292665803
-0.2427890897 -0.0858799890 0.5208061934 4291942080
-0.2428247184 -0.0853138492 0.5208826065 4291349945
-0.2424421310 -0.0846016034 0.5200619102 4291086773
-0.2424772382 -0.0840359479 0.5201372504 4291152312
-0.2420940101 -0.0833261311 0.5193151832 4291349691
-0.2425467968 -0.0829039067 0.5202864408 4291349180
-0.2429994941 -0.0824794844 0.5212575197 4291283387
-0.2430337667 -0.0819118768 0.5213310122 4289835941
-0.2434861660 -0.0814840421 0.5223014951 4287927944
-0.2435200512 -0.0809149817 0.5223741531 4286480748
-0.2435536981 -0.0803456903 0.5224463344 4286085990
-0.2440056503 -0.0799132362 0.5234158039 4286415713
-0.2440388948 -0.0793424919 0.5234871507 4288060538
-0.2440719157 -0.0787715167 0.5235579610 4290363542
-0.2441047132 -0.0782003105 0.5236282945 4291416230
-0.2445560247 -0.0777620301 0.5245964527 4292336570
-0.2445884198 -0.0771893859 0.5246658921 4292731328
-0.2446205616 -0.0766165107 0.5247348547 4292732080
-0.2446524948 -0.0760434195 0.5248033404 4292666287
-0.2446841747 -0.0754700974 0.5248713493 4292206486
-0.2447156459 -0.0748965591 0.5249388218 4291614349
-0.2451659590 -0.0744500607 0.5259047747 4291219324
-0.2451969981 -0.0738750994 0.5259714127 4290956152
-0.2456470132 -0.0734252185 0.5269367099 4290890359
-0.2452584058 -0.0727245212 0.5261030793 4290298222
-0.2452887446 -0.0721489117 0.5261681676 4290364015
-0.2453188598 -0.0715730861 0.5262327790 4290429808
-0.2453487515 -0.0709970444 0.5262969136 4289968748
-0.2453783900 -0.0704208016 0.5263604522 4289705576
-0.2454078048 -0.0698443502 0.5264235735 4289902704
-0.2454369813 -0.0692676902 0.5264861584 4290231669
-0.2454659194 -0.0686908215 0.5265482664 4290495342
-0.2454946339 -0.0681137592 0.5266098380 4291087479
-0.2459428012 -0.0676519349 0.5275712013 4291153272
-0.2459710836 -0.0670734793 0.5276318789 4291219065
-0.2464189231 -0.0666082948 0.5285925269 4291416444
-0.2464467734 -0.0660284534 0.5286522508 4291613823
-0.2464744002 -0.0654484183 0.5287114978 4291942018
-0.2465017736 -0.0648681894 0.5287702680 4292007811
-0.2469489127 -0.0643972829 0.5297293663 4292337029
-0.2469758540 -0.0638156831 0.5297871828 4292205443
-0.2470025718 -0.0632338896 0.5298445225 4292468867
-0.2470290512 -0.0626519099 0.5299013257 4292403074
-0.2470552772 -0.0620697401 0.5299575925 4291876727
-0.2470812798 -0.0614873879 0.5300133228 4291481969
-0.2475272864 -0.0610084347 0.5309700966 4291547503
-0.2475528419 -0.0604247265 0.5310248733 4291810675
-0.2475781590 -0.0598408394 0.5310792327 4292008316
-0.2476032376 -0.0592567734 0.5311329961 4292732039
-0.2476280779 -0.0586725324 0.5311862826 4292798096
-0.2476526797 -0.0580881163 0.5312390327 4292732303
-0.2476770282 -0.0575035252 0.5312913060 4292600466
-0.2477011383 -0.0569187626 0.5313429832 4292534673
-0.2477250099 -0.0563338324 0.5313942432 4292731033
-0.2481692731 -0.0558433831 0.5323472023 4292665240
-0.2481926978 -0.0552571230 0.5323974490 4292862370
-0.2486365885 -0.0547633581 0.5333496332 4292862370
-0.2486595660 -0.0541757755 0.5333989263 4292993451
-0.2491030842 -0.0536787026 0.5343503356 4292796072
-0.2491256148 -0.0530898049 0.5343986154 4292730281
-0.2491478920 -0.0525007434 0.5344464183 4292730281
-0.2495908290 -0.0519992150 0.5353965759 4292203426
-0.2491917312 -0.0513221547 0.5345404744 4291348117
-0.2492132783 -0.0507326312 0.5345867276 4289704329
-0.2483925819 -0.0499735512 0.5328261852 4288388469
-0.2488346100 -0.0494694188 0.5337743759 4287466608
-0.2496975362 -0.0490458570 0.5356254578 4287400815
-0.2505603731 -0.0486181565 0.5374763012 4288519293
-0.2501596510 -0.0479441844 0.5366167426 4290295704
-0.2501797974 -0.0473517776 0.5366599560 4291874719
-0.2497784644 -0.0466805063 0.5357990861 4293124786
-0.2506405711 -0.0462442599 0.5376483798 4293717174
-0.2506600022 -0.0456504337 0.5376900434 4294177725
-0.2506791949 -0.0450564697 0.5377312303 4294506179
-0.2511194646 -0.0445370972 0.5386756659 4294308800
-0.2515595555 -0.0440155938 0.5396196842 4294045371
-0.2511566579 -0.0433465019 0.5387554169 4293519027
-0.2515963018 -0.0428227372 0.5396985412 4293189809
-0.2520357966 -0.0422968417 0.5406412482 4292992430
-0.2520535588 -0.0416990928 0.5406793952 4292074151
-0.2524926066 -0.0411699489 0.5416212082 4292008358
-0.2525099218 -0.0405709520 0.5416583419 4292862136
-0.2529485524 -0.0400385596 0.5425992608 4293454273
-0.2529653907 -0.0394383185 0.5426353812 4294242517
-0.2534036040 -0.0389026888 0.5435753465 4294308310
-0.2534199655 -0.0383012109 0.5436104536 4294045405
-0.2538577616 -0.0377623439 0.5445495844 4293584854
-0.2538736463 -0.0371596329 0.5445836186 4293059801
-0.2543110251 -0.0366175361 0.5455218554 4292928215
-0.2539046407 -0.0359538794 0.5446501374 4292534232
-0.2547633350 -0.0354682840 0.5464920998 4292402646
-0.2552000880 -0.0349208526 0.5474289656 4292468952
-0.2552147508 -0.0343145952 0.5474604368 4292797917
-0.2552291751 -0.0337082297 0.5474913716 4292797917
-0.2556652427 -0.0331564806 0.5484268069 4292468952
-0.2556791902 -0.0325489119 0.5484566689 4292730074
-0.2556928694 -0.0319412462 0.5484859943 4292664281
-0.2561282516 -0.0313851908 0.5494199395 4292730335
-0.2565634251 -0.0308270324 0.5503534675 4293125093
-0.2565763593 -0.0302170776 0.5503812432 4292665316
-0.2565890551 -0.0296070296 0.5504084826 4292533730
-0.2570235431 -0.0290445834 0.5513404608 4292994794
-0.2574577928 -0.0284800436 0.5522720218 4292994794
-0.2574697733 -0.0278677233 0.5522976518 4292600038
-0.2583256662 -0.0273446832 0.5541336536 4292600038
-0.2587592900 -0.0267738644 0.5550637841 4292731370
-0.2587705255 -0.0261582863 0.5550878644 4292862956
-0.2587814927 -0.0255426262 0.5551114678 4292797163
-0.2592144012 -0.0249675550 0.5560400486 4292862956
-0.2592248619 -0.0243507382 0.5560625196 4292994285
-0.2596572936 -0.0237725023 0.5569900870 4292862699
-0.2605116963 -0.0232298356 0.5588228703 4292994536
-0.2605214417 -0.0226097889 0.5588437915 4292994536
-0.2605309188 -0.0219896734 0.5588641167 4292994283
-0.2609623969 -0.0214041248 0.5597896576 4292994283
-0.2613936365 -0.0208165012 0.5607147813 4292994031
-0.2614023685 -0.0201941803 0.5607334375 4292994031
-0.2622554302 -0.0196350347 0.5625633597 4292994032
-0.2622636557 -0.0190105829 0.5625810027 4292994032
-0.2626939416 -0.0184156783 0.5635039806 4292994545
-0.2627016306 -0.0177901071 0.5635204911 4292994545
-0.2627090514 -0.0171644799 0.5635364652 4293060078
-0.2631385922 -0.0165653918 0.5644578338 4293060078
-0.2631455064 -0.0159386583 0.5644726753 4293060078
-0.2639969289 -0.0153610297 0.5662990808 4293060078
-0.2644257545 -0.0147557594 0.5672188997 4292994544
-0.2648543119 -0.0141484328 0.5681381822 4292928751
-0.2648601830 -0.0135174906 0.5681508183 4292863728
-0.2648658156 -0.0128865074 0.5681628585 4292863728
-0.2657160461 -0.0122945774 0.5699867010 4292863728
-0.2657211125 -0.0116615053 0.5699976087 4292863728
-0.2657259405 -0.0110283969 0.5700079799 4292863728
-0.2665754259 -0.0104283094 0.5718302131 4292863728
-0.2661572695 -0.0097776027 0.5709331632 4292863473
-0.2665837705 -0.0091579072 0.5718480945 4292863473
-0.2670100033 -0.0085361693 0.5727624297 4292863473
-0.2674359977 -0.0079123927 0.5736761689 4292863473
-0.2682842314 -0.0072980714 0.5754957199 4292863473
-0.2678647041 -0.0066482420 0.5745957494 4292863473
-0.2678673863 -0.0060098856 0.5746015310 4292863473
-0.2682923079 -0.0053799828 0.5755130649 4292863473
-0.2687169611 -0.0047480501 0.5764240026 4292863473
-0.2691413760 -0.0041140891 0.5773344040 4292863473
-0.2691429853 -0.0034726502 0.5773378611 4293059824
-0.2695668340 -0.0028356453 0.5782470703 4293059824
-0.2695679069 -0.0021931801 0.5782493353 4293059824
-0.2699912488 -0.0015531390 0.5791574121 4293059824
-0.2708368003 -0.0009125025 0.5809712410 4293059824
-0.2712595761 -0.0002674186 0.5818781257 4293059824
-0.2712595463 0.0003790896 0.5818780661 4293125617
-0.2716817856 0.0010271942 0.5827838182 4293125617
-0.2716811895 0.0016747052 0.5827825665 4293060337
-0.2725253999 0.0023294340 0.5845934153 4293060337
-0.2725242674 0.0029789468 0.5845910311 4293060337
-0.2729453743 0.0036340761 0.5854943395 4293060337
-0.2729436755 0.0042845756 0.5854907036 4293060337
-0.2733642459 0.0049427017 0.5863928199 4293060337
-0.2742069960 0.0056114728 0.5882006884 4293126128
-0.2742044926 0.0062649483 0.5881952643 4293126128
-0.2746241689 0.0069290646 0.5890955329 4292665066
-0.2750435770 0.0075951735 0.5899952054 4292796652
-0.2758851945 0.0082759466 0.5918005109 4293060076
-0.2767264843 0.0089607220 0.5936052203 4291941595
-0.2775675058 0.0096494965 0.5954092741 4292731364
-0.2664216161 -0.2230361998 0.5728650689 4287731356
-0.2665057778 -0.2224699706 0.5730460286 4287862942
-0.2661918998 -0.2215720117 0.5723711252 4287336598
-0.2662756145 -0.2210055590 0.5725511909 4287336083
-0.2655628920 -0.2197795659 0.5710186362 4287138704
-0.2652477622 -0.2188850790 0.5703410506 4286809739
-0.2649322450 -0.2179917693 0.5696626306 4285822844
-0.2650148273 -0.2174265832 0.5698401928 4285099121
-0.2650972307 -0.2168608606 0.5700173974 4284309605
-0.2647807300 -0.2159693688 0.5693368316 4283454296
-0.2648626864 -0.2154034525 0.5695130229 4284243812
-0.2649444938 -0.2148370147 0.5696889162 4285757051
-0.2650261223 -0.2142700404 0.5698644519 4286941325
-0.2647083402 -0.2133807093 0.5691811442 4287138704
-0.2647894919 -0.2128135562 0.5693556666 4286875532
-0.2648705244 -0.2122458816 0.5695298910 4287401876
-0.2641521096 -0.2110391408 0.5679851770 4288388771
-0.2638328075 -0.2101537138 0.5672985911 4288783531
-0.2623134851 -0.2083168328 0.5640316606 4289178289
-0.2627929449 -0.2080697864 0.5650627017 4289441461
-0.2620721757 -0.2068729997 0.5635128617 4289375668
-0.2617509961 -0.2059941292 0.5628222227 4289244595
-0.2614293993 -0.2051164508 0.5621306896 4289441974
-0.2607069016 -0.2039267570 0.5605772138 4289573560
-0.2599837780 -0.2027399987 0.5590223074 4289507767
-0.2592599988 -0.2015562057 0.5574660301 4289573049
-0.2589364052 -0.2006860226 0.5567702055 4289573049
-0.2586123943 -0.1998170614 0.5560735464 4289638840
-0.2578869164 -0.1986404210 0.5545135736 4289770426
-0.2575619817 -0.1977748126 0.5538148880 4289836219
-0.2572366297 -0.1969104409 0.5531153679 4289836219
-0.2569108903 -0.1960473061 0.5524149537 4289902014
-0.2569862604 -0.1954908818 0.5525770187 4289902014
-0.2566598356 -0.1946293861 0.5518751144 4289836219
-0.2559311986 -0.1934654266 0.5503084064 4289836219
-0.2556038499 -0.1926073134 0.5496044755 4289902012
-0.2552760541 -0.1917504519 0.5488997102 4289967805
-0.2549479008 -0.1908948570 0.5481940508 4290033598
-0.2542170584 -0.1897403151 0.5466226339 4290033598
-0.2534856200 -0.1885887831 0.5450498462 4290099391
-0.2523510456 -0.1871418059 0.5426102877 4290099391
-0.2520207763 -0.1862948090 0.5419001579 4290165184
-0.2520928383 -0.1857458055 0.5420550704 4290165184
-0.2517619133 -0.1849004924 0.5413434505 4290165184
-0.2502217591 -0.1831715703 0.5380318165 4290165184
-0.2498896718 -0.1823314726 0.5373177528 4290165184
-0.2495571822 -0.1814926714 0.5366028547 4290099391
-0.2492243052 -0.1806551814 0.5358870625 4290165184
-0.2484876215 -0.1795275360 0.5343030691 4290165184
-0.2489608377 -0.1792746335 0.5353205800 4290165184
-0.2482232451 -0.1781504899 0.5337346196 4290165184
-0.2474850416 -0.1770294309 0.5321472883 4290165184
-0.2471500486 -0.1761993468 0.5314269662 4290165184
-0.2468146682 -0.1753705889 0.5307058096 4290296770
-0.2460748106 -0.1742570102 0.5291150212 4290296770
-0.2457385212 -0.1734317988 0.5283918977 4290296770
-0.2445932627 -0.1720391661 0.5259293318 4290296770
-0.2450647503 -0.1717853248 0.5269431472 4290034625
-0.2443227619 -0.1706815064 0.5253477097 4290034625
-0.2439847887 -0.1698625088 0.5246209502 4290034625
-0.2432416826 -0.1687640399 0.5230231285 4290100418
-0.2429028004 -0.1679486185 0.5222944617 4290297283
-0.2425635159 -0.1671345383 0.5215649605 4290231490
-0.2426289171 -0.1665999442 0.5217055678 4290231490
-0.2422889620 -0.1657876819 0.5209745765 4290231490
-0.2415433526 -0.1647004187 0.5193713307 4290363076
-0.2412025034 -0.1638917774 0.5186384320 4290363076
-0.2408612669 -0.1630844772 0.5179046988 4290428356
-0.2409252375 -0.1625522226 0.5180422664 4290494149
-0.2405833304 -0.1617467701 0.5173071027 4290559944
-0.2406468540 -0.1612145454 0.5174436569 4290494151
-0.2394924313 -0.1598690301 0.5149614215 4290296772
-0.2399613112 -0.1596087366 0.5159695745 4290165186
-0.2396179438 -0.1588078886 0.5152313113 4290428615
-0.2392742038 -0.1580084264 0.5144921541 4290165443
-0.2393364012 -0.1574777216 0.5146259069 4290099904
-0.2385855466 -0.1564136744 0.5130113959 4289902525
-0.2386471778 -0.1558839530 0.5131439567 4289441461
-0.2387086451 -0.1553538144 0.5132761002 4289112496
-0.2387699336 -0.1548232734 0.5134078860 4289111728
-0.2388310432 -0.1542923152 0.5135393143 4288848556
-0.2388919741 -0.1537609547 0.5136703253 4288848043
-0.2389527261 -0.1532291919 0.5138009191 4288848043
-0.2394204736 -0.1529571414 0.5148066878 4288979370
-0.2394809723 -0.1524236649 0.5149368048 4288847784
-0.2395412922 -0.1518897712 0.5150664449 4288978600
-0.2400089055 -0.1516128927 0.5160719752 4289044393
-0.2400689572 -0.1510772854 0.5162010789 4288978600
-0.2401288301 -0.1505412906 0.5163298249 4288715428
-0.2405963093 -0.1502595544 0.5173349977 4288585384
-0.2406558990 -0.1497218460 0.5174631476 4288519591
-0.2411233187 -0.1494365782 0.5184682012 4288453798
-0.2407745570 -0.1486452222 0.5177182555 4288322212
-0.2412417978 -0.1483573318 0.5187229514 4288256160
-0.2404841781 -0.1473168880 0.5170938969 4288124574
-0.2413595468 -0.1472765058 0.5189760923 4287993499
-0.2414181232 -0.1467355043 0.5191020966 4287927706
-0.2402507663 -0.1454519928 0.5165919662 4287862682
-0.2411260605 -0.1454058439 0.5184740424 4287402131
-0.2411839813 -0.1448645890 0.5185986161 4287335568
-0.2412417233 -0.1443229318 0.5187227726 4287335568
-0.2412992716 -0.1437808722 0.5188465118 4287401359
-0.2409475595 -0.1429956704 0.5180902481 4287335566
-0.2405954599 -0.1422119141 0.5173331499 4286941578
-0.2410615087 -0.1419114918 0.5183352828 4286612613
-0.2402994782 -0.1408887804 0.5166967511 4286876037
-0.2399463207 -0.1401084960 0.5159373879 4286283900
-0.2391832173 -0.1390914917 0.5142965317 4286612097
-0.2388292104 -0.1383150369 0.5135353208 4286612097
-0.2388845682 -0.1377763897 0.5136544108 4286217078
-0.2385298908 -0.1370019764 0.5128917694 4285164390
-0.2377648950 -0.1359945685 0.5112468600 4283651138
-0.2382294387 -0.1356911212 0.5122457147 4282532657
-0.2370534539 -0.1344549805 0.5097171068 4283716915
-0.2362869531 -0.1334557235 0.5080689192 4283585329
-0.2367508262 -0.1331521124 0.5090663433 4283189793
-0.2343418449 -0.1312374026 0.5038865209 4282531863
-0.2331630737 -0.1300202310 0.5013518929 4282465811
-0.2336259037 -0.1297201812 0.5023471117 4282926362
-0.2328566909 -0.1287367642 0.5006931424 4285163324
-0.2320869267 -0.1277567297 0.4990379512 4287663458
-0.2317274660 -0.1270052493 0.4982650280 4288387961
-0.2313676327 -0.1262552887 0.4974913299 4288387961
-0.2314184904 -0.1257301569 0.4976006448 4287861096
-0.2319308370 -0.1249003336 0.4987023175 4286742617
-0.2315698862 -0.1241527200 0.4979262054 4286479445
-0.2312085629 -0.1234066337 0.4971492887 4286019413
-0.2312583625 -0.1228807345 0.4972563684 4287006308
-0.2308963984 -0.1221367717 0.4964780509 4287598191
-0.2301224023 -0.1211775765 0.4948137701 4286545503
-0.2305831164 -0.1208693087 0.4958044291 4286677339
-0.2298083007 -0.1199141294 0.4941383898 4288124785
-0.2298567891 -0.1193903014 0.4942426682 4289111680
-0.2294930816 -0.1186531112 0.4934605956 4288848508
-0.2291290015 -0.1179174781 0.4926777482 4289440395
-0.2291767448 -0.1173945367 0.4927804172 4288453500
-0.2292242944 -0.1168712676 0.4928826690 4285690458
-0.2292716652 -0.1163476706 0.4929845035 4283387703
-0.2293188274 -0.1158237532 0.4930859208 4282268969
-0.2297783345 -0.1155068874 0.4940739572 4282400555
-0.2302378118 -0.1151878089 0.4950619340 4282664243
-0.2306972593 -0.1148665249 0.4960498512 4283322173
-0.2307438999 -0.1143384874 0.4961501360 4284176968
-0.2316160649 -0.1142173260 0.4980255067 4284769105
-0.2300107032 -0.1128761619 0.4945735931 4283848519
-0.2321217209 -0.1133575812 0.4991127849 4284835414
-0.2321678251 -0.1128254384 0.4992119074 4285690985
-0.2309741527 -0.1116935462 0.4966452420 4284901469
-0.2310196012 -0.1111636087 0.4967429936 4283190597
-0.2318915725 -0.1110291854 0.4986179173 4282993218
-0.2306964993 -0.1099058390 0.4960482121 4282663996
-0.2311547846 -0.1095719337 0.4970336556 4281808687
-0.2336810231 -0.1102111414 0.5024656057 4281874476
-0.2341396362 -0.1098680720 0.5034517050 4282203441
-0.2337706983 -0.1091364622 0.5026584268 4282400820
-0.2346428931 -0.1089830771 0.5045338273 4282466613
-0.2351012975 -0.1086343154 0.5055195093 4282532406
-0.2347316593 -0.1079027355 0.5047247410 4282663992
-0.2351898104 -0.1075514555 0.5057098269 4282927164
-0.2360620499 -0.1073863655 0.5075853467 4283124543
-0.2356917262 -0.1066548228 0.5067890882 4284110923
-0.2361496389 -0.1062978655 0.5077736974 4284637267
-0.2353643775 -0.1053820997 0.5060852170 4283979337
-0.2362364084 -0.1052081585 0.5079602599 4285295197
-0.2366939932 -0.1048464775 0.5089441538 4287926917
-0.2367369384 -0.1042999178 0.5090364814 4289176984
-0.2371943444 -0.1039347723 0.5100200176 4288782226
-0.2376516759 -0.1035674065 0.5110033751 4286874229
-0.2376941293 -0.1030180454 0.5110946894 4284900954
-0.2377363890 -0.1024683937 0.5111855268 4284374610
-0.2381933928 -0.1020963192 0.5121681690 4284637784
-0.2386503220 -0.1017220244 0.5131506920 4283979854
-0.2391072065 -0.1013455242 0.5141330957 4283519303
-0.2391488105 -0.1007918268 0.5142225623 4284177233
-0.2383596897 -0.0998897925 0.5125257969 4284243026
-0.2379854023 -0.0991643816 0.5117210150 4284440405
-0.2380261719 -0.0986127034 0.5118086338 4283914061
-0.2380667180 -0.0980607495 0.5118958354 4283453510
-0.2381070554 -0.0975085124 0.5119825602 4283585609
-0.2381471694 -0.0969559997 0.5120688081 4283717195
-0.2381870747 -0.0964032039 0.5121545792 4282532921
-0.2382267565 -0.0958501324 0.5122399330 4281940784
-0.2386820614 -0.0954630971 0.5132189393 4282006577
-0.2391372770 -0.0950738564 0.5141977668 4282730300
-0.2395924181 -0.0946824104 0.5151764154 4284374612
-0.2400474697 -0.0942887515 0.5161548853 4286151023
-0.2400863469 -0.0937304422 0.5162384510 4287072386
-0.2401250005 -0.0931718647 0.5163215995 4286282870
-0.2405796796 -0.0927735269 0.5172992349 4284506460
-0.2406179607 -0.0922134444 0.5173815489 4282993221
-0.2406560332 -0.0916530937 0.5174633861 4282927168
-0.2406938821 -0.0910924822 0.5175448060 4283650891
-0.2407315075 -0.0905316025 0.5176256895 4286283122
-0.2407689095 -0.0899704620 0.5177061558 4288322705
-0.2408061028 -0.0894090608 0.5177860856 4289704358
-0.2408430725 -0.0888473988 0.5178655982 4290296495
-0.2408798039 -0.0882854834 0.5179445744 4290559665
-0.2413331419 -0.0878750756 0.5189193487 4291151802
-0.2413695008 -0.0873116702 0.5189975500 4292599499
-0.2414056361 -0.0867480114 0.5190752149 4293454808
-0.2414415479 -0.0861841068 0.5191524625 4293717729
-0.2414772511 -0.0856199414 0.5192291737 4293717729
-0.2415127158 -0.0850555375 0.5193054676 4292994008
-0.2411307693 -0.0843449533 0.5184842348 4292599250
-0.2411657274 -0.0837810189 0.5185593963 4292336078
-0.2412004620 -0.0832168460 0.5186340809 4291217597
-0.2412349731 -0.0826524347 0.5187082887 4290888630
-0.2416866720 -0.0822297931 0.5196795464 4291809732
-0.2421382666 -0.0818049610 0.5206505656 4292467915
-0.2421722263 -0.0812378749 0.5207235813 4291744192
-0.2422059476 -0.0806705430 0.5207960606 4290757548
-0.2422394454 -0.0801029801 0.5208680630 4289836446
-0.2426904142 -0.0796723068 0.5218377709 4288520836
-0.2427235097 -0.0791032910 0.5219089389 4286876011
-0.2427563816 -0.0785340518 0.5219796300 4286613088
-0.2427890301 -0.0779645741 0.5220498443 4287731569
-0.2424034923 -0.0772616565 0.5212208629 4289639570
-0.2432716042 -0.0769571662 0.5230875015 4290692258
-0.2433036119 -0.0763860270 0.5231562853 4291547553
-0.2433353961 -0.0758146644 0.5232246518 4292073897
-0.2433669418 -0.0752430782 0.5232924819 4291745684
-0.2438164651 -0.0747995675 0.5242590308 4291153547
-0.2438476086 -0.0742265582 0.5243260264 4290562166
-0.2438785136 -0.0736533329 0.5243924856 4290430580
-0.2443275601 -0.0732052326 0.5253580213 4290429808
-0.2443580627 -0.0726305917 0.5254235864 4290232429
-0.2439698428 -0.0719323456 0.5245888233 4290232178
-0.2439998239 -0.0713582560 0.5246533155 4289969006
-0.2440295666 -0.0707839578 0.5247172713 4289771631
-0.2440590858 -0.0702094510 0.5247806907 4290166389
-0.2440883517 -0.0696347356 0.5248436928 4290626688
-0.2441174090 -0.0690598115 0.5249060988 4290889860
-0.2441462129 -0.0684846863 0.5249680877 4290692731
-0.2441747934 -0.0679093525 0.5250295401 4290363766
-0.2446220070 -0.0674493164 0.5259911418 4290297971
-0.2446501553 -0.0668726042 0.5260516405 4290232178
-0.2446780801 -0.0662956834 0.5261117220 4290166385
-0.2451247722 -0.0658311024 0.5270721912 4291021694
-0.2451522797 -0.0652528033 0.5271313190 4292139918
-0.2451795340 -0.0646743178 0.5271899104 4292337297
-0.2452065498 -0.0640956312 0.5272480249 4291810434
-0.2456525415 -0.0636253357 0.5282070041 4291284090
-0.2456791401 -0.0630452856 0.5282641649 4291218546
-0.2457054853 -0.0624650456 0.5283208489 4291350132
-0.2457316071 -0.0618846230 0.5283769965 4291218797
-0.2457574904 -0.0613040105 0.5284326673 4290889832
-0.2462025434 -0.0608268417 0.5293896198 4290626401
-0.2462279946 -0.0602448806 0.5294443369 4290626401
-0.2462531924 -0.0596627332 0.5294985771 4291020667
-0.2462781668 -0.0590804145 0.5295522213 4291349632
-0.2463028878 -0.0584979169 0.5296053886 4291547780
-0.2463273704 -0.0579152443 0.5296580195 4291745159
-0.2463516146 -0.0573323965 0.5297101736 4291679366
-0.2463756204 -0.0567493811 0.5297617912 4291218815
-0.2463993877 -0.0561661944 0.5298128724 4291283841
-0.2464229167 -0.0555828400 0.5298634768 4291678599
-0.2468660325 -0.0550930128 0.5308162570 4292072854
-0.2473089844 -0.0546010360 0.5317687392 4292204440
-0.2473318726 -0.0540152006 0.5318179131 4292796074
-0.2477744520 -0.0535199121 0.5327696204 4293059246
-0.2477968782 -0.0529327579 0.5328178406 4293058993
-0.2482391000 -0.0524341650 0.5337686539 4293190579
-0.2482610792 -0.0518456995 0.5338159204 4293388213
-0.2478627115 -0.0511703491 0.5329593420 4293454006
-0.2483043075 -0.0506683066 0.5339089036 4292928440
-0.2491659075 -0.0502488539 0.5357615352 4291480994
-0.2483465523 -0.0494903028 0.5339997411 4290493343
-0.2492078096 -0.0490665622 0.5358515978 4289440655
-0.2483878136 -0.0483117029 0.5340884328 4288914052
-0.2492487133 -0.0478836820 0.5359395742 4288979845
-0.2492688000 -0.0472920276 0.5359827876 4289243521
-0.2497090250 -0.0467789806 0.5369293690 4289967244
-0.2488878220 -0.0460305363 0.5351635814 4291151000
-0.2489071339 -0.0454394557 0.5352051258 4292072102
-0.2493466884 -0.0449239984 0.5361502171 4293321646
-0.2497860491 -0.0444064066 0.5370949507 4294176955
-0.2506457865 -0.0439604409 0.5389435887 4294440376
-0.2506642342 -0.0433648303 0.5389832258 4294111411
-0.2506824434 -0.0427690856 0.5390223861 4293584816
-0.2511210144 -0.0422439724 0.5399654508 4292926886
-0.2511387467 -0.0416469723 0.5400035977 4292664755
-0.2515769303 -0.0411186069 0.5409457684 4292401583
-0.2515941858 -0.0405203588 0.5409828424 4292729276
-0.2524527013 -0.0400555059 0.5428288579 4293058241
-0.2524695396 -0.0394550115 0.5428650379 4293848028
-0.2524860799 -0.0388543978 0.5429006219 4294374372
-0.2525024116 -0.0382536687 0.5429357290 4294374380
-0.2529393137 -0.0377155766 0.5438752174 4294045415
-0.2533760369 -0.0371753685 0.5448142290 4293454054
-0.2533916533 -0.0365722962 0.5448477864 4292467159
-0.2542488873 -0.0360886082 0.5466910601 4292138455
-0.2542640567 -0.0354833081 0.5467236042 4292533213
-0.2542789280 -0.0348779038 0.5467556715 4292599778
-0.2547146082 -0.0343291350 0.5476924181 4292665571
-0.2551500499 -0.0337782539 0.5486287475 4292665829
-0.2551642358 -0.0331705324 0.5486592054 4292534243
-0.2551781535 -0.0325627103 0.5486891270 4292993246
-0.2551918030 -0.0319547877 0.5487185121 4293190625
-0.2552052140 -0.0313467681 0.5487473607 4292993764
-0.2564818263 -0.0308908280 0.5514923930 4293191143
-0.2564947903 -0.0302796103 0.5515202284 4293192172
-0.2565074861 -0.0296683013 0.5515475273 4292929000
-0.2565199435 -0.0290569030 0.5515742898 4292666599
-0.2569533587 -0.0284921229 0.5525062680 4292863978
-0.2578078210 -0.0279709548 0.5543435216 4292600552
-0.2569769919 -0.0272668842 0.5525571108 4292600552
-0.2578310072 -0.0267415289 0.5543934107 4292732142
-0.2582635283 -0.0261693858 0.5553234220 4292797935
-0.2582744956 -0.0255534668 0.5553470254 4292994544
-0.2587065697 -0.0249781515 0.5562760234 4292994544
-0.2587170303 -0.0243610740 0.5562984943 4293190892
-0.2591485977 -0.0237825941 0.5572265387 4293190892
-0.2595799565 -0.0232020300 0.5581540465 4293125869
-0.2600110769 -0.0226193871 0.5590810180 4293060076
-0.2604419887 -0.0220346637 0.5600075722 4293060076
-0.2604511976 -0.0214132126 0.5600273609 4293060076
-0.2604601383 -0.0207916964 0.5600466132 4292994285
-0.2608903050 -0.0202027559 0.5609715581 4292994285
-0.2608987391 -0.0195801090 0.5609897375 4292994544
-0.2617499232 -0.0190186556 0.5628198981 4292928751
-0.2617578506 -0.0183938816 0.5628370047 4292994545
-0.2621870637 -0.0177976638 0.5637598634 4292994545
-0.2621944845 -0.0171717722 0.5637758374 4292994544
-0.2626231909 -0.0165724289 0.5646976233 4292994544
-0.2634732127 -0.0159966182 0.5665253401 4292994544
-0.2639014423 -0.0153921442 0.5674461126 4292994544
-0.2639078200 -0.0147620291 0.5674598813 4292994291
-0.2643355429 -0.0141544435 0.5683795810 4292994291
-0.2643414438 -0.0135232341 0.5683922172 4292994544
-0.2643470466 -0.0128919827 0.5684043169 4292994544
-0.2651956081 -0.0122998022 0.5702289343 4292994544
-0.2652007043 -0.0116664609 0.5702398419 4292994544
-0.2652055323 -0.0110330842 0.5702502131 4292994544
-0.2656317055 -0.0104162078 0.5711666346 4292994544
-0.2656359971 -0.0097817583 0.5711758137 4292863473
-0.2656400204 -0.0091472799 0.5711844563 4292863473
-0.2664870918 -0.0085397977 0.5730058551 4292929266
-0.2669122219 -0.0079157557 0.5739200115 4292929266
-0.2673371434 -0.0072896755 0.5748336315 4292929266
-0.2673400939 -0.0066510681 0.5748400092 4292929266
-0.2673427761 -0.0060124402 0.5748457909 4292929268
-0.2673451900 -0.0053737937 0.5748509765 4292929268
-0.2677690387 -0.0047426000 0.5757623315 4292929268
-0.2686142921 -0.0041158381 0.5775797963 4292929268
-0.2686159015 -0.0034741266 0.5775832534 4293060337
-0.2690389156 -0.0028368507 0.5784928799 4293060337
-0.2694616914 -0.0021975515 0.5794019103 4293060337
-0.2698841691 -0.0015562307 0.5803103447 4293060337
-0.2703064084 -0.0009128904 0.5812182426 4293060337
-0.2707283497 -0.0002675323 0.5821254849 4293060337
-0.2711500227 0.0003798415 0.5830321908 4293191410
-0.2711497247 0.0010276309 0.5830315351 4293191410
-0.2715708315 0.0016780227 0.5839370489 4293191410
-0.2719916701 0.0023304243 0.5848419666 4293125617
-0.2724122405 0.0029848337 0.5857462287 4293191410
-0.2724108398 0.0036356209 0.5857432485 4293125617
-0.2724091411 0.0042863972 0.5857396126 4293191410
-0.2728288770 0.0049448027 0.5866420865 4293191410
-0.2736699879 0.0056138583 0.5884506702 4293191664
-0.2740891576 0.0062772688 0.5893519521 4293191664
-0.2745079994 0.0069426745 0.5902526379 4292796652
-0.2749266028 0.0076100738 0.5911526680 4292994031
-0.2757665515 0.0082921432 0.5929587483 4293125869
-0.2766062021 0.0089782169 0.5947641730 4291941595
-0.2770238817 0.0096535981 0.5956622958 4293060329
-0.2652594149 -0.2213244140 0.5717315078 4287731356
-0.2653429210 -0.2207586467 0.5719115138 4287599770
-0.2650289237 -0.2198627144 0.5712347031 4287205012
-0.2651119530 -0.2192967236 0.5714136958 4287139217
-0.2647972405 -0.2184022665 0.5707353950 4286744459
-0.2640844285 -0.2171819061 0.5691989660 4286283908
-0.2637687624 -0.2162906528 0.5685185790 4285494392
-0.2642486393 -0.2160513252 0.5695528984 4284573290
-0.2639324069 -0.2151607275 0.5688713193 4283191637
-0.2640139759 -0.2145949751 0.5690470934 4282862672
-0.2636970580 -0.2137058824 0.5683640242 4284375911
-0.2637781799 -0.2131399363 0.5685388446 4286218115
-0.2638591230 -0.2125734687 0.5687133670 4287007631
-0.2635412216 -0.2116862237 0.5680281520 4287139217
-0.2632229030 -0.2108001709 0.5673420429 4287139217
-0.2625052035 -0.2095967978 0.5657951832 4287205010
-0.2617868781 -0.2083963305 0.5642469525 4288323491
-0.2618662715 -0.2078324258 0.5644180775 4289113009
-0.2611469030 -0.2066360861 0.5628675222 4289113009
-0.2616251409 -0.2063879669 0.5638983250 4289047216
-0.2609048188 -0.2051949203 0.5623457432 4289310388
-0.2601838410 -0.2040048093 0.5607917905 4289441974
-0.2598620057 -0.2031301558 0.5600981116 4289310388
-0.2591398656 -0.2019450963 0.5585415959 4289507256
-0.2584170699 -0.2007629722 0.5569837093 4289441463
-0.2580937743 -0.1998937279 0.5562868714 4289573047
-0.2573697865 -0.1987166852 0.5547264814 4289704633
-0.2570455670 -0.1978507787 0.5540276766 4289770426
-0.2567209303 -0.1969861239 0.5533279777 4289770426
-0.2567965388 -0.1964291483 0.5534908772 4289836221
-0.2560704648 -0.1952605397 0.5519259572 4289836221
-0.2553437650 -0.1940949261 0.5503596067 4289770426
-0.2550173998 -0.1932361275 0.5496562123 4289836219
-0.2546906173 -0.1923785955 0.5489518642 4289902012
-0.2543634474 -0.1915223300 0.5482466817 4289902012
-0.2524305880 -0.1894624680 0.5440806746 4289967805
-0.2541093230 -0.1901139170 0.5476989746 4289967805
-0.2533794940 -0.1889611185 0.5461259484 4290033598
-0.2518457174 -0.1872141659 0.5428200364 4290099391
-0.2527215183 -0.1872600019 0.5447077155 4290165184
-0.2519900501 -0.1861145347 0.5431311131 4290099391
-0.2504538894 -0.1843801886 0.5398201346 4290099391
