VERSION 0.7
FIELDS x y z rgba
SIZE 4 4 4 4
TYPE F F F U
COUNT 1 1 1 1
WIDTH 920
HEIGHT 1
VIEWPOINT 0.0 0.0 0.0 1.0 0.0 0.0 0.0
POINTS 920
DATA ascii
-0.2786040902 -0.1302836239 0.5850871205 4283789907
-0.2790795267 -0.1298547834 0.5860856175 4284382045
-0.2795549035 -0.1294236779 0.5870839357 4283921494
-0.2800302207 -0.1289903224 0.5880821347 4282341434
-0.2805054486 -0.1285547167 0.5890800953 4281288746
-0.2809805870 -0.1281168610 0.5900779366 4281486383
-0.2818776071 -0.1278681606 0.5919618011 4281486383
-0.2827747166 -0.1276153028 0.5938457847 4281486385
-0.2836719155 -0.1273583025 0.5957298875 4281486385
-0.2845691442 -0.1270971447 0.5976141691 4281683762
-0.2850441933 -0.1266442090 0.5986117721 4281749555
-0.2859414816 -0.1263756752 0.6004961729 4281816118
-0.2868388593 -0.1261029989 0.6023806930 4281947704
-0.2877362669 -0.1258261502 0.6042653322 4282013497
-0.2882111669 -0.1253613234 0.6052626371 4282079290
-0.2886859477 -0.1248942390 0.6062597036 4282210878
-0.2891606390 -0.1244248971 0.6072565913 4282539843
-0.2900580466 -0.1241342500 0.6091412306 4282869067
-0.2901096940 -0.1234794408 0.6092497110 4283066446
-0.2901611030 -0.1228242740 0.6093576550 4283000402
-0.2906352878 -0.1223468557 0.6103534698 4283658332
-0.2906862497 -0.1216900423 0.6104605198 4284053092
-0.2907369733 -0.1210328862 0.6105669737 4284579436
-0.2907874286 -0.1203753874 0.6106729507 4284973428
-0.2908376157 -0.1197175458 0.6107783318 4286486667
-0.2805781662 -0.1938535124 0.5906104445 4285889919
-0.2806548178 -0.1932500750 0.5907717943 4285692540
-0.2807312608 -0.1926461458 0.5909326673 4285626231
-0.2808074951 -0.1920417249 0.5910931826 4285363059
-0.2808835506 -0.1914367974 0.5912532210 4285099887
-0.2813713551 -0.1911112070 0.5922800899 4285034094
-0.2814471126 -0.1905044168 0.5924395323 4284968299
-0.2815226614 -0.1898971349 0.5925985575 4284968299
-0.2815980315 -0.1892893761 0.5927571654 4284902506
-0.2816731632 -0.1886811107 0.5929154158 4284836713
-0.2821606398 -0.1883477420 0.5939415097 4284902506
-0.2822355032 -0.1877376288 0.5940990448 4284836713
-0.2823101580 -0.1871270239 0.5942562222 4284705125
-0.2823846042 -0.1865159422 0.5944129229 4284507746
-0.2828718126 -0.1861761510 0.5954384804 4284507746
-0.2829459608 -0.1855632067 0.5955945849 4284507746
-0.2834330797 -0.1852197796 0.5966199040 4284441953
-0.2835069001 -0.1846049875 0.5967753530 4284507746
-0.2839939296 -0.1842579097 0.5978005528 4284311137
-0.2836539745 -0.1833739281 0.5970849395 4284245344
-0.2837271988 -0.1827576905 0.5972390771 4284376162
-0.2842139006 -0.1824064851 0.5982635617 4284310369
-0.2842868268 -0.1817883998 0.5984170437 4284178270
-0.2843595147 -0.1811698377 0.5985701084 4284046684
-0.2848460376 -0.1808135957 0.5995941758 4284047197
-0.2849184275 -0.1801931858 0.5997465253 4283849818
-0.2849905789 -0.1795722991 0.5998984575 4283850586
-0.2850625515 -0.1789509356 0.6000499129 4283521621
-0.2851342857 -0.1783291101 0.6002009511 4283259472
-0.2856203616 -0.1779651046 0.6012241244 4282864714
-0.2856917679 -0.1773414463 0.6013744473 4282208317
-0.2857629657 -0.1767172962 0.6015243530 4281879352
-0.2858339548 -0.1760926992 0.6016737819 4281222704
-0.2859047353 -0.1754676253 0.6018227339 4280959532
-0.2859752774 -0.1748421043 0.6019712687 4280893988
-0.2864607871 -0.1744689494 0.6029931903 4280893988
-0.2865310013 -0.1738415956 0.6031410098 4281025574
-0.2861856520 -0.1729627252 0.6024140120 4281157160
-0.2862553298 -0.1723353565 0.6025606990 4281157160
-0.2859092355 -0.1714583188 0.6018321514 4281222953
-0.2851470411 -0.1703343391 0.6002277732 4281354537
-0.2843842208 -0.1692135483 0.5986220837 4281420330
-0.2836207747 -0.1680959761 0.5970150828 4281355050
-0.2824407816 -0.1667360365 0.5945311785 4281355050
-0.2812599540 -0.1653811336 0.5920455456 4281486634
-0.2804944515 -0.1642750204 0.5904342532 4281552427
-0.2793121040 -0.1629293114 0.5879454017 4281552427
-0.2785452902 -0.1618305594 0.5863313079 4281552427
-0.2781943381 -0.1609760225 0.5855925679 4281618220
-0.2774264216 -0.1598828286 0.5839760900 4281618220
-0.2770745456 -0.1590320170 0.5832353830 4281618220
-0.2767222524 -0.1581826210 0.5824938416 4281618220
-0.2767863870 -0.1575719565 0.5826288462 4281618220
-0.2764333785 -0.1567244679 0.5818857551 4281552427
-0.2764970064 -0.1561138630 0.5820196271 4281618220
-0.2761432528 -0.1552682966 0.5812750459 4281684013
-0.2762063146 -0.1546577811 0.5814077854 4281750060
-0.2758518457 -0.1538141370 0.5806616545 4281750060
-0.2754969895 -0.1529719383 0.5799146295 4281618988
-0.2755592167 -0.1523620188 0.5800456405 4281618988
-0.2752036154 -0.1515217572 0.5792971253 4281618988
-0.2748475969 -0.1506829411 0.5785477161 4281553195
-0.2744911909 -0.1498455554 0.5777974725 4281618988
-0.2741343379 -0.1490096301 0.5770463347 4281618988
-0.2737771273 -0.1481751502 0.5762943625 4281553449
-0.2734194696 -0.1473421156 0.5755415559 4281619242
-0.2734796107 -0.1467349082 0.5756680965 4281619242
-0.2735395133 -0.1461272985 0.5757942200 4281685035
-0.2735991776 -0.1455192864 0.5759198070 4281750828
-0.2736586332 -0.1449108720 0.5760449767 4281816621
-0.2737178504 -0.1443020701 0.5761696100 4281882414
-0.2737768590 -0.1436928809 0.5762938261 4281948207
-0.2738356292 -0.1430832893 0.5764175653 4281948206
-0.2738941908 -0.1424733102 0.5765408278 4282013999
-0.2739525139 -0.1418629289 0.5766636133 4282014512
-0.2744296193 -0.1414681524 0.5776678324 4282014512
-0.2744875848 -0.1408560723 0.5777899027 4282080305
-0.2745453119 -0.1402436048 0.5779114366 4282080305
-0.2746028304 -0.1396307349 0.5780324936 4282146098
-0.2746601105 -0.1390175074 0.5781530738 4282277684
-0.2747171521 -0.1384038776 0.5782731771 4282277684
-0.2751934826 -0.1380002350 0.5792758465 4282277684
-0.2752501667 -0.1373849064 0.5793951154 4282146868
-0.2753066421 -0.1367692053 0.5795139670 4282278454
-0.2753628492 -0.1361531317 0.5796323419 4282475063
-0.2754188478 -0.1355366707 0.5797501802 4282475063
-0.2758945525 -0.1351255029 0.5807514787 4282540854
-0.2759501636 -0.1345073581 0.5808685422 4282672440
-0.2760055363 -0.1338888258 0.5809851289 4282672440
-0.2764808536 -0.1334727854 0.5819857121 4282540854
-0.2769561112 -0.1330544800 0.5829861164 4282672442
-0.2770109773 -0.1324329674 0.5831015706 4283001407
-0.2774860263 -0.1320110857 0.5841014981 4283000643
-0.2775404751 -0.1313878894 0.5842161775 4283263815
-0.2780152857 -0.1309624612 0.5852156281 4283526735
-0.2784900367 -0.1305347681 0.5862149596 4284118872
-0.2789646983 -0.1301048100 0.5872141123 4284053080
-0.2794393003 -0.1296726167 0.5882131457 4282474048
-0.2799138129 -0.1292381585 0.5892120004 4281420333
-0.2803882360 -0.1288014352 0.5902106762 4281354540
-0.2812836766 -0.1285549104 0.5920955539 4281552176
-0.2821792066 -0.1283042282 0.5939805508 4281354797
-0.2830747962 -0.1280494034 0.5958657861 4281486385
-0.2835491300 -0.1276008040 0.5968642235 4281617971
-0.2844447792 -0.1273386180 0.5987495780 4281749557
-0.2853404880 -0.1270722598 0.6006350517 4281815350
-0.2862362862 -0.1268017292 0.6025206447 4281816120
-0.2871321142 -0.1265270561 0.6044063568 4281947706
-0.2880280316 -0.1262481958 0.6062921882 4282013499
-0.2885021865 -0.1257812977 0.6072903275 4282079292
-0.2885544002 -0.1251291931 0.6074002385 4282276671
-0.2890283167 -0.1246587187 0.6083977818 4282605636
-0.2895020843 -0.1241859868 0.6093950868 4283000140
-0.2899757922 -0.1237109974 0.6103922129 4283394898
-0.2900272012 -0.1230546236 0.6105004549 4283592028
-0.2900783718 -0.1223978996 0.6106081605 4283986786
-0.2901292741 -0.1217408329 0.6107152700 4284249960
-0.2901799381 -0.1210834235 0.6108219028 4285236855
-0.2902303338 -0.1204256639 0.6109279990 4286946450
-0.2792117000 -0.1933614761 0.5891113281 4285692540
-0.2796987295 -0.1930430830 0.5901389718 4285560954
-0.2797749937 -0.1924398243 0.5902998447 4285428852
-0.2798510194 -0.1918360889 0.5904602408 4285231473
-0.2799268663 -0.1912318617 0.5906202793 4284968299
-0.2800025046 -0.1906271428 0.5907799006 4284836713
-0.2800779641 -0.1900219321 0.5909391046 4284770920
-0.2801532149 -0.1894162297 0.5910978317 4284705127
-0.2802282572 -0.1888100505 0.5912562013 4284705127
-0.2803031206 -0.1882033795 0.5914140940 4284705127
-0.2807894647 -0.1878716797 0.5924403071 4284902506
-0.2808640301 -0.1872631460 0.5925976038 4284770920
-0.2809383869 -0.1866541356 0.5927544832 4284705125
-0.2810125351 -0.1860446334 0.5929109454 4284639332
-0.2814986110 -0.1857065409 0.5939365625 4284573539
-0.2819847167 -0.1853661835 0.5949621797 4284573539
-0.2824708521 -0.1850235611 0.5959878564 4284507746
-0.2825444937 -0.1844094396 0.5961432457 4284507746
-0.2826179564 -0.1837948561 0.5962982178 4284179553
-0.2826911807 -0.1831797808 0.5964527130 4284245346
-0.2831770182 -0.1828307509 0.5974777937 4284376162
-0.2836628258 -0.1824794412 0.5985028148 4284310369
-0.2833226621 -0.1815964133 0.5977851152 4284047199
-0.2833951712 -0.1809785366 0.5979380608 4283915613
-0.2834674716 -0.1803601980 0.5980906487 4283981406
-0.2839528918 -0.1800033748 0.5991147757 4283915613
-0.2840248644 -0.1793831885 0.5992667079 4283916379
-0.2840966284 -0.1787625104 0.5994181037 4283587414
-0.2841681838 -0.1781413853 0.5995690823 4283259215
-0.2842395306 -0.1775197685 0.5997196436 4283061836
-0.2847245038 -0.1771551967 0.6007428765 4282537028
-0.2847955227 -0.1765317470 0.6008927226 4282076477
-0.2848663330 -0.1759078354 0.6010420918 4281419828
-0.2849369049 -0.1752834469 0.6011910439 4281288242
-0.2850072980 -0.1746586114 0.6013395190 4280959782
-0.2850774527 -0.1740333140 0.6014875174 4280959782
-0.2855618298 -0.1736595929 0.6025095582 4280959781
-0.2856316566 -0.1730324626 0.6026569009 4280893988
-0.2852866054 -0.1721546352 0.6019288301 4280893988
-0.2853558958 -0.1715275049 0.6020750403 4281091367
-0.2845952213 -0.1704031080 0.6004701257 4281222953
-0.2842489183 -0.1695293933 0.5997393727 4281222953
-0.2834871113 -0.1684104800 0.5981320739 4281223464
-0.2823095322 -0.1670491099 0.5956475139 4281223464
-0.2811311483 -0.1656927764 0.5931611657 4281355048
-0.2803672850 -0.1645853221 0.5915495157 4281355048
-0.2796028256 -0.1634811014 0.5899366140 4281420841
-0.2784222066 -0.1621381044 0.5874455571 4281486634
-0.2780720890 -0.1612823457 0.5867068768 4281552429
-0.2777215540 -0.1604279727 0.5859672427 4281618222
-0.2769547403 -0.1593357772 0.5843493938 4281487402
-0.2766032815 -0.1584851444 0.5836077929 4281487402
-0.2766674459 -0.1578733325 0.5837432146 4281487402
-0.2763152719 -0.1570246071 0.5830001235 4281487402
-0.2759626508 -0.1561773121 0.5822561979 4281487402
-0.2760259807 -0.1555660665 0.5823897719 4281553195
-0.2756726742 -0.1547206938 0.5816442966 4281619242
-0.2757354379 -0.1541095376 0.5817767978 4281619242
-0.2753814161 -0.1532660872 0.5810297728 4281619754
-0.2750269473 -0.1524240822 0.5802819133 4281619754
-0.2750888765 -0.1518135220 0.5804125667 4281619499
-0.2747336924 -0.1509734690 0.5796631575 4281685292
-0.2743781209 -0.1501348466 0.5789129138 4281685547
-0.2740221322 -0.1492976695 0.5781618357 4281685547
-0.2736657262 -0.1484619528 0.5774098635 4281685547
-0.2733089030 -0.1476276815 0.5766569972 4281685547
-0.2733690739 -0.1470193118 0.5767838955 4281685034
-0.2734289765 -0.1464105546 0.5769103169 4281619241
-0.2734886706 -0.1458013952 0.5770363212 4281750827
-0.2735481560 -0.1451918334 0.5771617889 4281816620
-0.2731896937 -0.1443611383 0.5764054656 4281817133
-0.2732486427 -0.1437517107 0.5765298009 4281817133
-0.2737252414 -0.1433607787 0.5775354505 4281882926
-0.2733658254 -0.1425316930 0.5767771006 4281948719
-0.2738421857 -0.1421381086 0.5777821541 4281948719
-0.2739003003 -0.1415261775 0.5779048204 4282014512
-0.2739582062 -0.1409138739 0.5780269504 4282080305
-0.2740159035 -0.1403011680 0.5781486630 4282146098
-0.2744917572 -0.1399013549 0.5791527033 4282211891
-0.2745490670 -0.1392869502 0.5792736411 4282277684
-0.2746061683 -0.1386721581 0.5793940425 4282277684
-0.2746630013 -0.1380569786 0.5795140266 4282277684
-0.2751384079 -0.1376509368 0.5805170536 4282277429
-0.2751948833 -0.1370340735 0.5806362629 4282409015
-0.2752511203 -0.1364168227 0.5807549357 4282606394
-0.2753071487 -0.1357991844 0.5808730721 4282606394
-0.2757820487 -0.1353869289 0.5818750858 4282672442
-0.2758376896 -0.1347676069 0.5819925070 4282738235
-0.2758930922 -0.1341479123 0.5821093917 4282738235
-0.2763676345 -0.1337307841 0.5831106305 4282606649
-0.2768421173 -0.1333113760 0.5841117501 4282737723
-0.2768969834 -0.1326886863 0.5842275023 4283264067
-0.2773712277 -0.1322657168 0.5852281451 4283592010
-0.2774257064 -0.1316413432 0.5853430629 4283657803
-0.2778997421 -0.1312147975 0.5863432288 4284183896
-0.2779538333 -0.1305887401 0.5864573717 4284447068
-0.2784276307 -0.1301586330 0.5874570608 4282934599
-0.2793214023 -0.1299216449 0.5893427730 4281223981
-0.2797951102 -0.1294860840 0.5903422832 4281091116
-0.2806889713 -0.1292417347 0.5922282338 4281485874
-0.2811626196 -0.1288007051 0.5932275653 4281354288
-0.2820565104 -0.1285489947 0.5951136947 4281485874
-0.2829505205 -0.1282931268 0.5969998837 4281617460
-0.2838445604 -0.1280331016 0.5988863111 4281749046
-0.2847386897 -0.1277689040 0.6007727981 4281815352
-0.2856329083 -0.1275005490 0.6026594639 4281881145
-0.2861064076 -0.1270412058 0.6036585569 4282078524
-0.2870006561 -0.1267654747 0.6055453420 4282210110
-0.2878949344 -0.1264855862 0.6074321866 4282210626
-0.2883683145 -0.1260175556 0.6084309816 4282276419
-0.2888416052 -0.1255472600 0.6094295979 4282473798
-0.2888936698 -0.1248926371 0.6095393896 4282736970
-0.2889454663 -0.1242376715 0.6096487045 4283197521
-0.2894182801 -0.1237624958 0.6106463075 4283592279
-0.2894696295 -0.1231058687 0.6107546687 4284117604
-0.2895207405 -0.1224488914 0.6108624935 4284380776
-0.2891500890 -0.1216142848 0.6100804806 4285038453
-0.2892006338 -0.1209575757 0.6101870537 4287143829
-0.2785909474 -0.1940393895 0.5891823173 4286020736
-0.2786673903 -0.1934378296 0.5893439651 4285560954
-0.2783336937 -0.1925521791 0.5886382461 4285429368
-0.2788196504 -0.1922332048 0.5896660089 4285428852
-0.2788954973 -0.1916301548 0.5898264050 4285297266
-0.2789711356 -0.1910266131 0.5899863839 4285034092
-0.2790465951 -0.1904225796 0.5901459455 4284836713
-0.2791218460 -0.1898180693 0.5903050900 4284902506
-0.2787863016 -0.1889348030 0.5895954967 4284770920
-0.2792717516 -0.1886075586 0.5906221271 4284705127
-0.2793464065 -0.1880015731 0.5907799602 4284836713
-0.2794208527 -0.1873951107 0.5909374356 4284968299
-0.2794950902 -0.1867881566 0.5910944939 4284705127
-0.2799802721 -0.1864545196 0.5921205878 4284573539
-0.2800542414 -0.1858457029 0.5922769904 4284573539
-0.2805393338 -0.1855084151 0.5933029056 4284573793
-0.2806129754 -0.1848977506 0.5934586525 4284508000
-0.2810980082 -0.1845568120 0.5944843888 4284507746
-0.2811713517 -0.1839442849 0.5946395397 4284376160
-0.2812445164 -0.1833312809 0.5947942138 4284311139
-0.2817293406 -0.1829853207 0.5958195925 4284376932
-0.2822141647 -0.1826370806 0.5968449116 4284507750
-0.2818748057 -0.1817551255 0.5961272120 4284441957
-0.2823594213 -0.1814041436 0.5971521735 4284112992
-0.2824317515 -0.1807869524 0.5973051190 4283915613
-0.2825038731 -0.1801692992 0.5974575877 4283981406
-0.2825757563 -0.1795511693 0.5976096392 4283915613
-0.2830600739 -0.1791937798 0.5986339450 4283719002
-0.2831316590 -0.1785738021 0.5987853408 4283850588
-0.2832030356 -0.1779533625 0.5989362597 4283456339
-0.2832742035 -0.1773324460 0.5990867615 4283061581
-0.2837581933 -0.1769686490 0.6001102924 4282733896
-0.2838290036 -0.1763458997 0.6002601385 4282339138
-0.2838996351 -0.1757226735 0.6004094481 4281683000
-0.2839700282 -0.1750990003 0.6005584002 4281485621
-0.2840402424 -0.1744748503 0.6007068157 4281157160
-0.2841102183 -0.1738502383 0.6008548141 4281157160
-0.2845936120 -0.1734773070 0.6018771529 4280894501
-0.2846632600 -0.1728508621 0.6020244360 4280697122
-0.2847326696 -0.1722239703 0.6021712422 4280762913
-0.2843879163 -0.1713472009 0.6014421582 4280894499
-0.2836287022 -0.1702232957 0.5998364687 4280960294
-0.2841113210 -0.1698453426 0.6008571386 4280960294
-0.2829369009 -0.1684784293 0.5983734131 4281091878
-0.2821760178 -0.1673623025 0.5967642665 4281091878
-0.2814145088 -0.1662493795 0.5951537490 4281091876
-0.2802378535 -0.1648957580 0.5926652551 4281223462
-0.2794750333 -0.1637901962 0.5910519958 4281355048
-0.2787115872 -0.1626878679 0.5894374251 4281486634
-0.2779475451 -0.1615887731 0.5878216028 4281552427
-0.2775978446 -0.1607331783 0.5870820284 4281552427
-0.2772477269 -0.1598789841 0.5863415599 4281422375
-0.2764820457 -0.1587877870 0.5847222805 4281488168
-0.2765462399 -0.1581748277 0.5848580003 4281487913
-0.2761948705 -0.1573248804 0.5841149688 4281422120
-0.2758431137 -0.1564763337 0.5833709836 4281422375
-0.2759064436 -0.1558639556 0.5835049748 4281488168
-0.2759695947 -0.1552511454 0.5836384892 4281488166
-0.2756167650 -0.1544050425 0.5828923583 4281553959
-0.2752635479 -0.1535603553 0.5821453333 4281619750
-0.2749099433 -0.1527170986 0.5813974738 4281619750
-0.2745558918 -0.1518752873 0.5806487203 4281488936
-0.2746175528 -0.1512641013 0.5807791352 4281488936
-0.2742627859 -0.1504242420 0.5800288320 4281488934
-0.2739076316 -0.1495858282 0.5792777538 4281488934
-0.2735520601 -0.1487488598 0.5785257220 4281554981
-0.2731961012 -0.1479133517 0.5777729154 4281554981
-0.2732562721 -0.1473038346 0.5779001713 4281619752
-0.2733162045 -0.1466939300 0.5780269504 4281553959
-0.2733759284 -0.1460836083 0.5781532526 4281619752
-0.2734354436 -0.1454728991 0.5782790780 4281751338
-0.2734947205 -0.1448617876 0.5784044266 4281817133
-0.2731367648 -0.1440303773 0.5776474476 4281817133
-0.2731955051 -0.1434194148 0.5777716637 4281882926
-0.2732540071 -0.1428080499 0.5778954029 4282014512
-0.2737295628 -0.1424133778 0.5789011717 4282014512
-0.2737877369 -0.1418002993 0.5790241361 4282014512
-0.2738456428 -0.1411868334 0.5791466236 4282080305
-0.2739033401 -0.1405729651 0.5792686939 4282146098
-0.2739608288 -0.1399587244 0.5793902278 4282146098
-0.2744357884 -0.1395564973 0.5803946853 4282211891
-0.2744928896 -0.1389405429 0.5805154443 4282277684
-0.2745497525 -0.1383242011 0.5806357265 4282343477
-0.2746064067 -0.1377074867 0.5807555318 4282211636
-0.2750808597 -0.1372990459 0.5817589760 4282409015
-0.2751371264 -0.1366806179 0.5818779469 4282606394
-0.2751931846 -0.1360618174 0.5819965005 4282672187
-0.2756672800 -0.1356484741 0.5829991698 4282737980
-0.2757229507 -0.1350279748 0.5831168890 4282803773
-0.2757783830 -0.1344071031 0.5832340717 4282804028
-0.2762521207 -0.1339888722 0.5842360258 4282738235
-0.2767258286 -0.1335683912 0.5852378011 4283198274
-0.2767807245 -0.1329445094 0.5853539109 4283000895
-0.2772541940 -0.1325204521 0.5863552094 4283526219
-0.2773086727 -0.1318948865 0.5864704847 4284184149
-0.2777819335 -0.1314672530 0.5874713063 4284644447
-0.2778360248 -0.1308400035 0.5875857472 4283394380
-0.2783090472 -0.1304087937 0.5885860920 4280895018
-0.2792012095 -0.1301707774 0.5904729366 4280368674
-0.2796741426 -0.1297341138 0.5914731026 4281024812
-0.2805663645 -0.1294887364 0.5933600664 4281485363
-0.2814587057 -0.1292392015 0.5952472091 4281156909
-0.2823510766 -0.1289855093 0.5971344709 4281617460
-0.2828239202 -0.1285369396 0.5981345177 4281683253
-0.2837163806 -0.1282758713 0.6000218987 4281814839
-0.2846089005 -0.1280106455 0.6019095182 4281946427
-0.2855015099 -0.1277412474 0.6037971973 4282012220
-0.2859742343 -0.1272807866 0.6047969460 4282209857
-0.2872868776 -0.1271899641 0.6075730324 4282341443
-0.2877595425 -0.1267230660 0.6085726619 4282473029
-0.2878119648 -0.1260698587 0.6086835265 4282604615
-0.2882843912 -0.1255993843 0.6096826196 4282736201
-0.2887566984 -0.1251266450 0.6106814742 4282999373
-0.2888085246 -0.1244704723 0.6107910872 4283329107
-0.2888600826 -0.1238139421 0.6109001040 4283789658
-0.2889113724 -0.1231570542 0.6110086441 4284446570
-0.2889624238 -0.1224998236 0.6111165881 4285170293
-0.2885925472 -0.1216648892 0.6103343368 4286682765
-0.2777134180 -0.1932295114 0.5887092948 4285889920
-0.2773803473 -0.1923444420 0.5880032182 4285758334
-0.2774560750 -0.1917434633 0.5881637335 4285561208
-0.2775315940 -0.1911419928 0.5883238316 4285166450
-0.2776069343 -0.1905400306 0.5884835720 4284969069
-0.2776820660 -0.1899375767 0.5886428356 4284969069
-0.2777570188 -0.1893346310 0.5888016820 4284903276
-0.2778317630 -0.1887312084 0.5889601111 4284705897
-0.2779062986 -0.1881272942 0.5891181827 4284705897
-0.2783906460 -0.1877994835 0.5901448727 4284705897
-0.2784649134 -0.1871937066 0.5903022885 4284902506
-0.2785389423 -0.1865874380 0.5904592872 4284836713
-0.2786128223 -0.1859806925 0.5906158686 4284705125
-0.2790969014 -0.1856464744 0.5916420221 4284573539
-0.2791704535 -0.1850378811 0.5917979479 4284639332
-0.2796544731 -0.1847000122 0.5928239822 4284573539
-0.2797277272 -0.1840895563 0.5929793119 4284441953
-0.2802116275 -0.1837480366 0.5940051079 4284376160
-0.2802845836 -0.1831357330 0.5941597819 4284376932
-0.2803573608 -0.1825229377 0.5943139791 4284245346
-0.2808410823 -0.1821763963 0.5953394175 4284113760
-0.2809135318 -0.1815617532 0.5954930186 4284047967
-0.2813971639 -0.1812115759 0.5965182185 4284113758
-0.2814692855 -0.1805950701 0.5966711640 4283982172
-0.2815412283 -0.1799781173 0.5968236327 4283784793
-0.2816129327 -0.1793606728 0.5969756246 4283784793
-0.2816844285 -0.1787427664 0.5971271992 4283719513
-0.2817557156 -0.1781243831 0.5972783566 4283587927
-0.2818267941 -0.1775055379 0.5974290371 4283456341
-0.2818976641 -0.1768862158 0.5975792408 4283258962
-0.2823805809 -0.1765241325 0.5986028910 4282995790
-0.2824511230 -0.1759029776 0.5987524390 4282666825
-0.2829338908 -0.1755372435 0.5997758508 4282337860
-0.2825915813 -0.1746592671 0.5990502238 4282140481
-0.2830741107 -0.1742907912 0.6000731587 4281355052
-0.2831439078 -0.1736668795 0.6002210975 4281289259
-0.2836263180 -0.1732947528 0.6012437344 4280960294
-0.2836957872 -0.1726689935 0.6013909578 4280631329
-0.2837650478 -0.1720427871 0.6015377641 4280697120
-0.2838340700 -0.1714161187 0.6016840935 4280697120
-0.2830763757 -0.1702917963 0.6000778675 4280762913
-0.2835581005 -0.1699137390 0.6010990739 4280894499
-0.2827994823 -0.1687930673 0.5994909406 4280960292
-0.2820402086 -0.1676756144 0.5978814363 4281091878
-0.2812803686 -0.1665613651 0.5962706208 4281157669
-0.2805198729 -0.1654503345 0.5946585536 4281157669
-0.2797587812 -0.1643425375 0.5930451751 4281289509
-0.2785831392 -0.1629957706 0.5905529857 4281421095
-0.2778207362 -0.1618953347 0.5889368057 4281552427
-0.2774718702 -0.1610385031 0.5881972313 4281684013
-0.2771225572 -0.1601830721 0.5874567628 4281422120
-0.2763585448 -0.1590905488 0.5858371258 4281422120
-0.2760083377 -0.1582388580 0.5850947499 4281422375
-0.2760722339 -0.1576252580 0.5852302313 4281422375
-0.2757212818 -0.1567754894 0.5844863057 4281488168
-0.2753699422 -0.1559271365 0.5837414861 4281553961
-0.2754330039 -0.1553141028 0.5838751793 4281619754
-0.2754958272 -0.1547006667 0.5840083361 4281619754
-0.2751434445 -0.1538547426 0.5832613707 4281488938
-0.2747906446 -0.1530102491 0.5825135112 4281554731
-0.2744374573 -0.1521672010 0.5817647576 4281554731
-0.2740838528 -0.1513255835 0.5810151696 4281554731
-0.2741452157 -0.1507137716 0.5811452270 4281620522
-0.2737908661 -0.1498741060 0.5803940892 4281620522
-0.2734361291 -0.1490359008 0.5796421170 4281554727
-0.2730810046 -0.1481991410 0.5788892508 4281554727
-0.2731411755 -0.1475884765 0.5790168643 4281620522
-0.2727853358 -0.1467537135 0.5782625079 4281620522
-0.2728449702 -0.1461431682 0.5783889890 4281620522
-0.2729044259 -0.1455322355 0.5785149336 4281554729
-0.2729636431 -0.1449209005 0.5786404610 4281620522
-0.2730226219 -0.1443091631 0.5787655115 4281686315
-0.2730813920 -0.1436970383 0.5788900852 4281752108
-0.2731399238 -0.1430845112 0.5790141821 4281817901
-0.2731982172 -0.1424715966 0.5791378021 4281883696
-0.2736728787 -0.1420745403 0.5801439285 4281883696
-0.2737308145 -0.1414598972 0.5802667737 4281949489
-0.2737885416 -0.1408448815 0.5803891420 4282015282
-0.2738460302 -0.1402294636 0.5805110335 4282080820
-0.2743201852 -0.1398261636 0.5815162063 4282080820
-0.2743773162 -0.1392090470 0.5816372633 4282080820
-0.2744342089 -0.1385915428 0.5817579031 4282146613
-0.2744908929 -0.1379736513 0.5818780065 4282146615
-0.2745473385 -0.1373553723 0.5819976330 4282212408
-0.2750208676 -0.1369445324 0.5830014944 4282343994
-0.2750769258 -0.1363245547 0.5831203461 4282541373
-0.2755502462 -0.1359101236 0.5841236711 4282869568
-0.2756059170 -0.1352884471 0.5842417479 4282935361
-0.2756613791 -0.1346664131 0.5843592882 4283066438
-0.2761343420 -0.1342470795 0.5853618979 4283132231
-0.2766072452 -0.1338254958 0.5863643885 4283460173
-0.2766621709 -0.1332004368 0.5864807963 4284052310
-0.2771348357 -0.1327752769 0.5874827504 4283986260
-0.2771893442 -0.1321485341 0.5875983238 4284709983
-0.2776618004 -0.1317197978 0.5885998607 4283854163
-0.2781341970 -0.1312887967 0.5896012187 4280630306
-0.2786064744 -0.1308555454 0.5906024575 4279511571
-0.2790787220 -0.1304200292 0.5916035175 4280366880
-0.2799693346 -0.1301768273 0.5934914947 4280432675
-0.2804414928 -0.1297358274 0.5944923759 4280564261
-0.2813321948 -0.1294852644 0.5963805318 4280958764
-0.2822229862 -0.1292305440 0.5982688665 4281287729
-0.2831138670 -0.1289716512 0.6001573801 4281288242
-0.2840047777 -0.1287086010 0.6020460129 4281748793
-0.2844768167 -0.1282524914 0.6030466557 4281814586
-0.2857868373 -0.1281699836 0.6058236957 4282143551
-0.2862588465 -0.1277074367 0.6068242788 4281814586
-0.2867307663 -0.1272426397 0.6078246236 4281880379
-0.2872025669 -0.1267755628 0.6088247895 4282144066
-0.2872549295 -0.1261221021 0.6089358330 4282341445
-0.2877264619 -0.1256514639 0.6099354029 4282341445
-0.2877784073 -0.1249963343 0.6100454926 4282604617
-0.2878300846 -0.1243408546 0.6101550460 4283196754
-0.2878815234 -0.1236850247 0.6102640629 4283591512
-0.2879326940 -0.1230288446 0.6103725433 4284576364
-0.2879836261 -0.1223723218 0.6104804873 4285694845
-0.2880342901 -0.1217154413 0.6105878949 4287537565
-0.2768362463 -0.1924201995 0.5882347822 4285889920
-0.2769118845 -0.1918190122 0.5883954763 4285627001
-0.2761702538 -0.1906532943 0.5868196487 4285429622
-0.2762452960 -0.1900529116 0.5869790912 4285232243
-0.2763200998 -0.1894520372 0.5871380568 4285232243
-0.2763947546 -0.1888506711 0.5872966647 4285100655
-0.2764691710 -0.1882488281 0.5874547958 4284837483
-0.2765434086 -0.1876465082 0.5876125693 4284771692
-0.2770266533 -0.1873203814 0.5886393785 4284837485
-0.2771005929 -0.1867161840 0.5887964964 4284705897
-0.2771743536 -0.1861115098 0.5889531970 4284705897
-0.2776574194 -0.1857803613 0.5899796486 4284705125
-0.2781405151 -0.1854469478 0.5910061598 4284573539
-0.2778041363 -0.1845668256 0.5902913809 4284639332
-0.2782870531 -0.1842306554 0.5913174748 4284573539
-0.2787699699 -0.1838922203 0.5923436284 4284441953
-0.2788428068 -0.1832819730 0.5924984217 4284441953
-0.2793256342 -0.1829398870 0.5935243964 4284245346
-0.2793982029 -0.1823277771 0.5936785340 4284179553
-0.2794705629 -0.1817152053 0.5938323140 4284113760
-0.2799531817 -0.1813680977 0.5948578119 4284113760
-0.2804358304 -0.1810187101 0.5958833694 4284113760
-0.2805077732 -0.1804029047 0.5960361958 4283982174
-0.2805795074 -0.1797866374 0.5961886644 4283916381
-0.2810619473 -0.1794322133 0.5972137451 4283850588
-0.2807223499 -0.1785526723 0.5964921713 4283719000
-0.2807934582 -0.1779349744 0.5966432691 4283653207
-0.2808643579 -0.1773168296 0.5967938900 4283456341
-0.2809350491 -0.1766982079 0.5969440937 4283324755
-0.2810055017 -0.1760791093 0.5970938206 4283127376
-0.2810757756 -0.1754595637 0.5972431302 4282864204
-0.2815574408 -0.1750955284 0.5982666016 4282601032
-0.2816273868 -0.1744741350 0.5984152555 4282403653
-0.2821089625 -0.1741064638 0.5994384885 4281749044
-0.2821785510 -0.1734832376 0.5995863676 4281551665
-0.2826600075 -0.1731119007 0.6006093621 4281222954
-0.2827292681 -0.1724868417 0.6007565856 4280893989
-0.2827983201 -0.1718613356 0.6009033322 4280696609
-0.2828671932 -0.1712353528 0.6010496020 4280696609
-0.2825233638 -0.1703602374 0.6003190279 4280631329
-0.2825916708 -0.1697342545 0.6004641652 4280697122
-0.2822471261 -0.1688609719 0.5997320414 4280762915
-0.2819021344 -0.1679890454 0.5989990234 4280894501
-0.2811439335 -0.1668734699 0.5973879099 4280960290
-0.2803850770 -0.1657611132 0.5957754850 4280960290
-0.2796256244 -0.1646519750 0.5941618085 4281157669
-0.2784524262 -0.1633037776 0.5916689038 4281355048
-0.2776916623 -0.1622020155 0.5900524259 4281486634
-0.2773436010 -0.1613439471 0.5893128514 4281552427
-0.2769951522 -0.1604872942 0.5885724425 4281421863
-0.2766462862 -0.1596320271 0.5878311396 4281421863
-0.2758833766 -0.1585405022 0.5862100720 4281421863
-0.2755335867 -0.1576889902 0.5854668617 4281421863
-0.2755972147 -0.1570747495 0.5856019855 4281422375
-0.2752466798 -0.1562251598 0.5848572254 4281488168
-0.2753097713 -0.1556109935 0.5849912167 4281619754
-0.2749585211 -0.1547633260 0.5842449069 4281619754
-0.2750210762 -0.1541492492 0.5843778253 4281553959
-0.2746691108 -0.1533035189 0.5836299658 4281619752
-0.2743167281 -0.1524592191 0.5828812122 4281423143
-0.2739639580 -0.1516163647 0.5821316242 4281423143
-0.2736107707 -0.1507749557 0.5813811421 4281488934
-0.2736718357 -0.1501625031 0.5815109015 4281554727
-0.2733179331 -0.1493230611 0.5807589293 4281488934
-0.2729636431 -0.1484850496 0.5800060630 4281554727
-0.2730238438 -0.1478732377 0.5801340342 4281620522
-0.2726688087 -0.1470372230 0.5793796182 4281620522
-0.2727285028 -0.1464255303 0.5795064569 4281620522
-0.2727879584 -0.1458134353 0.5796328187 4281686315
-0.2728472054 -0.1452009529 0.5797586441 4281686315
-0.2729062140 -0.1445880532 0.5798840523 4281752108
-0.2729649842 -0.1439747661 0.5800089240 4281817901
-0.2730235457 -0.1433610916 0.5801333785 4281883694
-0.2730818987 -0.1427470148 0.5802573562 4281949489
-0.2735557258 -0.1423488855 0.5812641978 4281949489
-0.2736136913 -0.1417330801 0.5813873410 4281949489
-0.2736714482 -0.1411169022 0.5815100670 4282015282
-0.2737289667 -0.1405003220 0.5816322565 4282015282
-0.2742023468 -0.1400959492 0.5826381445 4282081075
-0.2742594779 -0.1394776553 0.5827595592 4282146868
-0.2743164003 -0.1388589740 0.5828804970 4282146868
-0.2743730843 -0.1382399201 0.5830009580 4282080822
-0.2744295597 -0.1376204789 0.5831209421 4282212408
-0.2744857967 -0.1370006502 0.5832403898 4282475580
-0.2749583721 -0.1365873963 0.5842446089 4282541373
-0.2754309177 -0.1361718774 0.5852487087 4282540605
-0.2754866183 -0.1355490386 0.5853670239 4282737984
-0.2759589553 -0.1351299286 0.5863706470 4283197770
-0.2760142684 -0.1345053911 0.5864881873 4283263563
-0.2764863670 -0.1340827197 0.5874913931 4283591759
-0.2765413225 -0.1334564835 0.5876080990 4284249689
-0.2770132124 -0.1330302209 0.5886107683 4284972644
-0.2770677507 -0.1324022859 0.5887266994 4283919956
-0.2775394022 -0.1319724470 0.5897288918 4280959017
-0.2780109942 -0.1315403581 0.5907309055 4278787848
-0.2784824967 -0.1311059892 0.5917328000 4279116045
-0.2793715298 -0.1308649778 0.5936218500 4279905561
-0.2798429430 -0.1304251403 0.5946235657 4279774490
-0.2807320654 -0.1301767528 0.5965127945 4280037662
-0.2812034190 -0.1297314316 0.5975143313 4280432422
-0.2820926011 -0.1294756681 0.5994037390 4280958766
-0.2829818428 -0.1292157471 0.6012932658 4281156145
-0.2842892408 -0.1291415691 0.6040712595 4281550903
-0.2851787210 -0.1288723499 0.6059612632 4281616696
-0.2856500149 -0.1284109503 0.6069626808 4281814075
-0.2861212194 -0.1279472858 0.6079639196 4281485623
-0.2861739397 -0.1272952557 0.6080759764 4281880381
-0.2866448760 -0.1268279999 0.6090766788 4282077762
-0.2866972089 -0.1261743009 0.6091877818 4282011969
-0.2871678472 -0.1257034689 0.6101878881 4282143301
-0.2872197330 -0.1250481009 0.6102980971 4282669645
-0.2872713804 -0.1243923679 0.6104078293 4283262293
-0.2873227298 -0.1237362847 0.6105169654 4283657051
-0.2869549394 -0.1229004338 0.6097354889 4284642157
-0.2865867615 -0.1220661476 0.6089531183 4285892224
-0.2866372168 -0.1214109287 0.6090603471 4287471004
-0.2755518258 -0.1913284212 0.5868906379 4285758333
-0.2752192318 -0.1904461980 0.5861822367 4285626747
-0.2748862207 -0.1895652562 0.5854729414 4285429622
-0.2749607265 -0.1889659613 0.5856316686 4285363829
-0.2750350535 -0.1883661896 0.5857899785 4285232243
-0.2751091719 -0.1877659261 0.5859478712 4284969071
-0.2751831114 -0.1871651858 0.5861053467 4284771692
-0.2752568424 -0.1865639538 0.5862623453 4284771692
-0.2757388651 -0.1862381548 0.5872890353 4284771692
-0.2758123279 -0.1856350601 0.5874454975 4284705899
-0.2758855820 -0.1850314885 0.5876014829 4284574311
-0.2763674557 -0.1847006679 0.5886278152 4284508518
-0.2764404118 -0.1840952486 0.5887832046 4284574311
-0.2773312330 -0.1840322018 0.5906805396 4284508518
-0.2774040103 -0.1834240407 0.5908355713 4284376932
-0.2778858244 -0.1830850244 0.5918617845 4284311139
-0.2779582739 -0.1824749857 0.5920161009 4284507748
-0.2780305445 -0.1818644851 0.5921700001 4284310369
-0.2785121799 -0.1815204471 0.5931958556 4284244576
-0.2785841525 -0.1809080988 0.5933490992 4284244576
-0.2790656686 -0.1805604100 0.5943747163 4284178783
-0.2791373134 -0.1799461991 0.5945273042 4284112990
-0.2792087793 -0.1793315262 0.5946794748 4283982174
-0.2796901166 -0.1789788008 0.5957046747 4283916381
-0.2797612250 -0.1783622801 0.5958561301 4283719000
-0.2798321545 -0.1777452976 0.5960071683 4283653207
-0.2799028456 -0.1771278381 0.5961577892 4283521621
-0.2799733579 -0.1765099019 0.5963079333 4283390035
-0.2796330154 -0.1756336093 0.5955830812 4283324242
-0.2797029912 -0.1750156581 0.5957320929 4283126863
-0.2801835835 -0.1746533215 0.5967556834 4282864204
-0.2802532315 -0.1740335375 0.5969040394 4282732618
-0.2807337046 -0.1736675650 0.5979273915 4282143293
-0.2808030248 -0.1730459481 0.5980750322 4281945914
-0.2812833786 -0.1726763248 0.5990981460 4281616947
-0.2813523710 -0.1720528752 0.5992450714 4281287982
-0.2814211547 -0.1714289635 0.5993915796 4280893478
-0.2814897001 -0.1708046049 0.5995376110 4280696099
-0.2815580666 -0.1701797843 0.5996831656 4280564770
-0.2816261947 -0.1695545167 0.5998283029 4280630563
-0.2812822759 -0.1686818153 0.5990957618 4280762403
-0.2809379399 -0.1678104848 0.5983623862 4280762403
-0.2805931866 -0.1669405550 0.5976280570 4280697120
-0.2798358798 -0.1658277810 0.5960151553 4280762913
-0.2790779769 -0.1647182256 0.5944008827 4280960290
-0.2787317634 -0.1638542861 0.5936635137 4281157669
-0.2779727280 -0.1627502888 0.5920468569 4281289255
-0.2772130966 -0.1616495103 0.5904289484 4281355048
-0.2768654823 -0.1607916206 0.5896885395 4281355302
-0.2765174210 -0.1599351317 0.5889472365 4281421095
-0.2761689723 -0.1590800434 0.5882050991 4281421095
-0.2758201063 -0.1582263857 0.5874620676 4281421095
-0.2754708529 -0.1573741287 0.5867181420 4281355816
-0.2751211524 -0.1565233022 0.5859733820 4281487402
-0.2751842439 -0.1559080034 0.5861077905 4281553449
-0.2748338580 -0.1550590992 0.5853614807 4281619242
-0.2748964131 -0.1544438601 0.5854946971 4281685547
-0.2741318047 -0.1533655822 0.5838661790 4281619754
-0.2741937637 -0.1527513564 0.5839981437 4281619752
-0.2738417983 -0.1519072652 0.5832485557 4281619752
-0.2734894753 -0.1510646045 0.5824980736 4281685545
-0.2731367052 -0.1502234042 0.5817467570 4281685545
-0.2731974721 -0.1496103257 0.5818761587 4281620522
-0.2728440166 -0.1487710774 0.5811233521 4281686315
-0.2724901140 -0.1479332894 0.5803695917 4281751340
-0.2725500464 -0.1473208517 0.5804972053 4281751340
-0.2726097405 -0.1467079967 0.5806244016 4281817133
-0.2722548246 -0.1458727270 0.5798684955 4281817133
-0.2723140121 -0.1452600211 0.5799944997 4281882926
-0.2727875113 -0.1448670626 0.5810030103 4281948719
-0.2728463113 -0.1442526132 0.5811282396 4282014512
-0.2729049027 -0.1436377764 0.5812530518 4282014512
-0.2729632556 -0.1430225372 0.5813773274 4282080305
-0.2734363377 -0.1426233351 0.5823848844 4282080305
-0.2734943032 -0.1420063823 0.5825083852 4282145843
-0.2735520899 -0.1413890272 0.5826314688 4282145843
-0.2736096084 -0.1407712847 0.5827540159 4282145843
-0.2740822136 -0.1403658241 0.5837605596 4282277429
-0.2741393745 -0.1397463679 0.5838823318 4282343222
-0.2741963267 -0.1391265243 0.5840035677 4282343222
-0.2742530406 -0.1385062933 0.5841243863 4282146361
-0.2743095160 -0.1378856897 0.5842446685 4282212154
-0.2743657529 -0.1372646838 0.5843644738 4282474812
-0.2748375535 -0.1368503422 0.5853693485 4282737984
-0.2753093243 -0.1364337355 0.5863741040 4283000391
-0.2753650248 -0.1358097196 0.5864928365 4283066184
-0.2758365571 -0.1353895217 0.5874971151 4283394382
-0.2763080299 -0.1349670738 0.5885012746 4283657554
-0.2763632238 -0.1343400329 0.5886188149 4284051803
-0.2768344879 -0.1339139938 0.5896224976 4284578147
-0.2768892646 -0.1332852542 0.5897392631 4284051035
-0.2773602903 -0.1328556389 0.5907424688 4280827178
-0.2774147093 -0.1322252154 0.5908583403 4278918413
-0.2778854966 -0.1317920089 0.5918610692 4279444757
-0.2787729204 -0.1315531731 0.5937511325 4279641625
-0.2792436182 -0.1311144978 0.5947537422 4279510039
-0.2801311314 -0.1308682859 0.5966439843 4279839517
-0.2806017697 -0.1304241270 0.5976463556 4280036896
-0.2814893425 -0.1301705539 0.5995367765 4280036896
-0.2823770046 -0.1299128085 0.6014273763 4280365861
-0.2828475237 -0.1294599473 0.6024295688 4280563242
-0.2837352455 -0.1291948110 0.6043202877 4280892207
-0.2846230268 -0.1289255023 0.6062111259 4281024307
-0.2850934565 -0.1284639239 0.6072130799 4281287479
-0.2855637968 -0.1280000955 0.6082148552 4280892721
-0.2856164575 -0.1273478121 0.6083270311 4281353272
-0.2856688797 -0.1266951561 0.6084386706 4281616958
-0.2861387730 -0.1262264252 0.6094394922 4281880130
-0.2861907482 -0.1255721152 0.6095502377 4282406474
-0.2858246267 -0.1247350797 0.6087704301 4283064404
-0.2858760655 -0.1240810081 0.6088799238 4283656541
-0.2859272063 -0.1234265864 0.6089889407 4284182885
-0.2859781384 -0.1227718145 0.6090973616 4284839025
-0.2856106162 -0.1219381616 0.6083146334 4286286471
-0.2856609523 -0.1212836504 0.6084218025 4287667870
-0.2738622427 -0.1899565458 0.5846751332 4285824126
-0.2739367485 -0.1893584430 0.5848342180 4285560954
-0.2736039162 -0.1884793639 0.5841236115 4285429368
-0.2736779451 -0.1878811717 0.5842816830 4285363829
-0.2737517655 -0.1872825027 0.5844392776 4285166450
-0.2738253772 -0.1866833419 0.5845964551 4284903278
-0.2743063867 -0.1863606125 0.5856233835 4284837485
-0.2743797302 -0.1857595891 0.5857799649 4284903278
-0.2748606801 -0.1854332089 0.5868067145 4284771692
-0.2749337256 -0.1848303378 0.5869626999 4284640104
-0.2754146159 -0.1845003217 0.5879893303 4284508518
-0.2758954763 -0.1841680259 0.5890159607 4284508518
-0.2755599320 -0.1832903773 0.5882995725 4284508518
-0.2760406137 -0.1829553396 0.5893258452 4284376932
-0.2765213251 -0.1826180220 0.5903521180 4284376932
-0.2765935063 -0.1820095927 0.5905061960 4284573543
-0.2770741284 -0.1816686243 0.5915322900 4284376164
-0.2775547504 -0.1813253909 0.5925583839 4284244578
-0.2776265442 -0.1807137281 0.5927116275 4284244578
-0.2781070769 -0.1803668439 0.5937375426 4284244578
-0.2781785429 -0.1797533333 0.5938900709 4284178785
-0.2782497704 -0.1791393459 0.5940422416 4283982174
-0.2783208191 -0.1785248965 0.5941938758 4283850588
-0.2783916593 -0.1779099703 0.5943450928 4283719002
-0.2784622908 -0.1772945821 0.5944958925 4283587416
-0.2789423168 -0.1769385487 0.5955207348 4283521621
-0.2790126204 -0.1763213128 0.5956708193 4283455828
-0.2786729336 -0.1754456013 0.5949455500 4283455828
-0.2787427008 -0.1748283505 0.5950945616 4283324242
-0.2788122892 -0.1742106378 0.5952430964 4283061583
-0.2792917788 -0.1738477349 0.5962668061 4282864204
-0.2793610394 -0.1732281893 0.5964146256 4282536771
-0.2798403800 -0.1728616357 0.5974380374 4282405185
-0.2799093127 -0.1722402573 0.5975852013 4282142524
-0.2803885639 -0.1718700528 0.5986083150 4281879352
-0.2804571688 -0.1712468415 0.5987547636 4281484593
-0.2805255353 -0.1706231833 0.5989007950 4281024042
-0.2805937231 -0.1699990630 0.5990462899 4280695845
-0.2802507281 -0.1691264957 0.5983141065 4280630052
-0.2803183794 -0.1685023755 0.5984584689 4280630817
-0.2799746692 -0.1676316559 0.5977246761 4280696610
-0.2800417542 -0.1670075655 0.5978679657 4280696609
-0.2796973288 -0.1661386937 0.5971326232 4280696609
-0.2789410651 -0.1650278121 0.5955179930 4280762911
-0.2785956860 -0.1641626358 0.5947806835 4280894497
-0.2778382897 -0.1630572975 0.5931637287 4280960290
-0.2774920166 -0.1621958464 0.5924243927 4281091876
-0.2767335176 -0.1610960662 0.5908050537 4281091878
-0.2767981887 -0.1604771465 0.5909431577 4281091878
-0.2764506638 -0.1596199125 0.5902012587 4281157673
-0.2761027515 -0.1587640792 0.5894584060 4281223466
-0.2753421962 -0.1576736420 0.5878347754 4281355050
-0.2754056454 -0.1570566893 0.5879701972 4281486636
-0.2750564814 -0.1562051177 0.5872247219 4281487404
-0.2747069001 -0.1553549767 0.5864784122 4281553197
-0.2747694850 -0.1547386050 0.5866120458 4281685292
-0.2744191885 -0.1538903862 0.5858641863 4281619499
-0.2740685046 -0.1530436128 0.5851154923 4281619754
-0.2733045220 -0.1519687176 0.5834844708 4281685547
-0.2737787962 -0.1515830159 0.5844970345 4281554731
-0.2730139494 -0.1505119354 0.5828641057 4281554731
-0.2726616263 -0.1496709287 0.5821118951 4281620524
-0.2727220953 -0.1490572095 0.5822409987 4281686317
-0.2723690569 -0.1482181847 0.5814872980 4281816878
-0.2724289894 -0.1476045847 0.5816152692 4281816878
-0.2724887133 -0.1469905823 0.5817427635 4281816878
-0.2721346319 -0.1461540759 0.5809868574 4281816878
-0.2721938193 -0.1455401927 0.5811132193 4281948464
-0.2722527981 -0.1449259222 0.5812391043 4282014257
-0.2727253735 -0.1445305794 0.5822480321 4282014257
-0.2727839947 -0.1439145803 0.5823731422 4282080050
-0.2728423774 -0.1432981789 0.5824977756 4282014259
-0.2729005218 -0.1426813900 0.5826219320 4282080052
-0.2733726501 -0.1422797740 0.5836299062 4282145845
-0.2734304368 -0.1416612566 0.5837532878 4282145845
-0.2734879851 -0.1410423517 0.5838761330 4282211638
-0.2739597857 -0.1406358182 0.5848833919 4282343224
-0.2740169764 -0.1400151998 0.5850055218 4282409017
-0.2740739584 -0.1393941790 0.5851271152 4282409017
-0.2741306722 -0.1387727857 0.5852482319 4282146365
-0.2746019959 -0.1383600086 0.5862544179 4282409537
-0.2746583521 -0.1377368867 0.5863747597 4282540353
-0.2747144699 -0.1371134073 0.5864945650 4282737732
-0.2751854062 -0.1366956979 0.5875000358 4283263566
-0.2752411664 -0.1360705048 0.5876190066 4283329359
-0.2757118940 -0.1356492192 0.5886240005 4283591509
-0.2757672668 -0.1350223273 0.5887421966 4284183646
-0.2762377858 -0.1345974505 0.5897467136 4284577381
-0.2767082453 -0.1341703087 0.5907511115 4283524693
-0.2771786153 -0.1337409168 0.5917553306 4281879100
-0.2772332728 -0.1331096739 0.5918720365 4279839517
-0.2777034342 -0.1326766908 0.5928757787 4279707421
-0.2781735063 -0.1322414279 0.5938793421 4280299558
-0.2786435187 -0.1318039000 0.5948827863 4279772960
-0.2791134417 -0.1313641220 0.5958860517 4279772960
-0.2799993157 -0.1311168820 0.5977773070 4279707933
-0.2804691494 -0.1306716055 0.5987803936 4279971105
-0.2817713320 -0.1306099147 0.6015604138 4279905057
-0.2826574445 -0.1303501874 0.6034522057 4280168229
-0.2831272781 -0.1298952550 0.6044552922 4280168229
-0.2835969925 -0.1294380575 0.6054581404 4280365608
-0.2840666473 -0.1289785802 0.6064607501 4280694573
-0.2845361829 -0.1285168529 0.6074632406 4280891952
-0.2845889926 -0.1278656274 0.6075758934 4280695343
-0.2850582600 -0.1274003088 0.6085777879 4281090101
-0.2851106226 -0.1267474145 0.6086896062 4281353275
-0.2851627469 -0.1260941476 0.6088008285 4282142791
-0.2852146029 -0.1254405379 0.6089115739 4283063893
-0.2848491669 -0.1246041358 0.6081313491 4283524444
-0.2849004269 -0.1239507720 0.6082408428 4283985252
-0.2849514782 -0.1232970580 0.6083498001 4284972147
-0.2845849693 -0.1224634200 0.6075673699 4285431162
-0.2846354246 -0.1218099669 0.6076750755 4287207573
-0.2842682004 -0.1209785119 0.6068910956 4288391593
-0.2729882598 -0.1891513020 0.5841944814 4285758333
-0.2730623782 -0.1885534078 0.5843530893 4285626747
-0.2727298439 -0.1876753271 0.5836415291 4285495161
-0.2728034854 -0.1870773435 0.5837990642 4285363575
-0.2728768885 -0.1864788830 0.5839561820 4285166450
-0.2729501426 -0.1858799309 0.5841128826 4285034864
-0.2730231583 -0.1852805018 0.5842691660 4284969071
-0.2730959952 -0.1846805960 0.5844250321 4284837485
-0.2739828527 -0.1846288890 0.5863229036 4284640106
-0.2740555108 -0.1840262264 0.5864784122 4284508520
-0.2745352983 -0.1836956292 0.5875051618 4284442725
-0.2746076584 -0.1830911189 0.5876600146 4284442725
-0.2750873566 -0.1827568859 0.5886865854 4284442725
-0.2751594186 -0.1821505278 0.5888407826 4284442725
-0.2756390572 -0.1818126291 0.5898671746 4284573543
-0.2757108212 -0.1812044233 0.5900207758 4284507750
-0.2761903405 -0.1808628887 0.5910469890 4284179555
-0.2762618065 -0.1802528203 0.5911999345 4284179555
-0.2767412663 -0.1799076349 0.5922259092 4284245348
-0.2768124342 -0.1792957187 0.5923781991 4284179555
-0.2772917747 -0.1789468825 0.5934039950 4283982174
-0.2773626149 -0.1783331335 0.5935556293 4283784795
-0.2774332762 -0.1777189076 0.5937067866 4283784795
-0.2775036991 -0.1771042049 0.5938575268 4283719002
-0.2775739431 -0.1764890403 0.5940078497 4283653209
-0.2776439786 -0.1758734137 0.5941576958 4283587416
-0.2777137756 -0.1752573252 0.5943071246 4283522134
-0.2781924903 -0.1748979688 0.5953315496 4283324755
-0.2778527737 -0.1740237474 0.5946045518 4283127376
-0.2783312798 -0.1736616492 0.5956285000 4282929997
-0.2784003317 -0.1730427891 0.5957763195 4282798921
-0.2784692049 -0.1724234819 0.5959237218 4282733128
-0.2789474726 -0.1720563620 0.5969471931 4282536517
-0.2790159881 -0.1714352220 0.5970938206 4282339138
-0.2790843248 -0.1708136201 0.5972400308 4282076220
-0.2791524231 -0.1701915562 0.5973857641 4281549876
-0.2792203128 -0.1695690453 0.5975310802 4280893226
-0.2792879641 -0.1689460874 0.5976758599 4280695847
-0.2793554366 -0.1683226675 0.5978202224 4280498977
-0.2794226706 -0.1676988006 0.5979641080 4280498977
-0.2790792882 -0.1668291539 0.5972292423 4280499743
-0.2787354589 -0.1659608781 0.5964935422 4280631329
-0.2783912420 -0.1650940031 0.5957568884 4280566304
-0.2780466378 -0.1642285138 0.5950194001 4280566304
-0.2777015865 -0.1633644253 0.5942810178 4280566302
-0.2765343189 -0.1620202512 0.5917830467 4280500509
-0.2774212360 -0.1618802696 0.5936810970 4280828453
-0.2766639590 -0.1607805640 0.5920605063 4280828453
-0.2763172686 -0.1599220932 0.5913186073 4280894246
-0.2759701908 -0.1590650380 0.5905758142 4281025832
-0.2756226659 -0.1582093835 0.5898321271 4281157418
-0.2752747536 -0.1573551595 0.5890875459 4281289004
-0.2753379941 -0.1567366421 0.5892229080 4281290027
-0.2749893367 -0.1558843255 0.5884767771 4281421613
-0.2746402919 -0.1550334543 0.5877298117 4281684783
-0.2742908299 -0.1541839987 0.5869819522 4281618990
-0.2739409506 -0.1533359885 0.5862332582 4281619499
-0.2731786370 -0.1522597522 0.5846019387 4281685292
-0.2736521065 -0.1518729925 0.5856151581 4281685292
-0.2728888988 -0.1508005708 0.5839818716 4281685292
-0.2725374103 -0.1499583274 0.5832296610 4281554476
-0.2725979090 -0.1493434608 0.5833591819 4281554476
-0.2722457051 -0.1485031843 0.5826054215 4281751857
-0.2723056674 -0.1478884369 0.5827337503 4281686064
-0.2723654211 -0.1472732872 0.5828616023 4281686064
-0.2720121741 -0.1464355141 0.5821056962 4281686064
-0.2720713913 -0.1458204985 0.5822323561 4281751857
-0.2721303701 -0.1452050656 0.5823585987 4281817650
-0.2726021707 -0.1448086500 0.5833682418 4281883443
-0.2726607919 -0.1441914886 0.5834937096 4281949236
-0.2727192044 -0.1435739249 0.5836187005 4281949236
-0.2727773786 -0.1429559737 0.5837431550 4282015029
-0.2728353143 -0.1423376203 0.5838671923 4282080822
-0.2733065188 -0.1419336051 0.5848755240 4282080822
-0.2733640969 -0.1413135380 0.5849987864 4282146615
-0.2734214365 -0.1406930685 0.5851215124 4282278201
-0.2738923132 -0.1402841210 0.5861291289 4282278201
-0.2739492953 -0.1396619380 0.5862510800 4282278201
