VERSION 0.7
FIELDS x y z rgba
SIZE 4 4 4 4
TYPE F F F U
COUNT 1 1 1 1
WIDTH 920
HEIGHT 1
VIEWPOINT 0.0 0.0 0.0 1.0 0.0 0.0 0.0
POINTS 920
DATA ascii
-0.2938039601 -0.1289869398 0.5491244197 4280828938
-0.2933989465 -0.1281998605 0.5483674407 4280894731
-0.2925314009 -0.1272133142 0.5467459559 4280894730
-0.2916632593 -0.1262301207 0.5451233983 4280894730
-0.2907945216 -0.1252502650 0.5434997082 4280828937
-0.2899251878 -0.1242737621 0.5418748856 4280828937
-0.2895177603 -0.1234979108 0.5411134362 4281026314
-0.2891099155 -0.1227235720 0.5403511524 4281355279
-0.2891643345 -0.1221461892 0.5404528379 4281618962
-0.2887557447 -0.1213739663 0.5396892428 4281553169
-0.2888095975 -0.1207968593 0.5397899151 4281224715
-0.2893261611 -0.1204120889 0.5407553315 4281158922
-0.2893796265 -0.1198334098 0.5408552289 4281158665
-0.2898959219 -0.1194452196 0.5418202281 4281027079
-0.2899489999 -0.1188649759 0.5419194698 4281157900
-0.2904651165 -0.1184733659 0.5428840518 4281157900
-0.2909811437 -0.1180795878 0.5438485146 4281289738
-0.2914970815 -0.1176836342 0.5448127985 4281289738
-0.2920129597 -0.1172855049 0.5457770228 4281355784
-0.2920651734 -0.1166999713 0.5458745956 4281487370
-0.2925808132 -0.1162984297 0.5468383431 4281487881
-0.2926326096 -0.1157113314 0.5469351411 4281487881
-0.2926841676 -0.1151239276 0.5470315218 4281554185
-0.2931993902 -0.1147177294 0.5479944944 4281685771
-0.2937145531 -0.1143093556 0.5489572883 4281883150
-0.2942296267 -0.1138988137 0.5499199629 4281817357
-0.2947446108 -0.1134860963 0.5508825183 4281619980
-0.2952595055 -0.1130712107 0.5518448353 4281554187
-0.2962386310 -0.1128310040 0.5536748767 4281423117
-0.2972178161 -0.1125867516 0.5555049777 4281225738
-0.2981970906 -0.1123384610 0.5573352575 4281488140
-0.2991763949 -0.1120861173 0.5591655970 4281488140
-0.3001557887 -0.1118297353 0.5609961152 4281356554
-0.3011352420 -0.1115693077 0.5628266931 4281290761
-0.3016499281 -0.1111335903 0.5637886524 4281356554
-0.3026293814 -0.1108660027 0.5656192899 4281422347
-0.3036088943 -0.1105943620 0.5674499869 4281553935
-0.3045884669 -0.1103186682 0.5692808032 4281751314
-0.3051029742 -0.1098714396 0.5702424645 4281948180
-0.3056173623 -0.1094220281 0.5712038279 4282145559
-0.3061316609 -0.1089704484 0.5721650720 4282145557
-0.3066458106 -0.1085166857 0.5731260777 4282079764
-0.3071598709 -0.1080607474 0.5740868449 4282145557
-0.3072083294 -0.1074398458 0.5741774440 4281882385
-0.3077220917 -0.1069805026 0.5751376152 4281553422
-0.3077701032 -0.1063580737 0.5752273798 4281487629
-0.3082835376 -0.1058953255 0.5761869550 4281423119
-0.3087968528 -0.1054303944 0.5771463513 4281488912
-0.3093100488 -0.1049632952 0.5781055093 4281619728
-0.3093571961 -0.1043368801 0.5781936646 4281422349
-0.3098700643 -0.1038663760 0.5791522264 4281356301
-0.3103828132 -0.1033936962 0.5801105499 4281290508
-0.3108954132 -0.1029188484 0.5810686350 4281093899
-0.3114078939 -0.1024418250 0.5820264816 4281028106
-0.3119202256 -0.1019626334 0.5829840302 4280897033
-0.3124324381 -0.1014812663 0.5839413404 4280962826
-0.3134109080 -0.1011482477 0.5857701302 4281159692
-0.3139229119 -0.1006615907 0.5867270827 4281357071
-0.3139682710 -0.1000241414 0.5868118405 4281554450
-0.3144799173 -0.0995340943 0.5877680779 4281751829
-0.3145247698 -0.0988951474 0.5878519416 4281883928
-0.3150360882 -0.0984017104 0.5888075829 4282212893
-0.3150804639 -0.0977612659 0.5888904929 4282212661
-0.3155913949 -0.0972644389 0.5898454785 4283857486
-0.3165691197 -0.0969083756 0.5916728377 4284183898
-0.3630330265 -0.2027721554 0.6799260974 4285364599
-0.3622092307 -0.2015582770 0.6783831716 4284048731
-0.3613847196 -0.2003474534 0.6768389940 4282930250
-0.3601036966 -0.1988879144 0.6744397283 4282338871
-0.3588217497 -0.1974332035 0.6720387340 4282075699
-0.3566267788 -0.1954833716 0.6679278016 4281615653
-0.3498689830 -0.1910510510 0.6552711129 4281220895
-0.3038692772 -0.1652999222 0.5691180825 4281091607
-0.2993771136 -0.1622332633 0.5607046485 4280960021
-0.3012731969 -0.1626338363 0.5642558932 4280894228
-0.2981475592 -0.1603261083 0.5584018230 4280762642
-0.2973036170 -0.1592536271 0.5568211675 4280631056
-0.2964590192 -0.1581843048 0.5552393794 4280696849
-0.2965275943 -0.1576038450 0.5553678274 4280631568
-0.2961389422 -0.1567810327 0.5546399355 4280499982
-0.2957498729 -0.1559596062 0.5539112091 4280434189
-0.2953603566 -0.1551395804 0.5531816483 4280368396
-0.2945131063 -0.1540817022 0.5515948534 4280434187
-0.2945800424 -0.1535037160 0.5517202020 4280499980
-0.2946467698 -0.1529253572 0.5518451929 4280499980
-0.2947132885 -0.1523465961 0.5519697666 4280499980
-0.2943218350 -0.1515317708 0.5512365699 4280565773
-0.2939299345 -0.1507183611 0.5505026579 4280499980
-0.2939955890 -0.1501402408 0.5506255627 4280499983
-0.2936029434 -0.1493287534 0.5498902202 4280565776
-0.2932098806 -0.1485186964 0.5491540432 4280565776
-0.2928164005 -0.1477100551 0.5484170914 4280565776
-0.2924225032 -0.1469028294 0.5476793051 4280499983
-0.2915697098 -0.1458676904 0.5460821390 4280368397
-0.2911748588 -0.1450642347 0.5453426242 4280302603
-0.2912382185 -0.1444897503 0.5454612970 4280236810
-0.2908425927 -0.1436882615 0.5447203517 4280236810
-0.2909054160 -0.1431139410 0.5448380113 4280236810
-0.2914269567 -0.1427640766 0.5458147526 4280302090
-0.2919484377 -0.1424120218 0.5467914939 4280302090
-0.2924699187 -0.1420577765 0.5477681160 4280302090
-0.2925321162 -0.1414792538 0.5478846431 4280302090
-0.2930534184 -0.1411215514 0.5488610268 4280236810
-0.2935746908 -0.1407616735 0.5498372912 4280236810
-0.2945554554 -0.1406189650 0.5516741872 4280236808
-0.2946171463 -0.1400353312 0.5517897010 4280302601
-0.2951382995 -0.1396688819 0.5527657866 4280302603
-0.2951996028 -0.1390836090 0.5528805852 4280302603
-0.2952606678 -0.1384979635 0.5529949665 4280302604
-0.2948615253 -0.1376971453 0.5522474051 4280302604
-0.2949220240 -0.1371116936 0.5523607135 4280368143
-0.2949823141 -0.1365258843 0.5524736047 4280433936
-0.2950423658 -0.1359397173 0.5525860786 4280433936
-0.2951021791 -0.1353531778 0.5526981354 4280565522
-0.2951617539 -0.1347662956 0.5528097153 4280434190
-0.2952210903 -0.1341790557 0.5529208779 4280434190
-0.2952802181 -0.1335914731 0.5530315638 4280565775
-0.2953390777 -0.1330035180 0.5531418324 4280565775
-0.2949368954 -0.1322086602 0.5523885489 4280631566
-0.2945342660 -0.1314152628 0.5516344905 4280763152
-0.2941312194 -0.1306233704 0.5508795977 4280894228
-0.2937277555 -0.1298329681 0.5501239896 4280762642
-0.2933239043 -0.1290440708 0.5493675470 4280828688
-0.2924583256 -0.1280546784 0.5477464199 4280828688
-0.2920535207 -0.1272697002 0.5469882488 4280828938
-0.2911868393 -0.1262860745 0.5453650355 4280894731
-0.2907811105 -0.1255050302 0.5446051955 4280960523
-0.2899133563 -0.1245271936 0.5429799557 4280960523
-0.2890450060 -0.1235527247 0.5413535833 4281026568
-0.2886378765 -0.1227780655 0.5405911207 4281421326
-0.2886922359 -0.1222004443 0.5406929255 4281618702
-0.2887463868 -0.1216224954 0.5407943130 4281552909
-0.2888002694 -0.1210442260 0.5408952832 4281421323
-0.2888539433 -0.1204656363 0.5409957767 4281223944
-0.2893696129 -0.1200785339 0.5419616103 4281092359
-0.2894228995 -0.1194983721 0.5420613885 4281158152
-0.2899383605 -0.1191078573 0.5430267453 4281027336
-0.2904537320 -0.1187151670 0.5439920425 4280961543
-0.2909690440 -0.1183203012 0.5449571609 4281027078
-0.2910216153 -0.1177360788 0.5450556278 4281158664
-0.2915366888 -0.1173377931 0.5460203290 4281224709
-0.2915888727 -0.1167520136 0.5461180210 4281290502
-0.2921037078 -0.1163503155 0.5470823050 4281356806
-0.2921554744 -0.1157629713 0.5471792221 4281554185
-0.2926700711 -0.1153578535 0.5481430292 4281488391
-0.2927214503 -0.1147689670 0.5482392311 4281883149
-0.2932358086 -0.1143604293 0.5492025614 4282080016
-0.2937500775 -0.1139497161 0.5501657724 4281882637
-0.2942642570 -0.1135368347 0.5511288047 4281816846
-0.2947783470 -0.1131217778 0.5520916581 4281751053
-0.2962194979 -0.1130584106 0.5547907948 4281488140
-0.2967335880 -0.1126371399 0.5557535887 4281422347
-0.2977112830 -0.1123887524 0.5575847626 4281487627
-0.2986890674 -0.1121363193 0.5594159961 4281421834
-0.2996669114 -0.1118798330 0.5612474084 4281356554
-0.3006447852 -0.1116193086 0.5630788803 4281356554
-0.3011586964 -0.1111834124 0.5640413761 4281422347
-0.3021366000 -0.1109157205 0.5658729076 4281488140
-0.3026503921 -0.1104745343 0.5668351650 4281619726
-0.3036283255 -0.1101996750 0.5686667562 4281685519
-0.3046062887 -0.1099207550 0.5704984069 4281948691
-0.3051199019 -0.1094711646 0.5714603662 4282080277
-0.3056333661 -0.1090193912 0.5724220276 4281883668
-0.3061467409 -0.1085654423 0.5733835697 4281883668
-0.3066600263 -0.1081093177 0.5743448734 4281949461
-0.3067084551 -0.1074881554 0.5744355917 4281620496
-0.3072214127 -0.1070286185 0.5753962994 4281357324
-0.3072693944 -0.1064059213 0.5754861236 4281423117
-0.3077820241 -0.1059429795 0.5764462948 4281554705
-0.3082945645 -0.1054778546 0.5774061680 4281423119
-0.3088069558 -0.1050105542 0.5783658624 4281554705
-0.3093192279 -0.1045410857 0.5793252587 4281423119
-0.3093661666 -0.1039131731 0.5794131756 4281159947
-0.3098781109 -0.1034402996 0.5803720355 4281094154
-0.3103899062 -0.1029652506 0.5813305974 4281159947
-0.3109016120 -0.1024880260 0.5822889209 4281159947
-0.3114131391 -0.1020086259 0.5832470059 4281094154
-0.3119245768 -0.1015270576 0.5842048526 4281028361
-0.3124358654 -0.1010433137 0.5851624608 4281093899
-0.3134126961 -0.1007070392 0.5869919658 4281422864
-0.3134579957 -0.1000693142 0.5870768428 4281816852
-0.3139688671 -0.0995790586 0.5880336165 4281816852
-0.3140136898 -0.0989398360 0.5881175995 4282014231
-0.3145242035 -0.0984461829 0.5890737176 4282474782
-0.3145685494 -0.0978054702 0.5891568065 4282146599
-0.3155448139 -0.0974523798 0.5909851789 4283462459
-0.3610698879 -0.2020960450 0.6776589751 4286219908
-0.3607020676 -0.2011380047 0.6769686341 4284641125
-0.3594238162 -0.1996757090 0.6745696068 4282996300
-0.3585997224 -0.1984701157 0.6730229259 4282404666
-0.3573197424 -0.1970165968 0.6706206799 4282141494
-0.3551282585 -0.1950677335 0.6665076613 4281550376
-0.3488368392 -0.1908845156 0.6546999216 4281155618
-0.3047349751 -0.1661163867 0.5719291568 4281157402
-0.3011617959 -0.1635406017 0.5652229786 4281091609
-0.2994095981 -0.1619647443 0.5619344115 4280894230
-0.2981121540 -0.1606412381 0.5594993830 4280762644
-0.2968138456 -0.1593226939 0.5570626855 4280762642
-0.2964267433 -0.1584967822 0.5563361645 4280696849
-0.2960392237 -0.1576722562 0.5556088686 4280631056
-0.2961075306 -0.1570911705 0.5557370782 4280499470
-0.2952629030 -0.1560273767 0.5541518331 4280434189
-0.2948740721 -0.1552070230 0.5534221530 4280434189
-0.2944848239 -0.1543880701 0.5526915789 4280434189
-0.2945518494 -0.1538089663 0.5528173447 4280499982
-0.2946186066 -0.1532294750 0.5529426932 4280499980
-0.2942282856 -0.1524129361 0.5522100925 4280499980
-0.2938375473 -0.1515977830 0.5514767766 4280565773
-0.2934463620 -0.1507840604 0.5507425666 4280499980
-0.2935119569 -0.1502057016 0.5508656502 4280565775
-0.2926627398 -0.1491608322 0.5492718816 4280499982
-0.2931850553 -0.1488156766 0.5502521396 4280565262
-0.2923348844 -0.1477745473 0.5486565232 4280565262
-0.2914840877 -0.1467366517 0.5470597744 4280499470
-0.2915480435 -0.1461608857 0.5471798182 4280433677
-0.2911539972 -0.1453562081 0.5464402437 4280236811
-0.2907595038 -0.1445529610 0.5456998944 4280171018
-0.2908225954 -0.1439778805 0.5458182693 4280105225
-0.2908854485 -0.1434024274 0.5459362268 4280171018
-0.2909480929 -0.1428266019 0.5460538268 4280302091
-0.2914687991 -0.1424744129 0.5470310450 4280302091
-0.2919894457 -0.1421200484 0.5480082631 4280367884
-0.2925100923 -0.1417634934 0.5489853621 4280367884
-0.2930307090 -0.1414047629 0.5499624610 4280367884
-0.2935512662 -0.1410438269 0.5509394407 4280302091
-0.2940717936 -0.1406807154 0.5519164205 4280236811
-0.2945922911 -0.1403154135 0.5528932810 4280236811
-0.2946537733 -0.1397302598 0.5530086756 4280236557
-0.2947150469 -0.1391447484 0.5531236529 4280236557
-0.2947760820 -0.1385588795 0.5532382131 4280302352
-0.2948368788 -0.1379726380 0.5533522964 4280368145
-0.2948974371 -0.1373860389 0.5534659624 4280302354
-0.2949577570 -0.1367990822 0.5535792112 4280302354
-0.2950178683 -0.1362117678 0.5536919832 4280433940
-0.2946180999 -0.1354128420 0.5529417396 4280499733
-0.2946776450 -0.1348257214 0.5530534387 4280433938
-0.2947369218 -0.1342382431 0.5531647205 4280433938
-0.2947959900 -0.1336504221 0.5532755852 4280499983
-0.2943948507 -0.1328546554 0.5525226593 4280499983
-0.2944533527 -0.1322670430 0.5526325107 4280565775
-0.2940514386 -0.1314733326 0.5518781543 4280631568
-0.2936491072 -0.1306810975 0.5511230826 4280696849
-0.2932463586 -0.1298903823 0.5503672361 4280696849
-0.2928431928 -0.1291011423 0.5496105552 4280828688
-0.2924396098 -0.1283134073 0.5488530993 4280894481
-0.2915749848 -0.1273260266 0.5472303629 4280894731
-0.2911705077 -0.1265422255 0.5464712381 4280960524
-0.2893832028 -0.1251620203 0.5431168079 4280960521
-0.2903602719 -0.1249791384 0.5449506044 4280960521
-0.2890325785 -0.1238049567 0.5424587727 4281092359
-0.2886262536 -0.1230290458 0.5416961908 4281421324
-0.2882195115 -0.1222546548 0.5409328341 4281618702
-0.2882736325 -0.1216764748 0.5410343409 4281552909
-0.2883274853 -0.1210979670 0.5411354303 4281355530
-0.2883810997 -0.1205191389 0.5412360430 4281223944
-0.2888959944 -0.1201318875 0.5422024131 4281158152
-0.2894107997 -0.1197424680 0.5431686044 4281289738
-0.2894638777 -0.1191608161 0.5432682037 4281092618
-0.2899784744 -0.1187679693 0.5442340374 4281026825
-0.2904929817 -0.1183729470 0.5451996326 4281092358
-0.2910074294 -0.1179757491 0.5461651683 4281158151
-0.2910597920 -0.1173900440 0.5462634563 4281158662
-0.2915740013 -0.1169894263 0.5472285151 4281290248
-0.2916259766 -0.1164021567 0.5473260880 4281487879
-0.2921399474 -0.1159981191 0.5482906699 4281487879
-0.2921915054 -0.1154092923 0.5483874679 4281488391
-0.2927052379 -0.1150018349 0.5493516326 4281817356
-0.2927563787 -0.1144114584 0.5494476557 4282080016
-0.2932698727 -0.1140005887 0.5504113436 4281948430
-0.2937832773 -0.1135875359 0.5513749123 4281816846
-0.2947593033 -0.1133502573 0.5532067418 4281751053
-0.2957354188 -0.1131089330 0.5550386906 4281554187
-0.2962487042 -0.1126874834 0.5560020208 4281422601
-0.2972248495 -0.1124390066 0.5578340888 4281487627
-0.2982010543 -0.1121864766 0.5596662760 4281356041
-0.2987142205 -0.1117566302 0.5606293678 4281356554
-0.2996904850 -0.1114969403 0.5624616146 4281356554
-0.3006667793 -0.1112331972 0.5642939210 4281422347
-0.3016431630 -0.1109654009 0.5661264062 4281553933
-0.3021561205 -0.1105240285 0.5670891404 4281751312
-0.3031325042 -0.1102490649 0.5689216256 4281817105
-0.3036453426 -0.1098024026 0.5698841214 4281948691
-0.3046217561 -0.1095202565 0.5717166066 4282014484
-0.3051344454 -0.1090683043 0.5726788640 4281883668
-0.3056470156 -0.1086141616 0.5736408830 4281883668
-0.3061594963 -0.1081578508 0.5746026635 4281949461
-0.3062078953 -0.1075364202 0.5746935010 4281752082
-0.3067200482 -0.1070766896 0.5756547451 4281488910
-0.3067680001 -0.1064537391 0.5757447481 4281423117
-0.3072798550 -0.1059905961 0.5767053962 4281685521
-0.3073273301 -0.1053661183 0.5767945051 4281619728
-0.3083031774 -0.1050577834 0.5786259770 4281619728
-0.3088146448 -0.1045881137 0.5795859098 4281553935
-0.3088615537 -0.1039599404 0.5796739459 4281356556
-0.3093726933 -0.1034868658 0.5806332827 4281224970
-0.3098837137 -0.1030116156 0.5815923810 4281290763
-0.3103946149 -0.1025341898 0.5825512409 4281290763
-0.3109053671 -0.1020545885 0.5835098028 4281159177
-0.3114160001 -0.1015728191 0.5844681859 4281159177
-0.3119264841 -0.1010888666 0.5854262710 4281290763
-0.3124368489 -0.1006027535 0.5863841176 4281619728
-0.3129470646 -0.1001144573 0.5873416662 4281817107
-0.3134571314 -0.0996239930 0.5882989764 4281817107
-0.3135019243 -0.0989844948 0.5883830190 4281817877
-0.3140116632 -0.0984906331 0.5893396735 4282146842
-0.3140559494 -0.0978496373 0.5894228816 4281949218
-0.3154959977 -0.0976404101 0.5921255350 4283067699
-0.3587430418 -0.2004634589 0.6746983528 4285430641
-0.3574666381 -0.1990032494 0.6722977757 4283325265
-0.3566436470 -0.1977998316 0.6707499623 4282667838
-0.3558199704 -0.1965994835 0.6692008376 4282207287
-0.3536319733 -0.1946516037 0.6650858521 4281681964
-0.3482601345 -0.1909670085 0.6549828053 4281221413
-0.3055954874 -0.1669334471 0.5747421980 4281354013
-0.3015737534 -0.1641063690 0.5671784282 4281288220
-0.2993697524 -0.1622814536 0.5630332828 4280960023
-0.2980746031 -0.1609565318 0.5605974793 4280828437
-0.2967785895 -0.1596365422 0.5581600666 4280828437
-0.2963923216 -0.1588094234 0.5574335456 4280696851
-0.2960056067 -0.1579836756 0.5567062497 4280565265
-0.2956184447 -0.1571593136 0.5559781194 4280565265
-0.2952308655 -0.1563363373 0.5552492142 4280565263
-0.2948428690 -0.1555147618 0.5545194745 4280499470
-0.2939986289 -0.1544551253 0.5529316664 4280499983
-0.2940655649 -0.1538758129 0.5530575514 4280565776
-0.2941322923 -0.1532960981 0.5531830788 4280499982
-0.2937426865 -0.1524792165 0.5524502993 4280499982
-0.2933526337 -0.1516637504 0.5517167449 4280565775
-0.2934184670 -0.1510846615 0.5518405437 4280565775
-0.2930276692 -0.1502711177 0.5511055589 4280565775
-0.2921799123 -0.1492258310 0.5495111942 4280499982
-0.2927014232 -0.1488805413 0.5504919887 4280565262
-0.2918527424 -0.1478389949 0.5488958359 4280499469
-0.2910034060 -0.1468006670 0.5472984314 4280433677
-0.2910673022 -0.1462246925 0.5474186540 4280367884
-0.2906739414 -0.1454196870 0.5466788411 4280302091
-0.2907373011 -0.1448438466 0.5467979908 4280236298
-0.2903432250 -0.1440408081 0.5460568070 4280236298
-0.2904060185 -0.1434651315 0.5461749434 4280236298
-0.2909260392 -0.1431140900 0.5471529961 4280236298
-0.2909885049 -0.1425367743 0.5472704768 4280302091
-0.2915083766 -0.1421822757 0.5482481718 4280302091
-0.2920282185 -0.1418255866 0.5492258668 4280367884
-0.2925480008 -0.1414667219 0.5502034426 4280367884
-0.2930677831 -0.1411056519 0.5511809587 4280367884
-0.2935875058 -0.1407424062 0.5521584749 4280236559
-0.2941071987 -0.1403769702 0.5531358719 4280236559
-0.2941686511 -0.1397915930 0.5532513857 4280236559
-0.2942298651 -0.1392058581 0.5533665419 4280302352
-0.2942908406 -0.1386197507 0.5534812212 4280302099
-0.2943515778 -0.1380332857 0.5535954833 4280302099
-0.2944121063 -0.1374464482 0.5537093282 4280302099
-0.2944723964 -0.1368592530 0.5538226962 4280236306
-0.2945324481 -0.1362717003 0.5539355874 4280367892
-0.2945922613 -0.1356837898 0.5540481210 4280367892
-0.2941928804 -0.1348850876 0.5532969832 4280368147
-0.2942521274 -0.1342973858 0.5534084439 4280433940
-0.2943111360 -0.1337093264 0.5535194278 4280368656
-0.2939106822 -0.1329132318 0.5527663231 4280434449
-0.2939691544 -0.1323253810 0.5528762341 4280500240
-0.2935679555 -0.1315313429 0.5521216989 4280500240
-0.2931663394 -0.1307387948 0.5513663888 4280631056
-0.2927643061 -0.1299477369 0.5506102443 4280696849
-0.2923618555 -0.1291581690 0.5498533249 4280762895
-0.2919589877 -0.1283701211 0.5490956903 4280828688
-0.2910958529 -0.1273823231 0.5474723577 4280894731
-0.2906920612 -0.1265981942 0.5467129350 4280960524
-0.2902878821 -0.1258155704 0.5459527373 4281026314
-0.2894231379 -0.1248359904 0.5443264246 4281026314
-0.2885577977 -0.1238597706 0.5426989794 4281158152
-0.2881521881 -0.1230835393 0.5419360995 4281355531
-0.2882065773 -0.1225045249 0.5420383811 4281618702
-0.2882607281 -0.1219251826 0.5421401858 4281552909
-0.2883146107 -0.1213455126 0.5422415733 4281355530
-0.2883682847 -0.1207655221 0.5423425436 4281223944
-0.2888824642 -0.1203771904 0.5433095694 4281223945
-0.2889357209 -0.1197956279 0.5434097648 4281223945
-0.2894496918 -0.1194038764 0.5443763137 4281157900
-0.2895025611 -0.1188207343 0.5444757938 4281026314
-0.2900162935 -0.1184255555 0.5454419851 4281092359
-0.2905299366 -0.1180282012 0.5464079976 4281158152
-0.2910435200 -0.1176286712 0.5473738909 4281224198
-0.2910956740 -0.1170414761 0.5474720001 4281421577
-0.2911476195 -0.1164539680 0.5475696921 4281553674
-0.2916607857 -0.1160497665 0.5485348105 4281487881
-0.2917123139 -0.1154607013 0.5486317277 4281685258
-0.2922252417 -0.1150530800 0.5495964289 4281816844
-0.2927380800 -0.1146432757 0.5505609512 4282014223
-0.2927890420 -0.1140514165 0.5506567359 4281948430
-0.2933016419 -0.1136381999 0.5516207814 4281816844
-0.2942761183 -0.1134008318 0.5534535646 4281751051
-0.2947885990 -0.1129823253 0.5544174314 4281619980
-0.2957631350 -0.1127377972 0.5562502742 4281488394
-0.2967377603 -0.1124892235 0.5580832362 4281487629
-0.2977124155 -0.1122365966 0.5599163175 4281421836
-0.2982247770 -0.1118065789 0.5608798862 4281487627
-0.2991994917 -0.1115467846 0.5627130866 4281553420
-0.3001742363 -0.1112829447 0.5645462871 4281553420
-0.3011490405 -0.1110150442 0.5663796663 4281750799
-0.3016612232 -0.1105734929 0.5673429370 4281948178
-0.3026360571 -0.1102984175 0.5691763163 4281948178
-0.3031480908 -0.1098515689 0.5701393485 4282080277
-0.3041229248 -0.1095693186 0.5719727278 4282014484
-0.3046348393 -0.1091171727 0.5729354620 4281883668
-0.3051466048 -0.1086628512 0.5738980174 4282015254
-0.3056582808 -0.1082063466 0.5748603344 4282015254
-0.3057066500 -0.1075846553 0.5749512911 4281883668
-0.3062180281 -0.1071247309 0.5759130120 4281620494
-0.3062659204 -0.1065015122 0.5760031343 4281488908
-0.3067769706 -0.1060381830 0.5769642591 4281619726
-0.3072879016 -0.1055726707 0.5779252052 4281685519
-0.3077987134 -0.1051049829 0.5788859129 4281619726
-0.3078457713 -0.1044777706 0.5789744258 4281619726
-0.3083562553 -0.1040066704 0.5799344778 4281488140
-0.3088666201 -0.1035333946 0.5808943510 4281224968
-0.3093768656 -0.1030579433 0.5818539262 4281290763
-0.3098869622 -0.1025803164 0.5828133225 4281290763
-0.3103969097 -0.1021005213 0.5837724209 4281224970
-0.3109067678 -0.1016185433 0.5847312808 4281290763
-0.3114164472 -0.1011343896 0.5856899023 4281291533
-0.3119260073 -0.1006480679 0.5866482258 4281554705
-0.3124354184 -0.1001595631 0.5876063108 4281686291
-0.3129447103 -0.0996688902 0.5885640979 4281620498
-0.3134538531 -0.0991760418 0.5895216465 4281752084
-0.3139628470 -0.0986810252 0.5904789567 4282015256
-0.3140071929 -0.0980388075 0.5905623436 4281752093
-0.3149803877 -0.0976844653 0.5923926830 4282475816
-0.3572410941 -0.2000420541 0.6732800007 4285825400
-0.3559666872 -0.1985830218 0.6708781719 4283588438
-0.3551449180 -0.1973809153 0.6693294048 4282734147
-0.3538687825 -0.1959306747 0.6669242978 4282142010
-0.3516841829 -0.1939846724 0.6628070474 4281813550
-0.3467748463 -0.1905505955 0.6535546184 4281352999
-0.3059968352 -0.1675025672 0.5767017007 4281288734
-0.3015279174 -0.1644248962 0.5682793260 4281157148
-0.2993277311 -0.1625983268 0.5641326904 4280959769
-0.2975805998 -0.1610261202 0.5608398914 4280893976
-0.2967412174 -0.1599505544 0.5592579842 4280894230
-0.2959012091 -0.1588781476 0.5576748252 4280762644
-0.2955152094 -0.1580520868 0.5569472909 4280565265
-0.2951287627 -0.1572273970 0.5562189817 4280565265
-0.2947418690 -0.1564041078 0.5554898381 4280631056
-0.2943545580 -0.1555822045 0.5547599196 4280565263
-0.2939668298 -0.1547617018 0.5540291667 4280499983
-0.2935786843 -0.1539425850 0.5532975793 4280565776
-0.2936453521 -0.1533626616 0.5534232855 4280565776
-0.2932564318 -0.1525454670 0.5526902676 4280499983
-0.2933225632 -0.1519656479 0.5528149009 4280499982
-0.2929328680 -0.1511503607 0.5520805120 4280565775
-0.2925427854 -0.1503364891 0.5513452888 4280499983
-0.2921522558 -0.1495240331 0.5506092906 4280499983
-0.2917613089 -0.1487130076 0.5498725176 4280499983
-0.2913699448 -0.1479033828 0.5491349101 4280434190
-0.2905220687 -0.1468646377 0.5475369692 4280368397
-0.2905859351 -0.1462884396 0.5476573110 4280302604
-0.2901932895 -0.1454831064 0.5469173193 4280236811
-0.2898002267 -0.1446792036 0.5461764932 4280236811
-0.2898631990 -0.1441036761 0.5462952256 4280302604
-0.2899259627 -0.1435277760 0.5464134812 4280236811
-0.2904451787 -0.1431766301 0.5473920703 4280302093
-0.2909643650 -0.1428232789 0.5483705401 4280302093
-0.2910266519 -0.1422444433 0.5484879017 4280302093
-0.2915456891 -0.1418876350 0.5494661331 4280302093
-0.2920646667 -0.1415286362 0.5504442453 4280367886
-0.2925836444 -0.1411674470 0.5514222980 4280367886
-0.2931025624 -0.1408040524 0.5524002910 4280301839
-0.2936214507 -0.1404384822 0.5533782244 4280367632
-0.2936828434 -0.1398528814 0.5534939766 4280367632
-0.2937440276 -0.1392669082 0.5536092520 4280367632
-0.2938049436 -0.1386805624 0.5537240505 4280302099
-0.2938656509 -0.1380938739 0.5538384914 4280236306
-0.2939261198 -0.1375067979 0.5539524555 4280236306
-0.2939863503 -0.1369193792 0.5540660024 4280236306
-0.2940463722 -0.1363315880 0.5541790724 4280236306
-0.2941061258 -0.1357434392 0.5542917252 4280236306
-0.2937074602 -0.1349444240 0.5535403490 4280171279
-0.2937666774 -0.1343564689 0.5536519289 4280237072
-0.2938256562 -0.1337681711 0.5537630916 4280302863
-0.2934259176 -0.1329717636 0.5530096889 4280434449
-0.2934843302 -0.1323836744 0.5531197786 4280500495
-0.2930838466 -0.1315893084 0.5523650050 4280500495
-0.2931416929 -0.1310014427 0.5524740219 4280631056
-0.2927404642 -0.1302091330 0.5517178774 4280631056
-0.2918798923 -0.1292151660 0.5500959754 4280762895
-0.2914777398 -0.1284267753 0.5493380427 4280828688
-0.2910751700 -0.1276398897 0.5485793352 4280894477
-0.2902129889 -0.1266541183 0.5469544530 4280960270
-0.2898095250 -0.1258711666 0.5461940169 4281026314
-0.2889462411 -0.1248911768 0.5445670485 4281092107
-0.2885418534 -0.1241121814 0.5438048840 4281223945
-0.2881370485 -0.1233347058 0.5430420041 4281355531
-0.2877318263 -0.1225587428 0.5422782898 4281487116
-0.2877859473 -0.1219791695 0.5423802733 4281487116
-0.2878398001 -0.1213992611 0.5424817801 4281421324
-0.2878934443 -0.1208190322 0.5425828099 4281289738
-0.2884067893 -0.1204305515 0.5435503721 4281223945
-0.2889201045 -0.1200398952 0.5445177555 4281158152
-0.2889731824 -0.1194568351 0.5446178317 4281092109
-0.2894862592 -0.1190627515 0.5455847979 4281092109
-0.2895389497 -0.1184781268 0.5456840992 4281158154
-0.2900517881 -0.1180806160 0.5466506481 4281158154
-0.2905645669 -0.1176809222 0.5476170182 4281158664
-0.2906166911 -0.1170934886 0.5477153063 4281356043
-0.2906686068 -0.1165057346 0.5478131175 4281553674
-0.2911809683 -0.1161013767 0.5487787724 4281619467
-0.2912324667 -0.1155120581 0.5488757491 4281685771
-0.2917445898 -0.1151042804 0.5498409867 4281751564
-0.2922566235 -0.1146943122 0.5508060455 4281817357
-0.2927685976 -0.1142821759 0.5517709255 4281817357
-0.2932804823 -0.1138678566 0.5527356267 4281751564
-0.2942534983 -0.1136294678 0.5545694232 4281751564
-0.2947652638 -0.1132098585 0.5555339456 4281619980
-0.2952769697 -0.1127880737 0.5564982891 4281488394
-0.2962500155 -0.1125394031 0.5583322048 4281487629
-0.2972231209 -0.1122866794 0.5601661801 4281487629
-0.2977346778 -0.1118564904 0.5611302853 4281553422
-0.2987078130 -0.1115965992 0.5629643202 4281619215
-0.2996810079 -0.1113326475 0.5647984743 4281619726
-0.3006542623 -0.1110646501 0.5666327477 4281751312
-0.3011656404 -0.1106229201 0.5675965548 4281882898
-0.3021389246 -0.1103477329 0.5694308281 4281948691
-0.3026501536 -0.1099007055 0.5703943372 4282080277
-0.3036234379 -0.1096183434 0.5722286701 4282014484
-0.3041345477 -0.1091660112 0.5731918812 4281949461
-0.3046455383 -0.1087114960 0.5741549730 4282015254
-0.3051564097 -0.1082548052 0.5751177669 4282015765
-0.3052047491 -0.1076328531 0.5752088428 4281949972
-0.3057153225 -0.1071727425 0.5761711001 4281621007
-0.3057631850 -0.1065492555 0.5762613416 4281357835
-0.3062734306 -0.1060857326 0.5772230029 4281553933
-0.3072462976 -0.1057793275 0.5790565014 4281685519
-0.3072935939 -0.1051521376 0.5791456699 4281553933
-0.3073406219 -0.1045246571 0.5792342424 4281685519
-0.3078503013 -0.1040533632 0.5801948905 4281619726
-0.3083598614 -0.1035798937 0.5811552405 4281224968
-0.3088693023 -0.1031042412 0.5821153522 4281290763
-0.3093785942 -0.1026264131 0.5830752254 4281224970
-0.3098877668 -0.1021464095 0.5840348005 4281094154
-0.3103968203 -0.1016642302 0.5849941969 4281225740
-0.3109057248 -0.1011798754 0.5859532952 4281423119
-0.3118779063 -0.1008431911 0.5877855420 4281620498
-0.3119231164 -0.1002046391 0.5878707170 4281620498
-0.3124316037 -0.0997137576 0.5888290405 4281620498
-0.3134035468 -0.0993676931 0.5906608701 4281686291
-0.3139118254 -0.0988715142 0.5916187763 4281883670
-0.3139562011 -0.0982280672 0.5917024016 4281488920
-0.3149279058 -0.0978726372 0.5935338140 4282081057
-0.3552888334 -0.1993661672 0.6710051894 4286022779
-0.3544689715 -0.1981623024 0.6694568396 4283917403
-0.3536484540 -0.1969615072 0.6679071188 4282997319
-0.3519213796 -0.1952611506 0.6646453738 4282339389
-0.3501931727 -0.1935674250 0.6613814235 4281944881
-0.3457450271 -0.1903832257 0.6529805660 4281615916
-0.3068477213 -0.1683207005 0.5795184374 4281486113
-0.3019332886 -0.1649913192 0.5702369213 4281157148
-0.2992835939 -0.1629153639 0.5652326345 4280959769
-0.2979930639 -0.1615875661 0.5627953410 4280893976
-0.2967016995 -0.1602647156 0.5603564382 4280828183
-0.2958632410 -0.1591909975 0.5587729216 4280762390
-0.2950241566 -0.1581204385 0.5571882129 4280565522
-0.2946383953 -0.1572954357 0.5564596653 4280433936
-0.2942522466 -0.1564718038 0.5557303429 4280499729
-0.2943198383 -0.1558901519 0.5558579564 4280499729
-0.2939328849 -0.1550684273 0.5551272035 4280499983
-0.2935455441 -0.1542481035 0.5543956757 4280499983
-0.2931577563 -0.1534291655 0.5536632538 4280499983
-0.2932241559 -0.1528486162 0.5537886620 4280499983
-0.2928356230 -0.1520316005 0.5530548692 4280499982
-0.2929014564 -0.1514511704 0.5531792641 4280499982
-0.2920572460 -0.1504018009 0.5515848398 4280434190
-0.2916674316 -0.1495890319 0.5508486629 4280434190
-0.2912772000 -0.1487776637 0.5501116514 4280434190
-0.2904313207 -0.1477361768 0.5485140681 4280434190
-0.2900401354 -0.1469285637 0.5477752686 4280368397
-0.2901039422 -0.1463521421 0.5478957891 4280302604
-0.2897119820 -0.1455464810 0.5471555591 4280302350
-0.2893196344 -0.1447422653 0.5464144945 4280302350
-0.2893825769 -0.1441665143 0.5465334058 4280236557
-0.2894452810 -0.1435903907 0.5466518402 4280236557
-0.2899636924 -0.1432391107 0.5476309061 4280302350
-0.2904820740 -0.1428856403 0.5486099124 4280302350
-0.2910004258 -0.1425299793 0.5495889187 4280302350
-0.2910625339 -0.1419496238 0.5497062206 4280236557
-0.2915807068 -0.1415904909 0.5506848693 4280236557
-0.2920988798 -0.1412291676 0.5516634583 4280236557
-0.2926169932 -0.1408656538 0.5526419878 4280433425
-0.2931350768 -0.1404999495 0.5536204576 4280433425
-0.2931964397 -0.1399141103 0.5537363291 4280433425
-0.2932575345 -0.1393279135 0.5538517237 4280367632
-0.2933184206 -0.1387413442 0.5539667010 4280301842
-0.2933790982 -0.1381544024 0.5540812612 4280301842
-0.2934395075 -0.1375671178 0.5541954041 4280302099
-0.2934997082 -0.1369794607 0.5543090701 4280302099
-0.2935596704 -0.1363914311 0.5544223189 4280170513
-0.2936193943 -0.1358030587 0.5545350909 4280170513
-0.2932214141 -0.1350037009 0.5537835360 4280170766
-0.2932806015 -0.1344155222 0.5538952351 4280236559
-0.2933395207 -0.1338269860 0.5540065765 4280302863
-0.2929404974 -0.1330302358 0.5532529354 4280434449
-0.2929988503 -0.1324419230 0.5533632040 4280500495
-0.2925990820 -0.1316472292 0.5526081920 4280566288
-0.2921988964 -0.1308540255 0.5518523455 4280631056
-0.2922563851 -0.1302665025 0.5519608855 4280696849
-0.2918554544 -0.1294753700 0.5512037277 4280762641
-0.2909958363 -0.1284833997 0.5495802164 4280828434
-0.2905939817 -0.1276961863 0.5488212705 4280894477
-0.2901917398 -0.1269104928 0.5480615497 4280960270
-0.2893305123 -0.1259267330 0.5464351177 4281026314
-0.2889273465 -0.1251449734 0.5456736684 4281026314
-0.2885237634 -0.1243647262 0.5449114442 4281289740
-0.2876609564 -0.1233892068 0.5432819724 4281289740
-0.2877153456 -0.1228087917 0.5433846712 4281289738
-0.2877694964 -0.1222280487 0.5434868932 4281355531
-0.2878234088 -0.1216469780 0.5435886979 4281355531
-0.2878770828 -0.1210655868 0.5436900854 4281289738
-0.2879305184 -0.1204838678 0.5437909961 4281223945
-0.2884429991 -0.1200930551 0.5447589159 4281223945
-0.2889554501 -0.1197000667 0.5457267165 4281157902
-0.2890083194 -0.1191155240 0.5458266139 4281223695
-0.2895205319 -0.1187191010 0.5467939377 4281158413
-0.2895730436 -0.1181329861 0.5468931198 4281092620
-0.2900850177 -0.1177331358 0.5478600264 4281224457
-0.2905969024 -0.1173311099 0.5488268137 4281356043
-0.2906488180 -0.1167421862 0.5489248633 4281487881
-0.2907005250 -0.1161529422 0.5490224957 4281619467
-0.2912120223 -0.1157462373 0.5499885082 4281685771
-0.2912633121 -0.1151554361 0.5500853658 4281817357
-0.2917745411 -0.1147453114 0.5510509014 4281883150
-0.2922857106 -0.1143330038 0.5520163178 4281817357
-0.2932571769 -0.1140976399 0.5538510084 4281620494
-0.2937682271 -0.1136800423 0.5548162460 4281554701
-0.2942792177 -0.1132602692 0.5557813048 4281488908
-0.2947901189 -0.1128383055 0.5567461848 4281423115
-0.2957615852 -0.1125895455 0.5585809350 4281619215
-0.2967331409 -0.1123367324 0.5604158044 4281619215
-0.2977047563 -0.1120798588 0.5622507930 4281553422
-0.2982155085 -0.1116463691 0.5632154346 4281553422
-0.2991871238 -0.1113823205 0.5650504827 4281619726
-0.2996977568 -0.1109435335 0.5660148263 4281751312
-0.3006694019 -0.1106723025 0.5678499341 4281752082
-0.3016411066 -0.1103970185 0.5696851015 4281883668
-0.3021515608 -0.1099498048 0.5706491470 4281883668
-0.3031232953 -0.1096673310 0.5724843740 4281949461
-0.3036336005 -0.1092148125 0.5734481215 4282015254
-0.3041437864 -0.1087601110 0.5744116902 4282081047
-0.3046538532 -0.1083032265 0.5753750205 4282081558
-0.3047021627 -0.1076810136 0.5754662156 4282015765
-0.3052119315 -0.1072207093 0.5764290094 4281686800
-0.3052597642 -0.1065969616 0.5765193701 4281292042
-0.3057692349 -0.1061332449 0.5774815083 4281357326
-0.3067405224 -0.1058267206 0.5793159604 4281554705
-0.3072498143 -0.1053576991 0.5802778006 4281488912
-0.3072968721 -0.1047290042 0.5803666711 4281686291
-0.3073436618 -0.1041000262 0.5804550648 4281554705
-0.3078524172 -0.1036263555 0.5814158916 4281225740
-0.3083610535 -0.1031505018 0.5823765397 4281291533
-0.3088695705 -0.1026724800 0.5833368897 4281094154
-0.3093779385 -0.1021922752 0.5842970610 4281094154
-0.3098861873 -0.1017098874 0.5852569342 4281225740
-0.3103942871 -0.1012253314 0.5862165093 4281423376
-0.3109022677 -0.1007385924 0.5871759057 4281554962
-0.3114100993 -0.1002496779 0.5881350040 4281620755
-0.3119177818 -0.0997585952 0.5890938044 4281554962
-0.3128881752 -0.0994123891 0.5909265280 4281620755
-0.3133956492 -0.0989159942 0.5918849707 4281752341
-0.3139029741 -0.0984174311 0.5928431153 4281488661
-0.3144101501 -0.0979166925 0.5938009620 4281883419
-0.3537921607 -0.1989436448 0.6695830822 4286285951
-0.3529735506 -0.1977410764 0.6680337787 4284443747
-0.3521542251 -0.1965415776 0.6664831638 4283326284
-0.3508820534 -0.1950937212 0.6640754342 4282602561
-0.3491567075 -0.1934002042 0.6608100533 4282142260
-0.3456206918 -0.1907148212 0.6541178823 4281813295
-0.3343903720 -0.1838147342 0.6328635216 4281683494
-0.3018823862 -0.1653102636 0.5713392496 4281354529
-0.2992372513 -0.1632325500 0.5663331151 4281025562
-0.2979490757 -0.1619033217 0.5638951063 4280959769
-0.2966600060 -0.1605790406 0.5614554286 4280893976
-0.2958231270 -0.1595039815 0.5598715544 4280828183
-0.2949855924 -0.1584321111 0.5582864285 4280565522
-0.2946006656 -0.1576058716 0.5575579405 4280302350
-0.2937619686 -0.1565394551 0.5559706092 4280433936
-0.2938295007 -0.1559575796 0.5560984015 4280499729
-0.2934432626 -0.1551355273 0.5553674698 4280434190
-0.2930566072 -0.1543148756 0.5546357036 4280434190
-0.2931232750 -0.1537336111 0.5547618866 4280499983
-0.2927358747 -0.1529148519 0.5540286303 4280434190
-0.2928020060 -0.1523336917 0.5541538000 4280368654
-0.2924138308 -0.1515168548 0.5534191728 4280434447
-0.2920252681 -0.1507014483 0.5526837707 4280433936
-0.2907277346 -0.1494204998 0.5502280593 4280433936
-0.2912468016 -0.1490748525 0.5512104630 4280368656
-0.2899480164 -0.1478003711 0.5487524271 4280368656
-0.2895575464 -0.1469924301 0.5480133891 4280368656
-0.2891666293 -0.1461859345 0.5472735167 4280302863
-0.2892300785 -0.1456098109 0.5473936200 4280302350
-0.2888384163 -0.1448052675 0.5466523767 4280236557
-0.2893562615 -0.1444564164 0.5476324558 4280170764
-0.2889639735 -0.1436529458 0.5468899608 4280236557
-0.2894815803 -0.1433015317 0.5478695631 4280236557
-0.2899991572 -0.1429479420 0.5488491654 4280236557
-0.2905166745 -0.1425921470 0.5498286486 4280236559
-0.2910341918 -0.1422341615 0.5508080721 4280236559
-0.2915516794 -0.1418739855 0.5517874360 4280302352
-0.2920691073 -0.1415116191 0.5527667403 4280302352
-0.2925865352 -0.1411470622 0.5537459850 4280499218
-0.2931039035 -0.1407803148 0.5547251701 4280433425
-0.2931652963 -0.1401933283 0.5548413396 4280367634
-0.2932264507 -0.1396059841 0.5549571514 4280367634
-0.2928312719 -0.1388020664 0.5542091727 4280367635
-0.2928918898 -0.1382149011 0.5543239117 4280367635
-0.2929522693 -0.1376273781 0.5544381738 4280302099
-0.2930124104 -0.1370394826 0.5545520186 4280302099
-0.2930723131 -0.1364512295 0.5546653867 4280170513
-0.2926754057 -0.1356509924 0.5539141893 4280170513
-0.2927347422 -0.1350629330 0.5540264845 4280170768
-0.2927938700 -0.1344745308 0.5541384220 4280170768
-0.2928527296 -0.1338857561 0.5542498231 4280302350
-0.2924544215 -0.1330886781 0.5534960032 4280433936
-0.2925127447 -0.1325001270 0.5536063910 4280499983
-0.2921136916 -0.1317051053 0.5528511405 4280631569
-0.2917142212 -0.1309115738 0.5520950556 4280631056
-0.2917716503 -0.1303238124 0.5522037745 4280696849
-0.2909140289 -0.1293290108 0.5505806208 4280696848
-0.2905133069 -0.1285399795 0.5498222113 4280762641
-0.2901121676 -0.1277524382 0.5490630865 4280894479
-0.2897106111 -0.1269664168 0.5483030677 4280960272
-0.2893086672 -0.1261819005 0.5475423336 4281026316
-0.2884484529 -0.1252001524 0.5459142923 4281092109
-0.2880455554 -0.1244195923 0.5451518297 4281223947
-0.2876423001 -0.1236405447 0.5443885922 4281223947
-0.2872385979 -0.1228630170 0.5436245799 4281289740
-0.2872926891 -0.1222820356 0.5437269807 4281289740
-0.2873465717 -0.1217007339 0.5438289046 4281289740
-0.2874001861 -0.1211190969 0.5439304113 4281223947
-0.2879120409 -0.1207293868 0.5448991060 4281223947
-0.2879652977 -0.1201461777 0.5449998975 4281289740
-0.2884769142 -0.1197530329 0.5459681749 4281224206
-0.2889884710 -0.1193577051 0.5469363928 4281289999
-0.2890411615 -0.1187716722 0.5470361114 4281093131
-0.2895525098 -0.1183729172 0.5480038524 4281027338
-0.2896047831 -0.1177853122 0.5481027961 4281224970
-0.2901158929 -0.1173831224 0.5490701199 4281356556
-0.2901677787 -0.1167939529 0.5491682887 4281356808
-0.2906786501 -0.1163883358 0.5501351357 4281488394
-0.2907301188 -0.1157976091 0.5502325892 4281685771
-0.2912407517 -0.1153885648 0.5511989594 4281883150
-0.2917512655 -0.1149773374 0.5521652102 4281818127
-0.2922617197 -0.1145639345 0.5531312823 4281620748
-0.2927720845 -0.1141483486 0.5540971756 4281554701
-0.2932823598 -0.1137305796 0.5550628901 4281488908
-0.2937925160 -0.1133106351 0.5560284853 4281488908
-0.2947624624 -0.1130648926 0.5578641295 4281488908
-0.2952725291 -0.1126396507 0.5588295460 4281553935
-0.2962425351 -0.1123867407 0.5606653094 4281619728
-0.2967524827 -0.1119561940 0.5616304278 4281553933
-0.2977225184 -0.1116961017 0.5634663105 4281488140
-0.2986925840 -0.1114319563 0.5653022528 4281619726
-0.2996627092 -0.1111637428 0.5671383142 4281685519
-0.3001725078 -0.1107216552 0.5681031346 4281620496
-0.3011426628 -0.1104462594 0.5699392557 4281752082
-0.3016523123 -0.1099988595 0.5709037781 4281817875
-0.3026224673 -0.1097162813 0.5727398992 4281949461
-0.3031319678 -0.1092635766 0.5737041831 4281949974
-0.3036413491 -0.1088086888 0.5746682286 4281884181
-0.3036898077 -0.1081874445 0.5747599602 4282015767
-0.3041988909 -0.1077291369 0.5757234097 4282081560
-0.3047078550 -0.1072686464 0.5766866803 4281752593
-0.3047556579 -0.1066446304 0.5767771602 4281292042
-0.3052643239 -0.1061807200 0.5777398348 4281291533
-0.3062340617 -0.1058740765 0.5795751810 4281488912
-0.3067425489 -0.1054048538 0.5805375576 4281620498
-0.3067895770 -0.1047758982 0.5806265473 4281686291
-0.3068363369 -0.1041466519 0.5807150006 4281620498
-0.3073443174 -0.1036727801 0.5816764235 4281423119
-0.3078521490 -0.1031967327 0.5826375484 4281357583
-0.3083598614 -0.1027185023 0.5835984349 4281160204
-0.3088674247 -0.1022380963 0.5845590234 4281160204
-0.3098366261 -0.1019073874 0.5863933563 4281225997
-0.3103440106 -0.1014216766 0.5873535872 4281423376
-0.3103893399 -0.1007838100 0.5874394178 4281554962
-0.3108963966 -0.1002946869 0.5883990526 4281554962
-0.3114032745 -0.0998033956 0.5893583894 4281554962
-0.3119100332 -0.0993099213 0.5903174281 4281686548
-0.3128787875 -0.0989604443 0.5921509266 4281818134
-0.3133853078 -0.0984616652 0.5931095481 4281554454
-0.3143539727 -0.0981049836 0.5949428678 4281883419
-0.3148602843 -0.0976009071 0.5959010720 4285366648
-0.3514803648 -0.1973193586 0.6666090488 4284904298
-0.3506622612 -0.1961211562 0.6650574803 4283654735
-0.3498435020 -0.1949260235 0.6635046005 4282996805
-0.3481209874 -0.1932327002 0.6602377295 4282602297
-0.3450424969 -0.1907968223 0.6543991566 4282075953
-0.3017579615 -0.1662260741 0.5723067522 4281815080
-0.2991182804 -0.1641416699 0.5673004389 4281486115
-0.3023524284 -0.1652792841 0.5734341741 4281157150
-0.2974508703 -0.1619730741 0.5641379952 4281025564
-0.2966161966 -0.1608935148 0.5625550151 4281025564
-0.2957808673 -0.1598171443 0.5609707236 4280959771
-0.2949448824 -0.1587439328 0.5593852401 4280696597
-0.2941083014 -0.1576738954 0.5577985644 4280367632
-0.2937236130 -0.1568487436 0.5570690036 4280433938
-0.2933385372 -0.1560249627 0.5563386679 4280499731
-0.2929530144 -0.1552025825 0.5556074977 4280433936
-0.2930199504 -0.1546205878 0.5557344556 4280433936
-0.2926336825 -0.1538001150 0.5550018549 4280433936
-0.2922469676 -0.1529810429 0.5542684197 4280499729
-0.2927662432 -0.1526359320 0.5552532673 4280433936
-0.2923788726 -0.1518178731 0.5545186400 4280433936
-0.2919911146 -0.1510012299 0.5537831783 4280433936
-0.2911494076 -0.1499524266 0.5521868467 4280368143
-0.2903070748 -0.1489068568 0.5505892634 4280368656
-0.2899178267 -0.1480962634 0.5498510599 4280368656
-0.2895281315 -0.1472871155 0.5491119623 4280368656
-0.2891380489 -0.1464793831 0.5483721495 4280302863
-0.2887475193 -0.1456730813 0.5476314425 4280236557
-0.2888106704 -0.1450963616 0.5477512479 4280170764
-0.2884194255 -0.1442920119 0.5470091701 4280170764
-0.2889363170 -0.1439417750 0.5479895473 4280170764
-0.2894532084 -0.1435893327 0.5489698648 4280170764
-0.2895155847 -0.1430101842 0.5490881801 4280170764
-0.2900323272 -0.1426542699 0.5500681996 4280236559
-0.2905490100 -0.1422961652 0.5510481596 4280236559
-0.2910656929 -0.1419358552 0.5520280600 4280367632
-0.2915823162 -0.1415733546 0.5530079007 4280433425
-0.2920989096 -0.1412086636 0.5539876819 4280433936
-0.2926154733 -0.1408417821 0.5549673438 4280433936
-0.2922216654 -0.1400364488 0.5542204380 4280368145
-0.2922826707 -0.1394497752 0.5543361902 4280368145
-0.2923434675 -0.1388627440 0.5544514656 4280368147
-0.2924040258 -0.1382753551 0.5545663238 4280368147
-0.2920088172 -0.1374731213 0.5538167357 4280302099
-0.2920688093 -0.1368859112 0.5539305806 4280302099
-0.2921285927 -0.1362983435 0.5540438890 4280170513
-0.2921881080 -0.1357104182 0.5541568398 4280170513
-0.2922474146 -0.1351221204 0.5542693138 4280236561
-0.2923064828 -0.1345334798 0.5543813109 4280236561
-0.2923653126 -0.1339444816 0.5544928908 4280302350
-0.2924239337 -0.1333551258 0.5546040535 4280368143
-0.2920260131 -0.1325582862 0.5538493395 4280499983
-0.2920840383 -0.1319691390 0.5539594293 4280565776
-0.2912288904 -0.1309690922 0.5523375869 4280631056
-0.2912862897 -0.1303810924 0.5524464250 4280696849
-0.2908867896 -0.1295893043 0.5516887307 4280696848
-0.2904868722 -0.1287990212 0.5509303212 4280696848
-0.2900865376 -0.1280102432 0.5501710176 4280828686
-0.2892288864 -0.1270222962 0.5485444069 4280960272
-0.2883706391 -0.1260377169 0.5469166636 4281026314
-0.2879689038 -0.1252553016 0.5461547375 4281092107
-0.2880239189 -0.1246723086 0.5462591052 4281223947
-0.2876214385 -0.1238920093 0.5454958081 4281158154
-0.2872185707 -0.1231132373 0.5447316766 4281223945
-0.2872727215 -0.1225310937 0.5448343754 4281289738
-0.2873266339 -0.1219486222 0.5449366570 4281289740
-0.2873803079 -0.1213658303 0.5450384617 4281223947
-0.2874337435 -0.1207827032 0.5451397896 4281223945
-0.2879447043 -0.1203906611 0.5461089015 4281223945
-0.2879977524 -0.1198059618 0.5462095141 4281224458
-0.2885085046 -0.1194104776 0.5471782088 4281224458
-0.2890191972 -0.1190128177 0.5481467247 4281093384
-0.2890717089 -0.1184252873 0.5482463241 4281093384
-0.2895821333 -0.1180241928 0.5492144227 4281225222
-0.2896342278 -0.1174350977 0.5493131876 4281291015
-0.2901444435 -0.1170305684 0.5502808690 4281422086
-0.2901961505 -0.1164399087 0.5503789186 4281553672
-0.2907061279 -0.1160319522 0.5513461232 4281685770
-0.2907574177 -0.1154397279 0.5514433980 4281817356
-0.2912671268 -0.1150283366 0.5524101257 4281948942
-0.2917767763 -0.1146147624 0.5533766747 4281751563
-0.2927451730 -0.1143782884 0.5552133322 4281423369
-0.2927958071 -0.1137810796 0.5553093553 4281423369
-0.2933051884 -0.1133609638 0.5562754273 4281619980
-0.2942735553 -0.1131151319 0.5581120253 4281554187
-0.2947828472 -0.1126897186 0.5590779185 4281619726
-0.2957512438 -0.1124367118 0.5609145761 4281619726
-0.2962604165 -0.1120059863 0.5618802309 4281619726
-0.2972288728 -0.1117457971 0.5637170076 4281553933
-0.2981973886 -0.1114815474 0.5655538440 4281619726
-0.2987064123 -0.1110424027 0.5665192604 4281685519
-0.2996749282 -0.1107709706 0.5683561563 4281620496
-0.3001838326 -0.1103265136 0.5693212748 4281686289
-0.3011523783 -0.1100478843 0.5711582303 4281817875
-0.3016611040 -0.1095981225 0.5721231103 4281883668
-0.3026296794 -0.1093123034 0.5739600062 4281883668
-0.3031382561 -0.1088572294 0.5749245882 4281817875
-0.3031866550 -0.1082357243 0.5750164390 4281949461
-0.3036949635 -0.1077772230 0.5759804249 4282212633
-0.3042031229 -0.1073165387 0.5769442320 4281884181
-0.3047111928 -0.1068536788 0.5779077411 4281226251
-0.3047587574 -0.1062281579 0.5779979825 4281225738
-0.3057269156 -0.1059213951 0.5798342228 4281488910
-0.3062346280 -0.1054519787 0.5807970762 4281686289
-0.3062815964 -0.1048227549 0.5808861852 4281620496
-0.3067889810 -0.1043499187 0.5818484426 4281555216
-0.3068355024 -0.1037191749 0.5819367170 4281489423
-0.3073425293 -0.1032429263 0.5828983188 4281423630
-0.3078494370 -0.1027644947 0.5838597417 4281357837
-0.3083562255 -0.1022838876 0.5848208666 4281357583
-0.3088628650 -0.1018011048 0.5857817531 4281291790
-0.3093693852 -0.1013161317 0.5867424011 4281357583
-0.3103368878 -0.1009790301 0.5885773301 4281489169
-0.3103819788 -0.1003396586 0.5886628628 4281489169
-0.3108880818 -0.0998481587 0.5896227360 4281554962
-0.3113940358 -0.0993544757 0.5905823112 4281752341
-0.3123612404 -0.0990048572 0.5924166441 4281883927
-0.3133284152 -0.0986511558 0.5942509770 4281620247
-0.3138340712 -0.0981490389 0.5952100158 4281883419
-0.3143395782 -0.0976447463 0.5961686969 4285564027
-0.3495390117 -0.1966437101 0.6643265486 4285101677
-0.3491725922 -0.1957002282 0.6636301279 4283588942
-0.3479043841 -0.1942547858 0.6612197757 4283194184
-0.3466352820 -0.1928141862 0.6588077545 4282799676
-0.3440126777 -0.1906289309 0.6538232565 4282273332
-0.3332709670 -0.1839728206 0.6334078312 4281880874
-0.3004208505 -0.1652044505 0.5709735751 4281617702
-0.2995893359 -0.1641145647 0.5693932176 4281222944
-0.2974033058 -0.1622890383 0.5652384758 4281091358
-0.2961187959 -0.1609627903 0.5627971888 4281157150
-0.2957364321 -0.1601304412 0.5620704889 4281091357
-0.2949020267 -0.1590559036 0.5604846478 4280762392
