VERSION 0.7
FIELDS x y z rgba
SIZE 4 4 4 4
TYPE F F F U
COUNT 1 1 1 1
WIDTH 920
HEIGHT 1
VIEWPOINT 0.0 0.0 0.0 1.0 0.0 0.0 0.0
POINTS 920
DATA ascii
-0.3216012120 -0.2132564932 0.6325941086 4285889165
-0.3216888905 -0.2126116008 0.6327666044 4286481302
-0.3204736114 -0.2111079991 0.6303761601 4285954959
-0.3196917772 -0.2098942846 0.6288382411 4286415510
-0.3202126920 -0.2095364779 0.6298629045 4288388785
-0.3198644519 -0.2086095214 0.6291778684 4289638852
-0.3195157349 -0.2076838017 0.6284919381 4290494411
-0.3182969093 -0.2061959356 0.6260945201 4292139236
-0.3170771599 -0.2047127932 0.6236952543 4293652474
-0.3167266250 -0.2037942857 0.6230057478 4294705151
-0.3163756430 -0.2028770000 0.6223153472 4294770687
-0.3147183061 -0.2011264265 0.6190553904 4294639359
-0.3091411591 -0.1968866289 0.6080850363 4294705151
-0.3247511983 -0.1805679351 0.6387901902 4292731372
-0.3199887574 -0.2140535712 0.6308004856 4292271338
-0.3200765550 -0.2134112418 0.6309735775 4288718516
-0.3201641142 -0.2127683908 0.6311461926 4286284175
-0.3198181391 -0.2118379623 0.6304641366 4287271070
-0.3194716871 -0.2109087557 0.6297811866 4287336093
-0.3186911941 -0.2096954584 0.6282426119 4287665058
-0.3179099858 -0.2084851414 0.6267026067 4287928230
-0.3184296191 -0.2081284523 0.6277269721 4289178297
-0.3176473975 -0.2069214731 0.6261849999 4290559691
-0.3159964085 -0.2051538527 0.6229302883 4291151828
-0.3160809577 -0.2045164406 0.6230970025 4292270309
-0.3152967095 -0.2033184022 0.6215509772 4293322997
-0.3149461746 -0.2024025470 0.6208599806 4294639359
-0.3128571212 -0.2003747523 0.6167417765 4294705151
-0.3107666671 -0.1983552277 0.6126208305 4294770175
-0.3112833798 -0.1980032474 0.6136394739 4294704382
-0.3193529546 -0.1779551953 0.6295471787 4289770428
-0.3216217160 -0.1785149872 0.6340196133 4292533993
-0.3186421394 -0.2129210532 0.6295242906 4291152859
-0.3182969391 -0.2119916975 0.6288422346 4288257965
-0.3183838725 -0.2113507092 0.6290139556 4286810519
-0.3180378675 -0.2104229033 0.6283304095 4287730851
-0.3181242347 -0.2097817361 0.6285010576 4289441469
-0.3173445165 -0.2085709721 0.6269606352 4289770434
-0.3169971704 -0.2076468468 0.6262743473 4289244090
-0.3166493773 -0.2067239434 0.6255872250 4290230728
-0.3141346872 -0.2043926716 0.6206190586 4291086037
-0.3125686049 -0.2020014822 0.6175251007 4292599274
-0.3130854666 -0.2016482651 0.6185462475 4293915896
-0.3114336133 -0.1999007165 0.6152827144 4294376447
-0.3102144599 -0.1984372288 0.6128740907 4294705151
-0.3089943826 -0.1969785243 0.6104636788 4294639359
-0.3099439144 -0.1969034672 0.6123396158 4294639359
-0.3197387457 -0.1778592765 0.6316907406 4288981169
-0.3202516139 -0.1774415970 0.6327040195 4292468198
-0.3164336979 -0.2112141997 0.6265359521 4290758099
-0.3165201843 -0.2105756104 0.6267071962 4287600035
-0.3161745071 -0.2096500844 0.6260227561 4287928230
-0.3162604570 -0.2090113312 0.6261929274 4290099399
-0.3154818416 -0.2078027278 0.6246513128 4291941603
-0.3151348233 -0.2068808824 0.6239641905 4291349466
-0.3143549860 -0.2056773752 0.6224200726 4290230728
-0.3148719966 -0.2053229511 0.6234437823 4290691279
-0.3127932250 -0.2032793015 0.6193277836 4291612381
-0.3133095503 -0.2029256076 0.6203501821 4291875553
-0.3120944500 -0.2014520317 0.6179443002 4292797163
-0.3113114238 -0.2002617419 0.6163938642 4293915644
-0.3113939166 -0.1996297538 0.6165571809 4294573823
-0.3062776923 -0.1956760436 0.6064271331 4294508031
-0.3170594871 -0.1760592461 0.6277749538 4288454568
-0.3180082738 -0.1758865118 0.6296536326 4292336614
-0.3202698231 -0.1764327884 0.6341314316 4293520888
-0.3150053024 -0.2107241750 0.6250823736 4292139752
-0.3150914907 -0.2100871205 0.6252533793 4289705411
-0.3151774406 -0.2094495445 0.6254239082 4287731105
-0.3148318827 -0.2085257918 0.6247382760 4289770688
-0.3144859076 -0.2076032609 0.6240516901 4292731372
-0.3141394556 -0.2066819519 0.6233642101 4293520888
-0.3137925863 -0.2057618946 0.6226758957 4292401895
-0.3130134940 -0.2045609206 0.6211299300 4291217621
-0.3135293126 -0.2042067498 0.6221534610 4290888658
-0.3123172522 -0.2027287334 0.6197483540 4291678174
-0.3124005497 -0.2020940334 0.6199136376 4292073440
-0.3103226125 -0.2000656128 0.6157902479 4292665577
-0.3104048967 -0.1994342953 0.6159535050 4293455347
-0.3070275187 -0.1965874135 0.6092515588 4294442239
-0.3164952099 -0.1761332601 0.6280388832 4285625469
-0.3152591586 -0.1747503132 0.6255860925 4288652206
-0.3127120137 -0.1726489514 0.6205316782 4292336614
-0.3127173483 -0.2131106704 0.6219129562 4292797935
-0.3132338226 -0.2127704918 0.6229400635 4292863473
-0.3133205175 -0.2121370584 0.6231124401 4292863473
-0.3134070039 -0.2115031034 0.6232844591 4292533994
-0.3143533170 -0.2114471346 0.6251664758 4292402408
-0.3135793209 -0.2102336138 0.6236271858 4292205029
-0.3132348955 -0.2093105614 0.6229422092 4291349720
-0.3133204281 -0.2086753845 0.6231122613 4289178037
-0.3134057224 -0.2080396861 0.6232818961 4288783279
-0.3130601943 -0.2071185708 0.6225947142 4291810011
-0.3127142191 -0.2061986923 0.6219066978 4294441727
-0.3123677969 -0.2052800506 0.6212177277 4294638335
-0.3111589849 -0.2037981004 0.6188136935 4293190896
-0.3108114302 -0.2028836906 0.6181225181 4291414230
-0.3104634285 -0.2019705325 0.6174304485 4291348437
-0.3080403805 -0.1990329176 0.6126116514 4292007390
-0.3089852035 -0.1989606470 0.6144906878 4292599525
-0.3082036674 -0.1977763772 0.6129363775 4293718006
-0.3065578938 -0.1960429102 0.6096633673 4294310141
-0.3057747781 -0.1948664486 0.6081059575 4294375934
-0.3041269779 -0.1931443214 0.6048289537 4294770175
-0.3003958464 -0.1894472241 0.5974086523 4294704382
-0.3067072630 -0.1717408746 0.6099604368 4285362297
-0.3098295331 -0.1728045791 0.6161698103 4285493883
-0.3138247430 -0.1743394285 0.6241152287 4285559933
-0.3156416714 -0.1746513546 0.6277286410 4288981169
-0.3135345578 -0.1727926433 0.6235381365 4292731372
-0.3112010956 -0.2166818231 0.6202675700 4292929266
-0.3112889230 -0.2160536200 0.6204426289 4292731887
-0.3109482527 -0.2151285559 0.6197635531 4292600301
-0.3110355437 -0.2145001590 0.6199375391 4292402922
-0.3111226261 -0.2138712257 0.6201111078 4292337129
-0.3112094998 -0.2132417560 0.6202843189 4292205798
-0.3112961650 -0.2126117796 0.6204570532 4292008419
-0.3113826215 -0.2119812667 0.6206293702 4292007649
-0.3114688694 -0.2113502324 0.6208012700 4291810270
-0.3115549088 -0.2107186615 0.6209727526 4291547098
-0.3116407394 -0.2100865841 0.6211438179 4291415512
-0.3125851154 -0.2100309879 0.6230261326 4291481305
-0.3118117750 -0.2088208497 0.6214847565 4291349719
-0.3118969798 -0.2081872076 0.6216545105 4291020495
-0.3119819462 -0.2075530440 0.6218239069 4289046705
-0.3120667338 -0.2069183588 0.6219928861 4289836221
-0.3112913668 -0.2057148814 0.6204474568 4293389043
-0.3105153143 -0.2045143992 0.6189007163 4294901503
-0.3101688027 -0.2035992891 0.6182100177 4294769919
-0.3089612126 -0.2021224052 0.6158031225 4293914617
-0.3094744086 -0.2017728090 0.6168259978 4291743448
-0.3099876046 -0.2014209330 0.6178489327 4290625737
-0.3087782264 -0.1999513209 0.6154384613 4291086288
-0.3079987168 -0.1987644583 0.6138847470 4291678425
-0.3072185218 -0.1975806355 0.6123297215 4292533734
-0.3072996438 -0.1969522834 0.6124914289 4293323248
-0.3060872257 -0.1954973936 0.6100748777 4294112764
-0.3048739135 -0.1940473020 0.6076565981 4294770175
-0.3019343615 -0.1915076971 0.6017976999 4294770175
-0.3002873957 -0.1897980571 0.5985149741 4294638591
-0.2995024025 -0.1886386573 0.5969504118 4294704383
-0.2991484106 -0.1877532303 0.5962448716 4294638591
-0.3000893593 -0.1876792312 0.5981202722 4294638591
-0.3066648543 -0.1714181453 0.6112262011 4285493883
-0.3089120090 -0.1719901562 0.6157050729 4285230711
-0.3111599386 -0.1725526452 0.6201854944 4285625469
-0.3147145212 -0.1738268733 0.6272702813 4289902273
-0.3156580925 -0.1736490279 0.6291509867 4293126130
-0.3090928793 -0.2177494317 0.6174324155 4292929266
-0.3091808558 -0.2171252072 0.6176081300 4292731887
-0.3092686534 -0.2165004462 0.6177834868 4292534508
-0.3097835183 -0.2161733359 0.6188119650 4292337129
-0.3098710179 -0.2155466527 0.6189867258 4292073957
-0.3095307648 -0.2146229893 0.6183071136 4291876578
-0.3096177280 -0.2139961123 0.6184808016 4291744992
-0.3097044826 -0.2133687139 0.6186541319 4291679199
-0.3097910285 -0.2127407789 0.6188269854 4291482075
-0.3098773956 -0.2121123224 0.6189994812 4291350489
-0.3099635243 -0.2114833295 0.6191715598 4291283926
-0.3100494444 -0.2108538300 0.6193432212 4291020754
-0.3101351559 -0.2102237940 0.6195144057 4290889168
-0.3102206886 -0.2095932513 0.6196852326 4290889168
-0.3103059828 -0.2089621723 0.6198556423 4290889166
-0.3103910685 -0.2083305866 0.6200256348 4290889166
-0.3104759455 -0.2076984644 0.6201951504 4291152081
-0.3105606139 -0.2070658356 0.6203643084 4290888909
-0.3106450737 -0.2064326853 0.6205329895 4289441463
-0.3103001118 -0.2055147737 0.6198439598 4290823116
-0.3099547327 -0.2045980990 0.6191539764 4293717238
-0.3091794848 -0.2034001648 0.6176053882 4294901503
-0.3088330925 -0.2024868429 0.6169134378 4294901503
-0.3084862530 -0.2015747726 0.6162205935 4293783029
-0.3077092171 -0.2003840804 0.6146684289 4291151313
-0.3082211018 -0.2000333667 0.6156910062 4290296004
-0.3074430525 -0.1988460720 0.6141368151 4290296518
-0.3070944548 -0.1979390234 0.6134403944 4291349206
-0.3063151836 -0.1967568845 0.6118837595 4292336101
-0.3059655726 -0.1958532482 0.6111853719 4292994031
-0.3034632802 -0.1935779899 0.6061869264 4293848824
-0.3018205464 -0.1918602288 0.6029054523 4294375167
-0.3001767099 -0.1901490390 0.5996217728 4294638335
-0.3015472293 -0.1903479397 0.6023594737 4294769919
-0.3003328443 -0.1889148057 0.5999336243 4294835711
-0.2982555330 -0.1869461983 0.5957841277 4294769919
-0.2951857746 -0.1817463487 0.5896521211 4294770687
-0.2948291302 -0.1808724105 0.5889396667 4294704895
-0.3022062480 -0.1693006903 0.6036759615 4285164918
-0.3079229593 -0.1718198508 0.6150954366 4285559676
-0.3036507070 -0.1687620133 0.6065613031 4285493883
-0.3098043799 -0.1714944988 0.6188536882 4286678157
-0.3116145730 -0.1718049347 0.6224696040 4291415253
-0.3129906058 -0.1718689203 0.6252183318 4293257716
-0.3074153066 -0.2191005796 0.6154468060 4292863986
-0.3075035512 -0.2184794843 0.6156234741 4292798193
-0.3071655929 -0.2175561041 0.6149468422 4292666607
-0.3076794744 -0.2172356844 0.6159756780 4292666094
-0.3073408604 -0.2163129598 0.6152977347 4292468715
-0.3078545630 -0.2159897387 0.6163262129 4292205543
-0.3079418242 -0.2153659761 0.6165008545 4291942371
-0.3080288768 -0.2147416770 0.6166751385 4291810270
-0.3081157207 -0.2141168565 0.6168490052 4291612891
-0.3077754676 -0.2131958157 0.6161678433 4291415512
-0.3078617752 -0.2125708014 0.6163406372 4291349719
-0.3079478741 -0.2119452655 0.6165130138 4291087062
-0.3080337942 -0.2113192081 0.6166849732 4290955476
-0.3081194758 -0.2106926292 0.6168565750 4291087317
-0.3082049787 -0.2100655138 0.6170276999 4290955731
-0.3082902431 -0.2094378918 0.6171984076 4290954959
-0.3083753288 -0.2088097483 0.6173687577 4290889166
-0.3084601760 -0.2081810832 0.6175386310 4290691787
-0.3089727759 -0.2078397572 0.6185648441 4290823373
-0.3090573251 -0.2072091848 0.6187341213 4290888909
-0.3091416657 -0.2065780908 0.6189029813 4291217874
-0.3087975383 -0.2056612372 0.6182140112 4290954702
-0.3088813424 -0.2050299793 0.6183817983 4289507256
-0.3085364103 -0.2041147351 0.6176912189 4291085518
-0.3081910312 -0.2032007128 0.6169998050 4293980410
-0.3074164689 -0.2020062059 0.6154491305 4294704127
-0.3070701063 -0.2010955662 0.6147556901 4294901503
-0.3071522713 -0.2004661560 0.6149201393 4293322482
-0.3068051040 -0.1995571405 0.6142252088 4291217106
-0.3064575195 -0.1986493766 0.6135293245 4289901761
-0.3041234612 -0.1951069534 0.6088564992 4291349209
-0.3029144108 -0.1936575174 0.6064360142 4292138208
-0.3021342754 -0.1924867034 0.6048741341 4292664552
-0.3026431501 -0.1921377182 0.6058928967 4293190894
-0.3022920191 -0.1912423819 0.6051899791 4293519859
-0.3015103340 -0.1900771856 0.6036249995 4293586422
-0.3002977669 -0.1886447966 0.6011974812 4293389043
-0.2965022922 -0.1856009811 0.5935989022 4293060078
-0.2974395454 -0.1855260432 0.5954752564 4292796906
-0.2962242365 -0.1841090918 0.5930421948 4293059308
-0.2954387069 -0.1829636991 0.5914695859 4293388273
-0.2955140769 -0.1823530495 0.5916205049 4293191664
-0.2947274745 -0.1812120676 0.5900456905 4292533734
-0.2952331901 -0.1808663160 0.5910581350 4292138976
-0.2953078151 -0.1802551597 0.5912075639 4291086288
-0.2953822315 -0.1796435267 0.5913565159 4289968067
-0.2950251102 -0.1787700951 0.5906415582 4289902274
-0.2950989604 -0.1781584471 0.5907894373 4289639877
-0.3012284338 -0.1691281199 0.6030606031 4284835181
-0.3039001226 -0.1699521840 0.6084094048 4285427318
-0.3052719235 -0.1700403094 0.6111557484 4286085248
-0.3070778251 -0.1703631729 0.6147711873 4285428090
-0.3088843226 -0.1706783026 0.6183877587 4287994017
-0.3102574348 -0.1707469076 0.6211367249 4292533480
-0.3055803180 -0.2182781100 0.6131364703 4292797680
-0.3056681156 -0.2176593840 0.6133126616 4292534508
-0.3057557046 -0.2170401365 0.6134884357 4292534508
-0.3058431149 -0.2164203525 0.6136637926 4292797935
-0.3055048287 -0.2154998928 0.6129850149 4292271591
-0.3060173094 -0.2151791900 0.6140133142 4292139235
-0.3065298498 -0.2148562223 0.6150416732 4292007649
-0.3066165447 -0.2142334580 0.6152156591 4291678684
-0.3067030609 -0.2136101574 0.6153892279 4291349719
-0.3063632846 -0.2126905322 0.6147074699 4291218133
-0.3064492643 -0.2120670527 0.6148800254 4291086547
-0.3065350354 -0.2114430368 0.6150521040 4291152340
-0.3066206276 -0.2108185142 0.6152238250 4291152340
-0.3067059815 -0.2101934552 0.6153951287 4291152340
-0.3067911565 -0.2095678896 0.6155660152 4291152340
-0.3068761230 -0.2089417875 0.6157364249 4291349206
-0.3069608510 -0.2083151788 0.6159064770 4291414999
-0.3070454001 -0.2076880485 0.6160761118 4291283413
-0.3075568974 -0.2073483765 0.6171024442 4291217620
-0.3076411486 -0.2067193389 0.6172714233 4291414999
-0.3077251613 -0.2060897797 0.6174400449 4291283413
-0.3073814809 -0.2051743567 0.6167504191 4291349206
-0.3074649572 -0.2045446485 0.6169179678 4291151827
-0.3071205020 -0.2036308199 0.6162267923 4289375416
-0.3072034717 -0.2030009627 0.6163932681 4290033346
-0.3068582118 -0.2020887434 0.6157005429 4292928238
-0.3060844541 -0.2008967847 0.6141480207 4294507263
-0.3053915501 -0.1990803629 0.6127576828 4293848822
-0.3050444126 -0.1981740445 0.6120612025 4291940829
-0.3051254153 -0.1975464374 0.6122237444 4290164418
-0.3047775328 -0.1966417432 0.6115257144 4289638074
-0.3040004075 -0.1954626441 0.6099664569 4290427590
-0.3032226562 -0.1942865849 0.6084058881 4291217104
-0.3033022285 -0.1936614066 0.6085655689 4291217104
-0.3025233448 -0.1924896687 0.6070027947 4291085518
-0.3017438054 -0.1913209707 0.6054386497 4291480276
-0.3013929427 -0.1904266030 0.6047346592 4291875034
-0.2976060808 -0.1873705238 0.5971364379 4291809241
-0.2985421121 -0.1872942895 0.5990145802 4291677657
-0.2973300517 -0.1858710498 0.5965825915 4291611864
-0.2969766557 -0.1849880666 0.5958735347 4291282899
-0.2966228426 -0.1841064095 0.5951635838 4290822348
-0.2958385944 -0.1829601228 0.5935900211 4290363592
-0.2963440120 -0.1826120466 0.5946041346 4290495178
-0.2951285541 -0.1812051237 0.5921653509 4290428617
-0.2952032089 -0.1805928648 0.5923151970 4290165445
-0.2952776551 -0.1799801290 0.5924645662 4290033606
-0.2953518927 -0.1793669462 0.5926135182 4290033606
-0.2941339612 -0.1779715717 0.5901697278 4289375678
-0.2915525138 -0.1725098193 0.5849901438 4286019973
-0.2979478240 -0.1689874381 0.5978221893 4283519575
-0.2980181575 -0.1683629453 0.5979632735 4284308837
-0.2980882823 -0.1677380204 0.5981039405 4285164146
-0.2972926795 -0.1666275561 0.5965076089 4285427318
-0.3038547337 -0.1696280986 0.6096741557 4286151041
-0.3056572378 -0.1699529439 0.6132908463 4285953662
-0.3026968539 -0.1676320732 0.6073508859 4285953662
-0.3075313866 -0.1696238369 0.6170512438 4290493379
-0.3089019358 -0.1696911454 0.6198011637 4293848822
-0.3036617637 -0.2180706114 0.6106477976 4292929266
-0.3041735291 -0.2177585065 0.6116769314 4292666094
-0.3042609990 -0.2171413153 0.6118528247 4292402922
-0.3039237857 -0.2162216008 0.6111747026 4292337129
-0.3040107489 -0.2156042010 0.6113495827 4292468970
-0.3040974736 -0.2149862796 0.6115240455 4292074212
-0.3041840196 -0.2143678218 0.6116980314 4291876063
-0.3046953380 -0.2140473723 0.6127262712 4291612891
-0.3052066863 -0.2137246579 0.6137545705 4291218133
-0.3052928746 -0.2131028920 0.6139278412 4290889168
-0.3053788543 -0.2124806046 0.6141007543 4290757580
-0.3054646254 -0.2118577808 0.6142732501 4290757580
-0.3051246405 -0.2109402418 0.6135895848 4291086545
-0.3052099049 -0.2103172541 0.6137610078 4291086545
-0.3052949309 -0.2096937299 0.6139320135 4291020752
-0.3053797781 -0.2090696990 0.6141026616 4290954959
-0.3054644167 -0.2084451318 0.6142728329 4291020752
-0.3055488467 -0.2078200579 0.6144426465 4291020752
-0.3056330681 -0.2071944624 0.6146119833 4290954702
-0.3057170808 -0.2065683454 0.6147809029 4290888909
-0.3058008850 -0.2059417218 0.6149494648 4290954702
-0.3063111007 -0.2056009322 0.6159754395 4291020495
-0.3063946068 -0.2049724013 0.6161434054 4290954702
-0.3064778745 -0.2043433636 0.6163108945 4291086288
-0.3061339855 -0.2034300715 0.6156193614 4289967807
-0.3062167466 -0.2028008848 0.6157857776 4288454568
-0.3058721125 -0.2018892169 0.6150926948 4288849326
-0.3055270016 -0.2009788007 0.6143987179 4291612632
-0.3051814735 -0.2000696361 0.6137038469 4294046203
-0.3048354983 -0.1991617233 0.6130080819 4294901503
-0.3040614128 -0.1979766190 0.6114515066 4294506751
-0.3045699596 -0.1976272464 0.6124741435 4292532966
-0.3037948906 -0.1964455545 0.6109155416 4290427590
-0.3034471571 -0.1955426931 0.6102162600 4289374902
-0.3030989766 -0.1946410984 0.6095160842 4289572281
-0.3023221493 -0.1934667677 0.6079539061 4290164418
-0.3015446365 -0.1922954619 0.6063903570 4290032830
-0.2999095917 -0.1905827075 0.6031023860 4290230209
-0.2987019718 -0.1891479194 0.6006739736 4290559176
-0.2996368110 -0.1890704036 0.6025538445 4290624969
-0.2979992330 -0.1873712689 0.5992607474 4290690507
-0.2976472080 -0.1864849031 0.5985528827 4290690507
-0.2972947359 -0.1855998188 0.5978440642 4290493383
-0.2969418466 -0.1847160459 0.5971344113 4290427590
-0.2978761792 -0.1846317053 0.5990132689 4289771455
-0.2970934212 -0.1834827363 0.5974391699 4289639869
-0.2941628098 -0.1810155809 0.5915459394 4289704894
-0.2963850200 -0.1817208081 0.5960146785 4289770687
-0.2956005335 -0.1805793494 0.5944370627 4289638848
-0.2952451408 -0.1797025800 0.5937224030 4289112504
-0.2928131521 -0.1769138724 0.5888318419 4287401886
-0.2911657989 -0.1752680093 0.5855190754 4287270300
-0.2903777361 -0.1741448492 0.5839343667 4286941335
-0.2895890474 -0.1730248183 0.5823483467 4286612111
-0.2905213237 -0.1729327291 0.5842230916 4286019974
-0.2910233140 -0.1725813001 0.5852325559 4285428090
-0.2919558883 -0.1724820137 0.5871078968 4284967539
-0.2915965319 -0.1716181934 0.5863852501 4284638572
-0.2925291955 -0.1715135127 0.5882608294 4284901744
-0.2930311561 -0.1711530834 0.5892701745 4285032813
-0.2956882417 -0.1720443815 0.5946134925 4284309090
-0.2964740992 -0.1691895574 0.5961937904 4283585368
-0.2961127162 -0.1683217287 0.5954670906 4283585368
-0.2966144383 -0.1679441929 0.5964760184 4284177505
-0.2984116971 -0.1682950556 0.6000902057 4284835435
-0.2963219285 -0.1664544195 0.5958877802 4285427318
-0.2994155884 -0.1675232649 0.6021090150 4285822076
-0.3003496826 -0.1673748046 0.6039873958 4286019455
-0.3038774729 -0.1686617732 0.6110816002 4285427318
-0.3056772053 -0.1689776927 0.6147007346 4287532694
-0.3074774742 -0.1692858934 0.6183210015 4292532962
-0.3021711409 -0.2181625366 0.6090104580 4292798195
-0.3022585213 -0.2175487876 0.6091865897 4292797680
-0.3023457229 -0.2169345021 0.6093623638 4292534508
-0.3024327457 -0.2163196951 0.6095377207 4292271336
-0.3025195599 -0.2157043517 0.6097126603 4292073957
-0.3026061654 -0.2150884867 0.6098872423 4292205798
-0.3026925921 -0.2144720852 0.6100614071 4291811040
-0.3027788103 -0.2138551623 0.6102351546 4291678684
-0.3032889962 -0.2135363519 0.6112634540 4291349719
-0.3033749461 -0.2129175067 0.6114366651 4291020752
-0.3034606576 -0.2122981399 0.6116094589 4290757580
-0.3035462201 -0.2116782516 0.6117818356 4290625994
-0.3036315441 -0.2110578269 0.6119537950 4290560201
-0.3032918870 -0.2101425678 0.6112692952 4290625994
-0.3033767045 -0.2095219791 0.6114401817 4290560201
-0.3038863242 -0.2091934383 0.6124672890 4290428615
-0.3039708436 -0.2085709423 0.6126376390 4290231236
-0.3040551543 -0.2079479247 0.6128075719 4290231236
-0.3041392565 -0.2073243856 0.6129770875 4289968064
-0.3037976623 -0.2064112276 0.6122886539 4289704633
-0.3038812280 -0.2057875395 0.6124570966 4289573047
-0.3039646149 -0.2051633149 0.6126251221 4289704633
-0.3044736087 -0.2048250586 0.6136509776 4289046703
-0.3045566678 -0.2041989416 0.6138184071 4289244082
-0.3046395481 -0.2035723180 0.6139854193 4289178289
-0.3047221899 -0.2029451877 0.6141519547 4288848554
-0.3048046231 -0.2023175359 0.6143181324 4288322210
-0.3048868477 -0.2016893774 0.6144838333 4287335315
-0.3045423329 -0.2007795125 0.6137894988 4287598487
-0.3041974008 -0.1998708993 0.6130942702 4290098625
-0.3042787611 -0.1992429942 0.6132582426 4292993517
-0.3035061657 -0.1980574429 0.6117011309 4294704127
-0.3027328849 -0.1968749315 0.6101426482 4294506751
-0.3036673665 -0.1968026310 0.6120260358 4293388275
-0.3028932214 -0.1956226528 0.6104657650 4291282899
-0.3025457263 -0.1947207451 0.6097654700 4289572281
-0.3000606298 -0.1924493760 0.6047568321 4289309109
-0.3005668223 -0.1921009719 0.6057770252 4289440440
-0.2997900248 -0.1909331679 0.6042114496 4289637819
-0.2985847890 -0.1894969493 0.6017823815 4289835200
-0.2982344627 -0.1886067688 0.6010763049 4289703614
-0.2978836894 -0.1877178848 0.6003693342 4289770177
-0.2975324690 -0.1868302971 0.5996614695 4290164935
-0.2976090312 -0.1862119287 0.5998157859 4290296519
-0.2968287468 -0.1850590259 0.5982431173 4290362312
-0.2964762449 -0.1841753423 0.5975326896 4290165445
-0.2969803810 -0.1838234961 0.5985487103 4289704894
-0.2961985469 -0.1826762855 0.5969730020 4289441723
-0.2929174900 -0.1793408692 0.5903602242 4288849332
-0.2934202254 -0.1789916158 0.5913734436 4288125609
-0.2934938967 -0.1783793271 0.5915219188 4287467679
-0.2927089334 -0.1772467792 0.5899398923 4287270300
-0.2919233441 -0.1761173755 0.5883565545 4287204248
-0.2907077074 -0.1747329980 0.5859065056 4286875283
-0.2907797396 -0.1741251498 0.5860517025 4286217352
-0.2925700247 -0.1745420545 0.5896599293 4285559422
-0.2909231782 -0.1729080975 0.5863407850 4284901744
-0.2922840416 -0.1730624139 0.5890835524 4284506986
-0.2919256091 -0.1721964777 0.5883611441 4284506984
-0.2924268246 -0.1718372852 0.5893712640 4284967535
-0.2920677364 -0.1709722430 0.5886475444 4284703848
-0.2934291959 -0.1711121500 0.5913915038 4284177504
-0.2939303815 -0.1707462072 0.5924016237 4283914332
-0.2948619723 -0.1706271023 0.5942792296 4284111711
-0.2945021093 -0.1697593778 0.5935539007 4284111711
-0.2950031161 -0.1693875641 0.5945637226 4283848539
-0.2963656485 -0.1695062667 0.5973098278 4283585368
-0.2952827215 -0.1669031978 0.5951272249 4284572263
-0.2971462607 -0.1666257232 0.5988830924 4285756283
-0.2980782986 -0.1664808691 0.6007615328 4286085248
-0.2998734415 -0.1668119878 0.6043795943 4285493111
-0.2977850139 -0.1649834067 0.6001704335 4285558904
-0.3021704257 -0.1667364240 0.6090090275 4291085516
-0.3007706702 -0.2176386118 0.6075478792 4292732402
-0.3008577526 -0.2170263827 0.6077237725 4292731889
-0.3009445965 -0.2164136320 0.6078992486 4292534510
-0.3010312915 -0.2158003449 0.6080743074 4292271336
-0.3011177778 -0.2151865363 0.6082490087 4292073957
-0.3012040555 -0.2145721912 0.6084232926 4292008419
-0.3012901247 -0.2139573246 0.6085971594 4291547868
-0.3017992973 -0.2136415690 0.6096256971 4291283924
-0.3018850982 -0.2130247802 0.6097990274 4290954959
-0.3019707203 -0.2124074548 0.6099719405 4290560201
-0.3020561337 -0.2117896229 0.6101444364 4290165443
-0.3025650978 -0.2114674300 0.6111725569 4289836478
-0.3022263348 -0.2105523795 0.6104882956 4289573306
-0.3023111224 -0.2099329680 0.6106595993 4289573306
-0.3023957312 -0.2093130499 0.6108304858 4289441720
-0.3024801314 -0.2086925954 0.6110009551 4289113009
-0.3025643229 -0.2080716342 0.6111710072 4288784044
-0.3026483357 -0.2074501514 0.6113407016 4288586665
-0.3027321100 -0.2068281472 0.6115099192 4288191907
-0.3036651015 -0.2067840397 0.6133945584 4287928222
-0.3024742305 -0.2052942663 0.6109890342 4287730843
-0.3025572896 -0.2046715915 0.6111568213 4287533464
-0.3030651808 -0.2043349892 0.6121827364 4286941327
-0.3031479418 -0.2037104219 0.6123498678 4287467155
-0.3032304943 -0.2030853331 0.6125166416 4287335569
-0.3033128083 -0.2024597526 0.6126829386 4287006604
-0.3033949435 -0.2018336505 0.6128488183 4287269776
-0.3034768403 -0.2012070417 0.6130142808 4286809225
-0.3031328022 -0.2002986073 0.6123193502 4286217088
-0.3032141924 -0.1996718645 0.6124837399 4286545291
-0.3028693795 -0.1987650543 0.6117872000 4288782253
-0.3025241196 -0.1978595108 0.6110898256 4291611351
-0.3021784425 -0.1969552338 0.6103915572 4293782520
-0.3009796739 -0.1954984069 0.6079700589 4294572543
-0.3006328940 -0.1945984364 0.6072695851 4294177791
-0.3011387289 -0.1942500174 0.6082913876 4292466918
-0.3003646433 -0.1930765659 0.6067277193 4290493128
-0.3000166416 -0.1921795309 0.6060248017 4289374649
-0.2992413342 -0.1910112947 0.6044586897 4289045684
-0.2988923788 -0.1901177317 0.6037537456 4289309372
-0.2985429466 -0.1892254502 0.6030479670 4289901509
-0.2973386943 -0.1877948195 0.6006153822 4289835970
-0.2969881892 -0.1869069040 0.5999073386 4289441212
-0.2970646620 -0.1862883270 0.6000618935 4289309626
-0.2962858677 -0.1851349771 0.5984886885 4289375419
-0.2972170115 -0.1850497574 0.6003695726 4289310136
-0.2952291369 -0.1824869066 0.5963541865 4289046965
-0.2953040004 -0.1818704307 0.5965054035 4288454828
-0.2945224941 -0.1807281077 0.5949267745 4287862437
-0.2937403321 -0.1795888990 0.5933468342 4287467679
-0.2933858335 -0.1787136942 0.5926307440 4286941335
-0.2930308878 -0.1778398305 0.5919137597 4286678163
-0.2922469974 -0.1767081916 0.5903303027 4286546318
-0.2914624810 -0.1755796969 0.5887455940 4286217353
-0.2915347517 -0.1749689430 0.5888916254 4285691008
-0.2924644947 -0.1748705506 0.5907696486 4285296250
-0.2929655015 -0.1745125949 0.5917816758 4284901744
-0.2917503417 -0.1731339544 0.5893270373 4284506986
-0.2913925946 -0.1722676903 0.5886044502 4284572777
-0.2918929458 -0.1719083786 0.5896151662 4284901742
-0.2941107154 -0.1725544482 0.5940949917 4284637796
-0.2928936183 -0.1711830199 0.5916364789 4284308831
-0.2942530513 -0.1713171601 0.5943825245 4284045918
-0.2943238914 -0.1706978381 0.5945255756 4284177504
-0.2943945229 -0.1700780690 0.5946682692 4284111711
-0.2953246534 -0.1699526310 0.5965471268 4283782746
-0.2949650586 -0.1690836847 0.5958207250 4283651161
-0.2958952487 -0.1689528227 0.5976997018 4283585368
-0.2959652841 -0.1683285683 0.5978411436 4283651161
-0.2956047952 -0.1674600989 0.5971129537 4284243298
-0.2956742644 -0.1668358594 0.5972533226 4284703595
-0.2953130305 -0.1659692526 0.5965236425 4285361525
-0.2962431312 -0.1658271104 0.5984023809 4285361525
-0.2984654307 -0.1664012372 0.6028913856 4285229939
-0.3002577424 -0.1667266041 0.6065117717 4284900974
-0.2994652987 -0.1656144708 0.6049110293 4288585382
-0.3012581170 -0.1659298390 0.6085325480 4293191923
-0.2993726730 -0.2171141058 0.6060836911 4292732402
-0.2994593978 -0.2165034115 0.6062592864 4292666096
-0.2995459437 -0.2158921808 0.6064345241 4292534510
-0.2996322811 -0.2152804285 0.6066092849 4292271336
-0.2997184098 -0.2146681398 0.6067836881 4292008164
-0.2998043597 -0.2140553296 0.6069577336 4291876833
-0.2998901308 -0.2134419829 0.6071313024 4291284696
-0.3003981709 -0.2131278813 0.6081598997 4290889166
-0.3004836440 -0.2125126272 0.6083329320 4290428615
-0.3005689383 -0.2118968368 0.6085056067 4289770685
-0.3006540239 -0.2112805396 0.6086778045 4289244341
-0.3011618853 -0.2109600008 0.6097059846 4288849583
-0.3012466729 -0.2103417814 0.6098776460 4288389032
-0.3009080589 -0.2094284892 0.6091921329 4288323239
-0.3009923398 -0.2088101059 0.6093627214 4287994274
-0.3010764122 -0.2081911862 0.6095329523 4287599516
-0.3011602759 -0.2075717598 0.6097027659 4287204758
-0.3012439311 -0.2069518119 0.6098721623 4286875793
-0.3013274074 -0.2063313574 0.6100411415 4286744207
-0.3009867370 -0.2054210603 0.6093514562 4286743948
-0.3010696769 -0.2048004419 0.6095193624 4286678155
-0.3011524081 -0.2041793168 0.6096868515 4286480776
-0.3016591966 -0.2038443685 0.6107128263 4286480776
-0.3017416596 -0.2032213509 0.6108797193 4286940557
-0.3018238842 -0.2025978118 0.6110461950 4286940557
-0.3023305237 -0.2022578418 0.6120719314 4286677639
-0.3024124503 -0.2016324103 0.6122377515 4286611846
-0.3024941683 -0.2010064572 0.6124032140 4286743432
-0.3025756478 -0.2003800124 0.6125681996 4286809225
-0.3022318780 -0.1994725168 0.6118721962 4286413705
-0.3018876612 -0.1985662580 0.6111753583 4286018947
-0.3019683063 -0.1979400665 0.6113386154 4286940048
-0.3007724583 -0.1964796484 0.6089175940 4289505975
-0.3012778759 -0.1961321235 0.6099408269 4292203488
-0.3009320199 -0.1952300519 0.6092406511 4293979899
-0.3001599610 -0.1940540075 0.6076775789 4294374911
-0.2998130918 -0.1931553781 0.6069753766 4293848571
-0.2986138463 -0.1917110533 0.6045474410 4292072162
-0.2982659042 -0.1908167601 0.6038430333 4290361544
-0.2979175150 -0.1899237484 0.6031377316 4289111479
-0.2975686789 -0.1890320331 0.6024315357 4288914100
-0.2967930138 -0.1878716797 0.6008611917 4288849075
-0.2968697548 -0.1872524768 0.6010165215 4288980661
-0.2961690724 -0.1854781210 0.5995979905 4288585903
-0.2958936393 -0.1839744747 0.5990403891 4288191656
-0.2951147854 -0.1828263998 0.5974636078 4288323242
-0.2947625220 -0.1819451302 0.5967503786 4287796898
-0.2948370874 -0.1813279688 0.5969013572 4287138714
-0.2940566242 -0.1801865250 0.5953213573 4287072921
-0.2937030494 -0.1793092191 0.5946055055 4286809492
-0.2929214239 -0.1781731248 0.5930230618 4286348941
-0.2921391428 -0.1770401746 0.5914393663 4286085769
-0.2917840481 -0.1761686504 0.5907204747 4285691011
-0.2914285362 -0.1752984673 0.5900007486 4285230457
-0.2916441858 -0.1734601408 0.5904373527 4284441193
-0.2921440005 -0.1731002629 0.5914492011 4284440677
-0.2917868793 -0.1722323298 0.5907261968 4284374884
-0.2927150428 -0.1721217632 0.5926052928 4284242784
-0.2932147086 -0.1717560291 0.5936169028 4284176991
-0.2937143743 -0.1713880450 0.5946284533 4284111198
-0.2937851548 -0.1707684994 0.5947717428 4284111198
-0.2951426506 -0.1708936840 0.5975199938 4283913819
-0.2947841883 -0.1700230539 0.5967943072 4283519061
-0.2944253087 -0.1691537797 0.5960677266 4283322196
-0.2953538597 -0.1690229028 0.5979475975 4283322196
-0.2949944437 -0.1681536436 0.5972199440 4283519575
-0.2946345508 -0.1672857702 0.5964913368 4284045919
-0.2947038710 -0.1666622162 0.5966316462 4284440423
-0.2947729230 -0.1660382301 0.5967714787 4285032560
-0.2948417962 -0.1654137969 0.5969108939 4284900974
-0.2957701981 -0.1652693599 0.5987904668 4285295732
-0.2979887724 -0.1658387631 0.6032820344 4284966769
-0.2967673540 -0.1644914597 0.6008092165 4286808973
-0.2998470366 -0.1655239910 0.6070441008 4292533993
-0.2979771197 -0.2165890187 0.6046179533 4292732402
-0.2980635166 -0.2159798592 0.6047932506 4292600301
-0.2981497049 -0.2153701484 0.6049681306 4292402922
-0.2982357144 -0.2147599310 0.6051426530 4292139750
-0.2983215451 -0.2141491622 0.6053167582 4291942371
-0.2984071374 -0.2135378867 0.6054905057 4291613661
-0.2984925807 -0.2129260749 0.6056638360 4291021524
-0.2985777855 -0.2123137414 0.6058367491 4290757582
-0.2990846634 -0.2119998932 0.6068652272 4290165445
-0.2991696298 -0.2113856524 0.6070376039 4289112755
-0.2992543578 -0.2107708901 0.6072095633 4288389032
-0.2993389070 -0.2101555914 0.6073811054 4287862688
-0.2994232774 -0.2095397711 0.6075522900 4287402137
-0.2995074391 -0.2089234442 0.6077230573 4287204758
-0.2991688251 -0.2080127895 0.6070359945 4286875793
-0.2992524505 -0.2073962837 0.6072056890 4286612621
-0.2993358970 -0.2067792714 0.6073749661 4286415242
-0.2994191051 -0.2061617374 0.6075438261 4286283399
-0.2995021343 -0.2055436969 0.6077123284 4286283399
-0.2995849550 -0.2049251348 0.6078803539 4286414985
-0.2996675670 -0.2043060660 0.6080480218 4286349192
-0.2997500002 -0.2036864907 0.6082152128 4286217604
-0.3002556860 -0.2033532113 0.6092413068 4286217604
-0.3003378212 -0.2027317286 0.6094079614 4286348420
-0.3004197180 -0.2021097392 0.6095741391 4286282627
-0.3009252548 -0.2017714232 0.6105999351 4286348420
-0.3010068834 -0.2011475414 0.6107655168 4286414213
-0.3010882735 -0.2005231529 0.6109306812 4286677385
-0.3011694551 -0.1998982579 0.6110954285 4286151041
-0.3012504578 -0.1992728561 0.6112597585 4286282119
-0.3009068072 -0.1983671635 0.6105625033 4286282119
-0.3005627394 -0.1974627227 0.6098643541 4285361016
-0.3002182245 -0.1965595633 0.6091653109 4285361016
-0.3007227778 -0.1962119341 0.6101890802 4287400599
-0.2995278835 -0.1947570443 0.6077645421 4290032319
-0.2991820574 -0.1938576996 0.6070628166 4292269539
-0.2988357842 -0.1929596215 0.6063602567 4293782778
-0.2984890938 -0.1920628250 0.6056568027 4294374911
-0.2977166474 -0.1908946186 0.6040894389 4293585401
-0.2973689735 -0.1900012791 0.6033839583 4291743197
-0.2965953350 -0.1888383031 0.6018141508 4289835200
-0.2970979512 -0.1884885281 0.6028340459 4288519340
-0.2967490852 -0.1875981838 0.6021261215 4288256168
-0.2963997722 -0.1867091507 0.6014173627 4288519340
-0.2956240773 -0.1855540425 0.5998433828 4287927203
-0.2965520322 -0.1854679286 0.6017262936 4287862690
-0.2953492403 -0.1840498596 0.5992857814 4287731104
-0.2949982285 -0.1831660420 0.5985735059 4288060070
-0.2954995632 -0.1828111410 0.5995907784 4288060070
-0.2921622694 -0.1800878644 0.5928191543 4287665058
-0.2918094099 -0.1792124808 0.5921031833 4287467679
-0.2918828130 -0.1785995364 0.5922521353 4287204250
-0.2911023796 -0.1774657071 0.5906685591 4286612113
-0.2903936207 -0.1757242829 0.5892304182 4285493632
-0.2904657722 -0.1751130968 0.5893768072 4285033078
-0.2909649611 -0.1747580767 0.5903897285 4284704113
-0.2910367548 -0.1741450876 0.5905354023 4284441195
-0.2911083698 -0.1735316366 0.5906807184 4284112230
-0.2916073203 -0.1731716543 0.5916931033 4284045919
-0.2930329740 -0.1726970375 0.5945858955 4283782233
-0.2931041121 -0.1720781773 0.5947302580 4283913819
-0.2936030328 -0.1717091650 0.5957425833 4284045405
-0.2936738431 -0.1710885018 0.5958862305 4283913819
-0.2933162153 -0.1702188849 0.5951606035 4283650647
-0.2938147485 -0.1698458195 0.5961722136 4283321682
-0.2934564948 -0.1689771265 0.5954452157 4283058511
-0.2930977941 -0.1681098044 0.5947173834 4283058511
-0.2923100591 -0.1669989973 0.5931190252 4283059024
-0.2923791111 -0.1663792878 0.5932591558 4283453782
-0.2924479246 -0.1657591462 0.5933988094 4283848286
-0.2925165296 -0.1651385725 0.5935379863 4284045665
-0.2930139005 -0.1647587866 0.5945472121 4284177251
-0.2939403951 -0.1646170467 0.5964270830 4284572009
-0.2948670387 -0.1644712389 0.5983073115 4284111458
-0.2940765917 -0.1633673757 0.5967034698 4285164146
-0.2958619893 -0.1636922061 0.6003261805 4291218133
-0.2965840101 -0.2160633653 0.6031504869 4292732402
-0.2966700792 -0.2154557258 0.6033255458 4292534508
-0.2967559397 -0.2148475498 0.6035001278 4292337129
-0.2968416214 -0.2142388523 0.6036744118 4292073957
-0.2969270945 -0.2136296183 0.6038482189 4291810785
-0.2970123887 -0.2130198777 0.6040216684 4291482075
-0.2970974743 -0.2124096006 0.6041947007 4290889938
-0.2971823812 -0.2117988020 0.6043673754 4290494410
-0.2976881266 -0.2114866078 0.6053959131 4289836480
-0.2977727652 -0.2108739018 0.6055679917 4288717999
-0.2978571653 -0.2102606595 0.6057396531 4287796897
-0.2979414165 -0.2096469104 0.6059109569 4287204758
-0.2980254292 -0.2090326399 0.6060818434 4286744207
-0.2981092632 -0.2084178329 0.6062523127 4286612364
-0.2977711260 -0.2075086087 0.6055646539 4286414985
-0.2978544235 -0.2068936527 0.6057340503 4286349192
-0.2979375422 -0.2062781751 0.6059030890 4286349192
-0.2980204225 -0.2056621909 0.6060717106 4286283399
-0.2981031239 -0.2050456852 0.6062398553 4286349192
-0.2981856465 -0.2044286728 0.6064076424 4286349192
-0.2982679307 -0.2038111389 0.6065750122 4286283399
-0.2983500361 -0.2031930983 0.6067419648 4286414985
-0.2984319329 -0.2025745511 0.6069085002 4286217606
-0.2989364266 -0.2022415549 0.6079345345 4286348422
-0.2990180254 -0.2016211152 0.6081004143 4286151043
-0.2995224595 -0.2012844682 0.6091263294 4286282629
-0.2996037602 -0.2006621361 0.6092916131 4286085250
-0.2996848524 -0.2000392973 0.6094565392 4286216836
-0.2997657359 -0.1994159520 0.6096210480 4286151043
-0.2998464108 -0.1987921000 0.6097850800 4286282631
-0.2999268472 -0.1981677413 0.6099486947 4286151045
-0.2991596460 -0.1969848573 0.6083884239 4285887873
-0.2992394567 -0.1963612735 0.6085507274 4285624701
-0.2985502779 -0.1945598722 0.6071492434 4285427322
-0.2982050478 -0.1936610788 0.6064471602 4287400857
-0.2982836962 -0.1930381656 0.6066070199 4289703612
-0.2979376912 -0.1921410412 0.6059033871 4292269539
-0.2971667349 -0.1909723878 0.6043355465 4293782778
-0.2968197763 -0.1900787354 0.6036299467 4293914619
-0.2968971133 -0.1894574165 0.6037871838 4292861931
-0.2965493798 -0.1885654479 0.6030800343 4290164163
-0.2962011993 -0.1876747906 0.6023719907 4287532443
-0.2958526015 -0.1867854148 0.6016630530 4287203480
-0.2955035865 -0.1858973652 0.6009532213 4287335066
-0.2960046828 -0.1855437756 0.6019723415 4286612364
-0.2952296138 -0.1843908429 0.6003960967 4286349192
-0.2940283716 -0.1829762161 0.5979532003 4286283658
-0.2928262651 -0.1815664917 0.5955085158 4286415244
-0.2924747467 -0.1806876659 0.5947936773 4286283659
-0.2916969657 -0.1795480698 0.5932118893 4286283659
-0.2914176285 -0.1780591756 0.5926437974 4285888390
-0.2906382382 -0.1769262552 0.5910587907 4285690241
-0.2902844548 -0.1760549992 0.5903393626 4285163897
-0.2903566360 -0.1754426956 0.5904861689 4284704113
-0.2917080224 -0.1756001115 0.5932343602 4284375148
-0.2905003428 -0.1742167324 0.5907783508 4284112230
-0.2909985483 -0.1738579869 0.5917915702 4283980644
-0.2914967537 -0.1734969914 0.5928047299 4283914079
-0.2915680408 -0.1728806198 0.5929497480 4283914079
-0.2920661271 -0.1725160033 0.5939626098 4283979612
-0.2921370864 -0.1718978286 0.5941069722 4284045405
-0.2926350236 -0.1715296060 0.5951195955 4284045405
-0.2922783494 -0.1706601232 0.5943942070 4283650647
-0.2927760482 -0.1702891886 0.5954064131 4283387475
-0.2915636897 -0.1689252406 0.5929408669 4283255889
-0.2929161787 -0.1690469831 0.5956913829 4283058511
-0.2925581932 -0.1681793332 0.5949633718 4283124304
-0.2921997905 -0.1673130691 0.5942344666 4282927438
-0.2914130390 -0.1662041098 0.5926344991 4283059024
-0.2914817035 -0.1655846536 0.5927740932 4283387989
-0.2915501297 -0.1649647653 0.5929132700 4283387989
-0.2916183174 -0.1643444300 0.5930519700 4283716700
-0.2921146154 -0.1639640778 0.5940613151 4283914079
-0.2930393219 -0.1638209820 0.5959417820 4283585114
-0.2943927050 -0.1639123857 0.5986941457 4283585114
-0.2953178287 -0.1637602001 0.6005755067 4289441720
-0.2953857183 -0.1631303877 0.6007135510 4293060335
-0.2967397869 -0.1632077098 0.6034672856 4293455093
-0.2980942130 -0.1632790864 0.6062217355 4293389300
-0.2990199924 -0.1631105244 0.6081044078 4293455093
-0.2995167971 -0.1627047658 0.6091148257 4293389300
-0.3008719981 -0.1627611071 0.6118707657 4293191921
-0.3005103171 -0.1618864387 0.6111353040 4293191921
-0.3010070324 -0.1614738703 0.6121453643 4293257714
-0.3015036583 -0.1610590369 0.6131553650 4293257714
-0.3015706837 -0.1604134142 0.6132916808 4293126898
-0.3016374409 -0.1597673744 0.6134274602 4293192691
-0.2955266535 -0.2164497226 0.6023607850 4292863986
-0.2956126928 -0.2158432752 0.6025361419 4292732400
-0.2952791154 -0.2149310112 0.6018562317 4292600301
-0.2953646481 -0.2143243700 0.6020305753 4292337129
-0.2950303257 -0.2134136260 0.6013491154 4292073957
-0.2951153517 -0.2128067911 0.6015223861 4291810785
-0.2952001691 -0.2121994346 0.6016952991 4291613661
-0.2957048416 -0.2118925452 0.6027239561 4290889938
-0.2957894206 -0.2112832814 0.6028963327 4290428617
-0.2958737910 -0.2106734961 0.6030682921 4289836480
-0.2963783443 -0.2103615701 0.6040967703 4288915378
-0.2964624465 -0.2097498775 0.6042681336 4288060069
-0.2965463400 -0.2091376632 0.6044391394 4287467932
-0.2966300547 -0.2085249275 0.6046097875 4287073174
-0.2967135608 -0.2079116702 0.6047799587 4286678157
-0.2967968583 -0.2072979063 0.6049497724 4286480778
-0.2964588404 -0.2063904405 0.6042608023 4286349192
-0.2965416312 -0.2057765126 0.6044295430 4286283399
-0.2966242135 -0.2051620632 0.6045978665 4286283399
-0.2967066169 -0.2045471072 0.6047657728 4286283399
-0.2967887819 -0.2039316446 0.6049333215 4286217606
-0.2968707681 -0.2033156604 0.6051003933 4286151813
-0.2969525456 -0.2026991695 0.6052671075 4286349192
-0.2970341146 -0.2020821720 0.6054333448 4285954434
-0.2975375056 -0.2017508447 0.6064594388 4286348422
-0.2980409563 -0.2014172375 0.6074855328 4286151043
-0.2976998687 -0.2005125433 0.6067903042 4286282629
-0.2982031107 -0.2001761794 0.6078161001 4286151043
-0.2982839048 -0.1995548904 0.6079807281 4286085250
-0.2983644605 -0.1989330947 0.6081449389 4286151043
-0.2984448075 -0.1983108073 0.6083087325 4286019459
-0.2985249758 -0.1976879984 0.6084721088 4285887873
-0.2986049056 -0.1970647126 0.6086350679 4285822080
-0.2978385091 -0.1958844215 0.6070728898 4285953666
-0.2979178131 -0.1952618808 0.6072345376 4285887873
-0.2979968786 -0.1946388632 0.6073957086 4285427322
-0.2976523638 -0.1937397420 0.6066935062 4285163895
-0.2973074019 -0.1928419173 0.6059903502 4285295481
-0.2969619930 -0.1919453591 0.6052863598 4286611596
-0.2966161668 -0.1910500973 0.6045814157 4289309109
-0.2958460450 -0.1898840666 0.6030117273 4290953932
-0.2963471413 -0.1895345747 0.6040331125 4292006620
-0.2951519787 -0.1881017685 0.6015970707 4291085520
-0.2952284813 -0.1874819249 0.6017529964 4288190628
-0.2953047752 -0.1868616194 0.6019085050 4286545548
-0.2953808308 -0.1862408221 0.6020635366 4285953411
-0.2954567075 -0.1856195331 0.6022181511 4285559674
-0.2951077223 -0.1847319752 0.6015068889 4285559674
-0.2947583199 -0.1838457286 0.6007946730 4285165175
-0.2939836681 -0.1826967895 0.5992157459 4285033589
-0.2927834094 -0.1812878400 0.5967692733 4284967798
-0.2920073271 -0.1801460087 0.5951874852 4285033591
-0.2929312587 -0.1800526083 0.5970706344 4285098872
-0.2917290628 -0.1786530018 0.5946202874 4284572528
-0.2913767695 -0.1777773798 0.5939021707 4284966516
-0.2901730835 -0.1763858348 0.5914487243 4284703344
-0.2902452648 -0.1757724285 0.5915959477 4284506734
-0.2903172672 -0.1751585603 0.5917426348 4284177769
-0.2908148170 -0.1748001575 0.5927568078 4283914851
-0.2908864915 -0.1741844714 0.5929028988 4283849058
-0.2913839221 -0.1738224626 0.5939167738 4283716700
-0.2910291553 -0.1729517430 0.5931936502 4283782493
-0.2915263772 -0.1725870073 0.5942071080 4284111198
-0.2915972471 -0.1719686091 0.5943515897 4283913819
-0.2920943499 -0.1716002822 0.5953648090 4283650647
-0.2917383611 -0.1707304716 0.5946392417 4282926924
-0.2918086052 -0.1701107174 0.5947824121 4282663752
-0.2914518714 -0.1692427248 0.5940552950 4282861131
-0.2915215492 -0.1686230004 0.5941973329 4282861131
-0.2915910184 -0.1680028141 0.5943388939 4283058510
-0.2912332416 -0.1671371311 0.5936096311 4282795339
-0.2913021445 -0.1665169746 0.5937500596 4283058511
-0.2913708389 -0.1658963859 0.5938900709 4283190610
-0.2914392948 -0.1652753651 0.5940296054 4283519575
-0.2915075123 -0.1646538973 0.5941687226 4283980126
-0.2920030653 -0.1642725021 0.5951787829 4283914333
-0.2929262221 -0.1641284674 0.5970603824 4284243298
-0.2934218049 -0.1637416482 0.5980705023 4282861645
-0.2939173579 -0.1633525640 0.5990805626 4286349449
-0.2956966460 -0.1636718065 0.6027072668 4290428615
-0.2966204584 -0.1635113955 0.6045902371 4290560201
-0.2975444198 -0.1633469015 0.6064735055 4290165443
-0.2967556715 -0.1622418463 0.6048657894 4289902271
-0.2985361814 -0.1625391990 0.6084949970 4289375927
-0.2990320325 -0.1621319503 0.6095055938 4288849583
-0.2995277941 -0.1617224365 0.6105161309 4288652204
-0.2995949388 -0.1610801965 0.6106529832 4288389032
-0.3000905216 -0.1606670618 0.6116631031 4288520618
-0.3001572788 -0.1600230485 0.6117991805 4288783790
-0.3002237976 -0.1593786031 0.6119347215 4289310134
-0.2998610735 -0.1585069746 0.6111954451 4290033857
-0.2999270260 -0.1578625888 0.6113298535 4290625994
-0.2995635569 -0.1569928825 0.6105889678 4291218133
-0.2987703681 -0.1559005827 0.6089723110 4291744477
-0.2996940315 -0.1557038575 0.6108549833 4292600554
-0.2997589111 -0.1550587118 0.6109872460 4293192691
-0.2942237556 -0.2153165787 0.6010658145 4292732915
-0.2938906252 -0.2144057155 0.6003853083 4292666609
-0.2935570478 -0.2134960443 0.5997038484 4292403437
-0.2936419547 -0.2128912807 0.5998772383 4292073957
-0.2937266529 -0.2122859806 0.6000502706 4291810785
-0.2938111424 -0.2116801590 0.6002228856 4291482075
-0.2938954532 -0.2110738158 0.6003951430 4291153110
-0.2939795554 -0.2104669660 0.6005669832 4290560718
-0.2944829762 -0.2101589441 0.6015954018 4289902788
-0.2945668101 -0.2095501721 0.6017666459 4289376444
-0.2946504653 -0.2089408934 0.6019375324 4288850100
-0.2951537669 -0.2086278498 0.6029657125 4288323241
-0.2952371538 -0.2080166489 0.6031360626 4287862690
-0.2953203321 -0.2074049413 0.6033059955 4287336087
-0.2954033017 -0.2067927122 0.6034755111 4286875536
-0.2950657606 -0.2058866769 0.6027859449 4286612364
-0.2951482236 -0.2052742988 0.6029543877 4286546571
-0.2952304780 -0.2046613991 0.6031224132 4286480778
-0.2948918641 -0.2037573159 0.6024307013 4286480778
-0.2949736118 -0.2031442672 0.6025977135 4286414985
-0.2950551510 -0.2025307119 0.6027642488 4286283399
-0.2951364815 -0.2019166499 0.6029304266 4286414985
-0.2956387699 -0.2015892416 0.6039565206 4286283399
-0.2961410880 -0.2012595683 0.6049826741 4286086020
-0.2962220311 -0.2006422281 0.6051480770 4286020227
-0.2967242897 -0.2003089190 0.6061741114 4286020227
-0.2963833511 -0.1994060427 0.6054776311 4286020227
-0.2968854010 -0.1990699470 0.6065032482 4285954434
-0.2969656587 -0.1984497160 0.6066672206 4285888641
-0.2970457077 -0.1978289783 0.6068307161 4286216323
-0.2971255481 -0.1972077340 0.6069938540 4286084737
-0.2972051799 -0.1965859830 0.6071565151 4285822078
-0.2972846031 -0.1959637403 0.6073187590 4285690492
-0.2969413996 -0.1950635314 0.6066176891 4285558906
-0.2970203161 -0.1944411844 0.6067788601 4285427320
-0.2966763675 -0.1935426295 0.6060762405 4285097842
-0.2963320017 -0.1926453561 0.6053727269 4284768877
-0.2959871888 -0.1917493790 0.6046683192 4284505705
-0.2952190042 -0.1905816346 0.6030989885 4284637291
-0.2952962816 -0.1899612546 0.6032568812 4285427320
-0.2949501574 -0.1890691370 0.6025497913 4286414215
-0.2950268984 -0.1884486824 0.6027065516 4286874766
-0.2946800590 -0.1875582635 0.6019979715 4286874766
-0.2948322594 -0.1863167137 0.6023089290 4286018944
-0.2949080467 -0.1856952161 0.6024637222 4285033591
-0.2949835956 -0.1850732565 0.6026180983 4284704626
-0.2946350276 -0.1841857880 0.6019060016 4284507247
-0.2938619554 -0.1830355227 0.6003267169 4284638833
-0.2926641107 -0.1816251278 0.5978795886 4284638831
-0.2927381694 -0.1810066402 0.5980309248 4284573038
-0.2923876345 -0.1801262349 0.5973148346 4284506988
-0.2920366824 -0.1792471707 0.5965978503 4284046437
-0.2912607193 -0.1781097949 0.5950126648 4283914851
-0.2904841304 -0.1769755632 0.5934261680 4283914851
-0.2905564606 -0.1763601303 0.5935739875 4283914079
-0.2906285822 -0.1757442504 0.5937213302 4283585114
-0.2911255062 -0.1753839254 0.5947364569 4283519321
-0.2911973000 -0.1747662276 0.5948830843 4283585114
-0.2916940749 -0.1744022965 0.5958979726 4283256149
-0.2913402319 -0.1735294461 0.5951750875 4282795598
-0.2914113700 -0.1729103774 0.5953204036 4282598472
