VERSION 0.7
FIELDS x y z rgba
SIZE 4 4 4 4
TYPE F F F U
COUNT 1 1 1 1
WIDTH 920
HEIGHT 1
VIEWPOINT 0.0 0.0 0.0 1.0 0.0 0.0 0.0
POINTS 920
DATA ascii
-0.2817749083 -0.1254117638 0.5959159136 4293191923
-0.2822467387 -0.1249585599 0.5969138145 4293389302
-0.2827185094 -0.1245030984 0.5979115367 4293718267
-0.2841131985 -0.1177736819 0.6008610725 4293653494
-0.2841620743 -0.1171262413 0.6009645462 4293587447
-0.2842107415 -0.1164784655 0.6010674238 4293390068
-0.2842591405 -0.1158303544 0.6011697650 4293192689
-0.2843072712 -0.1151819155 0.6012715697 4293061103
-0.2843551636 -0.1145331487 0.6013728380 4292863726
-0.2844027877 -0.1138840541 0.6014735699 4292600554
-0.2844501734 -0.1132346392 0.6015737653 4292271589
-0.2844972908 -0.1125848964 0.6016734242 4292074210
-0.2845441699 -0.1119348258 0.6017725468 4291942624
-0.2845907807 -0.1112844422 0.6018711329 4291679452
-0.2850588262 -0.1107976362 0.6028609872 4291152081
-0.2851049900 -0.1101456508 0.6029586196 4291086288
-0.2855727077 -0.1096553206 0.6039478183 4290823373
-0.2851965427 -0.1088407338 0.6031522155 4290691787
-0.2852419317 -0.1081878021 0.6032482386 4290362822
-0.2852870524 -0.1075345650 0.6033436656 4289968064
-0.2857540250 -0.1070391238 0.6043312550 4289573560
-0.2857986987 -0.1063842997 0.6044257283 4289244595
-0.2858431339 -0.1057291701 0.6045196652 4289376181
-0.2858872712 -0.1050737351 0.6046130657 4289310388
-0.2859311700 -0.1044179946 0.6047059298 4289178802
-0.2855524123 -0.1036086902 0.6039048433 4288981423
-0.2855957150 -0.1029533222 0.6039964557 4288784044
-0.2860613167 -0.1024489850 0.6049811244 4288718251
-0.2861041427 -0.1017920524 0.6050717235 4288849835
-0.2861467302 -0.1011348292 0.6051617861 4288981421
-0.2861890495 -0.1004773080 0.6052513123 4288850351
-0.2866539061 -0.0999669433 0.6062343717 4288784558
-0.2866957784 -0.0993078724 0.6063229442 4288981423
-0.2867373526 -0.0986485109 0.6064108610 4289376181
-0.2867786884 -0.0979888663 0.6064983010 4289837246
-0.2872428000 -0.0974724889 0.6074798107 4290100418
-0.2872836590 -0.0968113020 0.6075661778 4290363592
-0.2873242199 -0.0961498395 0.6076520085 4290824143
-0.2873645425 -0.0954880938 0.6077373028 4291022037
-0.2874045968 -0.0948260650 0.6078220010 4291285209
-0.2865977287 -0.0938864052 0.6061155796 4291613661
-0.2879073024 -0.0936388969 0.6088851690 4291811040
-0.2879466116 -0.0929750726 0.6089683175 4292139750
-0.2879856527 -0.0923109800 0.6090508699 4292271336
-0.2884480059 -0.0917813927 0.6100286245 4292337642
-0.2884865403 -0.0911157876 0.6101101637 4292535021
-0.2885248363 -0.0904499143 0.6101911664 4292337897
-0.2885628641 -0.0897837728 0.6102715135 4292403690
-0.2886005938 -0.0891173705 0.6103513837 4292469481
-0.2882142365 -0.0883208290 0.6095342636 4292469481
-0.2882513702 -0.0876548886 0.6096128225 4292469481
-0.2882882357 -0.0869886950 0.6096907854 4292666860
-0.2887488604 -0.0864491835 0.6106649041 4292732653
-0.2887852490 -0.0857814997 0.6107418537 4292601067
-0.2888213396 -0.0851135626 0.6108182073 4292535272
-0.2897055149 -0.0846933797 0.6126881242 4292732651
-0.2897411883 -0.0840229839 0.6127635837 4293127150
-0.2897765934 -0.0833523422 0.6128383875 4293390322
-0.2885387242 -0.0823182836 0.6102205515 4293521908
-0.2898465395 -0.0820103213 0.6129863858 4293785080
-0.2749554515 -0.1757680923 0.5828628540 4292929521
-0.2746137679 -0.1749028713 0.5821385384 4292140005
-0.2742716968 -0.1740390062 0.5814133286 4291481305
-0.2743411064 -0.1734368950 0.5815604925 4290231238
-0.2739982903 -0.1725748181 0.5808337927 4289046962
-0.2740671933 -0.1719727069 0.5809798241 4287928481
-0.2741358876 -0.1713701487 0.5811254382 4286678414
-0.2742043734 -0.1707671285 0.5812706351 4285625726
-0.2742726505 -0.1701636463 0.5814153552 4284967796
-0.2743407190 -0.1695597321 0.5815596581 4285099382
-0.2739959359 -0.1687012911 0.5808287859 4285757055
-0.2740634978 -0.1680973768 0.5809720159 4286678157
-0.2741308510 -0.1674930304 0.5811147690 4287599259
-0.2737850249 -0.1666368991 0.5803816915 4288388775
-0.2738518417 -0.1660325676 0.5805233717 4288849326
-0.2739184499 -0.1654277891 0.5806645751 4288783533
-0.2739848495 -0.1648225784 0.5808053017 4288980144
-0.2744643986 -0.1644646078 0.5818218589 4289572281
-0.2745304704 -0.1638575941 0.5819619298 4290230211
-0.2745963335 -0.1632501632 0.5821015835 4291217106
-0.2746619880 -0.1626422703 0.5822407603 4291743450
-0.2751411796 -0.1622779816 0.5832565427 4291611864
-0.2752065063 -0.1616683155 0.5833950043 4291348692
-0.2752715945 -0.1610582173 0.5835330486 4290822348
-0.2753365040 -0.1604476869 0.5836705565 4290559176
-0.2754011750 -0.1598367244 0.5838077068 4290822348
-0.2754656374 -0.1592253298 0.5839443207 4291217621
-0.2755298615 -0.1586135030 0.5840805173 4291678172
-0.2755939066 -0.1580012590 0.5842162371 4292204516
-0.2756577134 -0.1573885828 0.5843514800 4292467688
-0.2757212818 -0.1567754894 0.5844863057 4292467688
-0.2761993706 -0.1563967913 0.5854997635 4292336102
-0.2766774297 -0.1560158283 0.5865131617 4292138723
-0.2767405510 -0.1553996056 0.5866469145 4292007137
-0.2768034339 -0.1547829807 0.5867802501 4291743965
-0.2768661082 -0.1541659236 0.5869131088 4291612379
-0.2765133679 -0.1533182412 0.5861653686 4291480793
-0.2765755057 -0.1527012736 0.5862970948 4291415000
-0.2770527899 -0.1523122489 0.5873088837 4291480793
-0.2771145999 -0.1516935229 0.5874398351 4291546586
-0.2771761417 -0.1510743946 0.5875703692 4291546586
-0.2776531279 -0.1506804079 0.5885815024 4291546586
-0.2777143419 -0.1500595212 0.5887112021 4291480792
-0.2777753174 -0.1494382322 0.5888404846 4291480792
-0.2778360546 -0.1488165259 0.5889692307 4291480792
-0.2783125937 -0.1484162509 0.5899794102 4291546585
-0.2779568732 -0.1475718915 0.5892253518 4291678171
-0.2780169249 -0.1469489634 0.5893526673 4291941343
-0.2780767679 -0.1463256329 0.5894795060 4292138722
-0.2781363726 -0.1457019150 0.5896058679 4292336101
-0.2777793109 -0.1448605955 0.5888489485 4292401894
-0.2778383493 -0.1442370117 0.5889741182 4292467687
-0.2783138156 -0.1438283324 0.5899820328 4292533993
-0.2779558003 -0.1429886371 0.5892230868 4292599786
-0.2780141532 -0.1423638612 0.5893468261 4292731372
-0.2780722976 -0.1417386830 0.5894700289 4292797165
-0.2781302035 -0.1411131173 0.5895928144 4292862958
-0.2786049545 -0.1406977922 0.5905991793 4292928751
-0.2786624730 -0.1400705129 0.5907211304 4292600556
-0.2787197828 -0.1394428462 0.5908426046 4292468970
-0.2787768245 -0.1388147920 0.5909635425 4292403177
-0.2788336575 -0.1381863505 0.5910840034 4292337384
-0.2788902521 -0.1375575215 0.5912039876 4292403177
-0.2789466083 -0.1369283199 0.5913234353 4292337384
-0.2790027261 -0.1362987310 0.5914424062 4292271589
-0.2790586054 -0.1356687546 0.5915609002 4292205796
-0.2791142464 -0.1350384206 0.5916788578 4292140003
-0.2791696787 -0.1344076991 0.5917962790 4292074210
-0.2792248428 -0.1337766051 0.5919132829 4292008419
-0.2792797685 -0.1331451386 0.5920296907 4292074212
-0.2793344557 -0.1325132996 0.5921456814 4292140005
-0.2793889344 -0.1318810880 0.5922610760 4292205798
-0.2794431448 -0.1312485039 0.5923760533 4292271589
-0.2794971168 -0.1306155473 0.5924904346 4292403175
-0.2795508504 -0.1299822479 0.5926043391 4292600554
-0.2800229192 -0.1295422018 0.5936051011 4292732140
-0.2800762653 -0.1289072037 0.5937181115 4292863726
-0.2801293433 -0.1282718629 0.5938307047 4293061105
-0.2801822126 -0.1276361495 0.5939427018 4293258484
-0.2802348137 -0.1270000786 0.5940542221 4293521656
-0.2802871764 -0.1263636500 0.5941652656 4293653240
-0.2835267484 -0.1124649867 0.6010326147 4293521654
-0.2835734785 -0.1118156239 0.6011317372 4293126896
-0.2840407789 -0.1113308817 0.6021223068 4292863724
-0.2840870917 -0.1106799245 0.6022204757 4292665831
-0.2841331363 -0.1100286394 0.6023180485 4292534245
-0.2845999300 -0.1095390916 0.6033076048 4292402659
-0.2842244506 -0.1087251380 0.6025116444 4292271073
-0.2842697203 -0.1080729216 0.6026076674 4292073694
-0.2843147516 -0.1074203849 0.6027030945 4291942108
-0.2847807705 -0.1069257185 0.6036909819 4291876315
-0.2848253548 -0.1062716022 0.6037854552 4291744729
-0.2848696411 -0.1056171805 0.6038793921 4291744729
-0.2849136889 -0.1049624532 0.6039727330 4291810522
-0.2845359445 -0.1041531265 0.6031719446 4291810268
-0.2845793962 -0.1034987643 0.6032640934 4291810268
-0.2846226096 -0.1028441042 0.6033556461 4291744475
-0.2850872576 -0.1023405343 0.6043406725 4291744475
-0.2851299942 -0.1016843095 0.6044312716 4291744475
-0.2851724923 -0.1010277942 0.6045213342 4291810268
-0.2856366038 -0.1005194634 0.6055052280 4291744475
-0.2856786251 -0.0998613834 0.6055942774 4291744475
-0.2857203782 -0.0992030203 0.6056827903 4291744475
-0.2857618630 -0.0985443741 0.6057707071 4291810268
-0.2858030796 -0.0978854373 0.6058580875 4291941854
-0.2858440280 -0.0972262174 0.6059449315 4292073440
-0.2858847380 -0.0965667143 0.6060311794 4292008417
-0.2859251499 -0.0959069282 0.6061168909 4292074210
-0.2859653234 -0.0952468663 0.6062020063 4292271589
-0.2860051990 -0.0945865214 0.6062865853 4292205796
-0.2851997912 -0.0936484337 0.6045792103 4292205796
-0.2865067720 -0.0934027806 0.6073498130 4292337382
-0.2865459025 -0.0927406400 0.6074327826 4292403175
-0.2870074809 -0.0922140405 0.6084112525 4292337382
-0.2870461643 -0.0915503874 0.6084932685 4292271589
-0.2870845497 -0.0908864662 0.6085746288 4292205796
-0.2871226966 -0.0902222767 0.6086555123 4292403435
-0.2871605456 -0.0895578265 0.6087357402 4292271849
-0.2871981561 -0.0888931155 0.6088154316 4292140263
-0.2872354686 -0.0882281363 0.6088945270 4292140263
-0.2872725129 -0.0875629038 0.6089730859 4292271849
-0.2868861556 -0.0867694393 0.6081540585 4292403435
-0.2869226336 -0.0861046761 0.6082313657 4292666860
-0.2873820364 -0.0855656788 0.6092053056 4292798446
-0.2874180079 -0.0848994330 0.6092815399 4292995310
-0.2874537110 -0.0842329338 0.6093571782 4293126896
-0.2879125178 -0.0836892650 0.6103298068 4293324275
-0.2879477441 -0.0830212981 0.6104044318 4293587447
-0.2740646005 -0.1788472235 0.5823454857 4292797935
-0.2745459676 -0.1785131842 0.5833683014 4292140005
-0.2737958729 -0.1773790568 0.5817744136 4291350489
-0.2734557390 -0.1765131205 0.5810517073 4290429387
-0.2731151879 -0.1756485105 0.5803281069 4289245113
-0.2731850445 -0.1750484705 0.5804765224 4288060069
-0.2724328637 -0.1739233285 0.5788782239 4287073174
-0.2725020945 -0.1733241826 0.5790253282 4285954693
-0.2721599936 -0.1724640727 0.5782984495 4285559935
-0.2722286880 -0.1718649119 0.5784444809 4285296761
-0.2722972035 -0.1712653190 0.5785900354 4285362554
-0.2723655105 -0.1706652641 0.5787351727 4286020484
-0.2724336088 -0.1700647622 0.5788798928 4287073172
-0.2725014985 -0.1694637984 0.5790241361 4288060067
-0.2725692093 -0.1688624024 0.5791679621 4288652204
-0.2726366818 -0.1682605445 0.5793113112 4289243316
-0.2727039456 -0.1676582545 0.5794543028 4289769660
-0.2727710009 -0.1670555025 0.5795967579 4289638588
-0.2728378773 -0.1664523184 0.5797388554 4289441209
-0.2729045153 -0.1658486873 0.5798804760 4289770174
-0.2729709446 -0.1652446240 0.5800216198 4290493897
-0.2730371654 -0.1646400988 0.5801623464 4291217620
-0.2731031775 -0.1640351564 0.5803025961 4291743964
-0.2735816240 -0.1636766344 0.5813192129 4291349206
-0.2736473382 -0.1630699039 0.5814588070 4291349206
-0.2737128139 -0.1624627262 0.5815979242 4290888655
-0.2737780809 -0.1618551016 0.5817366242 4290493897
-0.2742561698 -0.1614902616 0.5827524662 4290559690
-0.2743210793 -0.1608808637 0.5828904510 4290822862
-0.2743858099 -0.1602710336 0.5830279589 4291283413
-0.2748636305 -0.1599012315 0.5840433240 4291809757
-0.2749280334 -0.1592896283 0.5841801167 4291809758
-0.2749921978 -0.1586775780 0.5843164325 4291809758
-0.2750561535 -0.1580651104 0.5844523311 4291743965
-0.2751198709 -0.1574522257 0.5845877528 4291612379
-0.2751833797 -0.1568389088 0.5847226977 4291480793
-0.2752466798 -0.1562251598 0.5848572254 4291415000
-0.2753097713 -0.1556109935 0.5849912167 4291349206
-0.2757867277 -0.1552294791 0.5860046744 4291349206
-0.2758494616 -0.1546135545 0.5861380100 4291414999
-0.2759119570 -0.1539971977 0.5862708092 4291349206
-0.2759742439 -0.1533804238 0.5864031315 4291217620
-0.2760363221 -0.1527632326 0.5865350366 4291151827
-0.2760981619 -0.1521456391 0.5866664648 4291151827
-0.2761597633 -0.1515276134 0.5867973566 4291151827
-0.2762211561 -0.1509091854 0.5869278312 4291217620
-0.2762823403 -0.1502903402 0.5870578289 4291349206
-0.2767582238 -0.1498958170 0.5880689621 4291349206
-0.2768190205 -0.1492752284 0.5881981850 4291480792
-0.2768796086 -0.1486542225 0.5883269310 4291546585
-0.2769399881 -0.1480328143 0.5884552002 4291743964
-0.2770001292 -0.1474110037 0.5885829926 4292007136
-0.2766446471 -0.1465687156 0.5878276825 4292138722
-0.2767042220 -0.1459470242 0.5879542828 4292138722
-0.2767635882 -0.1453249454 0.5880804062 4292204515
-0.2768227458 -0.1447024494 0.5882060528 4292270308
-0.2764658928 -0.1438632309 0.5874478221 4292270308
-0.2765244842 -0.1432408839 0.5875723362 4292270308
-0.2765828371 -0.1426181346 0.5876963735 4292270308
-0.2762249708 -0.1417814791 0.5869359374 4292139235
-0.2762827873 -0.1411588937 0.5870587826 4292139235
-0.2767565548 -0.1407475621 0.5880654454 4292073442
-0.2768139839 -0.1401232481 0.5881874561 4292073442
-0.2768711746 -0.1394985467 0.5883089900 4291876831
-0.2769281566 -0.1388734728 0.5884300470 4291942624
-0.2769849002 -0.1382479966 0.5885506272 4291942626
-0.2770414054 -0.1376221478 0.5886707306 4292008419
-0.2770976722 -0.1369959116 0.5887902975 4292074212
-0.2771537304 -0.1363693029 0.5889093280 4292140005
-0.2772095203 -0.1357423067 0.5890279412 4292271589
-0.2772651017 -0.1351149380 0.5891460180 4292337382
-0.2773204148 -0.1344871819 0.5892636180 4292534761
-0.2773755193 -0.1338590682 0.5893806815 4292600554
-0.2774303854 -0.1332305670 0.5894972682 4292732140
-0.2779022753 -0.1328011006 0.5904999375 4292929519
-0.2779567540 -0.1321709156 0.5906156898 4293126898
-0.2780109942 -0.1315403581 0.5907309055 4293258484
-0.2780649960 -0.1309094280 0.5908456445 4293390068
-0.2781187296 -0.1302781403 0.5909598470 4293455861
-0.2785899341 -0.1298411489 0.5919610858 4293653240
-0.2832078934 -0.1092605591 0.6017735600 4293653240
-0.2832533121 -0.1086093634 0.6018700600 4293521654
-0.2828781307 -0.1077976748 0.6010729074 4293258482
-0.2833433747 -0.1073060259 0.6020613909 4292995310
-0.2833880186 -0.1066538915 0.6021562815 4292797931
-0.2834323943 -0.1060014516 0.6022505760 4292732138
-0.2834765315 -0.1053487062 0.6023443341 4292468452
-0.2835204005 -0.1046956629 0.6024375558 4292402659
-0.2835640013 -0.1040423065 0.6025302410 4292336866
-0.2831865549 -0.1032352597 0.6017282009 4292205280
-0.2836504281 -0.1027347073 0.6027138829 4292139487
-0.2836932540 -0.1020804569 0.6028048992 4292073694
-0.2837358117 -0.1014259160 0.6028953195 4292007901
-0.2841991484 -0.1009205878 0.6038798690 4291942108
-0.2842412591 -0.1002644897 0.6039693356 4291942626
-0.2842831016 -0.0996080935 0.6040582061 4291942626
-0.2843246758 -0.0989514142 0.6041465998 4291942626
-0.2843660116 -0.0982944444 0.6042343974 4291942626
-0.2844070494 -0.0976371914 0.6043215990 4291942626
-0.2844478488 -0.0969796553 0.6044082642 4292008419
-0.2844883800 -0.0963218361 0.6044943929 4292008419
-0.2845286429 -0.0956637338 0.6045799255 4292008419
-0.2845686376 -0.0950053558 0.6046649218 4292008419
-0.2846083641 -0.0943467021 0.6047493219 4292008419
-0.2850695252 -0.0938265696 0.6057292819 4292140005
-0.2851088047 -0.0931663886 0.6058126688 4292205798
-0.2851477861 -0.0925059393 0.6058955193 4292205798
-0.2856083810 -0.0919810832 0.6068742275 4292205798
-0.2856468856 -0.0913191140 0.6069560647 4292205798
-0.2856851518 -0.0906568766 0.6070373654 4292271591
-0.2857231200 -0.0899943784 0.6071180105 4292534761
-0.2857608199 -0.0893316120 0.6071981788 4292534761
-0.2857982814 -0.0886685923 0.6072776914 4292600554
-0.2858354449 -0.0880053043 0.6073567271 4292666347
-0.2854500711 -0.0872127488 0.6065378785 4292797933
-0.2854866683 -0.0865499303 0.6066156030 4292929519
-0.2855229676 -0.0858868584 0.6066927314 4293192689
-0.2855589986 -0.0852235407 0.6067693233 4293390068
-0.2860172391 -0.0846850500 0.6077430248 4293653494
-0.2864753306 -0.0841443539 0.6087163687 4293785080
-0.2714356184 -0.1852586716 0.5781236291 4294310399
-0.2718703449 -0.1816951782 0.5790495276 4293323509
-0.2719421089 -0.1810996085 0.5792024136 4292994544
-0.2716046274 -0.1802321374 0.5784836411 4292468200
-0.2712667584 -0.1793659776 0.5777639747 4291481305
-0.2713376880 -0.1787707955 0.5779150724 4290494410
-0.2718178332 -0.1784438789 0.5789377093 4289310136
-0.2718884945 -0.1778468639 0.5790882111 4288389034
-0.2719589472 -0.1772493720 0.5792382956 4287270553
-0.2720292211 -0.1766514331 0.5793879032 4286481037
-0.2716895044 -0.1757878810 0.5786643624 4285823105
-0.2717592418 -0.1751899123 0.5788129568 4285428347
-0.2714188099 -0.1743281484 0.5780878067 4285494142
-0.2714880407 -0.1737301648 0.5782353282 4285823107
-0.2707366645 -0.1726086587 0.5766350031 4286546830
-0.2708052993 -0.1720115691 0.5767811537 4287467932
-0.2704633176 -0.1711543053 0.5760527849 4288389032
-0.2705314457 -0.1705572307 0.5761978626 4288915376
-0.2705993652 -0.1699596792 0.5763425231 4289178548
-0.2706670761 -0.1693616956 0.5764867067 4289178548
-0.2711454034 -0.1690193415 0.5775055289 4289046964
-0.2712128162 -0.1684195548 0.5776490569 4288849585
-0.2712800205 -0.1678193212 0.5777922273 4289637819
-0.2713469863 -0.1672186255 0.5779348612 4290361542
-0.2714137733 -0.1666174978 0.5780771375 4290887886
-0.2714803517 -0.1660159230 0.5782189369 4291085265
-0.2715467215 -0.1654139161 0.5783602595 4291283414
-0.2720244229 -0.1650611758 0.5793777108 4291546586
-0.2720904648 -0.1644573659 0.5795183778 4291415000
-0.2725680470 -0.1641010046 0.5805355310 4291217621
-0.2726337612 -0.1634954065 0.5806755424 4290362311
-0.2726992667 -0.1628893614 0.5808150768 4290559690
-0.2727645934 -0.1622828841 0.5809541941 4290822862
-0.2728296816 -0.1616759747 0.5810927749 4291283413
-0.2733067870 -0.1613119394 0.5821089745 4291743964
-0.2733715475 -0.1607032418 0.5822468996 4291743964
-0.2730236650 -0.1598526537 0.5815059543 4291414999
-0.2735004127 -0.1594845653 0.5825214386 4291283413
-0.2735645473 -0.1588745713 0.5826579928 4291086548
-0.2736284435 -0.1582641602 0.5827940702 4290954962
-0.2736921310 -0.1576533169 0.5829297304 4290757582
-0.2737555802 -0.1570420563 0.5830649137 4290560203
-0.2738188505 -0.1564303637 0.5831996202 4290428617
-0.2738818824 -0.1558182389 0.5833338499 4290362824
-0.2743578851 -0.1554398090 0.5843476653 4290297031
-0.2744205594 -0.1548259258 0.5844812393 4290297031
-0.2744830251 -0.1542116106 0.5846142769 4290296518
-0.2745452821 -0.1535968930 0.5847468376 4290362311
-0.2746073306 -0.1529817581 0.5848789811 4290493897
-0.2746691406 -0.1523662060 0.5850105882 4290625483
-0.2747307122 -0.1517502367 0.5851417780 4290822862
-0.2747920752 -0.1511338502 0.5852724910 4291086034
-0.2748532295 -0.1505170465 0.5854027271 4291414999
-0.2753281593 -0.1501255929 0.5864142776 4291612378
-0.2753889561 -0.1495070457 0.5865437388 4291743964
-0.2754495144 -0.1488880962 0.5866727233 4291875550
-0.2755098641 -0.1482687294 0.5868012309 4291875550
-0.2755699754 -0.1476489604 0.5869292617 4291941343
-0.2752153575 -0.1468076855 0.5861740112 4292138722
-0.2752749324 -0.1461880356 0.5863009095 4292204515
-0.2753342986 -0.1455679983 0.5864273310 4292138722
-0.2753933966 -0.1449475437 0.5865532160 4292204515
-0.2754522860 -0.1443267018 0.5866786242 4292204515
-0.2755109668 -0.1437054574 0.5868036151 4292138722
-0.2755693793 -0.1430838108 0.5869280696 4292073442
-0.2752124965 -0.1422472298 0.5861679316 4292139235
-0.2752703726 -0.1416257322 0.5862911940 4292205026
-0.2753280401 -0.1410038471 0.5864139795 4292270819
-0.2753854692 -0.1403815746 0.5865363479 4292336612
-0.2754426599 -0.1397589147 0.5866581202 4292336612
-0.2754996419 -0.1391358674 0.5867794752 4292403175
-0.2755563855 -0.1385124326 0.5869003534 4292534761
-0.2756128907 -0.1378886253 0.5870206952 4292732140
-0.2756691575 -0.1372644156 0.5871405005 4292863726
-0.2757251859 -0.1366398335 0.5872598886 4292995312
-0.2757810056 -0.1360148638 0.5873787403 4293061105
-0.2762526274 -0.1355937272 0.5883832574 4293192689
-0.2763080299 -0.1349670738 0.5885012746 4293324275
-0.2763632238 -0.1343400329 0.5886188149 4293455861
-0.2764181793 -0.1337126195 0.5887358785 4293587447
-0.2825495005 -0.1045839563 0.6017947793 4293587447
-0.2821730971 -0.1037768871 0.6009930968 4293455861
-0.2822162509 -0.1031249166 0.6010850668 4293324275
-0.2822591662 -0.1024726480 0.6011764407 4293192689
-0.2827219069 -0.1019715965 0.6021620035 4292995310
-0.2831845284 -0.1014683098 0.6031473279 4292797931
-0.2832267880 -0.1008132100 0.6032373309 4292666345
-0.2832687795 -0.1001578197 0.6033267975 4292600556
-0.2833105028 -0.0995021388 0.6034156680 4292600556
-0.2833519876 -0.0988461673 0.6035040021 4292534763
-0.2833932042 -0.0981899127 0.6035917997 4292468970
-0.2834341526 -0.0975333676 0.6036790013 4292403175
-0.2834748328 -0.0968765393 0.6037656665 4292403175
-0.2835152447 -0.0962194353 0.6038517356 4292468968
-0.2835554183 -0.0955620408 0.6039372683 4292468968
-0.2835952938 -0.0949043781 0.6040222645 4292666347
-0.2832141221 -0.0941065997 0.6032103300 4292666347
-0.2832534015 -0.0934493616 0.6032940745 4292666347
-0.2837134004 -0.0929297209 0.6042737365 4292666347
-0.2837522328 -0.0922709554 0.6043564677 4292666347
-0.2846329212 -0.0918837711 0.6062322259 4292797933
-0.2846713364 -0.0912225172 0.6063140035 4292929519
-0.2847094834 -0.0905609876 0.6063952446 4292995312
-0.2843261361 -0.0897662118 0.6055787802 4293389552
-0.2843636870 -0.0891051441 0.6056587696 4293455345
-0.2844009697 -0.0884438083 0.6057382226 4293521138
-0.2848593891 -0.0879122615 0.6067145467 4293652724
-0.2844747603 -0.0871203616 0.6058953404 4293784310
-0.2845112383 -0.0864582583 0.6059730649 4293915896
-0.2695324421 -0.1856746078 0.5754313469 4293520889
-0.2691980898 -0.1848057359 0.5747175217 4293455096
-0.2692706883 -0.1842168570 0.5748725533 4293191924
-0.2693431079 -0.1836275160 0.5750271678 4292599787
-0.2690077424 -0.1827607751 0.5743111968 4292073443
-0.2690796852 -0.1821713597 0.5744647384 4291547098
-0.2691514194 -0.1815814823 0.5746178627 4290757582
-0.2692229450 -0.1809911281 0.5747705698 4289968066
-0.2692942619 -0.1804003119 0.5749228597 4289178550
-0.2693654299 -0.1798090190 0.5750747919 4288322728
-0.2690281272 -0.1789457202 0.5743546486 4287270040
-0.2686904371 -0.1780837476 0.5736337304 4286414731
-0.2691692114 -0.1777625978 0.5746558905 4286019973
-0.2696480155 -0.1774391830 0.5756781101 4285559422
-0.2697181702 -0.1768455654 0.5758278966 4285427836
-0.2697881460 -0.1762514859 0.5759772062 4285625215
-0.2698578835 -0.1756569445 0.5761261582 4286348938
-0.2699274421 -0.1750619411 0.5762746930 4287270040
-0.2699968219 -0.1744664758 0.5764227509 4288059556
-0.2700659633 -0.1738705486 0.5765703917 4288914865
-0.2697256207 -0.1730116308 0.5758438110 4289638588
-0.2693848908 -0.1721540689 0.5751162767 4289835967
-0.2690437138 -0.1712978631 0.5743879676 4289638588
-0.2691117525 -0.1707028300 0.5745332241 4289243830
-0.2691795826 -0.1701073498 0.5746780038 4289178037
-0.2692472339 -0.1695114225 0.5748224258 4289441209
-0.2693146467 -0.1689150333 0.5749663711 4289967553
-0.2697919011 -0.1685744077 0.5759852529 4290822862
-0.2698590159 -0.1679762304 0.5761285424 4291283413
-0.2699259222 -0.1673776060 0.5762714148 4291809758
-0.2704029679 -0.1670319885 0.5772898197 4291480793
-0.2704695761 -0.1664315611 0.5774320364 4291020242
-0.2705359459 -0.1658307016 0.5775737762 4290757070
-0.2706021369 -0.1652293801 0.5777150989 4290625484
-0.2710788548 -0.1648774445 0.5787328482 4290362312
-0.2711447179 -0.1642743498 0.5788734555 4290230726
-0.2716213167 -0.1639187932 0.5798909068 4290428105
-0.2716868520 -0.1633138955 0.5800308585 4290691277
-0.2717522085 -0.1627085507 0.5801703930 4290493898
-0.2718173265 -0.1621027887 0.5803093910 4290099652
-0.2718822658 -0.1614965796 0.5804480314 4289836480
-0.2719469666 -0.1608899385 0.5805861354 4289770687
-0.2724229693 -0.1605253518 0.5816023946 4289441722
-0.2724873424 -0.1599169374 0.5817398429 4289244343
-0.2721397877 -0.1590674371 0.5809978247 4289310136
-0.2722036541 -0.1584590673 0.5811341405 4288916148
-0.2722672820 -0.1578502804 0.5812699795 4288981941
-0.2723307014 -0.1572410762 0.5814054012 4289179320
-0.2723938823 -0.1566314250 0.5815403461 4289376699
-0.2728690803 -0.1562574059 0.5825548172 4289704894
-0.2729319334 -0.1556459963 0.5826889873 4289902273
-0.2729945779 -0.1550341696 0.5828227401 4290231238
-0.2730570138 -0.1544219106 0.5829560161 4290428617
-0.2735317945 -0.1540415734 0.5839696527 4290954959
-0.2731812000 -0.1531961560 0.5832211971 4291152338
-0.2732429802 -0.1525826454 0.5833531022 4291415510
-0.2737173736 -0.1521982849 0.5843659043 4291678682
-0.2737787962 -0.1515830159 0.5844970345 4291941597
-0.2738400102 -0.1509673446 0.5846276879 4292073183
-0.2739009857 -0.1503512412 0.5847578645 4292138976
-0.2739617527 -0.1497347504 0.5848875642 4292204769
-0.2740222812 -0.1491178423 0.5850167871 4292073442
-0.2740826011 -0.1485005170 0.5851455927 4292139235
-0.2741426826 -0.1478827894 0.5852738619 4292139235
-0.2742025256 -0.1472646594 0.5854016542 4292073442
-0.2738485038 -0.1464249343 0.5846458077 4292139235
-0.2739078403 -0.1458069384 0.5847724676 4292270821
-0.2739669383 -0.1451885253 0.5848986506 4292402405
-0.2740257978 -0.1445697248 0.5850242972 4292599784
-0.2740844488 -0.1439505219 0.5851495266 4292665577
-0.2741428614 -0.1433309168 0.5852742195 4292731370
-0.2737868428 -0.1424953490 0.5845142007 4292797163
-0.2742590010 -0.1420905441 0.5855222344 4292928749
-0.2739023864 -0.1412560493 0.5847608447 4293126128
-0.2739597857 -0.1406358182 0.5848833919 4293323507
-0.2740169764 -0.1400151998 0.5850055218 4293455347
-0.2740739584 -0.1393941790 0.5851271152 4293521140
-0.2741306722 -0.1387727857 0.5852482319 4293455863
-0.2741871774 -0.1381510049 0.5853688717 4293521656
-0.2742434442 -0.1375288367 0.5854889750 4293653242
-0.2820424736 -0.0972846076 0.6021392941 4293785080
-0.2820829749 -0.0966294706 0.6022258401 4293785080
-0.2821232378 -0.0959740505 0.6023117304 4293850873
-0.2821632326 -0.0953183472 0.6023971438 4293850873
-0.2822029591 -0.0946623683 0.6024819613 4293719287
-0.2818224430 -0.0938662216 0.6016695499 4293719287
-0.2818615735 -0.0932106674 0.6017531157 4293850102
-0.2819004655 -0.0925548449 0.6018361449 4293784309
-0.2823592424 -0.0920357108 0.6028156281 4293850102
-0.2828179002 -0.0915143490 0.6037948132 4293981688
-0.2661376297 -0.1976932287 0.5695341825 4293126645
-0.2662141919 -0.1971171349 0.5696980357 4293126645
-0.2654824257 -0.1959440559 0.5681320429 4293126645
-0.2655584216 -0.1953687221 0.5682946444 4293127158
-0.2656342089 -0.1947928965 0.5684568286 4293192951
-0.2657098472 -0.1942165643 0.5686186552 4293192951
-0.2657852769 -0.1936397552 0.5687801242 4293127158
-0.2658605278 -0.1930624545 0.5689411759 4293060852
-0.2659355998 -0.1924846619 0.5691018701 4293126645
-0.2664153874 -0.1921984702 0.5701285601 4293192438
-0.2668952048 -0.1919100285 0.5711553693 4293192438
-0.2669699788 -0.1913290173 0.5713153481 4293258231
-0.2666393220 -0.1904580444 0.5706077814 4293192438
-0.2675242722 -0.1904540658 0.5725015402 4293126647
-0.2680040300 -0.1901583970 0.5735282302 4292995061
-0.2680782676 -0.1895736605 0.5736870766 4292928498
-0.2677466273 -0.1887025237 0.5729774237 4292599533
-0.2678203583 -0.1881176978 0.5731351972 4292204775
-0.2674880326 -0.1872482598 0.5724239945 4291810017
-0.2671552896 -0.1863801032 0.5717118979 4291283673
-0.2664159834 -0.1852308959 0.5701298714 4290888915
-0.2668947577 -0.1849291772 0.5711544156 4290296778
-0.2665608823 -0.1840640455 0.5704399347 4289573055
-0.2666330636 -0.1834799051 0.5705943704 4288981172
-0.2667050362 -0.1828952879 0.5707483888 4288389035
-0.2667768300 -0.1823102087 0.5709020495 4287599519
-0.2668484151 -0.1817246526 0.5710552335 4287007382
-0.2669198215 -0.1811386198 0.5712080002 4286020487
-0.2673980296 -0.1808273494 0.5722314119 4285559936
-0.2674691379 -0.1802394837 0.5723835826 4285230458
-0.2675400674 -0.1796511561 0.5725353956 4285098872
-0.2676108181 -0.1790623665 0.5726867318 4285230457
-0.2676813602 -0.1784731001 0.5728377104 4285559422
-0.2677516937 -0.1778833717 0.5729882717 4286217352
-0.2678218484 -0.1772931665 0.5731383562 4286941075
-0.2682995498 -0.1769714653 0.5741606355 4288322214
-0.2683694065 -0.1763794571 0.5743101239 4288914351
-0.2684390545 -0.1757869720 0.5744592547 4289900991
-0.2685085237 -0.1751940250 0.5746079087 4290493128
-0.2685777843 -0.1746006310 0.5747560859 4290493128
-0.2686468661 -0.1740067601 0.5749039054 4290164163
-0.2687157393 -0.1734124422 0.5750513077 4289900991
-0.2687844038 -0.1728176773 0.5751982331 4289769405
-0.2688528597 -0.1722224504 0.5753447413 4290032577
-0.2685124278 -0.1713659316 0.5746161938 4290624714
-0.2681715786 -0.1705107689 0.5738868117 4291216851
-0.2682392299 -0.1699160039 0.5740315914 4291808988
-0.2683066726 -0.1693207771 0.5741759539 4291940574
-0.2683739364 -0.1687251031 0.5743198395 4291677402
-0.2684409618 -0.1681289822 0.5744633079 4291283414
-0.2689171135 -0.1677877903 0.5754822493 4290954449
-0.2689838707 -0.1671898812 0.5756250620 4290033347
-0.2690503895 -0.1665915102 0.5757674575 4289309624
-0.2695263326 -0.1662453562 0.5767859817 4288520108
-0.2695925534 -0.1656451821 0.5769276619 4288256936
-0.2696585655 -0.1650445759 0.5770689249 4288125350
-0.2701342702 -0.1646934450 0.5780869722 4287796385
-0.2701999545 -0.1640910506 0.5782275796 4287665312
-0.2702654600 -0.1634882092 0.5783677101 4288060070
-0.2707409561 -0.1631321013 0.5793852210 4287599518
-0.2708061039 -0.1625274718 0.5795246959 4287731104
-0.2708710730 -0.1619224101 0.5796636939 4287731104
-0.2709358037 -0.1613169163 0.5798022747 4287994276
-0.2710003257 -0.1607109755 0.5799403191 4288389034
-0.2710646689 -0.1601046175 0.5800780058 4288717999
-0.2711287737 -0.1594978124 0.5802151561 4289178550
-0.2711926401 -0.1588905901 0.5803518891 4289704894
-0.2712563276 -0.1582829356 0.5804881454 4290034629
-0.2713198066 -0.1576748490 0.5806239843 4290297801
-0.2713830471 -0.1570663452 0.5807593465 4290692559
-0.2714460790 -0.1564574093 0.5808942318 4291087317
-0.2715089023 -0.1558480561 0.5810286403 4291284694
-0.2715714872 -0.1552382708 0.5811626315 4291482073
-0.2716338933 -0.1546280682 0.5812961459 4291679452
-0.2716960609 -0.1540174484 0.5814291835 4291876831
-0.2721697688 -0.1536388397 0.5824428797 4292139233
-0.2722315788 -0.1530264616 0.5825752020 4292139233
-0.2722931802 -0.1524136662 0.5827070475 4292205026
-0.2723545730 -0.1518004537 0.5828384161 4292270819
-0.2724157274 -0.1511868238 0.5829693079 4292336866
-0.2724766731 -0.1505727768 0.5830997229 4292468452
-0.2725374103 -0.1499583274 0.5832296610 4292600038
-0.2725979090 -0.1493434608 0.5833591819 4292665831
-0.2726581991 -0.1487281919 0.5834881663 4292666347
-0.2727182508 -0.1481125206 0.5836166739 4292666347
-0.2727780938 -0.1474964321 0.5837447643 4292797933
-0.2728376985 -0.1468799412 0.5838723183 4292863726
-0.2724842429 -0.1460417658 0.5831158757 4292995312
-0.2725433111 -0.1454254091 0.5832422972 4293192691
-0.2726021707 -0.1448086500 0.5833682418 4293455861
-0.2726607919 -0.1441914886 0.5834937096 4293587447
-0.2727192044 -0.1435739249 0.5836187005 4293653240
-0.2649747133 -0.1991929114 0.5683965087 4293060852
-0.2650516033 -0.1986190081 0.5685614347 4291942371
-0.2647254169 -0.1977436244 0.5678617358 4290429132
-0.2643987834 -0.1968694925 0.5671610832 4289639616
-0.2644749284 -0.1962958425 0.5673243999 4289705409
-0.2645508647 -0.1957217008 0.5674872994 4289836995
-0.2642232478 -0.1948495805 0.5667845607 4289836227
-0.2642987370 -0.1942753196 0.5669464469 4289836227
-0.2639704049 -0.1934048533 0.5662421584 4289836227
-0.2640454173 -0.1928304881 0.5664030313 4289836227
-0.2637163699 -0.1919616759 0.5656972528 4289836227
-0.2637909055 -0.1913872212 0.5658571124 4289770434
-0.2638652623 -0.1908122748 0.5660166144 4289638848
-0.2639394104 -0.1902368367 0.5661756992 4289573055
-0.2644177079 -0.1899513751 0.5672016740 4289375676
-0.2644916177 -0.1893740892 0.5673602223 4289178297
-0.2645653486 -0.1887963265 0.5675184131 4288915125
-0.2650435567 -0.1885058731 0.5685441494 4288520367
-0.2655217648 -0.1882131696 0.5695700049 4288125352
-0.2655951679 -0.1876321882 0.5697274208 4287664801
-0.2656683922 -0.1870507300 0.5698844790 4287270043
-0.2657414079 -0.1864687800 0.5700411201 4286941078
-0.2654090524 -0.1856030077 0.5693281889 4286085769
-0.2646709383 -0.1844560355 0.5677449107 4285756804
-0.2643376589 -0.1835937500 0.5670299530 4285296253
-0.2644094825 -0.1830134541 0.5671840310 4284901495
-0.2644811273 -0.1824326813 0.5673376918 4284638323
-0.2645525634 -0.1818514466 0.5674909353 4284572530
-0.2646238208 -0.1812697351 0.5676438212 4284572528
-0.2651008666 -0.1809646934 0.5686671138 4284638321
-0.2651718557 -0.1803811491 0.5688194036 4284835700
-0.2656488419 -0.1800724864 0.5698425770 4285493630
-0.2657195628 -0.1794871092 0.5699942708 4286217353
-0.2657901049 -0.1789012700 0.5701455474 4286941076
-0.2658604085 -0.1783149689 0.5702964067 4287993764
-0.2663371861 -0.1779999584 0.5713191032 4288980659
-0.2664072216 -0.1774118245 0.5714693666 4289770175
-0.2664770782 -0.1768232435 0.5716192126 4290230726
-0.2669536769 -0.1765032411 0.5726415515 4290296519
-0.2670232356 -0.1759128273 0.5727908015 4290164933
-0.2674997449 -0.1755892038 0.5738129616 4289967554
-0.2675690353 -0.1749969721 0.5739615560 4290033347
-0.2676381171 -0.1744042635 0.5741097331 4290493898
-0.2677069902 -0.1738111079 0.5742574930 4291283414
-0.2677756548 -0.1732175052 0.5744048357 4291875551
-0.2678441405 -0.1726234257 0.5745517015 4292007137
-0.2675046325 -0.1717670560 0.5738234520 4292007137
-0.2675726116 -0.1711729914 0.5739692450 4292007137
-0.2676403821 -0.1705784649 0.5741146207 4291612379
-0.2677079737 -0.1699834764 0.5742595792 4291217621
-0.2677753270 -0.1693880558 0.5744041204 4290953679
-0.2678425014 -0.1687921733 0.5745481849 4290229956
-0.2675010562 -0.1679394543 0.5738157630 4288914096
-0.2675677240 -0.1673436016 0.5739587545 4287598236
-0.2680427730 -0.1670018733 0.5749777555 4286546830
-0.2681091130 -0.1664042026 0.5751200914 4286283658
-0.2685840726 -0.1660588533 0.5761389136 4285823107
-0.2686501145 -0.1654593945 0.5762805939 4285823107
-0.2687159479 -0.1648595035 0.5764217973 4286415244
-0.2687815726 -0.1642591506 0.5765625834 4286941588
-0.2692562044 -0.1639074832 0.5775806904 4287402139
-0.2693215013 -0.1633053422 0.5777207613 4287862690
-0.2693865895 -0.1627027690 0.5778604150 4288323241
-0.2694514990 -0.1620997638 0.5779995918 4288915378
-0.2699257731 -0.1617417634 0.5790169835 4289573308
-0.2699903250 -0.1611369699 0.5791555047 4290231238
-0.2700546980 -0.1605317444 0.5792935491 4290824145
-0.2701188326 -0.1599260867 0.5794311762 4291087317
-0.2701827884 -0.1593199968 0.5795682669 4291218903
-0.2702465057 -0.1587134749 0.5797049999 4291547868
-0.2703100145 -0.1581065208 0.5798411965 4291877344
-0.2699630260 -0.1572601497 0.5790969133 4291943137
-0.2700259984 -0.1566532701 0.5792319775 4292140003
-0.2700887620 -0.1560459733 0.5793666244 4292271589
-0.2701513171 -0.1554382443 0.5795008540 4292337382
-0.2702136636 -0.1548300982 0.5796345472 4292403175
-0.2702758014 -0.1542215347 0.5797678232 4292600554
-0.2707485557 -0.1538459957 0.5807819366 4292732140
-0.2708103359 -0.1532356739 0.5809144378 4292600552
-0.2708718777 -0.1526249200 0.5810465217 4292797931
-0.2709332407 -0.1520137638 0.5811781287 4293061103
-0.2709943652 -0.1514021754 0.5813092589 4293258482
-0.2710552812 -0.1507901847 0.5814399123 4293455861
-0.2707045674 -0.1499498934 0.5806875825 4293521654
-0.2711764276 -0.1495649666 0.5816997886 4293521654
-0.2712366879 -0.1489517540 0.5818290710 4293521654
-0.2630863786 -0.1995027363 0.5656935573 4293192438
-0.2631631792 -0.1989322752 0.5658587217 4290758097
-0.2636416852 -0.1986641437 0.5668876767 4288586414
-0.2633162737 -0.1977898329 0.5661879182 4287138968
-0.2629904151 -0.1969167888 0.5654872656 4286020487
-0.2630664110 -0.1963451952 0.5656506419 4285296764
-0.2631421983 -0.1957731247 0.5658136606 4285099385
-0.2628153563 -0.1949020773 0.5651108623 4284967799
-0.2624880970 -0.1940322816 0.5644071698 4285427839
-0.2625631392 -0.1934604794 0.5645685196 4285296253
-0.2626380026 -0.1928881854 0.5647295117 4285164667
-0.2623097599 -0.1920204461 0.5640236735 4285098874
-0.2623841465 -0.1914480478 0.5641836524 4285164667
-0.2620551884 -0.1905819774 0.5634763241 4285033081
-0.2621291280 -0.1900094897 0.5636352897 4284901495
-0.2626062334 -0.1897279620 0.5646612048 4284835702
-0.2626799047 -0.1891536266 0.5648195744 4284967288
-0.2627533972 -0.1885788143 0.5649775863 4284967288
-0.2628266811 -0.1880035102 0.5651352406 4284835702
-0.2628998160 -0.1874277443 0.5652924180 4284704116
-0.2629727423 -0.1868514866 0.5654492378 4284638323
-0.2630454898 -0.1862747371 0.5656057000 4284572530
-0.2631180584 -0.1856975257 0.5657616854 4284638323
-0.2627861500 -0.1848354787 0.5650480390 4284704116
-0.2632626295 -0.1845416725 0.5660725832 4285163895
-0.2633346319 -0.1839630157 0.5662273765 4285098102
-0.2634064555 -0.1833838969 0.5663818121 4285163895
-0.2626686394 -0.1822427064 0.5647953749 4285427067
-0.2627398670 -0.1816644222 0.5649484992 4285887618
-0.2628108859 -0.1810856611 0.5651012659 4286348169
-0.2632867992 -0.1807845831 0.5661245584 4286874513
-0.2633575797 -0.1802039891 0.5662767291 4287335064
-0.2638334334 -0.1798992902 0.5672999024 4288914096
-0.2639039159 -0.1793168783 0.5674514771 4289703612
-0.2643797100 -0.1790085584 0.5684745312 4290295749
-0.2644499242 -0.1784243137 0.5686255097 4290295749
-0.2645199597 -0.1778396219 0.5687761307 4290098370
-0.2649956048 -0.1775263101 0.5697988272 4290032577
-0.2650653422 -0.1769397855 0.5699488521 4289966784
-0.2651349008 -0.1763527989 0.5700984001 4289966784
-0.2656103969 -0.1760345101 0.5711207986 4290297032
-0.2660859227 -0.1757139564 0.5721432567 4290954962
-0.2661550939 -0.1751237810 0.5722919703 4291744224
-0.2662240565 -0.1745331585 0.5724403262 4292270568
-0.2662928402 -0.1739420593 0.5725882053 4292533740
-0.2667680979 -0.1736151725 0.5736101270 4292402154
-0.2664298415 -0.1727585047 0.5728827715 4291810271
-0.2664980292 -0.1721660495 0.5730293989 4291349720
-0.2665660083 -0.1715731323 0.5731755495 4290757070
-0.2666338086 -0.1709797531 0.5733213425 4290099140
-0.2667013705 -0.1703859419 0.5734666586 4288980659
-0.2667687833 -0.1697916687 0.5736115575 4287796385
-0.2668359578 -0.1691969484 0.5737560391 4287204248
-0.2669029534 -0.1686017662 0.5739000440 4286941076
-0.2665621340 -0.1677496582 0.5731672645 4286612110
-0.2666286230 -0.1671545058 0.5733101964 4286283145
-0.2666948736 -0.1665589064 0.5734526515 4286481035
-0.2667609453 -0.1659628600 0.5735947490 4287007379
-0.2672348022 -0.1656192243 0.5746136308 4287665309
-0.2673005760 -0.1650213897 0.5747550130 4288389032
-0.2673661113 -0.1644231081 0.5748959780 4289310134
-0.2678397596 -0.1640744954 0.5759144425 4290033857
-0.2679049969 -0.1634744257 0.5760546923 4290494408
-0.2683785260 -0.1631222069 0.5770728588 4290691787
-0.2684434652 -0.1625203341 0.5772125125 4291481303
-0.2685081661 -0.1619180441 0.5773516297 4291744475
-0.2685726881 -0.1613153070 0.5774903297 4291941854
-0.2686369717 -0.1607121378 0.5776286125 4292139233
-0.2687010467 -0.1601085365 0.5777663589 4292468198
-0.2687649429 -0.1595045030 0.5779037476 4292665577
-0.2688286006 -0.1589000374 0.5780405998 4292731370
-0.2688920498 -0.1582951546 0.5781770349 4292862956
-0.2689552903 -0.1576898396 0.5783130527 4292798444
-0.2686088383 -0.1568450034 0.5775681138 4292930030
-0.2686715722 -0.1562397480 0.5777029991 4293061616
-0.2687340677 -0.1556340754 0.5778373480 4293193202
-0.2687963545 -0.1550279856 0.5779713392 4293390068
-0.2688584328 -0.1544214785 0.5781047940 4293521654
-0.2689203024 -0.1538145393 0.5782378316 4293587447
-0.2693919837 -0.1534407437 0.5792520046 4293653240
-0.2617574334 -0.1989701539 0.5641834140 4292270822
-0.2618339062 -0.1984012574 0.5643482804 4287928484
-0.2619102001 -0.1978318542 0.5645127296 4284638834
-0.2619863153 -0.1972619593 0.5646768212 4284309869
-0.2616609633 -0.1963903606 0.5639755130 4284770420
-0.2617366314 -0.1958203465 0.5641385913 4284902006
-0.2618120909 -0.1952498406 0.5643012524 4285164665
-0.2618874013 -0.1946788430 0.5644635558 4285362044
-0.2615607381 -0.1938096434 0.5637595057 4285558655
-0.2612336874 -0.1929416955 0.5630545616 4285295483
-0.2613082230 -0.1923709810 0.5632152557 4284834932
-0.2613826096 -0.1917997748 0.5633755326 4284769139
-0.2610545456 -0.1909338832 0.5626684427 4285032311
-0.2611284256 -0.1903625876 0.5628277063 4285163897
-0.2612021267 -0.1897908002 0.5629866123 4285163895
-0.2612756789 -0.1892185360 0.5631450415 4285295481
-0.2613490224 -0.1886457950 0.5633031726 4285163895
-0.2610193789 -0.1877827644 0.5625926852 4285361274
-0.2610922456 -0.1872099340 0.5627497435 4285558653
-0.2611649334 -0.1866366267 0.5629064441 4285756032
-0.2612374425 -0.1860628426 0.5630627275 4286019204
-0.2617130280 -0.1857748330 0.5640877485 4286084997
-0.2617852986 -0.1851992011 0.5642434955 4286216583
-0.2614538968 -0.1843386292 0.5635291934 4286413962
-0.2615256608 -0.1837629378 0.5636838675 4286808463
-0.2620009482 -0.1834694743 0.5647082925 4287071635
-0.2620724440 -0.1828919500 0.5648624301 4287729565
-0.2617398500 -0.1820330322 0.5641455650 4288716460
-0.2618108988 -0.1814554632 0.5642986298 4289703355
-0.2618817389 -0.1808774024 0.5644513369 4290295492
-0.2619523704 -0.1802988946 0.5646036267 4290624714
-0.2624272108 -0.1799972504 0.5656270385 4291085265
-0.2624975741 -0.1794169098 0.5657787323 4291019472
-0.2629723549 -0.1791116595 0.5668020248 4290624714
-0.2630424798 -0.1785294861 0.5669531822 4290361542
-0.2635171711 -0.1782206148 0.5679763556 4290427335
-0.2635869980 -0.1776366085 0.5681268573 4290822093
-0.2640616596 -0.1773241162 0.5691499114 4291348437
-0.2637261152 -0.1764672250 0.5684266686 4291940574
-0.2642005682 -0.1761520058 0.5694493055 4292466918
-0.2646750808 -0.1758345366 0.5704720020 4292205543
-0.2647441626 -0.1752464324 0.5706208944 4292205543
-0.2648130357 -0.1746578664 0.5707693696 4291810787
-0.2652873695 -0.1743354052 0.5717917085 4291087064
-0.2653559446 -0.1737450212 0.5719395876 4290297546
-0.2654243708 -0.1731541753 0.5720869899 4289310651
-0.2654925585 -0.1725628674 0.5722340345 4288454827
-0.2655605674 -0.1719711125 0.5723806024 4287928483
-0.2652221918 -0.1711168587 0.5716512799 4287533725
-0.2652896941 -0.1705251038 0.5717967749 4287007381
-0.2653570175 -0.1699328870 0.5719418526 4286875796
-0.2654241025 -0.1693402380 0.5720864534 4287073175
-0.2654910088 -0.1687471271 0.5722306371 4287599518
-0.2655577064 -0.1681535691 0.5723744035 4288257448
-0.2656241953 -0.1675595641 0.5725177526 4288914865
-0.2656905055 -0.1669651270 0.5726606250 4289572795
-0.2657565773 -0.1663702279 0.5728030801 4290034625
-0.2662295699 -0.1660287678 0.5738224983 4290626762
-0.2658881545 -0.1651791185 0.5730866790 4291218899
-0.2659536302 -0.1645828933 0.5732278228 4291679450
-0.2660189271 -0.1639862359 0.5733684897 4291942622
-0.2664914727 -0.1636393517 0.5743870139 4292140001
-0.2665564418 -0.1630409062 0.5745270252 4292337380
-0.2670288682 -0.1626904011 0.5755453110 4292600552
-0.2670935094 -0.1620901674 0.5756846666 4292732138
-0.2671579719 -0.1614894867 0.5758235455 4292863724
-0.2672221959 -0.1608883888 0.5759620070 4293126128
-0.2672862113 -0.1602868438 0.5760999918 4293257714
-0.2673500180 -0.1596848667 0.5762375593 4293586679
-0.2612311840 -0.1990466416 0.5644003153 4292007650
-0.2605072260 -0.1978696734 0.5628361702 4287796898
-0.2605832219 -0.1973018497 0.5630003214 4285362556
-0.2606590092 -0.1967335194 0.5631641150 4284704626
-0.2607346475 -0.1961646974 0.5633274913 4284836212
-0.2608100772 -0.1955953836 0.5634905100 4285099384
-0.2608853579 -0.1950255781 0.5636531115 4285428349
-0.2605595887 -0.1941565722 0.5629492998 4285823107
-0.2606343925 -0.1935866624 0.5631109476 4285756802
-0.2607090175 -0.1930162609 0.5632721782 4285427837
-0.2607834637 -0.1924453676 0.5634329915 4285296251
-0.2600551248 -0.1912835985 0.5618593693 4285230458
-0.2601289749 -0.1907134801 0.5620189309 4285822080
-0.2598011196 -0.1898494512 0.5613105893 4285822080
-0.2598745227 -0.1892792583 0.5614691377 4286480010
-0.2599477172 -0.1887085736 0.5616273284 4286940561
-0.2600207627 -0.1881374121 0.5617851019 4286808720
-0.2600935996 -0.1875657588 0.5619425178 4287269271
-0.2601662874 -0.1869936436 0.5620995164 4288058789
-0.2602387667 -0.1864210367 0.5622561574 4288979891
-0.2603110671 -0.1858479530 0.5624123812 4289900734
-0.2603832185 -0.1852743924 0.5625681877 4290492871
-0.2604551613 -0.1847003549 0.5627236366 4291019215
-0.2605268955 -0.1841258407 0.5628786683 4291282387
-0.2610012591 -0.1838345528 0.5639035106 4291414230
-0.2610727549 -0.1832582057 0.5640580058 4291480023
-0.2611440718 -0.1826813817 0.5642120838 4291874781
-0.2612152100 -0.1821040809 0.5643657446 4292006367
-0.2616893649 -0.1818064600 0.5653902292 4291808988
-0.2613568902 -0.1809480935 0.5646719337 4291414230
-0.2610240281 -0.1800910383 0.5639527440 4290822863
-0.2614978552 -0.1797902137 0.5649763942 4290493898
-0.2615680397 -0.1792105734 0.5651280880 4290362312
-0.2616380453 -0.1786304712 0.5652793050 4291020242
-0.2617078424 -0.1780498922 0.5654301643 4291941344
-0.2621814311 -0.1777427346 0.5664533377 4292730860
-0.2622509897 -0.1771603376 0.5666036010 4293059825
-0.2627245188 -0.1768495589 0.5676267147 4292796653
-0.2627937794 -0.1762653291 0.5677763224 4292204516
-0.2632672489 -0.1759509295 0.5687992573 4291678172
-0.2633362114 -0.1753648967 0.5689483285 4290560204
-0.2634049952 -0.1747783870 0.5690969229 4289704895
-0.2638783157 -0.1744590104 0.5701195598 4288718000
-0.2639468312 -0.1738706827 0.5702675581 4287994277
-0.2640151083 -0.1732819080 0.5704150796 4287599519
-0.2640832365 -0.1726926714 0.5705622435 4287402140
-0.2641511261 -0.1721029878 0.5707089901 4287533725
-0.2642188668 -0.1715128422 0.5708552599 4287862690
-0.2642863691 -0.1709222347 0.5710011125 4288586413
-0.2639482319 -0.1700699478 0.5702705979 4289244343
-0.2640152574 -0.1694793552 0.5704153776 4290033859
-0.2640820742 -0.1688883156 0.5705597401 4290625996
-0.2641486824 -0.1682968140 0.5707036257 4290955731
-0.2642150819 -0.1677048802 0.5708471537 4291416282
-0.2642813027 -0.1671124995 0.5709902048 4291876831
-0.2647533715 -0.1667754650 0.5720101595 4292271589
-0.2648192942 -0.1661812812 0.5721525550 4292600554
-0.2648850083 -0.1655866504 0.5722945333 4292797933
-0.2653568685 -0.1652446389 0.5733140111 4292929519
-0.2654222548 -0.1646482199 0.5734552741 4293126898
-0.2654874623 -0.1640513539 0.5735961795 4293455861
-0.2655524611 -0.1634540558 0.5737366080 4293653240
-0.2590313852 -0.1984685510 0.5609937310 4293126645
-0.2591073811 -0.1979032904 0.5611582994 4291942371
-0.2591831982 -0.1973375231 0.5613225102 4288915893
-0.2592588365 -0.1967712790 0.5614863634 4287665312
-0.2593343258 -0.1962045133 0.5616497993 4287073175
-0.2594096065 -0.1956372708 0.5618128777 4286481038
-0.2594847381 -0.1950695366 0.5619755983 4286020487
-0.2595596910 -0.1945012957 0.5621379018 4286283659
-0.2596344650 -0.1939325780 0.5622998476 4287073175
-0.2593088746 -0.1930654198 0.5615947247 4287730340
-0.2593832016 -0.1924965978 0.5617556572 4287072410
-0.2594573200 -0.1919272840 0.5619161725 4286546320
-0.2595312595 -0.1913574785 0.5620763302 4286348941
-0.2596050501 -0.1907871813 0.5622361302 4287071892
-0.2592779100 -0.1899228692 0.5615276098 4287729822
-0.2589503527 -0.1890598238 0.5608182549 4288782510
-0.2590233684 -0.1884898394 0.5609763861 4289835198
-0.2590962052 -0.1879193783 0.5611341000 4290888141
-0.2591688335 -0.1873484403 0.5612914562 4291677657
-0.2592413127 -0.1867770255 0.5614483953 4292795625
-0.2589121759 -0.1859168708 0.5607355833 4293716727
-0.2589841783 -0.1853453815 0.5608915091 4294308862
-0.2594576478 -0.1850598752 0.5619168878 4294703615
-0.2595293820 -0.1844865531 0.5620722771 4294769663
