VERSION 0.7
FIELDS x y z rgba
SIZE 4 4 4 4
TYPE F F F U
COUNT 1 1 1 1
WIDTH 920
HEIGHT 1
VIEWPOINT 0.0 0.0 0.0 1.0 0.0 0.0 0.0
POINTS 920
DATA ascii
-0.3184747696 -0.2083992362 0.6264443994 4291546585
-0.3185606599 -0.2077592164 0.6266133189 4291875550
-0.3186462820 -0.2071186751 0.6267817616 4292138722
-0.3187317252 -0.2064776272 0.6269498467 4292138722
-0.3183819950 -0.2055552304 0.6262618899 4292072930
-0.3184668720 -0.2049140334 0.6264288425 4291809758
-0.3181163371 -0.2039932460 0.6257393360 4291875810
-0.3186359704 -0.2036300749 0.6267614365 4291415259
-0.3182847798 -0.2027100325 0.6260706186 4291152087
-0.3183686435 -0.2020676583 0.6262356043 4291020501
-0.3184522986 -0.2014247775 0.6264001727 4290625743
-0.3189714849 -0.2010560632 0.6274214387 4290494157
-0.3190548122 -0.2004112899 0.6275853515 4290428105
-0.3195738792 -0.2000389099 0.6286063790 4290033347
-0.3196568787 -0.1993922591 0.6287695765 4289835968
-0.3201758564 -0.1990162283 0.6297904253 4289638589
-0.3206948042 -0.1986379325 0.6308112144 4289243831
-0.3203409016 -0.1977186203 0.6301150918 4288914866
-0.3204230964 -0.1970690787 0.6302767992 4288585901
-0.3205050528 -0.1964190155 0.6304379702 4288125350
-0.3205868006 -0.1957684755 0.6305987835 4287599006
-0.3202314377 -0.1948515922 0.6298997402 4287335834
-0.3203125894 -0.1942009330 0.6300594211 4286809500
-0.3203935325 -0.1935497820 0.6302185655 4285625226
-0.3200370073 -0.1926349849 0.6295173168 4284835450
-0.3196800649 -0.1917214692 0.6288151741 4282006351
-0.3193226457 -0.1908092350 0.6281121373 4283519588
-0.3185272515 -0.1896378100 0.6265475750 4285361792
-0.3164182305 -0.1876906753 0.6223991513 4285493891
-0.3143079281 -0.1857519597 0.6182481050 4284506996
-0.3082555234 -0.1815013885 0.6063429713 4284112754
-0.3030757904 -0.1777891964 0.5961543918 4283849582
-0.3027121425 -0.1769142896 0.5954390764 4283849068
-0.3041007817 -0.1770612448 0.5981705785 4283783275
-0.3063664436 -0.1777108461 0.6026271582 4283651685
-0.3095097244 -0.1788577139 0.6088100076 4283454306
-0.3157238066 -0.1817586571 0.6210331917 4283126109
-0.3179931343 -0.1823701113 0.6254969835 4282862937
-0.3167535365 -0.1809669435 0.6230587363 4282665558
-0.3199013174 -0.1820661724 0.6292504072 4282665558
-0.3208556771 -0.1819081008 0.6311276555 4282599765
-0.3218101859 -0.1817459464 0.6330052018 4282468179
-0.3223257661 -0.1813326925 0.6340193748 4282402386
-0.3228413165 -0.1809171438 0.6350334287 4282468179
-0.3224781454 -0.1800088584 0.6343190670 4282468179
-0.3225539625 -0.1793462336 0.6344681978 4282402386
-0.3230690658 -0.1789265871 0.6354814172 4282468179
-0.3227048516 -0.1780195981 0.6347650290 4282270800
-0.3223401606 -0.1771139503 0.6340476871 4282270800
-0.3228547573 -0.1766911000 0.6350598931 4282336593
-0.3229293525 -0.1760261655 0.6352065802 4282205262
-0.3230036795 -0.1753607690 0.6353528500 4282139469
-0.3226376176 -0.1744568944 0.6346327662 4282139469
-0.3231516182 -0.1740285903 0.6356438398 4282073676
-0.3232252300 -0.1733618230 0.6357886195 4282203980
-0.3228581250 -0.1724593043 0.6350664496 4282203980
-0.3229311109 -0.1717925370 0.6352100372 4282269772
-0.3234445155 -0.1713587791 0.6362199187 4282335565
-0.3230763674 -0.1704576463 0.6354957819 4282664530
-0.3231486082 -0.1697895229 0.6356378794 4282664530
-0.3227796257 -0.1688902229 0.6349121332 4282598738
-0.3224102259 -0.1679923087 0.6341854930 4283190875
-0.3224815130 -0.1673246771 0.6343257427 4283848807
-0.3225525618 -0.1666565984 0.6344654560 4284769909
-0.3226233423 -0.1659880877 0.6346046925 4286414732
-0.3222524524 -0.1650929749 0.6338751316 4288388522
-0.3218810856 -0.1641992629 0.6331446767 4290362312
-0.3222277164 -0.1608549505 0.6338264942 4291612892
-0.3227383792 -0.1604045331 0.6348309517 4289046965
-0.3228067756 -0.1597330272 0.6349654794 4284309869
-0.3228749037 -0.1590611041 0.6350994706 4282994009
-0.3233851492 -0.1586057246 0.6361032128 4283717732
-0.3234528601 -0.1579320282 0.6362363696 4287270553
-0.3322425783 -0.1324530989 0.6535258293 4289903039
-0.3323000073 -0.1317497492 0.6536388397 4284835699
-0.3314649165 -0.1306942403 0.6519961953 4280822326
-0.3319678009 -0.1301670074 0.6529853940 4280032810
-0.3315780461 -0.1292895228 0.6522186995 4280624947
-0.3316341639 -0.1285866201 0.6523290873 4280493615
-0.3307971656 -0.1275391281 0.6506827474 4281019959
-0.3295131028 -0.1263239086 0.6481569409 4281809475
-0.3259954453 -0.1242628917 0.6412376165 4282467405
-0.3273893893 -0.1240787283 0.6439795494 4282796370
-0.3243163228 -0.1222052649 0.6379348040 4282204233
-0.3194547892 -0.1196752340 0.6283720732 4281150777
-0.3047603965 -0.1135043129 0.5994679928 4280427054
-0.3003888428 -0.1105631962 0.5908691287 4280163880
-0.2977545261 -0.1089428440 0.5856873989 4280163878
-0.2991434336 -0.1087972447 0.5884193778 4280032292
-0.2977281213 -0.0516730919 0.5856354237 4287534242
-0.3152732551 -0.2771906555 0.6215047240 4283849066
-0.3149599433 -0.2762253582 0.6208871007 4282730585
-0.3133842349 -0.2741570473 0.6177809238 4282730585
-0.3151735961 -0.2750320733 0.6213082671 4286480786
-0.3148743212 -0.2513223886 0.6207183003 4291218650
-0.3145482540 -0.2503731847 0.6200755239 4285823624
-0.3137959540 -0.2490870953 0.6185925007 4282336595
-0.3126170337 -0.2474665642 0.6162685156 4282402388
-0.3110111058 -0.2455141097 0.6131026745 4282533974
-0.3094039261 -0.2435677052 0.6099343896 4287205277
-0.3172353506 -0.2268032283 0.6253727078 4288191404
-0.3173272908 -0.2261739224 0.6255539656 4283585894
-0.3169883490 -0.2252380401 0.6248857379 4285757063
-0.3170797527 -0.2246085107 0.6250659823 4285428098
-0.3106308281 -0.2166384608 0.6123530269 4289507005
-0.3076981604 -0.2139192373 0.6065718532 4287270043
-0.3073536456 -0.2130065411 0.6058926582 4285625218
-0.3070086837 -0.2120950371 0.6052126288 4284243563
-0.3088229001 -0.2126719505 0.6087890267 4283585633
-0.3102058172 -0.2129448652 0.6115152240 4283256668
-0.3128857315 -0.2140992284 0.6167982221 4283125082
-0.3142700791 -0.2143581510 0.6195271611 4283190875
-0.3156549037 -0.2146113515 0.6222571135 4283125082
-0.3157427013 -0.2139794827 0.6224302053 4282532945
-0.3162629306 -0.2136393189 0.6234557033 4282335566
-0.3163504004 -0.2130055279 0.6236281395 4281546563
-0.3164376616 -0.2123712003 0.6238002181 4281020219
-0.3173907399 -0.2123156488 0.6256789565 4282993496
-0.3166115582 -0.2111009806 0.6241430044 4285888388
-0.3166981936 -0.2104650736 0.6243137717 4286940306
-0.3167846203 -0.2098286599 0.6244841218 4286874513
-0.3173042834 -0.2094779015 0.6255086064 4287071892
-0.3169568181 -0.2085542679 0.6248235703 4286874513
-0.3170425892 -0.2079162896 0.6249926686 4286414732
-0.3171281219 -0.2072777897 0.6251612902 4286151560
-0.3172134757 -0.2066387832 0.6253295541 4286084997
-0.3172985911 -0.2059992701 0.6254973412 4285887618
-0.3173834980 -0.2053592205 0.6256647110 4285558653
-0.3174681664 -0.2047186792 0.6258316040 4285295481
-0.3175526261 -0.2040776014 0.6259981394 4284835702
-0.3176368773 -0.2034360319 0.6261641979 4284440944
-0.3172862530 -0.2025165260 0.6254730225 4284046186
-0.3173699379 -0.2018748075 0.6256380081 4283651428
-0.3174533844 -0.2012325972 0.6258025169 4283322463
-0.3179716170 -0.2008646429 0.6268240809 4282993498
-0.3180547357 -0.2002205253 0.6269879937 4282664790
-0.3181376457 -0.1995759159 0.6271514297 4282467411
-0.3186556697 -0.1992029250 0.6281725764 4282335825
-0.3187382221 -0.1985564083 0.6283353567 4282204239
-0.3192561269 -0.1981797665 0.6293562651 4282138446
-0.3193383515 -0.1975313723 0.6295183897 4282138446
-0.3189845979 -0.1966138780 0.6288209558 4282138446
-0.3190662563 -0.1959653795 0.6289819479 4282006860
-0.3191476762 -0.1953163743 0.6291424632 4281875274
-0.3187927902 -0.1944009215 0.6284428835 4281677895
-0.3188736439 -0.1937518120 0.6286022663 4282138446
-0.3189542890 -0.1931022108 0.6287612319 4281809481
-0.3185982406 -0.1921888441 0.6280593872 4282204241
-0.3186783195 -0.1915391535 0.6282172203 4282927964
-0.3178848326 -0.1903659850 0.6266530156 4282927964
-0.3175274730 -0.1894564927 0.6259485483 4284704375
-0.3154221475 -0.1875094622 0.6217982769 4285822854
-0.3133155107 -0.1855708808 0.6176453829 4283322720
-0.3077108562 -0.1815773696 0.6065968275 4281283137
-0.3025403321 -0.1778636575 0.5964041352 4281480516
-0.3017400801 -0.1767322868 0.5948265195 4281677895
-0.3031262457 -0.1768802404 0.5975590944 4281677895
-0.3053878546 -0.1775310487 0.6020174623 4281743688
-0.3085255325 -0.1786793321 0.6082028151 4281677895
-0.3116644919 -0.1798145920 0.6143907309 4281875017
-0.3143668473 -0.1806851625 0.6197179556 4282006603
-0.3183840811 -0.1822967529 0.6276372075 4282006601
-0.3193366528 -0.1821427196 0.6295149922 4281940808
-0.3185367584 -0.1809888184 0.6279382110 4281875528
-0.3203657866 -0.1813263446 0.6315437555 4281875528
-0.3208802938 -0.1809147447 0.6325580478 4281875528
-0.3209563196 -0.1802546233 0.6327078938 4281941321
-0.3210321069 -0.1795940399 0.6328573227 4282138187
-0.3211076558 -0.1789329797 0.6330062151 4282203980
-0.3216217160 -0.1785149872 0.6340196133 4282269773
-0.3212580085 -0.1776094586 0.6333025694 4282401359
-0.3213328123 -0.1769470125 0.6334500909 4282335825
-0.3214073777 -0.1762841046 0.6335970759 4282401618
-0.3214816749 -0.1756207347 0.6337435246 4282533204
-0.3211164773 -0.1747178882 0.6330236197 4282598997
-0.3211901784 -0.1740545034 0.6331689358 4282730326
-0.3212636709 -0.1733906567 0.6333137751 4282796119
-0.3213368952 -0.1727263629 0.6334581375 4282796376
-0.3214098811 -0.1720616221 0.6336020231 4282730583
-0.3214825988 -0.1713964194 0.6337453723 4282665044
-0.3219949603 -0.1709643155 0.6347554326 4282599251
-0.3216273189 -0.1700646579 0.6340306401 4282665044
-0.3212592304 -0.1691663861 0.6333050132 4282599251
-0.3213308454 -0.1685002893 0.6334462166 4282073423
-0.3209619522 -0.1676038653 0.6327190399 4281612872
-0.3210330009 -0.1669377983 0.6328590512 4282007630
-0.3211037815 -0.1662712991 0.6329985857 4281876044
-0.3211743236 -0.1656043679 0.6331376433 4282007114
-0.3208039105 -0.1647107303 0.6324074864 4282796630
-0.3208738565 -0.1640438288 0.6325453520 4284046697
-0.3205026686 -0.1631520838 0.6318135858 4286152073
-0.3205719888 -0.1624852270 0.6319502592 4289113274
-0.3206410706 -0.1618179381 0.6320864558 4291284443
-0.3209148049 -0.1591445208 0.6326260567 4287994023
-0.3214240968 -0.1586930752 0.6336300373 4283257181
-0.3214917481 -0.1580223143 0.6337633729 4283980904
-0.3215591013 -0.1573511213 0.6338961720 4285494143
-0.3216262162 -0.1566795111 0.6340284944 4290428618
-0.3302100301 -0.1333775222 0.6509498954 4290232006
-0.3302677274 -0.1326774508 0.6510636806 4287271319
-0.3303251565 -0.1319770217 0.6511768699 4284047462
-0.3308275640 -0.1314531416 0.6521673203 4280690994
-0.3308845162 -0.1307510436 0.6522795558 4280756787
-0.3300503492 -0.1296985149 0.6506351233 4281151545
-0.3301065564 -0.1289975792 0.6507459283 4282072647
-0.3297169209 -0.1281231493 0.6499778628 4282927954
-0.3288812041 -0.1270780563 0.6483303905 4282927954
-0.3271535039 -0.1256939173 0.6449245214 4282730575
-0.3227501810 -0.1232952252 0.6362441778 4282796368
-0.3165616393 -0.1202377602 0.6240445375 4282072643
-0.3166138530 -0.1195641160 0.6241474748 4280954162
-0.3104216754 -0.1165458336 0.6119407415 4280230439
-0.2984281182 -0.1113892943 0.5882976055 4280230439
-0.3007073104 -0.1115813777 0.5927906036 4280230439
-0.2958340347 -0.0521047302 0.5831837654 4285099131
-0.2994650900 -0.0520883575 0.5903418064 4286086280
-0.2972329855 -0.0510490835 0.5859416127 4287336347
-0.2972555757 -0.0504018925 0.5859861374 4286875796
-0.3113477528 -0.2743400037 0.6151131392 4285954440
-0.3114537001 -0.2737496793 0.6153224111 4282335825
-0.3115594983 -0.2731587887 0.6155314445 4283191134
-0.3116651475 -0.2725672722 0.6157401204 4283585892
-0.3117706180 -0.2719751596 0.6159485579 4288059816
-0.3126104176 -0.2500629425 0.6176077127 4287534242
-0.3122844696 -0.2491167337 0.6169637442 4282336595
-0.3115330935 -0.2478334755 0.6154792309 4282928732
-0.3099306822 -0.2458783984 0.6123134494 4282468181
-0.3044995070 -0.2409012765 0.6015834212 4285428866
-0.3079983592 -0.2429932654 0.6084958911 4290758099
-0.3145207763 -0.2253558785 0.6213818789 4286349970
-0.3146120012 -0.2247306406 0.6215620637 4283585892
-0.3142730892 -0.2237987071 0.6208925247 4285757061
-0.3139337599 -0.2228679508 0.6202221513 4285428096
-0.3131637871 -0.2216339111 0.6187009215 4288651953
-0.3115325272 -0.2197955996 0.6154781580 4288717746
-0.3090392649 -0.2173581421 0.6105523705 4287204507
-0.3061137795 -0.2146286070 0.6047726274 4285362303
-0.3044783473 -0.2128135860 0.6015416384 4284178029
-0.3045648932 -0.2122055292 0.6017125845 4283322974
-0.3055130541 -0.2121955305 0.6035857797 4283059802
-0.3107717931 -0.2151658386 0.6139752269 4282994009
-0.3078413904 -0.2124612033 0.6081857681 4283125595
-0.3092218041 -0.2127351463 0.6109129786 4283256668
-0.3123282790 -0.2141867429 0.6170502901 4283125082
-0.3132787049 -0.2141508460 0.6189280152 4282730323
-0.3142293990 -0.2141109556 0.6208062172 4282203979
-0.3143168688 -0.2134805918 0.6209790111 4281217344
-0.3144041002 -0.2128497064 0.6211513877 4280888379
-0.3144911528 -0.2122182995 0.6213233471 4281151551
-0.3145779669 -0.2115863711 0.6214948893 4281875274
-0.3146646023 -0.2109539062 0.6216660142 4282401872
-0.3151833415 -0.2106098384 0.6226909161 4282007114
-0.3152696490 -0.2099754661 0.6228614450 4281546050
-0.3153557479 -0.2093405724 0.6230314970 4281940808
-0.3154416382 -0.2087051719 0.6232011914 4281875015
-0.3155273199 -0.2080692351 0.6233704686 4281940808
-0.3160457015 -0.2077173293 0.6243945956 4282072394
-0.3165641129 -0.2073631734 0.6254187822 4281940808
-0.3166493773 -0.2067239434 0.6255872250 4281809222
-0.3167344034 -0.2060842067 0.6257552505 4281677636
-0.3168192208 -0.2054439485 0.6259227991 4281874245
-0.3169038296 -0.2048031688 0.6260899305 4281940038
-0.3169881999 -0.2041618824 0.6262566447 4282072394
-0.3170723617 -0.2035200894 0.6264229417 4282006601
-0.3162885904 -0.2023227215 0.6248744130 4282006601
-0.3163720667 -0.2016816586 0.6250393987 4282072394
-0.3164553344 -0.2010401040 0.6252039075 4282072907
-0.3169725835 -0.2006729245 0.6262258291 4281941321
-0.3174898624 -0.2003034800 0.6272477508 4281875274
-0.3175726831 -0.1996586323 0.6274113655 4281809481
-0.3176552951 -0.1990132928 0.6275745630 4281612102
-0.3177376688 -0.1983674318 0.6277373433 4281677895
-0.3178198040 -0.1977210939 0.6278996468 4281743688
-0.3183366358 -0.1973438263 0.6289206743 4281875274
-0.3179834485 -0.1964268833 0.6282228827 4281941067
-0.3176298141 -0.1955112070 0.6275242567 4282006860
-0.3177109361 -0.1948637515 0.6276845336 4282072653
-0.3177918494 -0.1942157894 0.6278443933 4282138446
-0.3178725243 -0.1935673356 0.6280037761 4282993757
-0.3179529905 -0.1929183900 0.6281626821 4282862171
-0.3175975382 -0.1920055747 0.6274604797 4282664792
-0.3172416389 -0.1910940558 0.6267573833 4282598999
-0.3168853223 -0.1901838183 0.6260533929 4282204241
-0.3160925210 -0.1890141666 0.6244871020 4284375410
-0.3148629963 -0.1875877827 0.6220579743 4285296510
-0.3127601445 -0.1856484264 0.6179035306 4284112236
-0.3071654737 -0.1816532910 0.6068504453 4284046443
-0.3020042181 -0.1779380590 0.5966535807 4284770166
-0.3012054265 -0.1768062562 0.5950754881 4285296512
-0.3021525443 -0.1766989678 0.5969466567 4285757063
-0.3044101000 -0.1773509681 0.6014067531 4286217355
-0.3075422049 -0.1785006672 0.6075946689 4286414734
-0.3106755614 -0.1796373427 0.6137850881 4286743699
-0.3129360378 -0.1802574545 0.6182509661 4286941078
-0.3151973486 -0.1808681339 0.6227185130 4287072662
-0.3170221746 -0.1812193841 0.6263237596 4287072662
-0.3184102476 -0.1813139021 0.6290661097 4287073175
-0.3189237416 -0.1809062511 0.6300805807 4287138968
-0.3185620606 -0.1800018102 0.6293659806 4287204761
-0.3195129633 -0.1798377633 0.6312446594 4287204761
-0.3195884824 -0.1791787297 0.6313938498 4287204248
-0.3196637332 -0.1785192341 0.6315425634 4287138455
-0.3201767504 -0.1781029254 0.6325560808 4287335834
-0.3202516139 -0.1774415970 0.6327040195 4287467420
-0.3198880553 -0.1765379757 0.6319857240 4287533726
-0.3199623525 -0.1758766323 0.6321325302 4287665312
-0.3200363815 -0.1752148271 0.6322788000 4287994277
-0.3201102018 -0.1745525599 0.6324245930 4288389035
-0.3201837540 -0.1738898307 0.6325699091 4288783280
-0.3202570677 -0.1732266545 0.6327147484 4289046452
-0.3203301132 -0.1725630164 0.6328591108 4289112504
-0.3199640214 -0.1716634631 0.6321358085 4288915125
-0.3200365007 -0.1709998250 0.6322789788 4288718000
-0.3205478191 -0.1705694050 0.6332891583 4288454828
-0.3201806843 -0.1696712226 0.6325638294 4288060070
-0.3198131025 -0.1687744111 0.6318376064 4287599519
-0.3194450736 -0.1678789854 0.6311105490 4286810519
-0.3195160925 -0.1672149450 0.6312508583 4286218382
-0.3195868731 -0.1665504575 0.6313906908 4284968315
-0.3196573853 -0.1658855379 0.6315299869 4284047213
-0.3197276592 -0.1652201861 0.6316688061 4283125341
-0.3197976649 -0.1645543873 0.6318071485 4282598997
-0.3198674321 -0.1638881415 0.6319450140 4282467411
-0.3199369609 -0.1632214785 0.6320823431 4282270032
-0.3195660412 -0.1623307765 0.6313495636 4283784041
-0.3191947043 -0.1614414752 0.6306158900 4287139484
-0.3194674253 -0.1587743759 0.6311547160 4290494157
-0.3195349574 -0.1581065506 0.6312881708 4284046697
-0.3196022511 -0.1574382782 0.6314210892 4283849318
-0.3196692765 -0.1567696035 0.6315535307 4284902006
-0.3197360635 -0.1561004966 0.6316854358 4288915379
-0.3281813860 -0.1342897713 0.6483704448 4290034111
-0.3282393813 -0.1335929781 0.6484850049 4287336598
-0.3287413418 -0.1330756694 0.6494767070 4285560187
-0.3287988603 -0.1323772073 0.6495903134 4283783776
-0.3293004930 -0.1318563223 0.6505813599 4281612607
-0.3298019767 -0.1313331723 0.6515721083 4281743680
-0.3289696872 -0.1302796304 0.6499277949 4282270024
-0.3281368017 -0.1292295009 0.6482823491 4282862161
-0.3281927407 -0.1285311133 0.6483928561 4282862161
-0.3278036118 -0.1276591718 0.6476240754 4282072645
-0.3260794878 -0.1262719482 0.6442177892 4280888371
-0.3234646022 -0.1245493293 0.6390517354 4280362027
-0.3204035461 -0.1226673648 0.6330041885 4280625199
-0.3084396124 -0.1174098849 0.6093676686 4280690990
-0.3084905148 -0.1167521030 0.6094682217 4280230439
-0.3031984866 -0.1140837148 0.5990130305 4280098853
-0.2953634858 -0.0508393124 0.5835338831 4285296764
-0.2989882529 -0.0508069173 0.5906950831 4284902006
-0.2976597548 -0.0499277823 0.5880704522 4282007114
-0.3083764315 -0.2716410160 0.6105826497 4284901752
-0.3084812760 -0.2710547149 0.6107901931 4283059548
-0.3102630377 -0.2719377577 0.6143180728 4282862169
-0.3086904585 -0.2698803544 0.6112043858 4285230717
-0.3119488657 -0.2507687509 0.6176559925 4288915895
-0.3111999333 -0.2494820952 0.6161730886 4283126111
-0.3108743727 -0.2485372126 0.6155285239 4282204239
-0.3096998930 -0.2469169348 0.6132030487 4282796376
-0.3085244298 -0.2453010380 0.6108756661 4284178029
-0.3064989746 -0.2430163622 0.6068652272 4289967813
-0.3131627440 -0.2276320159 0.6200594902 4290231755
-0.3128260374 -0.2266990691 0.6193927526 4289771204
-0.3129175007 -0.2260769755 0.6195738912 4288915895
-0.3121512234 -0.2248366475 0.6180567145 4287271072
-0.3118131757 -0.2239071876 0.6173873544 4283257699
-0.3123327196 -0.2235931605 0.6184160113 4283652455
-0.3115648329 -0.2223580480 0.6168956757 4285494659
-0.3112255633 -0.2214312255 0.6162238717 4284375408
-0.3095976114 -0.2195919007 0.6130005717 4285296510
-0.3079684973 -0.2177588940 0.6097749472 4284572787
-0.3050492704 -0.2150236666 0.6039948463 4283783271
-0.3029876351 -0.2129039168 0.5999128222 4283388767
-0.3026441336 -0.2119967639 0.5992327332 4283915111
-0.3031602502 -0.2116913646 0.6002546549 4283322974
-0.3045366704 -0.2119825333 0.6029799581 4283388767
-0.3102162182 -0.2152535170 0.6142253876 4283388767
-0.3064303696 -0.2119524628 0.6067294478 4282994009
-0.3082386255 -0.2125250995 0.6103097796 4282401871
-0.3096170425 -0.2127943635 0.6130390167 4281743941
-0.3114267290 -0.2133530080 0.6166221499 4281349183
-0.3123754263 -0.2133157551 0.6185005903 4281217597
-0.3128934205 -0.2129811496 0.6195262074 4281151551
-0.3129803538 -0.2123517841 0.6196983457 4281875274
-0.3134982884 -0.2120135278 0.6207238436 4282073423
-0.3135848939 -0.2113822550 0.6208953857 4281810251
-0.3136713207 -0.2107504606 0.6210664511 4281875274
-0.3137575388 -0.2101181298 0.6212371588 4281875274
-0.3138435185 -0.2094852924 0.6214073896 4281743942
-0.3143610954 -0.2091392130 0.6224322319 4281809735
-0.3144467771 -0.2085044682 0.6226018667 4281809222
-0.3149643242 -0.2081547230 0.6236265898 4281940808
-0.3150496781 -0.2075180709 0.6237956285 4282072907
-0.3151348233 -0.2068808824 0.6239641905 4282204493
-0.3156521916 -0.2065261006 0.6249885559 4282335566
-0.3153044879 -0.2056049854 0.6243001223 4282335566
-0.3158216476 -0.2052474171 0.6253240705 4282532945
-0.3159060478 -0.2046073079 0.6254912019 4282730324
-0.3155573606 -0.2036872804 0.6248008013 4283059289
-0.3156412244 -0.2030470222 0.6249668002 4283256668
-0.3157248497 -0.2024062425 0.6251324415 4283388767
-0.3153750598 -0.2014881968 0.6244398355 4283651939
-0.3154581189 -0.2008472979 0.6246042848 4283980904
-0.3159744143 -0.2004808933 0.6256265640 4284309869
-0.3160571456 -0.1998381019 0.6257904172 4284507248
-0.3161396682 -0.1991947889 0.6259537935 4284704627
-0.3162219822 -0.1985509843 0.6261167526 4285230717
-0.3167379498 -0.1981781572 0.6271383166 4285888647
-0.3168199062 -0.1975324601 0.6273006201 4286546577
-0.3169016540 -0.1968862712 0.6274624467 4286941335
-0.3169831634 -0.1962395757 0.6276238561 4287270300
-0.3166300952 -0.1953244507 0.6269248128 4287533472
-0.3162766099 -0.1944106072 0.6262248755 4287928230
-0.3163572252 -0.1937641948 0.6263844967 4288322988
-0.3168722689 -0.1933825612 0.6274042726 4289243581
-0.3169525266 -0.1927342862 0.6275632381 4289309374
-0.3165976703 -0.1918220222 0.6268606186 4289243581
-0.3162423670 -0.1909110397 0.6261571050 4287006619
-0.3154515326 -0.1897396445 0.6245912313 4282598488
-0.3146599829 -0.1885713339 0.6230240464 4283914348
-0.3138678074 -0.1874061078 0.6214554906 4285822343
-0.3117686808 -0.1854668707 0.6172991991 4286611859
-0.3187223971 -0.1650629044 0.6310675740 4288849332
-0.3187922537 -0.1643977761 0.6312058568 4286217612
-0.3188618720 -0.1637322009 0.6313437223 4283783271
-0.3189312220 -0.1630661935 0.6314810514 4282072653
-0.3185609281 -0.1621760577 0.6307478547 4281612874
-0.3181901872 -0.1612873375 0.6300138235 4283257699
-0.3182586133 -0.1606218666 0.6301492453 4286941335
-0.3178870976 -0.1597350389 0.6294136047 4291612638
-0.3176497817 -0.1575193852 0.6289437413 4285559936
-0.3177167177 -0.1568536460 0.6290763021 4283322974
-0.3177834153 -0.1561874747 0.6292083859 4284967799
-0.3178498447 -0.1555208862 0.6293399334 4287599519
-0.3179160357 -0.1548538804 0.6294709444 4291218903
-0.3265998960 -0.1353735030 0.6466649175 4290955213
-0.3266582489 -0.1346790642 0.6467804313 4287599770
-0.3267163038 -0.1339842528 0.6468954086 4284639085
-0.3258873224 -0.1329273731 0.6452540159 4283520604
-0.3272750676 -0.1327734441 0.6480017304 4283849569
-0.3273323476 -0.1320765913 0.6481152177 4283980640
-0.3278329968 -0.1315573901 0.6491064429 4283388503
-0.3278898001 -0.1308588535 0.6492189169 4283256919
-0.3270587921 -0.1298077106 0.6475735307 4282598989
-0.3262271881 -0.1287599802 0.6459270120 4281875266
-0.3258389533 -0.1278899163 0.6451582313 4281414715
-0.3241182566 -0.1265015304 0.6417512894 4281151543
-0.3215085268 -0.1247756779 0.6365841031 4280756785
-0.3184534907 -0.1228894666 0.6305351257 4280493613
-0.3122875988 -0.1198230758 0.6183266640 4280427820
-0.3030092716 -0.1155964360 0.5999556780 4280362025
-0.2921271324 -0.0510354862 0.5784091353 4284046697
-0.2930485904 -0.0505517870 0.5802336335 4283454560
-0.3091768324 -0.2722646296 0.6135166287 4284375408
-0.3092818260 -0.2716751993 0.6137249470 4282862169
-0.3093866706 -0.2710851729 0.6139329672 4283717478
-0.3086537421 -0.2697624862 0.6124786139 4288454574
-0.3100178242 -0.2504492402 0.6151854396 4290100169
-0.3092703521 -0.2491635233 0.6137021780 4284309615
-0.3089453876 -0.2482205480 0.6130573153 4282467411
-0.3086199760 -0.2472786754 0.6124116182 4282664790
-0.3070236742 -0.2453227341 0.6092439890 4283651685
-0.3054261208 -0.2433728427 0.6060738564 4288520367
-0.3118593395 -0.2326848060 0.6188396811 4290757583
-0.3119526207 -0.2320666164 0.6190247536 4290099653
-0.3116188347 -0.2311312556 0.6183623672 4289244344
-0.3117115796 -0.2305128127 0.6185464859 4288059816
-0.3118041456 -0.2298938185 0.6187301278 4287336093
-0.3114692867 -0.2289601862 0.6180656552 4286020233
-0.3115613163 -0.2283409387 0.6182482839 4285428096
-0.3112256825 -0.2274087667 0.6175822616 4284705143
-0.3113172054 -0.2267892659 0.6177638769 4284047213
-0.3109807968 -0.2258585542 0.6170963049 4283915627
-0.3106439412 -0.2249290049 0.6164278388 4283586662
-0.3107346296 -0.2243095785 0.6166078448 4283455076
-0.3103969991 -0.2233815044 0.6159378290 4282402388
-0.3100589216 -0.2224545926 0.6152669787 4283915629
-0.3097203672 -0.2215288430 0.6145951748 4285626247
-0.3093813956 -0.2206042856 0.6139225364 4284113006
-0.3086133599 -0.2193762064 0.6123984456 4283981420
-0.3069871068 -0.2175433636 0.6091713905 4283914857
-0.3040730357 -0.2148079276 0.6033888459 4283520099
-0.3015860617 -0.2123861164 0.5984538198 4283059548
-0.3003847897 -0.2108778656 0.5960700512 4283191134
-0.3008995354 -0.2105758190 0.5970914960 4282467665
-0.3018437028 -0.2105710804 0.5989651084 4281941321
-0.3036471605 -0.2111597210 0.6025437713 4281480770
-0.3054513633 -0.2117409408 0.6061239243 4281414977
-0.3072563410 -0.2123147398 0.6097056866 4281283391
-0.3086322248 -0.2125850171 0.6124359369 4281086012
-0.3100086451 -0.2128496021 0.6151672006 4281414976
-0.3109554648 -0.2128141075 0.6170460582 4282007113
-0.3119025826 -0.2127746195 0.6189254522 4282073421
-0.3119893074 -0.2121459246 0.6190975308 4282731351
-0.3120758235 -0.2115166932 0.6192692518 4283257695
-0.3121621311 -0.2108869404 0.6194404960 4283849832
-0.3126789033 -0.2105466872 0.6204659343 4284638834
-0.3127649128 -0.2099150270 0.6206365824 4285296764
-0.3137125373 -0.2098593712 0.6225170493 4286152073
-0.3133673072 -0.2089375407 0.6218320131 4286941589
-0.3134527802 -0.2083034366 0.6220016479 4287467932
-0.3139693439 -0.2079544812 0.6230266094 4287928483
-0.3144859076 -0.2076032609 0.6240516901 4288520620
-0.3141394556 -0.2066819519 0.6233642101 4288915378
-0.3142242134 -0.2060449272 0.6235324144 4289112244
-0.3143087327 -0.2054073662 0.6237001419 4289178037
-0.3143930435 -0.2047693133 0.6238673925 4289572795
-0.3149091005 -0.2044111341 0.6248914599 4289967553
-0.3152439296 -0.1907277256 0.6255559325 4289769925
-0.3144544661 -0.1895567775 0.6239892840 4283256931
-0.3136643171 -0.1883889139 0.6224213243 4283322724
-0.3128734827 -0.1872241348 0.6208520532 4285296512
-0.3107780516 -0.1852850318 0.6166939735 4286612372
-0.3174187243 -0.1633503884 0.6298714280 4289967815
-0.3174878061 -0.1626859605 0.6300085187 4286546579
-0.3175566494 -0.1620211005 0.6301451921 4283323492
-0.3171865642 -0.1611329466 0.6294107437 4282533976
-0.3172548115 -0.1604681462 0.6295461655 4283454306
-0.3168838918 -0.1595818847 0.6288101673 4287336093
-0.3166469038 -0.1573681533 0.6283398867 4286743956
-0.3162744343 -0.1564857215 0.6276007295 4282730583
-0.3159015179 -0.1556047201 0.6268607378 4285034106
-0.3159676194 -0.1549406499 0.6269919276 4286349966
-0.3155938983 -0.1540615857 0.6262503862 4290758352
-0.3250792027 -0.1357568651 0.6450725198 4288389284
-0.3251376152 -0.1350644082 0.6451884508 4284244325
-0.3247533143 -0.1341887712 0.6444258690 4282664780
-0.3248110712 -0.1334965080 0.6445404887 4283388503
-0.3253111839 -0.1329848170 0.6455328465 4283322710
-0.3258111477 -0.1324708611 0.6465249658 4282927952
-0.3263109922 -0.1319546551 0.6475168467 4282533194
-0.3259250522 -0.1310800016 0.6467510462 4282006850
-0.3250957727 -0.1300297230 0.6451054215 4281414713
-0.3233799338 -0.1286304593 0.6417005658 4281085748
-0.3238784969 -0.1281147003 0.6426899433 4280690990
-0.3199455738 -0.1258535683 0.6348856091 4280559404
-0.3160109818 -0.1236091405 0.6270779967 4280559404
-0.3107449412 -0.1208641827 0.6166282892 4280427818
-0.3046410084 -0.1171467379 0.6045159101 4280296232
-0.3061087132 -0.2701582313 0.6087700725 4287599265
-0.3062127531 -0.2695734203 0.6089769602 4283125341
-0.3063166142 -0.2689880133 0.6091835499 4283454306
-0.3060022891 -0.2680358589 0.6085584164 4286020233
-0.3061057329 -0.2674500644 0.6087641120 4291481052
-0.3072474897 -0.2494383454 0.6110347509 4290363339
-0.3060790300 -0.2478134334 0.6087110639 4284770934
-0.3044872880 -0.2458518893 0.6055454612 4281941067
-0.3054289818 -0.2459373474 0.6074182391 4282862169
-0.3029904068 -0.2433042526 0.6025685668 4283125341
-0.3039317429 -0.2433885932 0.6044406295 4287467679
-0.3086082935 -0.2348591834 0.6137410402 4290889168
-0.3087019622 -0.2342483550 0.6139273643 4289639101
-0.3087954521 -0.2336369753 0.6141132712 4288454827
-0.3088887632 -0.2330250442 0.6142988205 4287072662
-0.3094074726 -0.2327326685 0.6153303981 4286085767
-0.3095005155 -0.2321187854 0.6155154705 4285098872
-0.3100192249 -0.2318227887 0.6165470481 4284506735
-0.3096860349 -0.2308893502 0.6158844829 4284046697
-0.3097785413 -0.2302737981 0.6160683632 4283454560
-0.3098708093 -0.2296577096 0.6162518859 4282599251
-0.3095365465 -0.2287260145 0.6155871749 4282204493
-0.3092018366 -0.2277954519 0.6149215102 4282994009
-0.3088666797 -0.2268660665 0.6142549515 4282994009
-0.3085310757 -0.2259378135 0.6135875583 4283126111
-0.3081950545 -0.2250107378 0.6129192114 4283652455
-0.3082855344 -0.2243956029 0.6130992174 4284310385
-0.3083758354 -0.2237799466 0.6132788062 4284178799
-0.3084659576 -0.2231637388 0.6134579778 4283520869
-0.3077011406 -0.2219305187 0.6119369864 4283126111
-0.3073631227 -0.2210075557 0.6112647653 4284310387
-0.3070246577 -0.2200857699 0.6105915904 4285560454
-0.3062579930 -0.2188594937 0.6090669632 4283849836
-0.3046349585 -0.2170264870 0.6058391333 4283586664
-0.3025827408 -0.2148958594 0.6017578244 4283914859
-0.3001009822 -0.2124702036 0.5968222618 4283783273
-0.2989022434 -0.2109610438 0.5944383144 4283717478
-0.3002726734 -0.2112647742 0.5971637368 4283849064
-0.3012151718 -0.2112623304 0.5990381241 4284638580
-0.3030151427 -0.2118552178 0.6026178002 4285033338
-0.3052446246 -0.2127394825 0.6070516109 4285888901
-0.3070462644 -0.2133166790 0.6106345654 4286941589
-0.3075617850 -0.2129952312 0.6116598248 4287467933
-0.3089355230 -0.2132639438 0.6143918633 4287665312
-0.3098805547 -0.2132316083 0.6162713170 4288125863
-0.3103965819 -0.2129008174 0.6172975302 4288718000
-0.3104831874 -0.2122741640 0.6174697280 4288652721
-0.3109991252 -0.2119397223 0.6184958220 4289310651
-0.3110854328 -0.2113111615 0.6186674833 4289771202
-0.3111715317 -0.2106820792 0.6188387275 4290034374
-0.3121172488 -0.2106327116 0.6207194924 4290297032
-0.3113431036 -0.2094223350 0.6191799045 4290231239
-0.3131491840 -0.2099452168 0.6227716804 4290099653
-0.3119440973 -0.2084480226 0.6203751564 4290033860
-0.3120292723 -0.2078154534 0.6205444932 4289836480
-0.3125447035 -0.2074681520 0.6215695739 4289639101
-0.3130601943 -0.2071185708 0.6225947142 4289441722
-0.3135756850 -0.2067667395 0.6236199141 4289375929
-0.3132295012 -0.2058463395 0.6229314208 4289507002
-0.3128828406 -0.2049271762 0.6222420335 4289638588
-0.3129668534 -0.2042906582 0.6224091053 4289770174
-0.3134818077 -0.2039341331 0.6234332323 4289901760
-0.3134582341 -0.1893736273 0.6233863831 4284835961
-0.3126694560 -0.1882062107 0.6218177080 4282927964
-0.3118800223 -0.1870418787 0.6202476621 4284770168
-0.3097882867 -0.1851028949 0.6160877943 4286546579
-0.3165532351 -0.1618658900 0.6295415163 4288125611
-0.3166216612 -0.1612012684 0.6296775937 4283520101
-0.3162518442 -0.1603141725 0.6289420724 4282993755
-0.3163196743 -0.1596496105 0.6290770173 4284178029
-0.3159490526 -0.1587644219 0.6283399463 4288125609
-0.3160162866 -0.1580999345 0.6284736395 4291415259
-0.3156448901 -0.1572166532 0.6277350187 4287270300
-0.3152730167 -0.1563348025 0.6269955039 4282796376
-0.3149007261 -0.1554543823 0.6262550950 4284836727
-0.3145280182 -0.1545753926 0.6255138516 4285626243
-0.3145936131 -0.1539124995 0.6256443262 4290560973
-0.3133423924 -0.1526079774 0.6231559515 4291218903
-0.3226196170 -0.1364530474 0.6416059136 4289244595
-0.3231196105 -0.1359505653 0.6426002979 4285165429
-0.3231780231 -0.1352610290 0.6427164674 4282138436
-0.3236777186 -0.1347549558 0.6437101960 4281085748
-0.3237356246 -0.1340637356 0.6438254118 4281612092
-0.3233515322 -0.1331901848 0.6430615187 4282138436
-0.3238506615 -0.1326801777 0.6440541148 4281546299
-0.3239077330 -0.1319878548 0.6441676617 4281283127
-0.3244065046 -0.1314742863 0.6451596022 4281216820
-0.3240210712 -0.1306021065 0.6443930864 4280624683
-0.3236351907 -0.1297314614 0.6436256766 4280493611
-0.3219223022 -0.1283334941 0.6402191520 4280427818
-0.3206507862 -0.1271180958 0.6376904249 4280493611
-0.3189361691 -0.1257336289 0.6342805028 4280559404
-0.3145661056 -0.1233157516 0.6255896091 4280493611
-0.3031521440 -0.2674698234 0.6042248607 4284572787
-0.3032550514 -0.2668890655 0.6044299603 4283125341
-0.3033578098 -0.2663077116 0.6046348214 4283914857
-0.3034604192 -0.2657257617 0.6048393250 4289375676
-0.3065912127 -0.2501355112 0.6110793948 4290823890
-0.3062680960 -0.2491936684 0.6104353666 4285823108
-0.3059445322 -0.2482528836 0.6097905040 4281809735
-0.3051989973 -0.2469720542 0.6083045006 4282599251
-0.3027660251 -0.2443327755 0.6034552455 4282928216
-0.3003312647 -0.2417028248 0.5986024141 4286414991
-0.3058841228 -0.2366882712 0.6096700430 4290494411
-0.3068256974 -0.2367373705 0.6115467548 4289178551
-0.3052240610 -0.2348256856 0.6083544493 4287599518
-0.3061655164 -0.2348719984 0.6102309823 4286415244
-0.3062589765 -0.2342654616 0.6104171872 4285296763
-0.3063522279 -0.2336583734 0.6106030345 4284375661
-0.3064452708 -0.2330507189 0.6107885242 4283651938
-0.3065381646 -0.2324425131 0.6109736562 4283125594
-0.3066308498 -0.2318337709 0.6111584306 4282665043
-0.3067233562 -0.2312244624 0.6113427877 4282336078
-0.3072406352 -0.2309340239 0.6123737693 4281941321
-0.3077579737 -0.2306413352 0.6134049296 4281546563
-0.3078501821 -0.2300286889 0.6135886908 4281217598
-0.3079421818 -0.2294154912 0.6137720942 4281283391
-0.3080340028 -0.2288017422 0.6139550805 4281875528
-0.3081256151 -0.2281874418 0.6141377091 4282730837
-0.3073656261 -0.2269439548 0.6126229167 4283717732
-0.3070307672 -0.2260167897 0.6119554639 4284112490
-0.3066954613 -0.2250907719 0.6112871766 4284178029
-0.3063597083 -0.2241659313 0.6106179953 4283849064
-0.3060235381 -0.2232422382 0.6099479198 4283783271
-0.3061132431 -0.2226297855 0.6101267338 4283520099
-0.3062027693 -0.2220167965 0.6103051901 4282533974
-0.3062920868 -0.2214032710 0.6104832292 4282797146
-0.3059544861 -0.2204817086 0.6098103523 4284968317
-0.3056164682 -0.2195613235 0.6091365814 4285297282
-0.3048510253 -0.2183363140 0.6076110005 4284902524
-0.3040848970 -0.2171142101 0.6060839891 4285955212
-0.3024636805 -0.2152868360 0.6028526425 4287533474
-0.3008412719 -0.2134658247 0.5996189713 4287928232
-0.2992176712 -0.2116511613 0.5963829160 4288191402
-0.2980204821 -0.2101443708 0.5939967632 4288454574
-0.2993885577 -0.2104460448 0.5967234969 4288125609
-0.3007571697 -0.2107420266 0.5994513631 4288191402
-0.3025542498 -0.2113312483 0.6030331850 4288191402
-0.3047801852 -0.2122110873 0.6074697375 4288191402
-0.3065789044 -0.2127845734 0.6110548973 4288454828
-0.3070935011 -0.2124616653 0.6120805740 4288849586
-0.3084650040 -0.2127274275 0.6148141026 4289178551
-0.3089798987 -0.2123982757 0.6158403754 4289375930
-0.3094948530 -0.2120668739 0.6168667674 4289573825
-0.3095810413 -0.2114403546 0.6170385480 4289639618
-0.3096670210 -0.2108133286 0.6172099113 4289573825
-0.3101818264 -0.2104768753 0.6182360053 4289573825
-0.3102675080 -0.2098479271 0.6184067726 4289704641
-0.3103529811 -0.2092184573 0.6185771227 4289573055
-0.3104382455 -0.2085884660 0.6187470555 4289376444
-0.3109527826 -0.2082455903 0.6197726727 4289573823
-0.3110377491 -0.2076136917 0.6199420094 4289375930
-0.3115522265 -0.2072671503 0.6209673882 4289507516
-0.3116368949 -0.2066333443 0.6211361289 4289639102
-0.3121512830 -0.2062831521 0.6221614480 4289639102
-0.3118055463 -0.2053641826 0.6214722991 4289638589
-0.3118895590 -0.2047288269 0.6216397882 4289638589
-0.3119733632 -0.2040929645 0.6218068004 4289770688
-0.3124628961 -0.1891901791 0.6227824688 4286217614
-0.3116754889 -0.1880232096 0.6212130785 4282335827
-0.3104544282 -0.1865990758 0.6187793016 4284441203
-0.3087993860 -0.1849204600 0.6154806018 4286020235
-0.3160560727 -0.1612695158 0.6299442053 4287862439
-0.3156869411 -0.1603820771 0.6292085052 4282993755
-0.3157547414 -0.1597172618 0.6293435693 4283256927
-0.3153848350 -0.1588317305 0.6286063194 4284704375
-0.3154520094 -0.1581669897 0.6287401915 4289573057
-0.3150812984 -0.1572833657 0.6280013323 4286942105
-0.3147101700 -0.1564011723 0.6272616386 4282665560
-0.3143386245 -0.1555204093 0.6265210509 4284639348
-0.3139666021 -0.1546410620 0.6257796288 4285363071
-0.3135941625 -0.1537631601 0.6250372529 4290495180
-0.3119070828 -0.1522452086 0.6216746569 4291087317
-0.3110953271 -0.1511600614 0.6200567484 4291218903
-0.3210467398 -0.1375103295 0.6398913264 4290428867
-0.3211056590 -0.1368244737 0.6400087476 4286612873
-0.3211643100 -0.1361382455 0.6401256323 4282993745
-0.3216633201 -0.1356374323 0.6411202550 4280625197
-0.3217215240 -0.1349495053 0.6412362456 4280690990
-0.3217794299 -0.1342612207 0.6413516402 4281019955
-0.3218370676 -0.1335725486 0.6414664984 4280888369
-0.3218944073 -0.1328835040 0.6415808201 4280362025
-0.3219514787 -0.1321941018 0.6416946054 4280427303
-0.3224493861 -0.1316844672 0.6426870227 4280361510
-0.3225060105 -0.1309933960 0.6427997947 4280164132
-0.3216798007 -0.1299454421 0.6411530972 4280427304
-0.3204116821 -0.1287236214 0.6386255622 4280362025
-0.3182599843 -0.1271543950 0.6343369484 4280362025
-0.3130168319 -0.1243664175 0.6238865852 4280427818
-0.3086547256 -0.1219497547 0.6151922345 4280362025
-0.2770663500 -0.0800178275 0.5522322059 4281283129
-0.2760030329 -0.0748210177 0.5501128435 4281151543
-0.2748277187 -0.0714593455 0.5477702618 4281348924
-0.3038460910 -0.2686768770 0.6069516540 4286612370
-0.3039493263 -0.2680935562 0.6071578264 4283125341
-0.3028028905 -0.2664103210 0.6048676968 4282927962
-0.3037386835 -0.2665595114 0.6067370176 4286612370
-0.3050938547 -0.2501432598 0.6094440818 4291612892
-0.3047714233 -0.2492025048 0.6088000536 4286546831
-0.3044485748 -0.2482628077 0.6081551313 4282072907
-0.3037046492 -0.2469821125 0.6066690683 4282336079
-0.3008560836 -0.2439978570 0.6009789109 4282270286
-0.2967427671 -0.2400033027 0.5927622914 4285428350
-0.2985212505 -0.2407791615 0.5963149071 4290691790
-0.3015718460 -0.2365465015 0.6024086475 4290757583
-0.3029329181 -0.2369417548 0.6051274538 4289310137
-0.3034493327 -0.2366721928 0.6061590314 4287533726
-0.3043885827 -0.2367291749 0.6080352664 4285888901
-0.3049052954 -0.2364543229 0.6090674400 4284638834
-0.3041529953 -0.2351958752 0.6075646877 4283915111
-0.3042463362 -0.2345927805 0.6077511311 4283322974
-0.3034929037 -0.2333382666 0.6062461138 4282994009
-0.3044324219 -0.2333849370 0.6081228256 4282665044
-0.3049487174 -0.2331039310 0.6091541648 4282270286
-0.3050414324 -0.2324977815 0.6093394160 4282007114
-0.3051339686 -0.2318910807 0.6095242500 4281809735
-0.3052263260 -0.2312838286 0.6097086668 4281875527
-0.3053184748 -0.2306760252 0.6098927855 4281678148
-0.3058346212 -0.2303872108 0.6109238267 4281809735
-0.3059265316 -0.2297774702 0.6111074090 4282270286
-0.3055938184 -0.2288493216 0.6104428172 4282928216
-0.3056852221 -0.2282393277 0.6106253862 4283717732
-0.3057764471 -0.2276287824 0.6108075976 4284112490
-0.3054426312 -0.2267023772 0.6101408005 4284309869
-0.3055333495 -0.2260915935 0.6103219986 4284046697
-0.3051987886 -0.2251666635 0.6096537113 4283783525
-0.3048638105 -0.2242428958 0.6089845300 4283322720
-0.3049536943 -0.2236321718 0.6091641188 4282664790
-0.3050433695 -0.2230209261 0.6093432307 4282664790
-0.3051328659 -0.2224091291 0.6095220447 4283059548
-0.3052221835 -0.2217968106 0.6097004414 4282467411
-0.3044596314 -0.2205669731 0.6081772447 4283191134
-0.3045483232 -0.2199552804 0.6083543301 4285231489
-0.3037846386 -0.2187295109 0.6068288684 4284507766
-0.3025941253 -0.2172007114 0.6044507027 4284836731
-0.3014026284 -0.2156765312 0.6020706892 4285034110
-0.2997837961 -0.2138527781 0.5988368988 4285231489
-0.2985903323 -0.2123387158 0.5964528918 4285297282
-0.2973959446 -0.2108292878 0.5940670371 4285494659
-0.3000418544 -0.2120390981 0.5993524194 4286021003
-0.2988467216 -0.2105312198 0.5969650149 4287007898
-0.3036292791 -0.2132265419 0.6065185070 4287731621
-0.3020068109 -0.2114168704 0.6032775640 4288521137
-0.3055106401 -0.2131916285 0.6102766395 4289113274
-0.3068791330 -0.2134655118 0.6130103469 4289836481
-0.3110364079 -0.1887442917 0.6213147044 4287533474
-0.3102502525 -0.1875786632 0.6197443008 4282401620
-0.3090312481 -0.1861557662 0.6173092723 4284572789
-0.3073790371 -0.1844782829 0.6140088439 4286283407
-0.3048608899 -0.1822903603 0.6089786887 4288717748
-0.3146848977 -0.1602276862 0.6286028028 4285559684
-0.3147525191 -0.1595635414 0.6287378669 4282533206
-0.3143832386 -0.1586785913 0.6280001998 4284046445
-0.3140135109 -0.1577950418 0.6272616982 4286414993
-0.3140802085 -0.1571314782 0.6273948550 4285560452
-0.3137097061 -0.1562498510 0.6266548038 4282205009
-0.3129017353 -0.1551529765 0.6250408292 4284902520
-0.3125302792 -0.1542751342 0.6242988110 4285165692
-0.3121583760 -0.1533987373 0.6235558987 4290560973
-0.3113487363 -0.1523098648 0.6219386458 4291087317
-0.3101011217 -0.1510112882 0.6194464564 4291153110
-0.3190957904 -0.1376861483 0.6374138594 4289507252
-0.3191546798 -0.1370032132 0.6375315189 4284967535
-0.3192133009 -0.1363199055 0.6376485825 4281546299
-0.3197114468 -0.1358230561 0.6386436224 4280625197
-0.3197695911 -0.1351380497 0.6387597919 4280756783
-0.3202674091 -0.1346376240 0.6397542357 4280822576
-0.3203251064 -0.1339509338 0.6398695111 4280690990
-0.3203825355 -0.1332638860 0.6399841905 4280493611
-0.3204396665 -0.1325764507 0.6400983334 4280427818
-0.3200563192 -0.1317075044 0.6393325329 4280493097
-0.3205531538 -0.1312005073 0.6403250098 4280229925
-0.3201690614 -0.1303327084 0.6395577788 4280098339
-0.3193440735 -0.1292881221 0.6379098296 4279966753
-0.3167563081 -0.1275374293 0.6327405572 4280559404
-0.3072227538 -0.1216532961 0.6136966944 4280427304
-0.2773911059 -0.0815206543 0.5541061163 4280559408
-0.2774266005 -0.0809153616 0.5541770458 4280690992
-0.2774968743 -0.0797040835 0.5543173552 4280822578
-0.2768128216 -0.0758213997 0.5529509783 4280822837
-0.2738319337 -0.0725739002 0.5469964147 4281283388
-0.2735430896 -0.0694617927 0.5464194417 4282007113
-0.2749079764 -0.0691982359 0.5491458774 4282138699
-0.3007956743 -0.2665709555 0.6021942496 4289047479
-0.2992355227 -0.2645227015 0.5990707874 4283455074
-0.2997528315 -0.2643132508 0.6001064777 4282797144
-0.3011020124 -0.2648331523 0.6028075814 4284310383
-0.3012038469 -0.2642527223 0.6030113697 4290758097
-0.3028582931 -0.2488624901 0.6063235998 4286612624
-0.3021163940 -0.2475808412 0.6048383117 4281941321
-0.3013737798 -0.2463019192 0.6033516526 4282007114
-0.2993708551 -0.2439990789 0.5993417501 4281678149
-0.2973664105 -0.2417039275 0.5953288674 4284704627
-0.2949402928 -0.2390758991 0.5904718041 4290033860
-0.2969494760 -0.2354203016 0.5944941640 4290494411
-0.2983062863 -0.2358324528 0.5972105265 4288586414
-0.2996637523 -0.2362390459 0.5999281406 4286546831
-0.3006002009 -0.2363086492 0.6018028855 4285099385
-0.3011152744 -0.2360437661 0.6028341055 4284441455
-0.3020522892 -0.2361064106 0.6047099829 4283783525
-0.3025676608 -0.2358362377 0.6057417393 4282928216
-0.3030830920 -0.2355638444 0.6067736745 4282599251
-0.3031763732 -0.2349619567 0.6069604158 4282401872
-0.3028470874 -0.2340331227 0.6063011885 4282138700
-0.3025173545 -0.2331054062 0.6056410670 4281941321
-0.3026098311 -0.2325035334 0.6058261991 4282072907
-0.3031248748 -0.2322250009 0.6068573594 4282467665
-0.3032171130 -0.2316212058 0.6070420146 4282796630
-0.3033091724 -0.2310168445 0.6072263122 4282928216
-0.3034010231 -0.2304119319 0.6074101925 4282862422
-0.3039160073 -0.2301269919 0.6084411740 4283257180
-0.3040076196 -0.2295201421 0.6086245775 4283915111
-0.3040990531 -0.2289127409 0.6088076234 4284244076
-0.3041903079 -0.2283047885 0.6089903116 4284375662
-0.3042813540 -0.2276962996 0.6091725826 4284309869
-0.3039483130 -0.2267709821 0.6085058451 4283651939
-0.3040388525 -0.2261622548 0.6086871028 4282928216
-0.3037050366 -0.2252383977 0.6080188155 4282796630
-0.3037950993 -0.2246294171 0.6081991196 4282401872
-0.3034605384 -0.2237070352 0.6075293422 4282730583
-0.3035500646 -0.2230978310 0.6077085733 4283520099
-0.3040640950 -0.2227992713 0.6087376475 4284243822
-0.3041533828 -0.2221881300 0.6089164019 4284638580
-0.3042424619 -0.2215764672 0.6090947390 4283191134
-0.3039063215 -0.2206556499 0.6084217429 4283388513
-0.3035697043 -0.2197360098 0.6077479124 4285297539
-0.3028073907 -0.2185106575 0.6062217355 4284573816
-0.3016189635 -0.2169821560 0.6038424969 4286481813
-0.3004296124 -0.2154582739 0.6014613509 4287073950
-0.2988136411 -0.2136346847 0.5982262492 4287797414
-0.2976222932 -0.2121209204 0.5958411694 4288850102
-0.2968559265 -0.2109144032 0.5943068862 4289508032
-0.3091811240 -0.1880356371 0.6189819574 4289112506
-0.3083961308 -0.1868722439 0.6174104214 4282862171
-0.3076104820 -0.1857119501 0.6158375144 4284046447
-0.3059611022 -0.1840355992 0.6125354767 4285888651
-0.3034473360 -0.1818486005 0.6075029373 4287730855
-0.3132480383 -0.1598507315 0.6271239519 4289244090
-0.3133153915 -0.1591881812 0.6272587776 4283125341
-0.3129466474 -0.1583047211 0.6265205741 4282862941
-0.3125774562 -0.1574226767 0.6257814765 4284902524
-0.3126438856 -0.1567606926 0.6259144545 4283784041
-0.3122739196 -0.1558805853 0.6251737475 4282007630
-0.3119035363 -0.1550018936 0.6244322062 4285099899
-0.3115326762 -0.1541246474 0.6236898303 4285165692
-0.3107250035 -0.1530338973 0.6220728159 4290758352
-0.3099167049 -0.1519464254 0.6204546094 4291218903
-0.3091077805 -0.1508622617 0.6188351512 4291218903
-0.3179671466 -0.1389187723 0.6365716457 4291481042
-0.3180264533 -0.1382372826 0.6366903782 4287467924
-0.3176467419 -0.1373656690 0.6359301805 4282862414
-0.3177054226 -0.1366843432 0.6360476613 4280691245
-0.3177638352 -0.1360026598 0.6361646056 4280625452
-0.3182609677 -0.1355074942 0.6371598244 4280690990
-0.3183189034 -0.1348240972 0.6372758746 4280427818
-0.3188157380 -0.1343253702 0.6382704973 4280625197
-0.3184340000 -0.1334562153 0.6375062466 4280559404
-0.3184911311 -0.1327717155 0.6376206279 4280230439
-0.3185479939 -0.1320868582 0.6377344728 4280164646
-0.3181651235 -0.1312203705 0.6369679570 4280295718
-0.3177818060 -0.1303554326 0.6362006068 4280098339
-0.3173980713 -0.1294920146 0.6354323626 4280098339
-0.2759748697 -0.0818986669 0.5525029302 4280098857
-0.2760105133 -0.0812952891 0.5525742173 4280164650
-0.2756027877 -0.0805621520 0.5517579913 4280296234
-0.2756378353 -0.0799592808 0.5518281460 4280296234
-0.2761158347 -0.0794837624 0.5527850986 4280296234
-0.2766281068 -0.0784005746 0.5538106561 4280427822
-0.2771055996 -0.0779195204 0.5547666550 4280625201
-0.2766961157 -0.0771889091 0.5539468527 4280690994
-0.2762862742 -0.0764600113 0.5531263351 4280690994
-0.2758760750 -0.0757328346 0.5523051023 4280757044
-0.2754654884 -0.0750073940 0.5514831543 4280888630
-0.2759418488 -0.0745232999 0.5524367690 4281020216
-0.2750869691 -0.0736805275 0.5507252812 4281217595
-0.2764503062 -0.0734307691 0.5534547567 4281414976
-0.2751509845 -0.0724735931 0.5508534312 4281480769
-0.2756264210 -0.0719857365 0.5518053174 4281414974
-0.2756578624 -0.0713807791 0.5518682003 4281546560
-0.2748011053 -0.0705476701 0.5501530170 4281810504
-0.2752759159 -0.0700572431 0.5511035919 4282205262
-0.2739743590 -0.0691165850 0.5484979153 4282402641
