VERSION 0.7
FIELDS x y z rgba
SIZE 4 4 4 4
TYPE F F F U
COUNT 1 1 1 1
WIDTH 920
HEIGHT 1
VIEWPOINT 0.0 0.0 0.0 1.0 0.0 0.0 0.0
POINTS 920
DATA ascii
-0.2396376580 -0.0477427281 0.5479912758 4283455589
-0.2392574698 -0.0470590927 0.5471218228 4283587175
-0.2412737161 -0.0468426496 0.5517324805 4283521382
-0.2416920811 -0.0463097952 0.5526891947 4283653481
-0.2433088273 -0.0460013896 0.5563862920 4283850860
-0.2433273494 -0.0453866608 0.5564286709 4284245618
-0.2445443869 -0.0449923463 0.5592117310 4285166720
-0.2461609691 -0.0446643382 0.5629084110 4286021516
-0.2453796715 -0.0438991338 0.5611218214 4286218895
-0.2469960451 -0.0435607508 0.5648180246 4288981941
-0.2410496771 -0.1107747853 0.5526237488 4287534493
-0.2414865047 -0.1103604138 0.5536251664 4286942869
-0.2415298671 -0.1097650081 0.5537246466 4286482318
-0.2415730208 -0.1091692820 0.5538235903 4286087047
-0.2416159660 -0.1085732356 0.5539219975 4285692289
-0.2416586727 -0.1079768762 0.5540199280 4285362808
-0.2417011708 -0.1073802039 0.5541173220 4284968050
-0.2417434454 -0.1067832112 0.5542142391 4284902257
-0.2417854965 -0.1061859056 0.5543106794 4284507499
-0.2414334714 -0.1054163277 0.5535036325 4284245095
-0.2414750159 -0.1048193723 0.5535988808 4284245095
-0.2419103384 -0.1043921411 0.5545968413 4284112739
-0.2415574342 -0.1036245525 0.5537878275 4283915360
-0.2415983081 -0.1030266881 0.5538815260 4283783773
-0.2416389734 -0.1024285182 0.5539747477 4283652187
-0.2416794002 -0.1018300503 0.5540674329 4283520344
-0.2413252741 -0.1010661349 0.5532555580 4282928207
-0.2413651943 -0.1004680470 0.5533471107 4282138691
-0.2414048910 -0.0998696610 0.5534381270 4281414968
-0.2418388724 -0.0994331837 0.5544330478 4280691245
-0.2414835989 -0.0986720026 0.5536185503 4279967522
-0.2415226251 -0.0980727375 0.5537080169 4279440923
-0.2411667109 -0.0973139107 0.5528920293 4279177751
-0.2408104390 -0.0965567604 0.5520752668 4279835681
-0.2408486605 -0.0959585905 0.5521628857 4279704095
-0.2408866584 -0.0953601375 0.5522500277 4279638302
-0.2409244180 -0.0947614014 0.5523365736 4279572509
-0.2405669391 -0.0940080211 0.5515170097 4279572511
-0.2406041920 -0.0934097096 0.5516024232 4279638304
-0.2406412214 -0.0928111225 0.5516873002 4279638304
-0.2410732210 -0.0923636705 0.5526776910 4279506718
-0.2411098480 -0.0917635486 0.5527616739 4279835681
-0.2411462516 -0.0911631510 0.5528451800 4279901474
-0.2411824316 -0.0905624852 0.5529280901 4279901474
-0.2412183732 -0.0899615511 0.5530105233 4279835681
-0.2408585995 -0.0892138556 0.5521856546 4279835681
-0.2404984683 -0.0884678662 0.5513600707 4279967267
-0.2405336201 -0.0878681019 0.5514406562 4280033060
-0.2401728630 -0.0871245414 0.5506135821 4280098853
-0.2402074933 -0.0865252465 0.5506929755 4280296234
-0.2402418852 -0.0859256908 0.5507718325 4280427820
-0.2398802191 -0.0851853117 0.5499426723 4280427820
-0.2395182103 -0.0844466463 0.5491127372 4280493613
-0.2387598902 -0.0835711211 0.5473742485 4280690992
-0.2391891629 -0.0831121057 0.5483583808 4280690992
-0.2388261855 -0.0823776424 0.5475262403 4280625199
-0.2384628654 -0.0816449076 0.5466933250 4280625199
-0.2384953946 -0.0810485408 0.5467678308 4280822578
-0.2381314486 -0.0803182945 0.5459334850 4280756785
-0.2377671748 -0.0795897841 0.5450983644 4280888371
-0.2377988994 -0.0789946839 0.5451710820 4280954164
-0.2378303856 -0.0783993378 0.5452433228 4280888371
-0.2382580936 -0.0779334307 0.5462238193 4280954164
-0.2386856526 -0.0774653032 0.5472040772 4281019957
-0.2387165576 -0.0768672749 0.5472748876 4280888371
-0.2375574559 -0.0758889318 0.5446175933 4280954164
-0.2371911108 -0.0751677230 0.5437777042 4280888371
-0.2368244231 -0.0744482800 0.5429370403 4280954164
-0.2368541509 -0.0738543049 0.5430052280 4281019957
-0.2364868522 -0.0731373951 0.5421631336 4280954164
-0.2373097539 -0.0727874115 0.5440496802 4280954164
-0.2361481786 -0.0718296096 0.5413866639 4280954164
-0.2357799411 -0.0711170286 0.5405424833 4280954164
-0.2358083725 -0.0705249459 0.5406076908 4280888884
-0.2358365655 -0.0699326545 0.5406723022 4280954677
-0.2358645201 -0.0693401471 0.5407364368 4280888884
-0.2358922660 -0.0687474310 0.5407999754 4281020470
-0.2367141098 -0.0683839843 0.5426841378 4281283388
-0.2363442481 -0.0676751211 0.5418362021 4281086009
-0.2363713235 -0.0670807883 0.5418983102 4280493872
-0.2363981754 -0.0664862543 0.5419598222 4280099114
-0.2364247888 -0.0658915117 0.5420208573 4281086781
-0.2364511788 -0.0652965754 0.5420813560 4282336848
-0.2356824428 -0.0644839555 0.5403189659 4283060316
-0.2349133044 -0.0636751428 0.5385556817 4282994523
-0.2349388152 -0.0630836189 0.5386141539 4282862937
-0.2345665246 -0.0623861626 0.5377606750 4282994523
-0.2349891365 -0.0618999936 0.5387295485 4282994523
-0.2350139469 -0.0613078997 0.5387864113 4282928730
-0.2346408218 -0.0606128834 0.5379310250 4282862941
-0.2342673987 -0.0599196889 0.5370748639 4282797148
-0.2346892059 -0.0594297722 0.5380418897 4282862941
-0.2343152165 -0.0587382205 0.5371845365 4282928734
-0.2343387753 -0.0581472181 0.5372385383 4283060320
-0.2343621105 -0.0575560369 0.5372920036 4283191906
-0.2343852073 -0.0569646768 0.5373449326 4283126113
-0.2344080657 -0.0563731454 0.5373973846 4282928734
-0.2344306856 -0.0557814427 0.5374492407 4282928991
-0.2348511368 -0.0552832708 0.5384131074 4282928991
-0.2352714241 -0.0547829196 0.5393766761 4283060577
-0.2356915474 -0.0542803891 0.5403398275 4283126370
-0.2361115068 -0.0537756793 0.5413026214 4283060577
-0.2361330986 -0.0531791188 0.5413521528 4283060577
-0.2361544669 -0.0525823943 0.5414010882 4283126370
-0.2365738600 -0.0520731732 0.5423626304 4283126370
-0.2369930893 -0.0515617803 0.5433236957 4283060831
-0.2374121398 -0.0510482155 0.5442844629 4282995038
-0.2378310412 -0.0505324788 0.5452447534 4283126370
-0.2382497489 -0.0500145704 0.5462047458 4283192163
-0.2386683077 -0.0494944975 0.5471642613 4283323751
-0.2386882007 -0.0488906316 0.5472098589 4283257958
-0.2391063571 -0.0483672321 0.5481685400 4283192423
-0.2395243496 -0.0478416644 0.5491268039 4283455595
-0.2399421632 -0.0473139323 0.5500846505 4283192423
-0.2415556163 -0.0470167920 0.5537836552 4283258216
-0.2407772392 -0.0462519787 0.5519991517 4283652714
-0.2419918478 -0.0458688922 0.5547837615 4284244851
-0.2428076863 -0.0454050526 0.5566540956 4284837240
-0.2432246804 -0.0448634848 0.5576100945 4285626756
-0.2440402359 -0.0443922952 0.5594798326 4285824648
-0.2448556721 -0.0439169295 0.5613492727 4287140508
-0.2402246743 -0.1094505489 0.5521382689 4287863971
-0.2402676344 -0.1088565439 0.5522370338 4287469213
-0.2407030314 -0.1084391177 0.5532377362 4287008662
-0.2407456189 -0.1078435108 0.5533356071 4286547598
-0.2407879978 -0.1072475836 0.5534330010 4286021254
-0.2404372692 -0.1064773649 0.5526269078 4285363322
-0.2404791266 -0.1058817878 0.5527231097 4284836978
-0.2405207604 -0.1052858979 0.5528188348 4284573806
-0.2405621856 -0.1046897024 0.5529140234 4284508013
-0.2406033874 -0.1040932015 0.5530086756 4284179302
-0.2406443506 -0.1034963876 0.5531028509 4283981923
-0.2402918339 -0.1027311385 0.5522926450 4283915360
-0.2407256365 -0.1023018584 0.5532897115 4283586395
-0.2407659441 -0.1017041430 0.5533823371 4283981152
-0.2404125631 -0.1009409204 0.5525701046 4283717980
-0.2404523641 -0.1003435850 0.5526615977 4283586137
-0.2404919267 -0.0997459516 0.5527525544 4283322965
-0.2409249544 -0.0993102938 0.5537478328 4282730828
-0.2405704111 -0.0985498056 0.5529329181 4281941312
-0.2406093180 -0.0979512930 0.5530223250 4280954675
-0.2406479865 -0.0973524898 0.5531112552 4280296745
-0.2402925193 -0.0965950489 0.5522941947 4280230439
-0.2403306812 -0.0959966555 0.5523819327 4279835681
-0.2399745882 -0.0952415913 0.5515634418 4279506716
-0.2400122285 -0.0946436077 0.5516499877 4279375130
-0.2400496602 -0.0940453485 0.5517359972 4279506716
-0.2400868684 -0.0934468135 0.5518215299 4279572509
-0.2401238382 -0.0928479955 0.5519065261 4279638302
-0.2401605844 -0.0922489017 0.5519909859 4279638302
-0.2401971072 -0.0916495398 0.5520749092 4279769888
-0.2402334064 -0.0910498947 0.5521583557 4279901474
-0.2402694672 -0.0904499888 0.5522412062 4279835681
-0.2399107218 -0.0897022709 0.5514166951 4279769888
-0.2399462759 -0.0891028121 0.5514984131 4279769888
-0.2399816066 -0.0885030851 0.5515795946 4279835681
-0.2396219373 -0.0877585188 0.5507529378 4279901474
-0.2392619252 -0.0870156586 0.5499254465 4280033060
-0.2392964512 -0.0864171237 0.5500047803 4280164648
-0.2393307388 -0.0858183280 0.5500836372 4280230441
-0.2389698178 -0.0850786492 0.5492540598 4280230441
-0.2390035987 -0.0844803303 0.5493317246 4280230441
-0.2386420518 -0.0837431103 0.5485007167 4280296234
-0.2382801622 -0.0830076188 0.5476689935 4280362027
-0.2383131534 -0.0824105218 0.5477448106 4280427820
-0.2383459061 -0.0818131864 0.5478200912 4280493613
-0.2379831225 -0.0810809135 0.5469862223 4280625199
-0.2380153537 -0.0804840773 0.5470603108 4280625199
-0.2372565120 -0.0796215907 0.5453161597 4280756785
-0.2376836836 -0.0791579634 0.5462979674 4280822578
-0.2373196483 -0.0784306824 0.5454612970 4280822578
-0.2373508662 -0.0778348744 0.5455330610 4280888371
-0.2377774864 -0.0773675591 0.5465136170 4280954164
-0.2378083020 -0.0767702907 0.5465844274 4280888371
-0.2382346243 -0.0762995332 0.5475642681 4280888371
-0.2378692329 -0.0755750611 0.5467244387 4280888371
-0.2378993481 -0.0749771073 0.5467936993 4280888371
-0.2363456786 -0.0738838837 0.5432226658 4280888371
-0.2371670157 -0.0735349879 0.5451104641 4280954164
-0.2352163941 -0.0723295137 0.5406271219 4280954164
-0.2364333570 -0.0720999464 0.5434241891 4281019957
-0.2356699556 -0.0712653100 0.5416695476 4281019957
-0.2360945195 -0.0707907826 0.5426453948 4280954164
-0.2365189493 -0.0703140423 0.5436209440 4280954164
-0.2361507863 -0.0696015283 0.5427747369 4280888884
-0.2369711250 -0.0692381561 0.5446602106 4280954677
-0.2369987667 -0.0686410069 0.5447237492 4281086263
-0.2354407310 -0.0675885081 0.5411427617 4281020470
-0.2354677320 -0.0669949427 0.5412048101 4280888630
-0.2366838604 -0.0667365342 0.5439999700 4280822837
-0.2355210334 -0.0658072010 0.5413272977 4280428079
-0.2355473340 -0.0652130321 0.5413877368 4280493872
-0.2351768166 -0.0645098761 0.5405361652 4281020216
-0.2355992496 -0.0640240908 0.5415070653 4281875525
-0.2344348282 -0.0631089807 0.5388307571 4282599250
-0.2348567843 -0.0626228154 0.5398005843 4282730836
-0.2344850749 -0.0619248971 0.5389462709 4282862422
-0.2349066585 -0.0614363439 0.5399152040 4283125594
-0.2337407172 -0.0605345033 0.5372353792 4282797146
-0.2337649465 -0.0599438101 0.5372910500 4282862939
-0.2345827967 -0.0595544688 0.5391708016 4282994525
-0.2346066386 -0.0589614064 0.5392256379 4282994525
-0.2346302420 -0.0583681613 0.5392798781 4282994525
-0.2342565805 -0.0576769784 0.5384210348 4283060318
-0.2342796773 -0.0570843853 0.5384741426 4283060831
-0.2343025506 -0.0564916171 0.5385267138 4283060831
-0.2347223461 -0.0559934154 0.5394915938 4283126370
-0.2351419777 -0.0554930381 0.5404560566 4283060577
-0.2351642251 -0.0548977442 0.5405071974 4283060577
-0.2355834991 -0.0543940067 0.5414708853 4283126370
-0.2360026091 -0.0538880937 0.5424341559 4283060577
-0.2356268764 -0.0532005765 0.5415705442 4282994784
-0.2364429682 -0.0527810268 0.5434463024 4282994784
-0.2364641279 -0.0521818921 0.5434949398 4282928991
-0.2368825227 -0.0516692884 0.5444566011 4282995551
-0.2365057468 -0.0509831384 0.5435906053 4282995551
-0.2373212427 -0.0505528860 0.5454649925 4283126624
-0.2381366491 -0.0501184426 0.5473390818 4283192417
-0.2381567508 -0.0495144911 0.5473853350 4283192163
-0.2385742515 -0.0489920378 0.5483449101 4283257956
-0.2389915586 -0.0484674200 0.5493040681 4283455337
-0.2398063838 -0.0480202697 0.5511769056 4283915888
-0.2394279391 -0.0473330580 0.5503070354 4283389542
-0.2402424514 -0.0468805693 0.5521790981 4283652714
-0.2406590432 -0.0463472903 0.5531366467 4284113519
-0.2418711036 -0.0459630415 0.5559224486 4285034621
-0.2426852435 -0.0454980060 0.5577936769 4285166460
-0.2431013882 -0.0449552126 0.5587501526 4284179565
-0.2455068529 -0.0447730869 0.5642789602 4285363837
-0.2443310320 -0.0439346991 0.5615764260 4289377210
-0.2394417673 -0.1075339466 0.5517473221 4287797665
-0.2394839376 -0.1069397479 0.5518444777 4287402907
-0.2395258844 -0.1063452363 0.5519411564 4286942356
-0.2395676225 -0.1057504117 0.5520372987 4286350219
-0.2396091372 -0.1051552817 0.5521329641 4285889668
-0.2396504283 -0.1045598388 0.5522281528 4285560703
-0.2396915108 -0.1039640903 0.5523228049 4285100150
-0.2393399924 -0.1031988561 0.5515127778 4284836978
-0.2393805534 -0.1026034728 0.5516062975 4284770671
-0.2394209057 -0.1020077839 0.5516992211 4284375913
-0.2394610196 -0.1014117971 0.5517916679 4284441704
-0.2398935556 -0.1009807885 0.5527883768 4284244325
-0.2399332970 -0.1003832296 0.5528799295 4284244325
-0.2399728149 -0.0997853726 0.5529710054 4284310118
-0.2400121093 -0.0991872177 0.5530615449 4284046433
-0.2396582961 -0.0984274223 0.5522462726 4283585882
-0.2396970838 -0.0978296623 0.5523356199 4282862672
-0.2397356480 -0.0972316191 0.5524244905 4282204742
-0.2393809110 -0.0964748710 0.5516070724 4281809471
-0.2394189686 -0.0958772376 0.5516947508 4281151541
-0.2390635908 -0.0951228589 0.5508759022 4280296232
-0.2391011268 -0.0945256427 0.5509623885 4279901474
-0.2391384542 -0.0939281359 0.5510483980 4279769888
-0.2391755432 -0.0933303535 0.5511338115 4279638302
-0.2392124087 -0.0927322954 0.5512188077 4279638302
-0.2392490357 -0.0921339616 0.5513032079 4279769888
-0.2392854542 -0.0915353522 0.5513871312 4279901474
-0.2393216342 -0.0909364745 0.5514705181 4279967267
-0.2393576056 -0.0903373212 0.5515533686 4279901474
-0.2393933237 -0.0897378996 0.5516356826 4279901474
-0.2390350401 -0.0889916047 0.5508100986 4279967267
-0.2394641191 -0.0885382593 0.5517988205 4279835681
-0.2391052544 -0.0877934024 0.5509718657 4279769888
-0.2387460470 -0.0870502666 0.5501441360 4279901474
-0.2387805134 -0.0864515007 0.5502235889 4280033062
-0.2388147712 -0.0858524740 0.5503025055 4280033062
-0.2384546548 -0.0851125121 0.5494726896 4280098855
-0.2384883910 -0.0845139623 0.5495504141 4280164648
-0.2381276488 -0.0837764591 0.5487191677 4280164648
-0.2381608635 -0.0831783935 0.5487957597 4280230441
-0.2377995104 -0.0824433640 0.5479630232 4280362027
-0.2374377996 -0.0817100629 0.5471295714 4280362027
-0.2374702245 -0.0811132342 0.5472043157 4280427820
-0.2375024259 -0.0805161744 0.5472784638 4280493613
-0.2375344038 -0.0799188614 0.5473521352 4280625199
-0.2375661433 -0.0793213099 0.5474252701 4280690992
-0.2375976592 -0.0787235275 0.5474979281 4280756785
-0.2376289368 -0.0781254992 0.5475699902 4280822578
-0.2376599908 -0.0775272399 0.5476415157 4280822578
-0.2380856425 -0.0770565346 0.5486223698 4280822578
-0.2381162792 -0.0764568150 0.5486930013 4280888371
-0.2369618863 -0.0754794627 0.5460329056 4280888371
-0.2377818823 -0.0751318783 0.5479224324 4280822578
-0.2366266698 -0.0741610453 0.5452604294 4280822578
-0.2374463528 -0.0738100186 0.5471492410 4280888371
-0.2370806038 -0.0730893388 0.5463064313 4280954164
-0.2351337820 -0.0718871579 0.5418204069 4280954164
-0.2359528691 -0.0715334788 0.5437078476 4281019957
-0.2351908088 -0.0707002953 0.5419517756 4281019955
-0.2360096276 -0.0703421980 0.5438386202 4280954162
-0.2360376567 -0.0697462335 0.5439031720 4281019955
-0.2360654622 -0.0691500604 0.5439672470 4281019955
-0.2356975526 -0.0684388503 0.5431194901 4281019957
-0.2361203581 -0.0679570884 0.5440937281 4281019957
-0.2357518971 -0.0672474578 0.5432447195 4281152056
-0.2357787192 -0.0666514561 0.5433065295 4281217849
-0.2358053029 -0.0660552531 0.5433678031 4281086263
-0.2358316630 -0.0654588491 0.5434285402 4281020470
-0.2362535298 -0.0649710745 0.5444006324 4280757298
-0.2354878932 -0.0641576201 0.5426363945 4280428333
-0.2351176888 -0.0634547919 0.5417833328 4280757298
-0.2347471714 -0.0627537817 0.5409294963 4281612607
-0.2339804173 -0.0619497634 0.5391626954 4282402123
-0.2340051532 -0.0613572039 0.5392196774 4282731088
-0.2340296656 -0.0607644543 0.5392761827 4282928730
-0.2336579114 -0.0600697100 0.5384195447 4283060316
-0.2336819172 -0.0594775975 0.5384748578 4283257695
-0.2337056994 -0.0588853024 0.5385296345 4283389281
-0.2337292284 -0.0582928285 0.5385838747 4283191904
-0.2337525338 -0.0577001758 0.5386375785 4283060318
-0.2337756157 -0.0571073480 0.5386907458 4282928732
-0.2337984443 -0.0565143414 0.5387433767 4282862939
-0.2342173606 -0.0560159497 0.5397086740 4283192163
-0.2350324541 -0.0556091480 0.5415868759 4283060577
-0.2354510874 -0.0551053807 0.5425515771 4282994784
-0.2354731262 -0.0545076728 0.5426023602 4282994784
-0.2358914018 -0.0540005527 0.5435661674 4282994786
-0.2359130085 -0.0534015037 0.5436159968 4283060579
-0.2359343916 -0.0528022908 0.5436652303 4283061092
-0.2363520861 -0.0522906519 0.5446277261 4282995299
-0.2363730222 -0.0516901091 0.5446760058 4282995551
-0.2363937199 -0.0510894097 0.5447236896 4282995551
-0.2372075170 -0.0506579764 0.5465989113 4283192417
-0.2376245111 -0.0501386486 0.5475597978 4283324003
-0.2380413264 -0.0496171527 0.5485202670 4283389542
-0.2384579629 -0.0490934849 0.5494803190 4283521128
-0.2388744354 -0.0485676490 0.5504400134 4283784302
-0.2396875620 -0.0481193140 0.5523136854 4284179060
-0.2397068292 -0.0475094728 0.5523580909 4283652714
-0.2405196726 -0.0470547862 0.5542311072 4284310644
-0.2417293042 -0.0466725491 0.5570185184 4284507762
-0.2421449721 -0.0461328551 0.5579763055 4284310383
-0.2433544248 -0.0457402281 0.5607632995 4284376429
-0.2425787151 -0.0449733660 0.5589758158 4284442222
-0.2433908433 -0.0445007905 0.5608472228 4287469211
-0.2386572063 -0.1056188494 0.5513505340 4287863458
-0.2386985868 -0.1050244719 0.5514461398 4287402907
-0.2387397587 -0.1044297814 0.5515412688 4286876563
-0.2387807071 -0.1038347855 0.5516358614 4286218633
-0.2384299338 -0.1030702367 0.5508254766 4285889668
-0.2384703755 -0.1024756134 0.5509188771 4285626496
-0.2385105938 -0.1018806845 0.5510118008 4285165945
-0.2385505885 -0.1012854502 0.5511042476 4285100150
-0.2389821559 -0.1008552611 0.5521011949 4284771185
-0.2390217781 -0.1002584547 0.5521927476 4284639085
-0.2390611768 -0.0996613577 0.5522837639 4284375913
-0.2391003519 -0.0990639627 0.5523743033 4284112741
-0.2391393036 -0.0984662771 0.5524643064 4284046948
-0.2387859374 -0.0977078602 0.5516479611 4283915362
-0.2388243973 -0.0971105695 0.5517367721 4283652190
-0.2384703904 -0.0963545144 0.5509189367 4283586397
-0.2385083288 -0.0957576409 0.5510065556 4283060053
-0.2381536961 -0.0950039625 0.5501872897 4282335815
-0.2381911278 -0.0944074988 0.5502737761 4281612092
-0.2382283211 -0.0938107520 0.5503597260 4281085748
-0.2382653058 -0.0932137296 0.5504451394 4280559404
-0.2383020520 -0.0926164314 0.5505300164 4280164646
-0.2383385748 -0.0920188576 0.5506144166 4280033060
-0.2383748889 -0.0914210081 0.5506982803 4280033060
-0.2384109646 -0.0908228830 0.5507816672 4279967267
-0.2388396412 -0.0903731287 0.5517719984 4279835681
-0.2388753295 -0.0897734836 0.5518544316 4279835681
-0.2389107794 -0.0891735703 0.5519363284 4279967267
-0.2385530025 -0.0884277076 0.5511097908 4279901474
-0.2381948829 -0.0876835510 0.5502824783 4279835681
-0.2382295430 -0.0870848224 0.5503625274 4279835681
-0.2382639796 -0.0864858255 0.5504420996 4279769890
-0.2382981777 -0.0858865753 0.5505210757 4279769890
-0.2379388660 -0.0851463228 0.5496910214 4279901476
-0.2379725575 -0.0845475495 0.5497688651 4279967269
-0.2372192293 -0.0836710036 0.5480284691 4280033062
-0.2372523546 -0.0830737054 0.5481050014 4280098855
-0.2368917316 -0.0823393762 0.5472719073 4280164648
-0.2369243503 -0.0817425698 0.5473472476 4280230441
-0.2369567305 -0.0811455175 0.5474220514 4280296234
-0.2365952134 -0.0804144219 0.5465868711 4280362027
-0.2370208204 -0.0799506828 0.5475701094 4280427820
-0.2374462932 -0.0794847235 0.5485530496 4280559406
-0.2366901487 -0.0786240697 0.5468062162 4280625199
-0.2367213368 -0.0780268013 0.5468782783 4280690992
-0.2363583744 -0.0773004740 0.5460397005 4280690992
-0.2375709862 -0.0770872608 0.5488411188 4280690992
-0.2364194840 -0.0761067718 0.5461809039 4280822578
-0.2372378707 -0.0757612735 0.5480715632 4280888371
-0.2368738204 -0.0750370026 0.5472305417 4280822578
-0.2365094423 -0.0743144974 0.5463887453 4280822578
-0.2365389615 -0.0737166256 0.5464569330 4280888371
-0.2361739874 -0.0729966611 0.5456137061 4280954164
-0.2362029999 -0.0723993331 0.5456807613 4280954164
-0.2350486368 -0.0714421868 0.5430139303 4280888371
-0.2354714721 -0.0709662884 0.5439907908 4280888882
-0.2362886369 -0.0706060603 0.5458785892 4280888882
-0.2363167256 -0.0700078681 0.5459434986 4280954675
-0.2359500080 -0.0692935884 0.5450963378 4281020468
-0.2359775901 -0.0686959773 0.5451599956 4280954675
-0.2356102765 -0.0679842755 0.5443114638 4280888882
-0.2356373370 -0.0673872456 0.5443739295 4280954675
-0.2356641591 -0.0667900145 0.5444359183 4281086261
-0.2352959663 -0.0660817027 0.5435853601 4281152054
-0.2353222966 -0.0654850602 0.5436461568 4280954675
-0.2353483737 -0.0648882240 0.5437064171 4281152054
-0.2345843911 -0.0640754476 0.5419414043 4281481019
-0.2342149615 -0.0633733496 0.5410879254 4281152054
-0.2338452041 -0.0626730695 0.5402337313 4280625710
-0.2342652380 -0.0621843264 0.5412041545 4280757296
-0.2338949442 -0.0614856668 0.5403486490 4281349433
-0.2343146056 -0.0609945394 0.5413181186 4281809734
-0.2343389243 -0.0603993684 0.5413743258 4282138699
-0.2339678109 -0.0597031601 0.5405169725 4282665043
-0.2339916229 -0.0591086261 0.5405719876 4283191387
-0.2340152115 -0.0585139096 0.5406264663 4283323488
-0.2340385616 -0.0579190105 0.5406804681 4283389281
-0.2340616733 -0.0573239401 0.5407338738 4283323490
-0.2340845615 -0.0567286909 0.5407867432 4283257697
-0.2345026582 -0.0562280901 0.5417526364 4283126111
-0.2345251143 -0.0556314886 0.5418044925 4283060318
-0.2353383899 -0.0552203320 0.5436833501 4282994784
-0.2345693111 -0.0544377789 0.5419065952 4282994784
-0.2349866629 -0.0539314672 0.5428707600 4283060579
-0.2361951172 -0.0536025465 0.5456625819 4283192165
-0.2366122156 -0.0530898608 0.5466261506 4283257958
-0.2362377197 -0.0523994565 0.5457609892 4283257958
-0.2366544008 -0.0518844314 0.5467236042 4283192417
-0.2370709181 -0.0513672307 0.5476858616 4283192417
-0.2370914519 -0.0507631078 0.5477333069 4283389796
-0.2375075966 -0.0502425693 0.5486946702 4283587175
-0.2379235625 -0.0497198552 0.5496556163 4283850093
-0.2383393496 -0.0491949730 0.5506162047 4283915886
-0.2387549728 -0.0486679189 0.5515763760 4283915888
-0.2387744337 -0.0480589941 0.5516213179 4284179060
-0.2395856678 -0.0476073027 0.5534954667 4283652714
-0.2407928407 -0.0472291037 0.5562843084 4283389542
-0.2412078083 -0.0466913581 0.5572429299 4283126109
-0.2420186847 -0.0462271050 0.5591163039 4283126109
-0.2424333096 -0.0456840172 0.5600741506 4284179050
-0.2436400801 -0.0452860408 0.5628620386 4286613391
-0.2440543920 -0.0447366051 0.5638192296 4290955727
-0.2370898277 -0.1033647209 0.5491385460 4287862688
-0.2371302992 -0.1027721241 0.5492323041 4287402137
-0.2371705472 -0.1021792293 0.5493255258 4286876563
-0.2376013696 -0.1017533913 0.5503233671 4286416012
-0.2376412600 -0.1011589244 0.5504157543 4286218633
-0.2380718440 -0.1007295549 0.5514130592 4285823875
-0.2381113470 -0.1001335084 0.5515045524 4285363324
-0.2381506264 -0.0995371640 0.5515955091 4284902773
-0.2381896824 -0.0989405289 0.5516859889 4284508015
-0.2382285148 -0.0983435959 0.5517759323 4284376429
-0.2378758937 -0.0975858718 0.5509592295 4284507499
-0.2375229150 -0.0968298167 0.5501416922 4284310120
-0.2375609577 -0.0962339863 0.5502297878 4284178534
-0.2375987768 -0.0956378654 0.5503174067 4284112741
-0.2372448891 -0.0948848799 0.5494977236 4283783776
-0.2372822016 -0.0942891762 0.5495841503 4283257432
-0.2373192906 -0.0936931968 0.5496700406 4282731088
-0.2373561561 -0.0930969343 0.5497553945 4282204744
-0.2373927981 -0.0925003886 0.5498402715 4281612094
-0.2374292165 -0.0919035748 0.5499246120 4281019957
-0.2374654114 -0.0913064852 0.5500084758 4280427818
-0.2378932834 -0.0908588096 0.5509995222 4280033060
-0.2383210659 -0.0904088914 0.5519903302 4279638302
-0.2375726253 -0.0895135924 0.5502567887 4279506716
-0.2376079261 -0.0889154226 0.5503385663 4279572509
-0.2376429886 -0.0883169919 0.5504197478 4279638302
-0.2372856140 -0.0875735432 0.5495920181 4279769888
-0.2373201698 -0.0869755670 0.5496720672 4279835681
-0.2373545021 -0.0863773376 0.5497515798 4279901476
-0.2373885959 -0.0857788399 0.5498305559 4279901476
-0.2370300293 -0.0850393027 0.5490000844 4279901476
-0.2366711348 -0.0843014866 0.5481687784 4279901476
-0.2367044389 -0.0837042034 0.5482459664 4279967269
-0.2363449186 -0.0829688534 0.5474132299 4279967269
-0.2363777161 -0.0823720694 0.5474891663 4280033062
-0.2364102900 -0.0817750320 0.5475646257 4280033062
-0.2364426255 -0.0811777562 0.5476395488 4280164648
-0.2364747375 -0.0805802271 0.5477139354 4280164648
-0.2365066111 -0.0799824670 0.5477877259 4280230441
-0.2361453474 -0.0792525858 0.5469509959 4280362027
-0.2361767292 -0.0786553323 0.5470236540 4280493613
-0.2362078726 -0.0780578405 0.5470957756 4280559406
-0.2362387776 -0.0774601176 0.5471674204 4280559406
-0.2362694740 -0.0768621564 0.5472384691 4280493613
-0.2359067500 -0.0761370733 0.5463983417 4280690992
-0.2363301516 -0.0756655410 0.5473790169 4280756785
-0.2363601327 -0.0750668943 0.5474485159 4280822578
-0.2359965742 -0.0743441060 0.5466064215 4280822578
-0.2364194393 -0.0738689080 0.5475858450 4280822578
-0.2364487350 -0.0732695833 0.5476536751 4280888371
-0.2352973819 -0.0723072886 0.5449869633 4280954164
-0.2365066409 -0.0720702633 0.5477877855 4280888371
-0.2365352511 -0.0714702755 0.5478540659 4280888882
-0.2361700088 -0.0707521513 0.5470080972 4280954675
-0.2361980975 -0.0701527297 0.5470731854 4280954675
-0.2358322442 -0.0694371685 0.5462257862 4281020468
-0.2358598262 -0.0688383281 0.5462896824 4281020468
-0.2354933769 -0.0681253523 0.5454409122 4280888882
-0.2347327620 -0.0673012435 0.5436791778 4280888882
-0.2351533920 -0.0668167025 0.5446534753 4280954675
-0.2347860187 -0.0661081076 0.5438025594 4281020468
-0.2344183326 -0.0654013231 0.5429509282 4281086261
-0.2340503037 -0.0646963343 0.5420985222 4281086261
-0.2340760380 -0.0641010702 0.5421581268 4280954675
-0.2341015488 -0.0635056123 0.5422171950 4281086261
-0.2337326556 -0.0628040507 0.5413628221 4281217847
-0.2341518402 -0.0623141155 0.5423337221 4281152054
-0.2341766506 -0.0617180802 0.5423911810 4280954675
-0.2342012227 -0.0611218587 0.5424480438 4280888371
-0.2342255563 -0.0605254471 0.5425044298 4280888371
-0.2342496514 -0.0599288531 0.5425602794 4281019959
-0.2342735231 -0.0593320727 0.5426155329 4281414717
-0.2342971563 -0.0587351136 0.5426702499 4281941318
-0.2335315943 -0.0579422228 0.5408971310 4282467662
-0.2343437225 -0.0575406551 0.5427781343 4282928215
-0.2343666553 -0.0569431633 0.5428312421 4283191387
-0.2347839326 -0.0564403497 0.5437977314 4283520867
-0.2352010608 -0.0559353530 0.5447638631 4283586660
-0.2352233678 -0.0553353280 0.5448155403 4283586660
-0.2356401384 -0.0548269711 0.5457808375 4283652453
-0.2360567451 -0.0543164313 0.5467457771 4283718248
-0.2352888435 -0.0535342395 0.5449671745 4283652455
-0.2372842729 -0.0533776172 0.5495889187 4283652455
-0.2373055667 -0.0527717210 0.5496382713 4283586662
-0.2377215028 -0.0522524603 0.5506016612 4283718759
-0.2373474389 -0.0515594408 0.5497352481 4283784552
-0.2373680174 -0.0509530604 0.5497828722 4283784554
-0.2373883426 -0.0503465272 0.5498299599 4283718761
-0.2378034592 -0.0498225987 0.5507914424 4283718507
-0.2382183969 -0.0492964946 0.5517525077 4283192163
-0.2386331707 -0.0487682223 0.5527132154 4282665562
-0.2394428849 -0.0483175106 0.5545886159 4282665562
-0.2390670180 -0.0476264469 0.5537180305 4282336595
-0.2398764044 -0.0471703857 0.5555927157 4282402388
-0.2406856716 -0.0467101373 0.5574671030 4283455074
-0.2414948046 -0.0462457016 0.5593411922 4284770934
-0.2419085503 -0.0457023978 0.5602995157 4286613391
-0.2423221171 -0.0451569334 0.5612573624 4289639869
-0.2363429964 -0.1008657590 0.5488206148 4287468700
-0.2367725521 -0.1004381925 0.5498180985 4287073942
-0.2368118614 -0.0998438820 0.5499094129 4286547598
-0.2368509620 -0.0992492735 0.5500001907 4286021254
-0.2368898392 -0.0986543745 0.5500904918 4285494910
-0.2369284928 -0.0980591848 0.5501802564 4285231738
-0.2369669378 -0.0974637046 0.5502694845 4285099382
-0.2366146892 -0.0967083499 0.5494515300 4284704624
-0.2366526276 -0.0961132720 0.5495396256 4284770417
-0.2362997532 -0.0953602940 0.5487201810 4284704624
-0.2363371700 -0.0947656333 0.5488070846 4284507245
-0.2363743633 -0.0941706896 0.5488934517 4284244073
-0.2360205799 -0.0934207961 0.5480719209 4284046694
-0.2364480942 -0.0929799601 0.5490646958 4283980901
-0.2364846319 -0.0923841819 0.5491495132 4283651936
-0.2365209311 -0.0917881280 0.5492337942 4283059799
-0.2365570217 -0.0911917984 0.5493175983 4282401608
-0.2369839400 -0.0907449424 0.5503090024 4281809471
-0.2370196283 -0.0901470855 0.5503918529 4281085748
-0.2370550931 -0.0895489603 0.5504742265 4280493611
-0.2370903492 -0.0889505595 0.5505560637 4280033060
-0.2367340624 -0.0882061049 0.5497286916 4279901474
-0.2367687970 -0.0876081735 0.5498093963 4279835681
-0.2364118844 -0.0868661553 0.5489805937 4279769888
-0.2364461124 -0.0862686858 0.5490600467 4279769890
-0.2364801019 -0.0856709555 0.5491390228 4279835683
-0.2361222953 -0.0849321187 0.5483081341 4279835683
-0.2361557782 -0.0843348652 0.5483858585 4279835683
-0.2361890376 -0.0837373659 0.5484631062 4279835683
-0.2362220734 -0.0831396058 0.5485398173 4279835683
-0.2358630896 -0.0824047178 0.5477061868 4279901476
-0.2358956039 -0.0818074569 0.5477817059 4280033062
-0.2359278947 -0.0812099501 0.5478566885 4279901476
-0.2363519222 -0.0807460994 0.5488413572 4279901476
-0.2363838255 -0.0801471099 0.5489153862 4280033062
-0.2360234112 -0.0794159621 0.5480785370 4280164648
-0.2356626838 -0.0786865577 0.5472408533 4280296234
-0.2353016138 -0.0779589117 0.5464023948 4280362027
-0.2353324294 -0.0773619488 0.5464739203 4280362027
-0.2353630215 -0.0767647550 0.5465449691 4280362027
-0.2353933901 -0.0761673301 0.5466154814 4280559406
-0.2354235202 -0.0755696744 0.5466854572 4280559406
-0.2354534268 -0.0749717876 0.5467548966 4280690992
-0.2354830950 -0.0743736699 0.5468237996 4280822578
-0.2359050512 -0.0738982931 0.5478036404 4280822578
-0.2355417460 -0.0731767714 0.5469599962 4280888371
-0.2359633446 -0.0726989582 0.5479390025 4280954164
-0.2359921485 -0.0720989555 0.5480058789 4280954164
-0.2360207140 -0.0714987367 0.5480722189 4280954675
-0.2356562763 -0.0707803294 0.5472259521 4280954675
-0.2352915257 -0.0700637102 0.5463789701 4280954675
-0.2349264473 -0.0693488717 0.5455312133 4280954675
-0.2353468537 -0.0688657612 0.5465074182 4280954675
-0.2345882654 -0.0680385381 0.5447459221 4280954675
-0.2346152663 -0.0674410462 0.5448085666 4281020470
-0.2346420139 -0.0668433458 0.5448707342 4281152056
-0.2346685380 -0.0662454441 0.5449323058 4281086263
-0.2343017161 -0.0655373782 0.5440804958 4281086263
-0.2339345664 -0.0648311153 0.5432279110 4281086263
-0.2339603007 -0.0642346218 0.5432876945 4281086263
-0.2343790680 -0.0637448803 0.5442600846 4281283642
-0.2340110838 -0.0630410388 0.5434055924 4281481021
-0.2344294637 -0.0625489056 0.5443771482 4281481021
-0.2344543189 -0.0619506277 0.5444348454 4281415228
-0.2344789356 -0.0613521636 0.5444920063 4281414713
-0.2345033139 -0.0607535131 0.5445486307 4281348920
-0.2345274687 -0.0601546727 0.5446047187 4281151541
-0.2337642908 -0.0593557991 0.5428324938 4281085748
-0.2345750630 -0.0589564443 0.5447152257 4281085750
-0.2338112593 -0.0581612326 0.5429415703 4281019957
-0.2342280596 -0.0576605871 0.5439094305 4280888884
-0.2354320884 -0.0573495589 0.5467053652 4280954677
-0.2354549021 -0.0567476302 0.5467583537 4281217595
-0.2354774922 -0.0561455265 0.5468108058 4281414974
-0.2354998291 -0.0555432513 0.5468626618 4281612353
-0.2355219424 -0.0549408011 0.5469139814 4281809732
-0.2355438024 -0.0543381870 0.5469647646 4281876297
-0.2359593660 -0.0538252629 0.5479297638 4282007883
-0.2359807938 -0.0532213077 0.5479795337 4282073676
-0.2363959700 -0.0527050309 0.5489436388 4282139469
-0.2372050285 -0.0522734039 0.5508223772 4282205262
-0.2372258455 -0.0516659357 0.5508707166 4282271055
-0.2372464240 -0.0510583073 0.5509185195 4282008141
-0.2372667640 -0.0504505225 0.5509657264 4281876555
-0.2380751967 -0.0500081740 0.5528429747 4282073936
-0.2380951196 -0.0493980609 0.5528892875 4282139729
-0.2381148040 -0.0487877913 0.5529350042 4282270802
-0.2393170297 -0.0484166667 0.5557267070 4282862939
-0.2389420271 -0.0477243178 0.5548559427 4283520867
-0.2397496998 -0.0472670645 0.5567314625 4284047211
-0.2401628941 -0.0467288941 0.5576909184 4285034361
-0.2405759096 -0.0461885557 0.5586500168 4286481807
-0.2355541140 -0.0989610776 0.5484030843 4287666079
-0.2359822094 -0.0985305086 0.5493997931 4287073942
-0.2360207438 -0.0979360789 0.5494894981 4286613391
-0.2360590696 -0.0973413587 0.5495787263 4286152840
-0.2357075661 -0.0965867043 0.5487603545 4285626496
-0.2353557199 -0.0958337188 0.5479412079 4285625726
-0.2353932410 -0.0952401012 0.5480285883 4285296761
-0.2354305536 -0.0946462005 0.5481154323 4284705396
-0.2354676425 -0.0940520167 0.5482017994 4284442224
-0.2351145893 -0.0933028236 0.5473798513 4284376431
-0.2355411500 -0.0928628147 0.5483729243 4284376431
-0.2359675914 -0.0924205631 0.5493657589 4284375661
-0.2360038459 -0.0918242857 0.5494501591 4284178282
-0.2360398769 -0.0912277326 0.5495340824 4284046433
-0.2360756844 -0.0906309038 0.5496174097 4283520089
-0.2361112684 -0.0900338069 0.5497002602 4282862159
-0.2361466289 -0.0894364491 0.5497825742 4282138436
-0.2361817658 -0.0888388157 0.5498644114 4281414713
-0.2358262390 -0.0880950615 0.5490366817 4280822576
-0.2354703546 -0.0873530284 0.5482081175 4280296232
-0.2355047017 -0.0867565796 0.5482881069 4279901474
-0.2355388254 -0.0861598700 0.5483675003 4279769890
-0.2355727106 -0.0855629072 0.5484464169 4279638304
-0.2352156639 -0.0848247781 0.5476151705 4279638304
-0.2352490425 -0.0842282921 0.5476928949 4279638304
-0.2348913699 -0.0834926292 0.5468601584 4279638304
-0.2353151292 -0.0830345601 0.5478467345 4279704097
-0.2349568903 -0.0823003799 0.5470126867 4279901476
-0.2349893153 -0.0817038864 0.5470882058 4279967269
-0.2354125679 -0.0812420920 0.5480735898 4279638304
-0.2354445904 -0.0806441158 0.5481481552 4279769890
-0.2350852191 -0.0799129233 0.5473114848 4279835683
-0.2351167351 -0.0793154538 0.5473848581 4279967269
-0.2351480275 -0.0787177384 0.5474576950 4280098855
-0.2347877771 -0.0779898092 0.5466189384 4280164648
-0.2348185480 -0.0773926228 0.5466906428 4280164648
-0.2348490953 -0.0767951980 0.5467617512 4280230441
-0.2344879508 -0.0760705471 0.5459209681 4280362027
-0.2345179915 -0.0754736587 0.5459908843 4280362027
-0.2345477939 -0.0748765394 0.5460602641 4280427820
-0.2349690050 -0.0744031966 0.5470408797 4280559406
-0.2349984050 -0.0738046318 0.5471093655 4280690992
-0.2346358597 -0.0730838329 0.5462653041 4280690992
-0.2350565046 -0.0726068243 0.5472446084 4280822578
-0.2350852191 -0.0720075890 0.5473114848 4280888371
-0.2351136953 -0.0714081377 0.5473777652 4280954162
-0.2347500473 -0.0706904531 0.5465311408 4281019955
-0.2351699620 -0.0702085868 0.5475087762 4281085748
-0.2348057479 -0.0694924742 0.5466608405 4281019955
-0.2348332554 -0.0688931644 0.5467248559 4280954162
-0.2340763509 -0.0680656210 0.5449627042 4281019955
-0.2341033071 -0.0674678907 0.5450254083 4281217336
-0.2341300249 -0.0668699592 0.5450876355 4281217336
-0.2337642908 -0.0661608204 0.5442361832 4280954677
-0.2341827750 -0.0656734928 0.5452104211 4281020470
-0.2334241718 -0.0648569465 0.5434443355 4281152056
-0.2338422388 -0.0643682182 0.5444176197 4281152056
-0.2338677496 -0.0637702867 0.5444770455 4281086009
-0.2338930368 -0.0631721616 0.5445358753 4281086009
-0.2343105525 -0.0626788363 0.5455079675 4281283388
-0.2343354225 -0.0620793216 0.5455658436 4281480767
-0.2343600392 -0.0614796206 0.5456231833 4281414715
-0.2339918315 -0.0607777536 0.5447658896 4281414715
-0.2344085872 -0.0602796525 0.5457361937 4281414715
-0.2340398282 -0.0595794246 0.5448776484 4281414715
-0.2348489165 -0.0591779053 0.5467613339 4281480508
-0.2352651805 -0.0586742237 0.5477304459 4281414715
-0.2356812805 -0.0581683554 0.5486991405 4281283642
-0.2357043773 -0.0575643517 0.5487529635 4281349435
-0.2357272357 -0.0569601730 0.5488061905 4281349435
-0.2357498556 -0.0563558154 0.5488588214 4281415228
-0.2357722521 -0.0557512902 0.5489109755 4281414974
-0.2357943952 -0.0551465899 0.5489625335 4281349181
-0.2358162999 -0.0545417219 0.5490135550 4281414974
-0.2366241068 -0.0541164726 0.5508942008 4281414974
-0.2366456091 -0.0535092540 0.5509442687 4281480767
-0.2370600253 -0.0529897474 0.5519090891 4281480767
-0.2374742478 -0.0524680577 0.5528734922 4281547330
-0.2374951094 -0.0518583320 0.5529220700 4281678916
-0.2375157326 -0.0512484424 0.5529700518 4281678918
-0.2375361174 -0.0506384000 0.5530174971 4281810504
-0.2371629477 -0.0499453694 0.5521486998 4282336593
-0.2379694879 -0.0494996607 0.5540264249 4282797144
-0.2379891723 -0.0488881432 0.5540722609 4283323488
-0.2380086184 -0.0482764728 0.5541175604 4284178797
-0.2384212613 -0.0477434397 0.5550782681 4284376176
-0.2392271906 -0.0472860076 0.5569545627 4285165692
-0.2396395057 -0.0467476249 0.5579144955 4286481807
-0.2347636223 -0.0970581397 0.5479797125 4287863458
-0.2348015457 -0.0964648724 0.5480682254 4287205528
-0.2344504297 -0.0957125947 0.5472486615 4286942356
-0.2344878465 -0.0951197371 0.5473359823 4286481805
-0.2345250398 -0.0945265964 0.5474228263 4285955463
-0.2341730148 -0.0937774032 0.5466011167 4285560705
-0.2342097014 -0.0931846872 0.5466867685 4285231740
-0.2350244075 -0.0928993076 0.5485883951 4284771189
-0.2350607663 -0.0923040658 0.5486733317 4284442224
-0.2350969166 -0.0917085558 0.5487576723 4284508017
-0.2351328433 -0.0911127627 0.5488415360 4284441191
-0.2351685315 -0.0905167013 0.5489248633 4284243812
-0.2352040112 -0.0899203718 0.5490076542 4283980640
-0.2348497957 -0.0891758800 0.5481808186 4283717468
-0.2348847687 -0.0885799974 0.5482624769 4283454296
-0.2349195033 -0.0879838541 0.5483435392 4282927952
-0.2349540293 -0.0873874426 0.5484241247 4282270022
-0.2342089266 -0.0865029097 0.5466849208 4281743678
-0.2346326411 -0.0860508978 0.5476739407 4280954164
-0.2342766076 -0.0853127465 0.5468429327 4280559406
-0.2343101203 -0.0847172812 0.5469211340 4280230441
-0.2343434095 -0.0841215551 0.5469988585 4279967269
-0.2343764603 -0.0835255831 0.5470759869 4279769890
-0.2347993255 -0.0830673426 0.5480630398 4279704097
-0.2348319888 -0.0824698731 0.5481392741 4279769890
-0.2348644137 -0.0818721578 0.5482149720 4279704097
-0.2345064282 -0.0811391920 0.5473793745 4279572511
-0.2349285930 -0.0806759894 0.5483647585 4279704097
-0.2345700413 -0.0799445212 0.5475278497 4279769890
-0.2346015126 -0.0793468207 0.5476013422 4279835683
-0.2346327603 -0.0787488818 0.5476742387 4279967269
-0.2342733145 -0.0780206695 0.5468352437 4279967269
-0.2339135408 -0.0772942156 0.5459954739 4279967269
-0.2339439988 -0.0766975582 0.5460665822 4280098855
-0.2339742184 -0.0761006698 0.5461370945 4280230441
-0.2340042293 -0.0755035505 0.5462071300 4280230441
-0.2340339869 -0.0749062076 0.5462766290 4280230441
-0.2340635359 -0.0743086338 0.5463455915 4280362027
-0.2337020338 -0.0735877752 0.5455017686 4280493613
-0.2341219336 -0.0731128082 0.5464818478 4280559406
-0.2345416844 -0.0726356208 0.5474616289 4280559406
-0.2341794074 -0.0719160959 0.5466160178 4280756785
-0.2342077941 -0.0713174120 0.5466822982 4280953647
-0.2342359573 -0.0707185119 0.5467480421 4281019440
-0.2338727862 -0.0700023323 0.5459003448 4281216820
-0.2339004427 -0.0694040060 0.5459648967 4281216820
-0.2335366756 -0.0686904043 0.5451158285 4281019955
-0.2331725955 -0.0679785982 0.5442659855 4281085748
-0.2331994623 -0.0673816428 0.5443286896 4281217336
-0.2332261056 -0.0667844862 0.5443908572 4281085750
-0.2336438745 -0.0662981719 0.5453659892 4281283129
-0.2336701006 -0.0656995997 0.5454272032 4281085750
-0.2333046347 -0.0649917871 0.5445741415 4281086009
-0.2333303392 -0.0643938184 0.5446341634 4281217595
-0.2333558202 -0.0637956560 0.5446936488 4281217595
-0.2333810627 -0.0631972998 0.5447525978 4281217595
-0.2334060818 -0.0625987500 0.5448109508 4281283388
-0.2338225245 -0.0621040389 0.5457830429 4281217595
-0.2338471115 -0.0615040995 0.5458404422 4281283388
-0.2342632264 -0.0610059947 0.5468116999 4281349181
-0.2342873812 -0.0604046769 0.5468680859 4281349181
-0.2343113124 -0.0598031729 0.5469239354 4281283388
-0.2347268760 -0.0593004860 0.5478939414 4281349181
-0.2347503752 -0.0586976148 0.5479487777 4281414974
-0.2347736359 -0.0580945611 0.5480030775 4281480767
-0.2347966582 -0.0574913286 0.5480568409 4281546560
-0.2352114618 -0.0569828898 0.5490250587 4281743939
-0.2348420024 -0.0562843345 0.5481626391 4281809732
-0.2352564186 -0.0557735339 0.5491299629 4281809732
-0.2352785319 -0.0551685989 0.5491815805 4281809732
-0.2353004217 -0.0545634925 0.5492326617 4281941318
-0.2361064702 -0.0541380793 0.5511141419 4282072904
-0.2361279428 -0.0535306185 0.5511642694 4282138697
-0.2365414649 -0.0530109107 0.5521295071 4282204490
-0.2365624905 -0.0524021126 0.5521786213 4282533455
-0.2365832925 -0.0517931581 0.5522271395 4282665041
-0.2366038561 -0.0511840396 0.5522751212 4282665813
-0.2366241664 -0.0505747646 0.5523225665 4282797399
-0.2366442382 -0.0499653332 0.5523694158 4283323490
-0.2366640866 -0.0493557490 0.5524157286 4283586662
-0.2382537127 -0.0490693673 0.5561262369 4283980904
-0.2382732034 -0.0484554358 0.5561717153 4284573041
-0.2378998697 -0.0477625355 0.5553002954 4285428350
-0.2383114547 -0.0472271219 0.5562609434 4286415245
-0.2335835397 -0.0949991941 0.5466423631 4287797667
-0.2336206287 -0.0944068208 0.5467291474 4287205528
-0.2332693487 -0.0936583281 0.5459070802 4286613391
-0.2333059311 -0.0930663720 0.5459926724 4286087047
-0.2337305397 -0.0926280171 0.5469863415 4285626496
-0.2337667346 -0.0920345262 0.5470710993 4285296763
-0.2338027060 -0.0914407596 0.5471552610 4284902005
-0.2338384539 -0.0908467174 0.5472389460 4284572779
-0.2338739932 -0.0902524069 0.5473220944 4284441193
-0.2339092940 -0.0896578282 0.5474047065 4284243814
-0.2343329936 -0.0892109275 0.5483962893 4284178021
-0.2339792401 -0.0884678662 0.5475683808 4284112228
-0.2336251587 -0.0877265111 0.5467397571 4283717470
-0.2336595058 -0.0871318579 0.5468201637 4283191126
-0.2336936444 -0.0865369439 0.5469000340 4282927954
-0.2333386540 -0.0857987702 0.5460692644 4282533196
-0.2333722860 -0.0852043256 0.5461479425 4282072645
-0.2334056944 -0.0846096203 0.5462261438 4281348922
-0.2334388644 -0.0840146691 0.5463038087 4280756785
-0.2334718257 -0.0834194571 0.5463809371 4280296234
-0.2335045487 -0.0828239992 0.5464575291 4279967269
-0.2339262813 -0.0823653415 0.5474444628 4279572511
-0.2335693389 -0.0816323385 0.5466091037 4279111960
-0.2339907289 -0.0811711922 0.5475952625 4279111960
-0.2340226024 -0.0805737525 0.5476698875 4279177753
-0.2336648107 -0.0798429921 0.5468325615 4279244057
-0.2336961925 -0.0792460665 0.5469059944 4279309850
-0.2337273359 -0.0786488950 0.5469788909 4279309850
-0.2329790592 -0.0777913108 0.5452277064 4279244057
-0.2330096513 -0.0771956593 0.5452992916 4279375130
-0.2330400050 -0.0765997693 0.5453703403 4279440923
-0.2330701500 -0.0760036558 0.5454408526 4279704095
-0.2331000417 -0.0754073039 0.5455108881 4279835681
-0.2327398807 -0.0746856257 0.5446679592 4279901474
-0.2335490733 -0.0743380263 0.5465617180 4279901474
-0.2327984571 -0.0734937862 0.5448050499 4279901474
-0.2336073816 -0.0731417462 0.5466981530 4279967267
-0.2332461476 -0.0724221617 0.5458527803 4280229925
-0.2332746834 -0.0718244612 0.5459195375 4280295718
-0.2333029956 -0.0712265521 0.5459858179 4280493613
-0.2333310694 -0.0706284195 0.5460515022 4280559406
-0.2333589047 -0.0700300708 0.5461166501 4280625199
-0.2329962403 -0.0693154037 0.5452679396 4280756785
-0.2334139049 -0.0688327402 0.5462453961 4280822580
-0.2330506891 -0.0681196600 0.5453953743 4280888373
-0.2330775708 -0.0675214678 0.5454582572 4280888373
-0.2327137440 -0.0668109804 0.5446068048 4280888373
-0.2331306189 -0.0663244799 0.5455824137 4280954166
-0.2331568003 -0.0657256767 0.5456436872 4281217338
-0.2331827581 -0.0651266798 0.5457044244 4281283131
-0.2332084775 -0.0645274743 0.5457646251 4281217338
-0.2332339585 -0.0639280751 0.5458242297 4281217338
-0.2332592160 -0.0633284822 0.5458833575 4281283131
-0.2332842350 -0.0627286956 0.5459418893 4281217595
-0.2333090305 -0.0621287189 0.5459999442 4281349181
-0.2337244302 -0.0616316125 0.5469720364 4281545531
-0.2337487936 -0.0610302463 0.5470290780 4281611324
-0.2337729186 -0.0604286976 0.5470855236 4281677119
-0.2341877818 -0.0599270053 0.5480564237 4281677119
-0.2342114747 -0.0593240783 0.5481118560 4281677889
-0.2342349440 -0.0587209687 0.5481668115 4281677889
-0.2342581749 -0.0581176803 0.5482211709 4281677889
-0.2342811674 -0.0575142130 0.5482749939 4281941061
-0.2343039215 -0.0569105670 0.5483282208 4281743682
-0.2347176522 -0.0564007498 0.5492964387 4281612096
-0.2343487442 -0.0557027534 0.5484331250 4281678148
-0.2347620577 -0.0551905744 0.5494003892 4281875527
-0.2347839177 -0.0545852296 0.5494515300 4281941320
-0.2348055243 -0.0539797209 0.5495020747 4282138699
-0.2356096655 -0.0535519570 0.5513839722 4282336078
-0.2356308699 -0.0529440939 0.5514336228 4282401871
-0.2356518358 -0.0523360707 0.5514826775 4281811017
-0.2356725782 -0.0517278835 0.5515311956 4282074189
-0.2356930673 -0.0511195399 0.5515791774 4282271313
-0.2357133180 -0.0505110361 0.5516265631 4282797657
-0.2357333452 -0.0499023758 0.5516734123 4283126111
-0.2357531190 -0.0492935628 0.5517196655 4283323490
-0.2365559489 -0.0488463379 0.5535985231 4284178799
-0.2369669974 -0.0483150594 0.5545604825 4284770936
-0.2369861454 -0.0477027595 0.5546053052 4285231485
-0.2373968065 -0.0471681431 0.5555663109 4286349966
-0.2327905893 -0.0931028053 0.5462063551 4287929251
-0.2328268886 -0.0925103575 0.5462915897 4287468700
-0.2328629792 -0.0919176266 0.5463762283 4287008151
-0.2328988463 -0.0913246274 0.5464603901 4286547600
-0.2329344898 -0.0907313526 0.5465440154 4286152070
-0.2329699099 -0.0901378095 0.5466271043 4285757312
-0.2330051064 -0.0895439908 0.5467097163 4285165175
-0.2334278375 -0.0890979171 0.5477015972 4284704624
-0.2330748290 -0.0883555636 0.5468733311 4284507245
-0.2331093699 -0.0877609476 0.5469543338 4284309866
-0.2327557504 -0.0870210305 0.5461246371 4284244073
-0.2327897698 -0.0864268839 0.5462044477 4284178280
-0.2324355394 -0.0856894180 0.5453733206 4284112741
-0.2324690670 -0.0850957409 0.5454519391 4283586397
-0.2325023711 -0.0845018104 0.5455300808 4283060053
-0.2325354367 -0.0839076191 0.5456076860 4282599502
-0.2325682938 -0.0833131820 0.5456848145 4282204744
-0.2329892367 -0.0828565806 0.5466724634 4281744193
-0.2326333225 -0.0821235478 0.5458374023 4281086263
-0.2330539376 -0.0816644654 0.5468242764 4280494126
-0.2330859452 -0.0810680389 0.5468993783 4280362540
-0.2331177145 -0.0804713666 0.5469739437 4280099368
-0.2327606976 -0.0797413215 0.5461362004 4279901989
-0.2327919751 -0.0791451633 0.5462096334 4279573024
-0.2328230143 -0.0785487592 0.5462824702 4279309852
-0.2324651033 -0.0778219849 0.5454427004 4279309852
-0.2328844368 -0.0773552433 0.5464265943 4279572511
-0.2325259745 -0.0766299888 0.5455854535 4279704097
-0.2321671695 -0.0759064928 0.5447435975 4279704097
-0.2321969867 -0.0753109157 0.5448135734 4279704097
-0.2322265655 -0.0747151077 0.5448830128 4279638815
-0.2326449603 -0.0742432252 0.5458647013 4279770401
-0.2322850525 -0.0735228136 0.5450202227 4279836194
-0.2323139608 -0.0729263276 0.5450880527 4279901987
-0.2323426306 -0.0723296255 0.5451553464 4280033060
-0.2323710769 -0.0717326999 0.5452220440 4279967267
-0.2323992997 -0.0711355507 0.5452882648 4280230441
-0.2324272841 -0.0705381930 0.5453539491 4280296234
-0.2324550450 -0.0699406192 0.5454190969 4280427820
-0.2324825674 -0.0693428293 0.5454836488 4280493613
