VERSION 0.7
FIELDS x y z rgba
SIZE 4 4 4 4
TYPE F F F U
COUNT 1 1 1 1
WIDTH 920
HEIGHT 1
VIEWPOINT 0.0 0.0 0.0 1.0 0.0 0.0 0.0
POINTS 920
DATA ascii
-0.2317177355 -0.1601649374 0.5104342103 4281546049
-0.2321771383 -0.1599142253 0.5114461780 4281611842
-0.2322389185 -0.1593883783 0.5115822554 4281611842
-0.2323005199 -0.1588620991 0.5117179751 4281611842
-0.2323619574 -0.1583354175 0.5118533373 4281611842
-0.2324232161 -0.1578083038 0.5119882822 4281611842
-0.2332804948 -0.1578194052 0.5138766766 4281611842
-0.2337398082 -0.1575580686 0.5148884654 4281677635
-0.2338008732 -0.1570269912 0.5150229931 4281677635
-0.2342601568 -0.1567621082 0.5160347223 4281677635
-0.2343209684 -0.1562293023 0.5161686540 4281677635
-0.2359760255 -0.1567552388 0.5198144913 4281743428
-0.2368343174 -0.1567457467 0.5217051506 4281743428
-0.2372940332 -0.1564692110 0.5227178335 4281743428
-0.2373548597 -0.1559284031 0.5228518248 4281677635
-0.2374154925 -0.1553871632 0.5229853988 4281743428
-0.2374759614 -0.1548455060 0.5231185555 4281743428
-0.2375362366 -0.1543034464 0.5232513547 4281743428
-0.2375963330 -0.1537609696 0.5233837366 4281743428
-0.2376562506 -0.1532180756 0.5235157609 4281743428
-0.2377159894 -0.1526747793 0.5236473083 4281743428
-0.2377755493 -0.1521310806 0.5237784982 4281743682
-0.2382346392 -0.1518417299 0.5247898102 4281743682
-0.2382939160 -0.1512962878 0.5249204040 4281743682
-0.2387529463 -0.1510033906 0.5259315372 4281743682
-0.2392119765 -0.1507082433 0.5269427299 4281743682
-0.2392709106 -0.1501597464 0.5270725489 4281677889
-0.2397298813 -0.1498610526 0.5280835629 4281677889
-0.2401888520 -0.1495600939 0.5290945768 4281743682
-0.2402474135 -0.1490085572 0.5292236209 4281677635
-0.2407062948 -0.1487040520 0.5302344561 4281743428
-0.2407645881 -0.1481507868 0.5303628445 4281743428
-0.2412233800 -0.1478427052 0.5313735008 4281743428
-0.2416821867 -0.1475323886 0.5323841572 4281743428
-0.2417400926 -0.1469760835 0.5325117707 4281809221
-0.2421988100 -0.1466621906 0.5335221887 4281809221
-0.2426575124 -0.1463460475 0.5345326662 4281809221
-0.2431162298 -0.1460276693 0.5355430841 4281809734
-0.2435749322 -0.1457070410 0.5365535617 4281809734
-0.2436322570 -0.1451450437 0.5366798043 4281743941
-0.2440908551 -0.1448208392 0.5376900434 4281743941
-0.2441478819 -0.1442571282 0.5378156900 4281809734
-0.2442047149 -0.1436930150 0.5379408598 4281809734
-0.2446631044 -0.1433639228 0.5389506221 4281743428
-0.2451214641 -0.1430325806 0.5399603248 4281809221
-0.2451778948 -0.1424654275 0.5400846004 4281809475
-0.2456361502 -0.1421305090 0.5410940647 4281875268
-0.2460943907 -0.1417933404 0.5421034694 4281809475
-0.2461504042 -0.1412231624 0.5422269106 4281743682
-0.2462062240 -0.1406525970 0.5423498154 4281875268
-0.2466642261 -0.1403105408 0.5433587432 4281875268
-0.2475246787 -0.1401941776 0.5452541709 4281809475
-0.2467750311 -0.1391655952 0.5436028242 4281941061
-0.2476354390 -0.1390447319 0.5454981923 4281809473
-0.2476905137 -0.1384694427 0.5456194878 4281809473
-0.2481482178 -0.1381179690 0.5466277599 4281875266
-0.2478000522 -0.1373176873 0.5458607674 4282006852
-0.2478545159 -0.1367412508 0.5459807515 4282072645
-0.2491180748 -0.1368286461 0.5487641692 4282006852
-0.2483660132 -0.1358076930 0.5471074581 4282006852
-0.2496297807 -0.1358877569 0.5498913527 4282072645
-0.2496837676 -0.1353060454 0.5500102639 4281546303
-0.2501409948 -0.1349415928 0.5510174632 4281546303
-0.2501946390 -0.1343581975 0.5511356592 4281875268
-0.2506517172 -0.1339901835 0.5521425009 4282006854
-0.2511087656 -0.1336199045 0.5531492829 4281875014
-0.2515657544 -0.1332473755 0.5541559458 4281875014
-0.2520226836 -0.1328725815 0.5551625490 4282072393
-0.2520756423 -0.1322835386 0.5552791357 4282203979
-0.2521283627 -0.1316941231 0.5553953052 4281678918
-0.2521808743 -0.1311043352 0.5555109978 4282007883
-0.2526374161 -0.1307233423 0.5565166473 4282007883
-0.2526895702 -0.1301318854 0.5566315651 4282205262
-0.2535502911 -0.1299545914 0.5585275888 4282600020
-0.2540066838 -0.1295668185 0.5595328808 4283126364
-0.2540584505 -0.1289714128 0.5596469045 4283455329
-0.2545146346 -0.1285800636 0.5606518388 4284113259
-0.2549707592 -0.1281864643 0.5616565943 4285889670
-0.2554268241 -0.1277906001 0.5626612902 4289376699
-0.2633667290 -0.0789065808 0.5801514387 4289574078
-0.2633990943 -0.0782716125 0.5802227855 4288455597
-0.2630208731 -0.0775154755 0.5793896317 4287205530
-0.2634630799 -0.0770009756 0.5803637505 4285823877
-0.2639051080 -0.0764842555 0.5813374519 4284639603
-0.2639365196 -0.0758473724 0.5814066529 4283389532
-0.2639676630 -0.0752102658 0.5814752579 4282731602
-0.2639985681 -0.0745729357 0.5815433264 4282139465
-0.2644398212 -0.0740503594 0.5825153589 4281810500
-0.2640596032 -0.0732975975 0.5816777349 4281744707
-0.2645004392 -0.0727725998 0.5826488137 4281744707
-0.2641195953 -0.0720213875 0.5818098783 4281744709
-0.2641491890 -0.0713829547 0.5818751454 4281613123
-0.2641785443 -0.0707443133 0.5819398165 4281547330
-0.2642076612 -0.0701054558 0.5820038915 4281613123
-0.2646474540 -0.0695744231 0.5829726458 4281678916
-0.2646760643 -0.0689341575 0.5830357075 4281810502
-0.2647044361 -0.0682936832 0.5830982327 4282007881
-0.2647325397 -0.0676530004 0.5831601620 4282007881
-0.2643492818 -0.0669080615 0.5823158622 4281876297
-0.2643768191 -0.0662679747 0.5823765397 4281744711
-0.2644041181 -0.0656276867 0.5824366808 4281876297
-0.2644311488 -0.0649871975 0.5824962258 4282007883
-0.2644579113 -0.0643465146 0.5825551748 4281876297
-0.2640731037 -0.0636065677 0.5817074776 4281744711
-0.2645106912 -0.0630645752 0.5826714039 4281875527
-0.2649480700 -0.0625203997 0.5836349130 4281875527
-0.2649738491 -0.0618779585 0.5836916566 4281941320
-0.2649993598 -0.0612353310 0.5837478638 4282072906
-0.2650246024 -0.0605925173 0.5838034749 4282138699
-0.2650495768 -0.0599495210 0.5838585496 4282138699
-0.2654859126 -0.0593984313 0.5848196745 4282072906
-0.2655104101 -0.0587540790 0.5848736167 4282007113
-0.2659463286 -0.0581996366 0.5858339071 4282007113
-0.2659703493 -0.0575539283 0.5858867764 4282072906
-0.2659940720 -0.0569080487 0.5859391093 4282138699
-0.2660175562 -0.0562619939 0.5859908462 4282138699
-0.2660407722 -0.0556157678 0.5860419869 4282139465
-0.2660637498 -0.0549693778 0.5860925317 4282139465
-0.2660864294 -0.0543228202 0.5861425400 4282073672
-0.2661088407 -0.0536760949 0.5861918926 4282007879
-0.2661310136 -0.0530292094 0.5862407088 4282073158
-0.2661529183 -0.0523821637 0.5862889290 4282073158
-0.2665865719 -0.0518150441 0.5872442126 4282072904
-0.2666079700 -0.0511666797 0.5872913599 4282204490
-0.2666290998 -0.0505181625 0.5873379111 4282204490
-0.2670620978 -0.0499465652 0.5882917643 4282336076
-0.2670827210 -0.0492967404 0.5883371830 4282204490
-0.2671031058 -0.0486467630 0.5883820653 4282072904
-0.2671231925 -0.0479966402 0.5884262919 4282138440
-0.2671430111 -0.0473463722 0.5884699821 4282335819
-0.2675748765 -0.0467680208 0.5894212723 4283191128
-0.2671818733 -0.0460454039 0.5885555744 4284243816
-0.2684379518 -0.0456048697 0.5913224816 4285363324
-0.2680444121 -0.0448819734 0.5904555917 4286613391
-0.2680629492 -0.0442289934 0.5904964209 4288192425
-0.2680812180 -0.0435758792 0.5905367136 4289442492
-0.2480280399 -0.2193251103 0.5477030277 4286218635
-0.2481087893 -0.2187877893 0.5478813052 4284638833
-0.2478015870 -0.2179089040 0.5472029448 4283454559
-0.2478819191 -0.2173713744 0.5473803282 4283059802
-0.2479621023 -0.2168333083 0.5475574136 4282730837
-0.2480421364 -0.2162947208 0.5477341413 4282467665
-0.2481220216 -0.2157556117 0.5479105711 4282401872
-0.2482017726 -0.2152159959 0.5480866432 4282467411
-0.2478928119 -0.2143398970 0.5474044085 4282335825
-0.2471947819 -0.2131298482 0.5458629727 4282270286
-0.2480513006 -0.2132597417 0.5477543473 4282336079
-0.2477413863 -0.2123854756 0.5470700264 4282335825
-0.2470420450 -0.2111798078 0.5455257297 4282270032
-0.2475095689 -0.2109721899 0.5465580821 4282270034
-0.2471985966 -0.2101006210 0.5458713770 4282270034
-0.2449401617 -0.2075801641 0.5408842564 4282270034
-0.2403429002 -0.2030944228 0.5307324529 4282270034
-0.2435356975 -0.2051948905 0.5377828479 4282270032
-0.2393244803 -0.2010594755 0.5284835696 4282270032
-0.2355003506 -0.1972689778 0.5200389624 4282138446
-0.2320636511 -0.1938208193 0.5124499798 4282204239
-0.2325260490 -0.1936365217 0.5134710670 4282204239
-0.2318177670 -0.1924779266 0.5119069815 4282204239
-0.2311088443 -0.1913222969 0.5103415251 4282073423
-0.2311803102 -0.1908142567 0.5104993582 4282073423
-0.2304703742 -0.1896628141 0.5089316368 4282073423
-0.2305413038 -0.1891555637 0.5090882778 4282007630
-0.2306120992 -0.1886478364 0.5092446208 4282073423
-0.2299007624 -0.1875018775 0.5076738000 4282073423
-0.2291887999 -0.1863588989 0.5061016083 4282073423
-0.2288674414 -0.1855360717 0.5053920150 4282073423
-0.2289370447 -0.1850307882 0.5055456758 4282007630
-0.2282235622 -0.1838942021 0.5039701462 4282007630
-0.2275094688 -0.1827606112 0.5023932457 4282007630
-0.2279698551 -0.1825711131 0.5034099221 4282007630
-0.2272548676 -0.1814409494 0.5018310547 4281942348
-0.2273231298 -0.1809377223 0.5019817948 4281942348
-0.2273912579 -0.1804340333 0.5021322370 4281942348
-0.2270670533 -0.1796196699 0.5014163256 4281942348
-0.2275270373 -0.1794252992 0.5024321079 4282073421
-0.2275947183 -0.1789202690 0.5025815368 4282073421
-0.2276622355 -0.1784147769 0.5027306080 4282073421
-0.2277296036 -0.1779088378 0.5028793812 4282073421
-0.2277968228 -0.1774024516 0.5030277967 4282139469
-0.2278638780 -0.1768956035 0.5031759143 4282271055
-0.2279307991 -0.1763883233 0.5033236742 4282271055
-0.2279975563 -0.1758805960 0.5034710765 4282205262
-0.2280641645 -0.1753724217 0.5036181808 4282205262
-0.2281306088 -0.1748638004 0.5037649274 4282271055
-0.2278034687 -0.1740541309 0.5030424595 4282271055
-0.2279353589 -0.1730364263 0.5033337474 4281941320
-0.2272135168 -0.1719309688 0.5017397404 4281743941
-0.2272788435 -0.1714227796 0.5018839836 4281546562
-0.2277380377 -0.1712103486 0.5028979778 4281349183
-0.2274090499 -0.1704050750 0.5021715164 4281217597
-0.2274739146 -0.1698955745 0.5023147464 4281217597
-0.2271442711 -0.1690920740 0.5015868545 4281217597
-0.2272087038 -0.1685825884 0.5017291307 4281217597
-0.2272729874 -0.1680726707 0.5018710494 4281217597
-0.2277317941 -0.1678532213 0.5028842092 4281217597
-0.2277958542 -0.1673415452 0.5030257106 4281217595
-0.2274648696 -0.1665403098 0.5022947788 4281217595
-0.2279235274 -0.1663169116 0.5033076406 4281283131
-0.2279871106 -0.1658039391 0.5034480095 4281348924
-0.2280505449 -0.1652905494 0.5035880804 4281348924
-0.2285091579 -0.1650623083 0.5046008229 4281348924
-0.2289678305 -0.1648318470 0.5056136847 4281348670
-0.2290309966 -0.1643153876 0.5057531595 4281348670
-0.2294896692 -0.1640814096 0.5067660213 4281348670
-0.2295526117 -0.1635632068 0.5069050193 4281414463
-0.2300112695 -0.1633256823 0.5079178214 4281414463
-0.2300739884 -0.1628057361 0.5080563426 4281480256
-0.2305326611 -0.1625646800 0.5090691447 4281480256
-0.2309913635 -0.1623214036 0.5100821257 4281546049
-0.2310537994 -0.1617983878 0.5102199912 4281480256
-0.2307196409 -0.1609983295 0.5094820857 4281480256
-0.2319712341 -0.1613025516 0.5122458935 4281480256
-0.2324300110 -0.1610513031 0.5132589936 4281546049
-0.2321571410 -0.1597230434 0.5126564503 4281546049
-0.2322187722 -0.1591956913 0.5127925277 4281611842
-0.2322802395 -0.1586679220 0.5129282475 4281611842
-0.2327386886 -0.1584100574 0.5139406323 4281611842
-0.2332583368 -0.1576191485 0.5150880814 4281611842
-0.2341142744 -0.1576231271 0.5169782043 4281677635
-0.2337777019 -0.1568229496 0.5162349939 4281677635
-0.2346338034 -0.1568215638 0.5181254148 4281677635
-0.2354901433 -0.1568161398 0.5200164318 4281677635
-0.2371424884 -0.1573346406 0.5236651897 4281677635
-0.2372035086 -0.1567931473 0.5237999558 4281677635
-0.2372643650 -0.1562512368 0.5239343047 4281677635
-0.2369268239 -0.1554476470 0.5231889486 4281677635
-0.2369872183 -0.1549058259 0.5233223438 4281743428
-0.2370474190 -0.1543635726 0.5234552622 4281743428
-0.2371074408 -0.1538209170 0.5235878229 4281743428
-0.2371672839 -0.1532778442 0.5237199664 4281743428
-0.2372269332 -0.1527343690 0.5238516927 4281743428
-0.2376852185 -0.1524462551 0.5248636603 4281743682
-0.2377446145 -0.1519010514 0.5249948502 4281743682
-0.2378628552 -0.1508094072 0.5252559185 4281743682
-0.2387200892 -0.1507672071 0.5271489024 4281677889
-0.2391782403 -0.1504697353 0.5281606317 4281677889
-0.2392370105 -0.1499197334 0.5282903910 4281677889
-0.2392955869 -0.1493693292 0.5284197330 4281677889
-0.2393539846 -0.1488185227 0.5285487175 4281677635
-0.2398118675 -0.1485148519 0.5295598507 4281743428
-0.2402697802 -0.1482089162 0.5305709839 4281743428
-0.2399279177 -0.1474093795 0.5298160911 4281743428
-0.2407856137 -0.1473455727 0.5317100286 4281743428
-0.2412434220 -0.1470338255 0.5327209830 4281809221
-0.2417012304 -0.1467198431 0.5337319374 4281809221
-0.2421590388 -0.1464036107 0.5347428918 4281743428
-0.2426168472 -0.1460851282 0.5357538462 4281743941
-0.2426742017 -0.1455242634 0.5358805060 4281809734
-0.2431319058 -0.1452022195 0.5368912220 4281743941
-0.2431889772 -0.1446396261 0.5370172262 4281678148
-0.2436465621 -0.1443140060 0.5380277038 4281678148
-0.2437033355 -0.1437496990 0.5381530523 4281612355
-0.2437599003 -0.1431849897 0.5382779837 4281612355
-0.2442172766 -0.1428544819 0.5392879844 4281678148
-0.2446746528 -0.1425217092 0.5402979255 4281809732
-0.2447308153 -0.1419539750 0.5404219627 4281743939
-0.2451880574 -0.1416176260 0.5414316654 4281678146
-0.2452439070 -0.1410481781 0.5415549874 4281612353
-0.2457010448 -0.1407082528 0.5425644517 4281678146
-0.2457565814 -0.1401371062 0.5426871181 4281743939
-0.2466152310 -0.1400216520 0.5445832014 4281743939
-0.2470722944 -0.1396749765 0.5455924869 4281875525
-0.2471275032 -0.1390998513 0.5457144380 4281875266
-0.2471825033 -0.1385243535 0.5458358526 4281875266
-0.2468352914 -0.1377241611 0.5450691581 4281875266
-0.2476940155 -0.1375955641 0.5469653606 4282006852
-0.2477484941 -0.1370179802 0.5470857024 4282072647
-0.2478027642 -0.1364400089 0.5472055674 4282072647
-0.2486615628 -0.1363027841 0.5491019487 4282072647
-0.2491180599 -0.1359417886 0.5501099825 4282072647
-0.2495745122 -0.1355785429 0.5511179566 4281546560
-0.2496283054 -0.1349953115 0.5512367487 4281743939
-0.2500846088 -0.1346284896 0.5522443652 4282007113
-0.2505408823 -0.1342594028 0.5532519221 4282138699
-0.2509970963 -0.1338880658 0.5542593598 4282138699
-0.2514532804 -0.1335144639 0.5552667379 4282204492
-0.2519094348 -0.1331385970 0.5562739968 4282336078
-0.2519623935 -0.1325483918 0.5563909411 4282401871
-0.2520151436 -0.1319578290 0.5565074086 4282007883
-0.2520676553 -0.1313668787 0.5566233993 4282007883
-0.2521199882 -0.1307755709 0.5567389727 4281942090
-0.2521720827 -0.1301838905 0.5568540096 4282271055
-0.2526275218 -0.1297992021 0.5578597188 4282336848
-0.2530829310 -0.1294122338 0.5588653684 4282665813
-0.2535382807 -0.1290230155 0.5598708987 4283652708
-0.2535897791 -0.1284270436 0.5599845648 4285034361
-0.2540449202 -0.1280342489 0.5609896779 4287929253
-0.2549040020 -0.1278418005 0.5628867149 4290166215
-0.2629896104 -0.0757606179 0.5807415843 4289771453
-0.2630206645 -0.0751242414 0.5808101892 4289047730
-0.2634612322 -0.0746036693 0.5817829967 4288126628
-0.2634918094 -0.0739658549 0.5818505883 4287271319
-0.2635221779 -0.0733278245 0.5819175839 4286416010
-0.2635522485 -0.0726895705 0.5819840431 4285626494
-0.2635820806 -0.0720511004 0.5820499063 4285099636
-0.2636116743 -0.0714124143 0.5821152329 4284573292
-0.2632309794 -0.0706634447 0.5812745690 4283849315
-0.2640801072 -0.0702434704 0.5831496716 4283520350
-0.2641089559 -0.0696031526 0.5832133889 4283059799
-0.2641375661 -0.0689626262 0.5832765102 4282730834
-0.2641658783 -0.0683218986 0.5833390951 4282665041
-0.2637837231 -0.0675758645 0.5824952126 4282533455
-0.2638114989 -0.0669357181 0.5825565457 4282270283
-0.2638390064 -0.0662953630 0.5826172829 4282072904
-0.2638662755 -0.0656548217 0.5826774836 4282007111
-0.2638932765 -0.0650140718 0.5827370882 4281941318
-0.2635095417 -0.0642730221 0.5818897486 4281809732
-0.2639464736 -0.0637319982 0.5828546286 4281678146
-0.2643832266 -0.0631887913 0.5838190317 4281612353
-0.2635881007 -0.0623520315 0.5820631981 4281612353
-0.2644349635 -0.0619035736 0.5839332938 4281612353
-0.2644604445 -0.0612606816 0.5839895606 4281678146
-0.2644856572 -0.0606176071 0.5840452313 4282138697
-0.2645106316 -0.0599743500 0.5841003656 4282072904
-0.2649460733 -0.0594230369 0.5850619674 4281941318
-0.2649705410 -0.0587784201 0.5851159692 4281743939
-0.2654055953 -0.0582237542 0.5860766768 4281678146
-0.2654295862 -0.0575777851 0.5861296058 4281743939
-0.2654533088 -0.0569316372 0.5861819983 4281809732
-0.2654767632 -0.0562853217 0.5862337947 4281875525
-0.2654999495 -0.0556388348 0.5862849951 4281810500
-0.2655228674 -0.0549921766 0.5863355994 4282007879
-0.2655455470 -0.0543453544 0.5863856673 4282139465
-0.2655679286 -0.0536983684 0.5864351392 4282139465
-0.2655900717 -0.0530512147 0.5864840150 4282271051
-0.2656119466 -0.0524039045 0.5865322948 4282600016
-0.2660447359 -0.0518365540 0.5874879956 4283257178
-0.2660661042 -0.0511879250 0.5875352025 4283783522
-0.2660872042 -0.0505391397 0.5875818133 4284178280
-0.2661080658 -0.0498902015 0.5876278281 4284770417
-0.2657172978 -0.0491650030 0.5867649913 4285494140
-0.2661489248 -0.0485918708 0.5877181292 4286415242
-0.2661689818 -0.0479424857 0.5877623558 4287402137
-0.2661887407 -0.0472929515 0.5878060460 4288389032
-0.2674426138 -0.0468595475 0.5905748606 4289507513
-0.2458835840 -0.2185681611 0.5443025231 4289903043
-0.2459638566 -0.2180345654 0.5444802046 4285955463
-0.2464308590 -0.2178424299 0.5455139875 4284770419
-0.2465109676 -0.2173069417 0.5456913114 4283520352
-0.2462038249 -0.2164306492 0.5450114012 4283191388
-0.2462835312 -0.2158949673 0.5451878309 4282796630
-0.2467504442 -0.2156973779 0.5462214351 4282467665
-0.2468299717 -0.2151598036 0.5463975072 4282336079
-0.2465217412 -0.2142847925 0.5457151532 4282335825
-0.2466008514 -0.2137470394 0.5458903313 4282270032
-0.2462919503 -0.2128735334 0.5452064872 4282270286
-0.2455946654 -0.2116668075 0.5436629653 4282270286
-0.2448967397 -0.2104629725 0.5421180129 4282270032
-0.2465275675 -0.2112581581 0.5457280874 4282270032
-0.2462174594 -0.2103868276 0.5450416207 4282270032
-0.2455184609 -0.2091856897 0.5434942842 4282270032
-0.2448188365 -0.2079874575 0.5419455171 4282270032
-0.2448960096 -0.2074506879 0.5421163440 4282204239
-0.2438064963 -0.2059281170 0.5397045612 4282204239
-0.2368815690 -0.1994964480 0.5243751407 4282204239
-0.2322866619 -0.1950553954 0.5142035484 4282204239
-0.2327484339 -0.1948706955 0.5152257681 4282204239
-0.2312636375 -0.1930587441 0.5119389296 4282204239
-0.2301671654 -0.1915773153 0.5095117092 4282138446
-0.2302385718 -0.1910704523 0.5096697807 4282073423
-0.2299201190 -0.1902406812 0.5089648366 4282073423
-0.2299911082 -0.1897337437 0.5091220140 4282007630
-0.2296720147 -0.1889056265 0.5084156394 4282007630
-0.2297425866 -0.1883986145 0.5085718632 4282073423
-0.2294228375 -0.1875721216 0.5078639984 4282007630
-0.2298832834 -0.1873831749 0.5088832974 4282007628
-0.2295629978 -0.1865574867 0.5081743002 4282007628
-0.2292423397 -0.1857330650 0.5074644685 4282007628
-0.2281399816 -0.1842788160 0.5050241947 4282007628
-0.2274275422 -0.1831439734 0.5034471154 4282073421
-0.2271053642 -0.1823259592 0.5027339458 4282073421
-0.2267827988 -0.1815092266 0.5020198822 4281942603
-0.2268509716 -0.1810058355 0.5021708012 4281942603
-0.2269190103 -0.1805020124 0.5023214221 4282008396
-0.2269868851 -0.1799977273 0.5024716854 4282074189
-0.2270546108 -0.1794929802 0.5026215911 4282139469
-0.2271222025 -0.1789877862 0.5027711987 4282073676
-0.2271896303 -0.1784821451 0.5029204488 4282007883
-0.2272569090 -0.1779760569 0.5030694008 4281942090
-0.2273240387 -0.1774695218 0.5032179952 4282073676
-0.2277830690 -0.1772676408 0.5042341352 4282007883
-0.2278500050 -0.1767593324 0.5043823123 4282138699
-0.2275245041 -0.1759472042 0.5036617517 4282336078
-0.2275910228 -0.1754388809 0.5038090348 4282599250
-0.2276573926 -0.1749301106 0.5039559007 4282467664
-0.2277235985 -0.1744208932 0.5041024685 4281941320
-0.2270041704 -0.1733115315 0.5025098920 4281546562
-0.2270698398 -0.1728031784 0.5026552677 4281480769
-0.2267423868 -0.1719963104 0.5019304156 4281349183
-0.2272007167 -0.1717851609 0.5029450059 4281217595
-0.2272659242 -0.1712754965 0.5030893683 4281151802
-0.2269376665 -0.1704699546 0.5023627281 4281217595
-0.2266090214 -0.1696657389 0.5016351938 4281283388
-0.2266735435 -0.1691565216 0.5017780066 4281283390
-0.2267378867 -0.1686468720 0.5019204617 4281217597
-0.2268020809 -0.1681368053 0.5020625591 4281217597
-0.2268661261 -0.1676262915 0.5022043586 4281217597
-0.2273239791 -0.1674054712 0.5032178760 4281283131
-0.2273878008 -0.1668932140 0.5033591390 4281283131
-0.2270572782 -0.1660921574 0.5026274920 4281348924
-0.2275149822 -0.1658673882 0.5036407113 4281348924
-0.2275783271 -0.1653538346 0.5037809014 4281348924
-0.2276415080 -0.1648398489 0.5039207935 4281348924
-0.2292830795 -0.1654646099 0.5075546503 4281348670
-0.2289516330 -0.1646623164 0.5068209767 4281348670
-0.2290146649 -0.1641443670 0.5069604516 4281414463
-0.2294724882 -0.1639081091 0.5079739094 4281414463
-0.2299303561 -0.1636696458 0.5089874864 4281480256
-0.2303882837 -0.1634289622 0.5100011826 4281480256
-0.2308462560 -0.1631860584 0.5110149980 4281480256
-0.2309088856 -0.1626624018 0.5111536384 4281546049
-0.2309713513 -0.1621383131 0.5112919211 4281480256
-0.2310336381 -0.1616138071 0.5114297867 4281480256
-0.2314914763 -0.1613647193 0.5124433041 4281480256
-0.2319493592 -0.1611133963 0.5134568810 4281546049
-0.2316154242 -0.1603117883 0.5127176642 4281546049
-0.2316771448 -0.1597846895 0.5128543377 4281546049
-0.2317387015 -0.1592571735 0.5129905939 4281611842
-0.2318000793 -0.1587292403 0.5131264329 4281611842
-0.2318612933 -0.1582008749 0.5132619143 4281611842
-0.2323187739 -0.1579416245 0.5142746568 4281611842
-0.2339659631 -0.1584860086 0.5179209709 4281611842
-0.2344238311 -0.1582195908 0.5189344883 4281611842
-0.2344849706 -0.1576841325 0.5190698504 4281611842
-0.2349427938 -0.1574141681 0.5200833082 4281611842
-0.2357976139 -0.1574069560 0.5219756365 4281677635
-0.2354614586 -0.1566034257 0.5212314725 4281677635
-0.2371107787 -0.1571171880 0.5248824954 4281677635
-0.2371716499 -0.1565741897 0.5250172615 4281677635
-0.2368349582 -0.1557694227 0.5242719650 4281677635
-0.2368953675 -0.1552264988 0.5244056582 4281677635
-0.2369555980 -0.1546831578 0.5245389938 4281677635
-0.2370156497 -0.1541394144 0.5246719122 4281677635
-0.2366777360 -0.1533375382 0.5239238739 4281677635
-0.2367373109 -0.1527938843 0.5240557790 4281743428
-0.2367967218 -0.1522498131 0.5241872668 4281677635
-0.2368559390 -0.1517053246 0.5243183970 4281677635
-0.2373131514 -0.1514144838 0.5253304839 4281677635
-0.2377703786 -0.1511214077 0.5263426304 4281677635
-0.2382276207 -0.1508260965 0.5273548365 4281677635
-0.2378879189 -0.1500259340 0.5266028643 4281677635
-0.2383449823 -0.1497279704 0.5276146531 4281677635
-0.2384033948 -0.1491782963 0.5277439356 4281677635
-0.2388603836 -0.1488767713 0.5287555456 4281677889
-0.2389185131 -0.1483253688 0.5288842320 4281677889
-0.2393754125 -0.1480202824 0.5298956633 4281677889
-0.2398323268 -0.1477129310 0.5309070945 4281677889
-0.2402892411 -0.1474033445 0.5319185257 4281677889
-0.2407461554 -0.1470915079 0.5329300165 4281677889
-0.2408037186 -0.1465344280 0.5330574512 4281677889
-0.2412605435 -0.1462190151 0.5340687037 4281677889
-0.2417173535 -0.1459013671 0.5350798965 4281612355
-0.2421741635 -0.1455814689 0.5360911489 4281678148
-0.2426309735 -0.1452593207 0.5371023417 4281678148
-0.2422881424 -0.1444581449 0.5363434553 4281612355
-0.2427447587 -0.1441333592 0.5373542309 4281612355
-0.2432013601 -0.1438063085 0.5383649468 4281546562
-0.2432578504 -0.1432414055 0.5384900570 4281546562
-0.2433141470 -0.1426761150 0.5386146307 4281612355
-0.2437705249 -0.1423441768 0.5396249294 4281743939
-0.2442269027 -0.1420099735 0.5406351686 4281678146
-0.2442827821 -0.1414416432 0.5407589078 4281678146
-0.2443384677 -0.1408729404 0.5408821702 4281678146
-0.2447946072 -0.1405338347 0.5418919325 4281678146
-0.2448499948 -0.1399634182 0.5420144796 4281678146
-0.2453060001 -0.1396207511 0.5430239439 4281613123
-0.2457619905 -0.1392758191 0.5440333486 4281678916
-0.2462179512 -0.1389286369 0.5450426936 4281809732
-0.2462728024 -0.1383538693 0.5451641083 4281809732
-0.2471298128 -0.1382275075 0.5470612645 4281809732
-0.2467831522 -0.1374266446 0.5462938547 4281809732
-0.2476402074 -0.1372948289 0.5481910706 4281875527
-0.2476945072 -0.1367157102 0.5483112931 4281941320
-0.2485516667 -0.1365775019 0.5502087474 4282007113
-0.2490073442 -0.1362154633 0.5512174368 4282138699
-0.2494629920 -0.1358511597 0.5522261262 4281678148
-0.2495168149 -0.1352667660 0.5523452163 4281941320
-0.2499722987 -0.1348988712 0.5533535480 4282138699
-0.2500257790 -0.1343127936 0.5534719229 4282138699
-0.2504810989 -0.1339413226 0.5544798970 4282204492
-0.2509363890 -0.1335676014 0.5554877520 4282270285
-0.2509894073 -0.1329784989 0.5556051135 4282336078
-0.2510422170 -0.1323890388 0.5557219982 4282336078
-0.2510948181 -0.1317991912 0.5558384061 4281810504
-0.2515496910 -0.1314192563 0.5568453670 4282007883
-0.2516019344 -0.1308277398 0.5569610000 4282139469
-0.2516539693 -0.1302358359 0.5570762157 4282468434
-0.2517057955 -0.1296435744 0.5571909547 4282731606
-0.2521602213 -0.1292574406 0.5581968427 4283915880
-0.2526145875 -0.1288690418 0.5592026711 4286284428
-0.2530689240 -0.1284783632 0.5602083802 4288718769
-0.2631605566 -0.0695237219 0.5825478435 4289770939
-0.2631890476 -0.0688839331 0.5826109648 4289178802
-0.2628079653 -0.0681378022 0.5817673206 4288718251
-0.2628359199 -0.0674986020 0.5818291903 4288257700
-0.2628636062 -0.0668591931 0.5818905234 4287731356
-0.2628910542 -0.0662195832 0.5819512606 4287270805
-0.2629182339 -0.0655797720 0.5820114017 4286744461
-0.2625355721 -0.0648386106 0.5811643600 4286415496
-0.2629718184 -0.0642995611 0.5821300745 4286086531
-0.2629982233 -0.0636591613 0.5821884871 4285757566
-0.2626146674 -0.0629204139 0.5813394785 4285494394
-0.2630502582 -0.0623777956 0.5823037028 4285362808
-0.2630758882 -0.0617368296 0.5823603868 4285296761
-0.2631012499 -0.0610956736 0.5824165344 4285230968
-0.2635362148 -0.0605485030 0.5833794475 4285033589
-0.2635610998 -0.0599059835 0.5834345222 4284967796
-0.2635857165 -0.0592632815 0.5834890008 4284967796
-0.2636100948 -0.0586204007 0.5835429430 4284967796
-0.2644541860 -0.0581576787 0.5854115486 4285033589
-0.2644781172 -0.0575124435 0.5854644775 4285165175
-0.2645017505 -0.0568670370 0.5855168104 4285362554
-0.2645251453 -0.0562214553 0.5855686069 4285494140
-0.2645482719 -0.0555757061 0.5856198072 4285889666
-0.2645711303 -0.0549297854 0.5856704116 4286350217
-0.2645937502 -0.0542837009 0.5857204199 4286810768
-0.2646160722 -0.0536374524 0.5857698917 4287271319
-0.2650484443 -0.0530731976 0.5867269635 4287797663
-0.2650702894 -0.0524256192 0.5867753625 4288389800
-0.2650918663 -0.0517778844 0.5868231058 4289113525
-0.2651131749 -0.0511299931 0.5868702531 4289771455
-0.2445975095 -0.2179608494 0.5427901149 4289705664
-0.2450633645 -0.2177717388 0.5438238978 4285889670
-0.2443711460 -0.2165541053 0.5422878265 4284836212
-0.2448368371 -0.2163631022 0.5433211923 4283586145
-0.2456889302 -0.2165103257 0.5452120900 4283257181
-0.2449956536 -0.2152953446 0.5436736345 4282796630
-0.2454614043 -0.2150994092 0.5447071791 4282467665
-0.2455405742 -0.2145633996 0.5448828936 4282336079
-0.2456196100 -0.2140268534 0.5450582504 4282270286
-0.2453115582 -0.2131535858 0.5443747044 4282204493
-0.2446160614 -0.2119461447 0.5428313017 4282138700
-0.2450814545 -0.2117450982 0.5438640118 4282204493
-0.2451596409 -0.2112081945 0.5440375209 4282204493
-0.2448502630 -0.2103379518 0.5433509946 4282270286
-0.2441529334 -0.2091369331 0.5418035388 4282270286
-0.2450056374 -0.2092632651 0.5436958075 4282204493
-0.2435319424 -0.2074041069 0.5404254794 4282204239
-0.2412813008 -0.2048924416 0.5354310870 4282204239
-0.2370888740 -0.2007477283 0.5261275768 4282204493
-0.2332817614 -0.1969489902 0.5176791549 4282204493
-0.2337431312 -0.1967621893 0.5187029839 4282204239
-0.2307090014 -0.1936392635 0.5119699240 4282204239
-0.2300039083 -0.1924803704 0.5104052424 4282138700
-0.2296868414 -0.1916487068 0.5097016096 4282138700
-0.2297581434 -0.1911417097 0.5098598599 4282073421
-0.2298292965 -0.1906342357 0.5100177526 4282073421
-0.2295112908 -0.1898045838 0.5093120933 4282007628
-0.2295820415 -0.1892970353 0.5094690323 4282007628
-0.2292633951 -0.1884690374 0.5087619424 4282007628
-0.2289443612 -0.1876422912 0.5080539584 4282007628
-0.2282354683 -0.1864985377 0.5064808726 4282007628
-0.2290843576 -0.1866273582 0.5083646178 4282007628
-0.2287643999 -0.1858026683 0.5076546073 4282007628
-0.2272745669 -0.1840322465 0.5043485165 4282073421
-0.2265635431 -0.1828978956 0.5027706623 4282073421
-0.2270221114 -0.1827083379 0.5037882924 4282073421
-0.2263101935 -0.1815773994 0.5022084713 4282008396
-0.2263782918 -0.1810738742 0.5023595691 4282008396
-0.2264462262 -0.1805698872 0.5025103092 4282008396
-0.2269045562 -0.1803759187 0.5035274029 4282008396
-0.2265816629 -0.1795605719 0.5028108358 4281942090
-0.2266491503 -0.1790552288 0.5029606223 4281876297
-0.2267164886 -0.1785494387 0.5031100512 4281942090
-0.2267836779 -0.1780431867 0.5032591820 4282073676
-0.2272418439 -0.1778426021 0.5042758584 4282138699
-0.2269176096 -0.1770293564 0.5035563707 4282336078
-0.2269843370 -0.1765217781 0.5037044287 4282336078
-0.2270509154 -0.1760137379 0.5038521886 4282138699
-0.2271173447 -0.1755052507 0.5039995909 4281678148
-0.2271836251 -0.1749963313 0.5041466951 4281283390
-0.2268579304 -0.1741861105 0.5034239292 4281217084
-0.2269237936 -0.1736771762 0.5035700798 4281282877
-0.2269894928 -0.1731677949 0.5037158728 4281283388
-0.2270550281 -0.1726579666 0.5038613081 4281283388
-0.2263358980 -0.1715530604 0.5022654533 4281217595
-0.2264008969 -0.1710441262 0.5024097562 4281283388
-0.2268582433 -0.1708302945 0.5034246445 4281283388
-0.2269230485 -0.1703196019 0.5035684109 4281283388
-0.2265949845 -0.1695146710 0.5028403997 4281283388
-0.2262665331 -0.1687110811 0.5021115541 4281217595
-0.2267235816 -0.1684928685 0.5031257868 4281283131
-0.2267876416 -0.1679813117 0.5032679439 4281283131
-0.2272447050 -0.1677595526 0.5042822361 4281283131
-0.2269152999 -0.1669568866 0.5035512447 4281348924
-0.2273722589 -0.1667325050 0.5045652986 4281348924
-0.2274357975 -0.1662183255 0.5047062635 4281348924
-0.2274991721 -0.1657037288 0.5048469305 4281414463
-0.2283497900 -0.1657602787 0.5067345500 4281414463
-0.2280192375 -0.1649581343 0.5060010552 4281348670
-0.2284761667 -0.1647253484 0.5070149899 4281348670
-0.2293271720 -0.1647734791 0.5089035034 4281414463
-0.2297843099 -0.1645353884 0.5099179149 4281414463
-0.2294529974 -0.1637324095 0.5091826916 4281480256
-0.2299100161 -0.1634916663 0.5101968646 4281480256
-0.2307615578 -0.1635282338 0.5120865107 4281480256
-0.2308242172 -0.1630035192 0.5122255683 4281546049
-0.2308866978 -0.1624783725 0.5123642087 4281546049
-0.2313438058 -0.1622296423 0.5133786201 4281546049
-0.2318009436 -0.1619786918 0.5143930912 4281546049
-0.2318631411 -0.1614504606 0.5145310760 4281546049
-0.2319251597 -0.1609218270 0.5146687031 4281546049
-0.2319870144 -0.1603927463 0.5148059726 4281546049
-0.2320487052 -0.1598632634 0.5149428248 4281611842
-0.2321102023 -0.1593333483 0.5150793791 4281611842
-0.2317760289 -0.1585324705 0.5143377781 4281611842
-0.2326283455 -0.1585418880 0.5162291527 4281611842
-0.2322937101 -0.1577410847 0.5154865384 4281611842
-0.2331461906 -0.1577451229 0.5173783302 4281611842
-0.2339989245 -0.1577451229 0.5192705989 4281611842
-0.2348518819 -0.1577410847 0.5211634636 4281611842
-0.2353089452 -0.1574679017 0.5221776962 4281611842
-0.2357660234 -0.1571924686 0.5231920481 4281611842
-0.2366194874 -0.1571780890 0.5250859857 4281611842
-0.2366802692 -0.1566349119 0.5252208710 4281611842
-0.2371374369 -0.1563527733 0.5262353420 4281611842
-0.2368013114 -0.1555473059 0.5254894495 4281611842
-0.2364648134 -0.1547432393 0.5247427225 4281677635
-0.2365247756 -0.1541993022 0.5248758197 4281677635
-0.2365845740 -0.1536549628 0.5250084996 4281677635
-0.2362471223 -0.1528533101 0.5242596269 4281611842
-0.2367036045 -0.1525650322 0.5252726078 4281677635
-0.2367628366 -0.1520194560 0.5254040956 4281677635
-0.2364245504 -0.1512193233 0.5246533751 4281677635
-0.2368807793 -0.1509270817 0.5256657600 4281677635
-0.2373370081 -0.1506325901 0.5266782641 4281677635
-0.2377932668 -0.1503358632 0.5276907086 4281677635
-0.2374540418 -0.1495359391 0.5269379020 4281677635
-0.2375122756 -0.1489869952 0.5270671844 4281611842
-0.2379682660 -0.1486863047 0.5280790329 4281612096
-0.2384242564 -0.1483833492 0.5290909410 4281612096
-0.2392784059 -0.1483249664 0.5309863687 4281612096
-0.2385398149 -0.1472789794 0.5293473601 4281612096
-0.2397922873 -0.1474610567 0.5321267843 4281612096
-0.2402482927 -0.1471491307 0.5331386924 4281612096
-0.2403057963 -0.1465918422 0.5332663059 4281612096
-0.2403631061 -0.1460341662 0.5333935022 4281612096
-0.2408189327 -0.1457173377 0.5344049931 4281611842
-0.2412747443 -0.1453982592 0.5354164839 4281611842
-0.2417305559 -0.1450769454 0.5364280343 4281611842
-0.2417873740 -0.1445148885 0.5365540981 4281611842
-0.2414449155 -0.1437149048 0.5357941389 4281546562
-0.2419004291 -0.1433896124 0.5368049741 4281612355
-0.2423559427 -0.1430620551 0.5378158092 4281546562
-0.2424120754 -0.1424975097 0.5379403830 4281612355
-0.2428674698 -0.1421663910 0.5389509201 4281546562
-0.2433228344 -0.1418330073 0.5399614573 4281612355
-0.2437781990 -0.1414973885 0.5409719944 4281678146
-0.2438338250 -0.1409284770 0.5410953760 4281678146
-0.2438892424 -0.1403591633 0.5412184000 4281547330
-0.2443443686 -0.1400186419 0.5422284007 4281547330
-0.2447994798 -0.1396758705 0.5432383418 4281613123
-0.2452545762 -0.1393308342 0.5442482233 4281613123
-0.2457096428 -0.1389835328 0.5452580452 4281743941
-0.2461646795 -0.1386339813 0.5462678671 4281809734
-0.2466197014 -0.1382821798 0.5472775698 4281875527
-0.2462738007 -0.1374810189 0.5465099812 4281875527
-0.2467285842 -0.1371265650 0.5475192070 4281875527
-0.2479845881 -0.1372131854 0.5503064394 4281875527
-0.2472373694 -0.1361901611 0.5486482978 4281941320
-0.2488943636 -0.1364892423 0.5523253679 4281941320
-0.2489483207 -0.1359050125 0.5524450541 4281875527
-0.2494030446 -0.1355383247 0.5534541607 4282138699
-0.2494566590 -0.1349524111 0.5535731316 4282336078
-0.2499112189 -0.1345821470 0.5545818806 4282401871
-0.2499645054 -0.1339945197 0.5547001362 4282401871
-0.2500175834 -0.1334065348 0.5548179150 4282467664
-0.2500704527 -0.1328181773 0.5549352169 4282665043
-0.2501231134 -0.1322294325 0.5550520420 4282862422
-0.2501755655 -0.1316403300 0.5551684499 4281942088
-0.2506294549 -0.1312612146 0.5561756492 4282336846
-0.2506815493 -0.1306704134 0.5562912822 4282863190
-0.2507334352 -0.1300792545 0.5564064384 4284310636
-0.2511869967 -0.1296952516 0.5574129820 4286416014
-0.2516405284 -0.1293089688 0.5584194064 4288850355
-0.2436991185 -0.2176968455 0.5421326756 4289704894
-0.2445490211 -0.2178516239 0.5440233946 4286086279
-0.2446288168 -0.2173180580 0.5442008972 4284770419
-0.2439377308 -0.2161011845 0.5426635146 4283586145
-0.2444024682 -0.2159088105 0.5436973572 4283322974
-0.2444817126 -0.2153745294 0.5438736081 4282928216
-0.2441750467 -0.2145008594 0.5431914330 4282467665
-0.2442538589 -0.2139663696 0.5433667898 4282336079
-0.2439465374 -0.2130942047 0.5426831245 4282270286
-0.2436388284 -0.2122232020 0.5419985652 4282204493
-0.2437169552 -0.2116888613 0.5421723723 4282138700
-0.2437949330 -0.2111540139 0.5423458219 4282204493
-0.2427133173 -0.2096172869 0.5399396420 4282204493
-0.2431772351 -0.2094168961 0.5409716964 4282204493
-0.2424810678 -0.2082180381 0.5394229889 4282204493
-0.2421711087 -0.2073533088 0.5387334824 4282204493
-0.2414737791 -0.2061593831 0.5371822119 4282204493
-0.2396145165 -0.2039797753 0.5330460668 4282204493
-0.2404644340 -0.2041089535 0.5349367857 4282204493
-0.2386032939 -0.2019394338 0.5307965279 4282204493
-0.2309288234 -0.1948734373 0.5137239099 4282204493
-0.2294507176 -0.1930589825 0.5104357004 4282138700
-0.2302977443 -0.1932024360 0.5123199821 4282204493
-0.2295937985 -0.1920444071 0.5107539892 4282204493
-0.2292771637 -0.1912128627 0.5100496411 4282007628
-0.2293482274 -0.1907052398 0.5102077127 4282007628
-0.2286427617 -0.1895535141 0.5086383224 4282073421
-0.2291015983 -0.1893676370 0.5096590519 4282007628
-0.2291720957 -0.1888594627 0.5098158717 4282007628
-0.2288539112 -0.1880315989 0.5091080666 4282007628
-0.2273693383 -0.1862498522 0.5058054924 4282007628
-0.2274388075 -0.1857445985 0.5059599876 4282007628
-0.2271192223 -0.1849222332 0.5052490830 4282073421
-0.2267992646 -0.1841011345 0.5045372844 4282007628
-0.2264789194 -0.1832813174 0.5038246512 4282007883
-0.2261581868 -0.1824627668 0.5031111240 4282007883
-0.2268878371 -0.1802474707 0.5047343373 4281876297
-0.2265655249 -0.1794314086 0.5040172935 4281942090
-0.2262428105 -0.1786166281 0.5032994151 4282073676
-0.2263099104 -0.1781102419 0.5034486651 4282271055
-0.2267671674 -0.1779096127 0.5044658780 4282599250
-0.2268340737 -0.1774014384 0.5046147108 4282270285
-0.2269008458 -0.1768928319 0.5047632456 4281809734
-0.2265767902 -0.1760801673 0.5040423870 4281217597
-0.2262523770 -0.1752688289 0.5033206940 4280756533
-0.2263184488 -0.1747606248 0.5034676790 4280690740
-0.2259933800 -0.1739510149 0.5027444959 4281019705
-0.2260590196 -0.1734428108 0.5028905272 4281348670
-0.2261245251 -0.1729341447 0.5030362606 4281217595
-0.2257985324 -0.1721267402 0.5023110509 4281217595
-0.2258636057 -0.1716180891 0.5024558306 4281283390
-0.2263200879 -0.1714055389 0.5034713149 4281217597
-0.2263849676 -0.1708951145 0.5036156178 4281151804
-0.2264496833 -0.1703842580 0.5037596226 4281151804
-0.2265142500 -0.1698729694 0.5039032102 4281282877
-0.2261866480 -0.1690682173 0.5031744838 4281282877
-0.2262507826 -0.1685569435 0.5033171177 4281348670
-0.2267069817 -0.1683364660 0.5043320060 4281348670
-0.2267709225 -0.1678234339 0.5044742227 4281348670
-0.2272271365 -0.1675994247 0.5054891109 4281348670
-0.2272908539 -0.1670846343 0.5056309104 4281348670
-0.2273544222 -0.1665693969 0.5057722926 4281414463
-0.2278105915 -0.1663405448 0.5067871213 4281414463
-0.2282668352 -0.1661094576 0.5078020096 4281414463
-0.2283301204 -0.1655911654 0.5079428554 4281348924
-0.2287863642 -0.1653565466 0.5089577436 4281348924
-0.2292426527 -0.1651197225 0.5099728107 4281348924
-0.2296989858 -0.1648806632 0.5109879971 4281414717
-0.2293685228 -0.1640765220 0.5102528334 4281414717
-0.2298247516 -0.1638348252 0.5112677813 4281480510
-0.2298873812 -0.1633112729 0.5114070773 4281480510
-0.2303435951 -0.1630660295 0.5124219656 4281480510
-0.2304060012 -0.1625407040 0.5125608444 4281480510
-0.2308622003 -0.1622919142 0.5135756731 4281546303
-0.2313184440 -0.1620409042 0.5145906210 4281546303
-0.2309863716 -0.1612373590 0.5138519406 4281546303
-0.2314424962 -0.1609836966 0.5148665905 4281546303
-0.2315042615 -0.1604544520 0.5150040388 4281546303
-0.2315658629 -0.1599247903 0.5151410699 4281612096
-0.2316273004 -0.1593947113 0.5152777433 4281546303
-0.2320832461 -0.1591348350 0.5162920356 4281546303
-0.2321444452 -0.1586029977 0.5164281726 4281546303
-0.2322054654 -0.1580707580 0.5165638924 4281546303
-0.2330563217 -0.1580739170 0.5184567571 4281546303
-0.2331172079 -0.1575390249 0.5185921788 4281546303
-0.2343635559 -0.1578020304 0.5213648081 4281546303
-0.2352150232 -0.1577939540 0.5232589841 4281546303
-0.2356713116 -0.1575175524 0.5242740512 4281546303
-0.2361276150 -0.1572389007 0.5252891183 4281546303
-0.2361883372 -0.1566955447 0.5254241824 4281546303
-0.2366445810 -0.1564133316 0.5264391899 4281546303
-0.2359133810 -0.1553469300 0.5248125196 4281546303
-0.2359734476 -0.1548032314 0.5249461532 4281546303
-0.2356373221 -0.1540002972 0.5241984129 4281612096
-0.2353007942 -0.1531987786 0.5234497786 4281546303
-0.2357563525 -0.1529126614 0.5244632363 4281546303
-0.2358155996 -0.1523682326 0.5245950222 4281611842
-0.2358746678 -0.1518233865 0.5247263908 4281611842
-0.2359335423 -0.1512781382 0.5248574018 4281546049
-0.2363888770 -0.1509858072 0.5258703232 4281611842
-0.2368442118 -0.1506912261 0.5268832445 4281611842
-0.2369027436 -0.1501429230 0.5270134807 4281611842
-0.2369610816 -0.1495942026 0.5271432400 4281611842
-0.2374162674 -0.1492947340 0.5281558633 4281611842
-0.2374743372 -0.1487443000 0.5282850266 4281546303
-0.2379294336 -0.1484412551 0.5292974114 4281546303
-0.2383845299 -0.1481359750 0.5303098559 4281546303
-0.2380448282 -0.1473365128 0.5295541883 4281612096
-0.2388972491 -0.1472736299 0.5314504504 4281612096
-0.2393522710 -0.1469625384 0.5324626565 4281612096
-0.2398072928 -0.1466491818 0.5334749222 4281612096
-0.2398645133 -0.1460913122 0.5336022377 4281612096
-0.2399215549 -0.1455330402 0.5337291360 4281546049
-0.2403763831 -0.1452147961 0.5347409248 4281546049
-0.2408311963 -0.1448943019 0.5357527137 4281546049
-0.2408878505 -0.1443329901 0.5358787179 4281546049
-0.2409443110 -0.1437712759 0.5360043645 4281611842
-0.2410005778 -0.1432091743 0.5361295342 4281677635
-0.2414550930 -0.1428824514 0.5371406078 4281677635
-0.2419095933 -0.1425534785 0.5381516814 4281611842
-0.2419654578 -0.1419883370 0.5382759571 4281546562
-0.2424198389 -0.1416557878 0.5392867923 4281546562
-0.2428742200 -0.1413209885 0.5402975678 4281546562
-0.2433285713 -0.1409839392 0.5413083434 4281546562
-0.2437829077 -0.1406446248 0.5423190594 4281612355
-0.2442372292 -0.1403030604 0.5433297753 4281612355
-0.2446915358 -0.1399592310 0.5443403721 4281678148
-0.2451458126 -0.1396131516 0.5453509688 4281678148
-0.2456000745 -0.1392648071 0.5463615060 4281743941
-0.2460543066 -0.1389141977 0.5473720431 4281743941
-0.2465085089 -0.1385613382 0.5483824611 4281743941
-0.2465630770 -0.1379825771 0.5485038161 4281875527
-0.2466174364 -0.1374034435 0.5486247540 4281941320
-0.2474711835 -0.1372674406 0.5505239964 4281941320
-0.2471254319 -0.1364648342 0.5497548580 4282007113
-0.2483791560 -0.1365432441 0.5525438786 4282007113
-0.2484330386 -0.1359588206 0.5526637435 4282204492
-0.2488868535 -0.1355919987 0.5536733270 4282270285
-0.2489404082 -0.1350058764 0.5537924767 4282533457
-0.2493940741 -0.1346354783 0.5548016429 4282665043
-0.2494473010 -0.1340476573 0.5549200773 4282533457
-0.2495003045 -0.1334594637 0.5550379753 4282336078
-0.2495531142 -0.1328708827 0.5551554561 4282599250
-0.2496057004 -0.1322819442 0.5552724600 4282994008
-0.2496580780 -0.1316926181 0.5553889871 4284244845
-0.2497102469 -0.1311029345 0.5555050373 4286218635
-0.2501631081 -0.1307223588 0.5565124154 4288192425
-0.2502149343 -0.1301309913 0.5566276908 4289574078
-0.2424175888 -0.2170884311 0.5406175256 4289704894
-0.2424969077 -0.2165586054 0.5407944322 4286415244
-0.2433449477 -0.2167129815 0.5426856279 4284638833
-0.2426551282 -0.2154973894 0.5411472917 4283717731
-0.2427340150 -0.2149660140 0.5413231850 4283520352
-0.2431975752 -0.2147739381 0.5423569679 4283059801
-0.2432762980 -0.2142406702 0.5425325632 4282599250
-0.2429698259 -0.2133687437 0.5418490767 4282401871
-0.2426629663 -0.2124979943 0.5411647558 4282336078
-0.2427410036 -0.2119648755 0.5413388014 4282204492
-0.2424334735 -0.2110956311 0.5406529903 4282138700
-0.2425111085 -0.2105623186 0.5408260822 4282138700
-0.2425885946 -0.2100285143 0.5409988761 4282138700
-0.2426659316 -0.2094941884 0.5411713719 4282138700
-0.2419712692 -0.2082949281 0.5396221876 4282138700
-0.2412759811 -0.2070985734 0.5380716324 4282138700
-0.2371045798 -0.2029305547 0.5287689567 4282138700
-0.2391109169 -0.2040552497 0.5332432985 4282138700
-0.2353222072 -0.2002389133 0.5247941017 4282138700
-0.2319174558 -0.1967671216 0.5172011256 4282138700
-0.2304436266 -0.1949456781 0.5139142871 4282204493
-0.2301290035 -0.1941092908 0.5132126808 4282204493
-0.2290402055 -0.1926233917 0.5107845068 4282204493
-0.2287245542 -0.1917912066 0.5100805759 4282204493
-0.2284085304 -0.1909602582 0.5093758106 4282007628
-0.2284793705 -0.1904533505 0.5095338225 4282007628
-0.2281626910 -0.1896240413 0.5088275671 4282007628
-0.2286206186 -0.1894381344 0.5098488331 4282007628
-0.2283034176 -0.1886096001 0.5091413856 4282007883
-0.2275981009 -0.1874629706 0.5075684786 4282073676
-0.2276678532 -0.1869563013 0.5077240467 4282007883
-0.2277374715 -0.1864491850 0.5078792572 4282007883
-0.2278069258 -0.1859415919 0.5080341697 4282073676
-0.2267116308 -0.1844858229 0.5055915713 4282007883
-0.2263921201 -0.1836648732 0.5048789978 4281942090
-0.2252953500 -0.1822168678 0.5024331212 4281942090
-0.2253634036 -0.1817134917 0.5025848746 4282007883
-0.2254313082 -0.1812096685 0.5027362704 4281942090
-0.2254990637 -0.1807053834 0.5028873682 4281942090
-0.2255666703 -0.1802006513 0.5030381680 4282073676
-0.2264121771 -0.1803151071 0.5049237609 4282205262
-0.2264797240 -0.1798077226 0.5050743818 4282205262
-0.2265471071 -0.1792998910 0.5052246451 4282204492
-0.2266143560 -0.1787915975 0.5053746104 4282138699
-0.2266814411 -0.1782828569 0.5055242181 4281743941
-0.2263587862 -0.1774682105 0.5048046708 4281217597
-0.2264254540 -0.1769594401 0.5049533248 4280691253
-0.2264919728 -0.1764502227 0.5051016808 4280625460
-0.2257784456 -0.1753349155 0.5035104156 4280888119
-0.2258444279 -0.1748265475 0.5036575794 4281151291
-0.2259102613 -0.1743177474 0.5038043857 4281217084
-0.2255856544 -0.1735083163 0.5030804873 4281151291
-0.2256510556 -0.1729995012 0.5032263398 4281151804
-0.2253258079 -0.1721918285 0.5025010109 4281151804
-0.2257814109 -0.1719805598 0.5035170913 4281217597
-0.2254556268 -0.1711737663 0.5027905107 4281217597
-0.2259111553 -0.1709598452 0.5038064122 4281282877
-0.2259757817 -0.1704488397 0.5039505363 4281282877
-0.2260402590 -0.1699373871 0.5040943027 4281282877
-0.2257134020 -0.1691323668 0.5033653975 4281282877
-0.2257774472 -0.1686209291 0.5035082102 4281414717
-0.2262327522 -0.1684004068 0.5045235753 4281414717
-0.2262965888 -0.1678872108 0.5046659708 4281414463
-0.2263602763 -0.1673735827 0.5048080087 4281414463
-0.2268155366 -0.1671482027 0.5058232546 4281348670
-0.2268790156 -0.1666328162 0.5059648156 4281348670
-0.2281181961 -0.1669777036 0.5087283254 4281348924
-0.2281816751 -0.1664587855 0.5088699460 4281348924
-0.2282450050 -0.1659394354 0.5090111494 4281283131
-0.2287004441 -0.1657038629 0.5100268126 4281283131
-0.2291559279 -0.1654660851 0.5110425949 4281348924
-0.2296114713 -0.1652260870 0.5120584965 4281348924
-0.2292818576 -0.1644207835 0.5113233924 4281414717
-0.2293445617 -0.1638974845 0.5114632845 4281414717
-0.2297999412 -0.1636535078 0.5124788284 4281480510
-0.2294694930 -0.1628495902 0.5117418766 4281480510
-0.2299247384 -0.1626029611 0.5127571225 4281480510
-0.2303800434 -0.1623541117 0.5137724876 4281546303
-0.2304421365 -0.1618268788 0.5139109492 4281546303
-0.2305040509 -0.1612992138 0.5140490532 4281546303
-0.2309592664 -0.1610454917 0.5150642395 4281546303
-0.2306273878 -0.1602426320 0.5143241286 4281546303
-0.2310824692 -0.1599862427 0.5153390169 4281546303
-0.2315375954 -0.1597276330 0.5163539648 4281546303
-0.2319927514 -0.1594667882 0.5173690319 4281546303
-0.2316599935 -0.1586640477 0.5166268945 4281546303
-0.2321150005 -0.1584005505 0.5176416636 4281546303
-0.2329642475 -0.1584028453 0.5195355415 4281546303
-0.2334194332 -0.1581339836 0.5205506682 4281546303
-0.2338746488 -0.1578628868 0.5215658545 4281480510
-0.2351188958 -0.1581201553 0.5243406296 4281480510
-0.2347851843 -0.1573139727 0.5235964656 4281480510
-0.2356351763 -0.1572996378 0.5254920125 4281546303
-0.2356958091 -0.1567561030 0.5256272554 4281546303
-0.2357562631 -0.1562121511 0.5257620811 4281480510
-0.2354215384 -0.1554070264 0.5250155926 4281480510
