VERSION 0.7
FIELDS x y z rgba
SIZE 4 4 4 4
TYPE F F F U
COUNT 1 1 1 1
WIDTH 920
HEIGHT 1
VIEWPOINT 0.0 0.0 0.0 1.0 0.0 0.0 0.0
POINTS 920
DATA ascii
-0.2828131616 -0.1174602509 0.5925443769 4282137157
-0.2828621864 -0.1168221459 0.5926470757 4282073158
-0.2833351195 -0.1163578928 0.5936380029 4282599502
-0.2838079631 -0.1158913970 0.5946286321 4283587165
-0.2842806876 -0.1154226586 0.5956190825 4284639853
-0.2843289375 -0.1147803590 0.5957201719 4286086016
-0.2848013639 -0.1143080890 0.5967100263 4287270290
-0.2852737010 -0.1138335764 0.5976996422 4288914600
-0.2857458889 -0.1133568138 0.5986890197 4290230460
-0.2857933342 -0.1127103418 0.5987883806 4291414475
-0.2862652540 -0.1122300550 0.5997771621 4292401370
-0.2841934860 -0.1461597085 0.5968252420 4292732138
-0.2842534781 -0.1455273032 0.5969512463 4292403686
-0.2843132317 -0.1448944956 0.5970767140 4292074721
-0.2843727171 -0.1442612857 0.5972016454 4291811551
-0.2844319940 -0.1436276883 0.5973261595 4291745758
-0.2844910324 -0.1429936886 0.5974501371 4291351000
-0.2845498323 -0.1423593014 0.5975736380 4290693070
-0.2846083939 -0.1417245120 0.5976966023 4290100935
-0.2846667171 -0.1410893351 0.5978190899 4289311419
-0.2847248018 -0.1404537708 0.5979410410 4288390317
-0.2843620181 -0.1396112889 0.5971791744 4287403422
-0.2844195366 -0.1389758885 0.5972999334 4286482320
-0.2844768167 -0.1383401006 0.5974202752 4285890183
-0.2845338583 -0.1377039403 0.5975400209 4286153355
-0.2845906615 -0.1370673776 0.5976593494 4286679699
-0.2846472263 -0.1364304572 0.5977781415 4287995046
-0.2842823863 -0.1355922669 0.5970119238 4288126632
-0.2843383849 -0.1349555254 0.5971295238 4288389549
-0.2843941450 -0.1343183964 0.5972466469 4288586928
-0.2844496369 -0.1336809099 0.5973632336 4288521135
-0.2845049202 -0.1330430359 0.5974792838 4287994791
-0.2841383815 -0.1322086453 0.5967095494 4286942103
-0.2841930687 -0.1315709800 0.5968244076 4285823622
-0.2842475474 -0.1309329569 0.5969387889 4285099899
-0.2843017578 -0.1302945614 0.5970526338 4284507762
-0.2843557298 -0.1296557933 0.5971659422 4284375408
-0.2844094634 -0.1290166825 0.5972787738 4284638580
-0.2840408683 -0.1281867176 0.5965047479 4284770166
-0.2840940356 -0.1275478303 0.5966163874 4284704373
-0.2841469347 -0.1269085705 0.5967274904 4284902006
-0.2841995955 -0.1262689680 0.5968381166 4285362557
-0.2838296592 -0.1254423261 0.5960611701 4285098871
-0.2838817537 -0.1248029619 0.5961706042 4284572527
-0.2839336097 -0.1241632476 0.5962794423 4284375148
-0.2839851975 -0.1235231832 0.5963878036 4283914597
-0.2831912041 -0.1225170419 0.5947203636 4283388767
-0.2828193903 -0.1216962859 0.5939395428 4283454560
-0.2824471891 -0.1208770871 0.5931578875 4283257445
-0.2824974954 -0.1202394515 0.5932635665 4282731101
-0.2821245790 -0.1194224358 0.5924803615 4283256153
-0.2817512453 -0.1186069921 0.5916963816 4282992981
-0.2813775241 -0.1177931279 0.5909115672 4282926676
-0.2810034156 -0.1169808432 0.5901258588 4282992469
-0.2810521722 -0.1163453534 0.5902282596 4283254358
-0.2815240324 -0.1158837974 0.5912192464 4282991186
-0.2815723717 -0.1152466983 0.5913207531 4282662476
-0.2816204429 -0.1146092638 0.5914217234 4282596683
-0.2816682756 -0.1139715090 0.5915221572 4282400070
-0.2817158699 -0.1133334264 0.5916221142 4282992207
-0.2821868956 -0.1128644869 0.5926113129 4283782747
-0.2826578319 -0.1123933122 0.5936002731 4285098607
-0.2827048004 -0.1117523462 0.5936989188 4286546052
-0.2831754386 -0.1112776473 0.5946872830 4287730326
-0.2836459577 -0.1108007059 0.5956754088 4289111466
-0.2841163576 -0.1103215218 0.5966632962 4290229947
-0.2845866382 -0.1098400950 0.5976508856 4291348941
-0.2850567997 -0.1093564332 0.5986382961 4292335836
-0.2855268419 -0.1088705286 0.5996254086 4293125352
-0.2830466926 -0.1432623118 0.5958065987 4292732651
-0.2831054628 -0.1426299512 0.5959303379 4292337893
-0.2831640244 -0.1419971883 0.5960536003 4291877342
-0.2832223773 -0.1413640529 0.5961763859 4291679967
-0.2832804620 -0.1407305151 0.5962986946 4291548381
-0.2829185426 -0.1398890316 0.5955368876 4291153623
-0.2829760611 -0.1392556578 0.5956579447 4290495693
-0.2830333710 -0.1386218965 0.5957785249 4289969349
-0.2830904126 -0.1379877627 0.5958986282 4289245626
-0.2831472158 -0.1373532265 0.5960182548 4287995559
-0.2832038105 -0.1367183179 0.5961373448 4286745492
-0.2832601368 -0.1360830367 0.5962558985 4286416527
-0.2828958631 -0.1352464110 0.5954891443 4286087562
-0.2829516530 -0.1346113086 0.5956065655 4286349966
-0.2834276855 -0.1341749132 0.5966086388 4287007896
-0.2834830582 -0.1335381120 0.5967251658 4287665826
-0.2835381925 -0.1329009533 0.5968412161 4288257963
-0.2831723094 -0.1320671886 0.5960710645 4288784307
-0.2832268775 -0.1314302236 0.5961859226 4288915893
-0.2832812071 -0.1307929009 0.5963002443 4288652207
-0.2833352685 -0.1301552057 0.5964140892 4287796898
-0.2833890915 -0.1295171529 0.5965273976 4286678165
-0.2830215394 -0.1286872327 0.5957536697 4285757063
-0.2830747962 -0.1280494034 0.5958657861 4284837240
-0.2827064991 -0.1272216141 0.5950905085 4284245103
-0.2831805944 -0.1267726570 0.5960884690 4284440941
-0.2832331061 -0.1261337548 0.5961990356 4284638320
-0.2828638256 -0.1253077537 0.5954217315 4284837495
-0.2829158008 -0.1246690899 0.5955311060 4284969081
-0.2829675078 -0.1240300760 0.5956399441 4285691258
-0.2825971842 -0.1232068241 0.5948604345 4285559672
-0.2818045914 -0.1222021952 0.5931920409 4286210925
-0.2818553448 -0.1215649992 0.5932988524 4286013546
-0.2819058299 -0.1209274605 0.5934051275 4285291110
-0.2815339863 -0.1201095134 0.5926223993 4284567387
-0.2811617553 -0.1192931235 0.5918388367 4283451982
-0.2803668678 -0.1183001548 0.5901656747 4283451982
-0.2799937725 -0.1174878776 0.5893802643 4283320402
-0.2796202600 -0.1166771799 0.5885940194 4283254609
-0.2796688080 -0.1160433590 0.5886962414 4282991955
-0.2797171175 -0.1154092103 0.5887979865 4282794576
-0.2797651887 -0.1147747338 0.5888991356 4282728783
-0.2802356780 -0.1143123507 0.5898895264 4282794576
-0.2802833319 -0.1136762574 0.5899897814 4282136900
-0.2803307176 -0.1130398512 0.5900895596 4282005314
-0.2803778648 -0.1124031171 0.5901888013 4281676860
-0.2800017893 -0.1115974858 0.5893971324 4281742653
-0.2800483406 -0.1109610721 0.5894951820 4281875266
-0.2805177569 -0.1104910001 0.5904833078 4282401610
-0.2805638909 -0.1098529920 0.5905804038 4283454557
-0.2810330391 -0.1093794033 0.5915678740 4284704624
-0.2815020382 -0.1089035720 0.5925551653 4286413953
-0.2819709480 -0.1084254980 0.5935421586 4287927192
-0.2824397087 -0.1079451963 0.5945289135 4289243565
-0.2833318710 -0.1076235175 0.5964069366 4290296253
-0.2838004827 -0.1071377695 0.5973933339 4291480527
-0.2846926153 -0.1068087295 0.5992712379 4292401629
-0.2814778686 -0.1401627064 0.5938927531 4292666860
-0.2815354168 -0.1395313591 0.5940141678 4292403688
-0.2815926969 -0.1388996243 0.5941350460 4292140516
-0.2816497684 -0.1382675022 0.5942554474 4291679965
-0.2817065716 -0.1376350075 0.5943753123 4291219414
-0.2817631662 -0.1370021254 0.5944947004 4290693072
-0.2818194926 -0.1363688707 0.5946135521 4290298314
-0.2818756104 -0.1357352287 0.5947319269 4289508798
-0.2819314599 -0.1351011992 0.5948498249 4288653489
-0.2819871008 -0.1344668120 0.5949671865 4287535008
-0.2820424736 -0.1338320374 0.5950840712 4286548113
-0.2825174332 -0.1333951056 0.5960860848 4285889670
-0.2821525335 -0.1325613856 0.5953162313 4285889670
-0.2822071910 -0.1319254935 0.5954315662 4286744979
-0.2822616100 -0.1312892437 0.5955464244 4287534495
-0.2823157907 -0.1306526214 0.5956606865 4288127402
-0.2823697329 -0.1300156415 0.5957745314 4288587953
-0.2824234366 -0.1293782890 0.5958877802 4288981690
-0.2820565104 -0.1285489947 0.5951136947 4288652725
-0.2821096480 -0.1279118657 0.5952257514 4287995304
-0.2817420065 -0.1270847023 0.5944501162 4287205788
-0.2822151780 -0.1266365349 0.5954483747 4286674564
-0.2822675705 -0.1259983331 0.5955589414 4285358704
-0.2823196948 -0.1253597885 0.5956689715 4284636780
-0.2819507718 -0.1245350018 0.5948905945 4285097331
-0.2820023596 -0.1238966957 0.5949993730 4286736236
-0.2816327214 -0.1230740771 0.5942194462 4286802029
-0.2816837132 -0.1224360242 0.5943270922 4289811551
-0.2813133597 -0.1216155738 0.5935456753 4289877344
-0.2809425890 -0.1207966805 0.5927633643 4289416792
-0.2805714309 -0.1199793592 0.5919802785 4288824655
-0.2801998854 -0.1191636100 0.5911962986 4286397247
-0.2798279226 -0.1183494404 0.5904114842 4285936696
-0.2794555724 -0.1175368428 0.5896258950 4284626232
-0.2790828049 -0.1167258248 0.5888394117 4284626232
-0.2791313231 -0.1160917580 0.5889417529 4283448894
-0.2791796029 -0.1154573560 0.5890436172 4283448894
-0.2788058221 -0.1146491840 0.5882549286 4282664004
-0.2788535058 -0.1140150875 0.5883556008 4282729797
-0.2789009511 -0.1133806705 0.5884556770 4282138691
-0.2789481282 -0.1127459332 0.5885552764 4282138691
-0.2789950967 -0.1121108681 0.5886542797 4282203461
-0.2790417671 -0.1114754900 0.5887528062 4282269254
-0.2786660194 -0.1106721014 0.5879600048 4282268997
-0.2787121236 -0.1100370437 0.5880572796 4282005825
-0.2791803777 -0.1095674410 0.5890452266 4281873726
-0.2792260647 -0.1089307964 0.5891416669 4281939519
-0.2792715132 -0.1082938388 0.5892375112 4282137409
-0.2797392607 -0.1078194380 0.5902244449 4282992718
-0.2797842622 -0.1071809009 0.5903193951 4283979613
-0.2806744277 -0.1068639308 0.5921975970 4285295473
-0.2811418474 -0.1063828170 0.5931837559 4286874504
-0.2820319533 -0.1060584784 0.5950618386 4288256157
-0.2824991941 -0.1055719331 0.5960476398 4289637810
-0.2825433016 -0.1049260646 0.5961407423 4290953670
-0.2830102146 -0.1044360101 0.5971258879 4292138457
-0.2839001119 -0.1040988639 0.5990034938 4292927973
-0.2803252935 -0.1372818649 0.5928502679 4292601067
-0.2803816497 -0.1366506219 0.5929694176 4292206309
-0.2804377675 -0.1360190064 0.5930880904 4291877344
-0.2804936469 -0.1353870183 0.5932062864 4291877344
-0.2805492878 -0.1347546428 0.5933239460 4291548379
-0.2806046903 -0.1341218948 0.5934410691 4290824658
-0.2806598544 -0.1334887892 0.5935577750 4289903556
-0.2811337411 -0.1330535859 0.5945599675 4288982454
-0.2807694376 -0.1322214305 0.5937895179 4287995559
-0.2808238864 -0.1315871924 0.5939046741 4287073944
-0.2808780968 -0.1309525967 0.5940192938 4286416014
-0.2809320390 -0.1303176284 0.5941334367 4285890181
-0.2809857428 -0.1296822876 0.5942469835 4286153353
-0.2810392380 -0.1290465891 0.5943601131 4287007130
-0.2810924649 -0.1284105331 0.5944726467 4287730853
-0.2807258368 -0.1275833994 0.5936973095 4288193196
-0.2807784975 -0.1269475818 0.5938086510 4288785333
-0.2808309197 -0.1263113916 0.5939195752 4289570228
-0.2813029587 -0.1258627027 0.5949178338 4289043884
-0.2813549638 -0.1252248585 0.5950278044 4287403422
-0.2818267345 -0.1247726083 0.5960255861 4286811285
-0.2818783224 -0.1241331026 0.5961347222 4286936689
-0.2810893655 -0.1231251583 0.5944660902 4286147173
-0.2807200849 -0.1223037764 0.5936851501 4290662992
-0.2803503871 -0.1214839518 0.5929033160 4291123543
-0.2804006934 -0.1208468750 0.5930097103 4290860109
-0.2796098292 -0.1198490113 0.5913370848 4290399558
-0.2792389393 -0.1190338954 0.5905527472 4288954684
-0.2792882919 -0.1183986664 0.5906571150 4288165168
-0.2789166868 -0.1175857484 0.5898712277 4287049004
-0.2785447240 -0.1167744100 0.5890845060 4286785832
-0.2785931528 -0.1161400974 0.5891870260 4285803051
-0.2786413729 -0.1155054495 0.5892889500 4285671465
-0.2782683671 -0.1146969572 0.5885000825 4284822326
-0.2783159912 -0.1140626147 0.5886008143 4285019705
-0.2783633769 -0.1134279519 0.5887010694 4283644478
-0.2779893279 -0.1126223207 0.5879099965 4283644478
-0.2780361474 -0.1119879708 0.5880089998 4282596419
-0.2780827284 -0.1113533005 0.5881075263 4282399040
-0.2781290710 -0.1107183099 0.5882054567 4282137409
-0.2777536511 -0.1099162176 0.5874115229 4282268995
-0.2777994275 -0.1092815548 0.5875083208 4282596930
-0.2778449059 -0.1086465865 0.5876045823 4282596930
-0.2778901756 -0.1080113053 0.5877002478 4282268482
-0.2779351771 -0.1073757187 0.5877954364 4282136896
-0.2784017622 -0.1069017947 0.5887821913 4281873724
-0.2784463167 -0.1062646210 0.5888764262 4282071103
-0.2784906328 -0.1056271493 0.5889701843 4282597447
-0.2789567411 -0.1051484421 0.5899558663 4283189584
-0.2790006101 -0.1045093983 0.5900486708 4284374371
-0.2794663906 -0.1040271893 0.5910337567 4285887610
-0.2799320519 -0.1035427451 0.5920185447 4287466642
-0.2803975642 -0.1030560732 0.5930030942 4288782502
-0.2808629870 -0.1025671586 0.5939873457 4290164667
-0.2809058428 -0.1019227505 0.5940780044 4291151562
-0.2813709378 -0.1014303416 0.5950616002 4292138457
-0.2818358839 -0.1009357050 0.5960448980 4293125352
-0.2790586054 -0.1356687546 0.5915609002 4292797931
-0.2791142464 -0.1350384206 0.5916788578 4292403173
-0.2791696787 -0.1344076991 0.5917962790 4292140001
-0.2792248428 -0.1337766051 0.5919132829 4291942624
-0.2792797685 -0.1331451386 0.5920296907 4291811038
-0.2797526419 -0.1327116638 0.5930321217 4291547866
-0.2793889344 -0.1318810880 0.5922610760 4291087315
-0.2794431448 -0.1312485039 0.5923760533 4290363594
-0.2794971168 -0.1306155473 0.5924904346 4289705664
-0.2795508504 -0.1299822479 0.5926043391 4288585131
-0.2796043456 -0.1293485612 0.5927177668 4287400857
-0.2796576023 -0.1287145168 0.5928306580 4286154382
-0.2797106206 -0.1280801147 0.5929430127 4285957003
-0.2797634006 -0.1274453551 0.5930548906 4286349198
-0.2798159122 -0.1268102378 0.5931662321 4286414991
-0.2798682153 -0.1261747628 0.5932770967 4287137676
-0.2803393006 -0.1257268637 0.5942757130 4287992985
-0.2803911567 -0.1250897199 0.5943856835 4288651694
-0.2808620036 -0.1246382520 0.5953837633 4288849073
-0.2809134722 -0.1239994541 0.5954928994 4287924112
-0.2805453241 -0.1231761873 0.5947124958 4286147701
-0.2797573805 -0.1221713200 0.5930421352 4290726465
-0.2798078656 -0.1215343401 0.5931491852 4290792258
-0.2794385552 -0.1207157597 0.5923662782 4290269001
-0.2790688276 -0.1198987514 0.5915825367 4290071622
-0.2786987126 -0.1190833151 0.5907979608 4291514441
-0.2783281803 -0.1182694584 0.5900124907 4291317062
-0.2783771455 -0.1176346019 0.5901163220 4291184446
-0.2780059278 -0.1168229431 0.5893293619 4290921274
-0.2780543268 -0.1161883846 0.5894319415 4290068534
-0.2781024873 -0.1155534908 0.5895340443 4289410604
-0.2777302265 -0.1147446781 0.5887449384 4287377961
-0.2777778208 -0.1141100898 0.5888457894 4286720031
-0.2778251469 -0.1134751737 0.5889461637 4285280303
-0.2774518728 -0.1126692221 0.5881548524 4285214510
-0.2774986327 -0.1120346263 0.5882539749 4284365633
-0.2771246433 -0.1112309173 0.5874611735 4284497219
-0.2771708369 -0.1105966419 0.5875591040 4283908942
-0.2772167921 -0.1099620536 0.5876564980 4284040528
-0.2772625089 -0.1093271449 0.5877534151 4283319375
-0.2773079574 -0.1086919308 0.5878497958 4283319375
-0.2769322991 -0.1078924239 0.5870534182 4283057484
-0.2769771814 -0.1072575524 0.5871486068 4282860105
-0.2774428129 -0.1067844033 0.5881356597 4282793799
-0.2774872780 -0.1061479524 0.5882298946 4282662213
-0.2775314748 -0.1055111885 0.5883235931 4282792516
-0.2775754333 -0.1048741266 0.5884167552 4282463551
-0.2776191235 -0.1042367592 0.5885093808 4282004282
-0.2776625752 -0.1035990939 0.5886014700 4282267454
-0.2781271636 -0.1031173691 0.5895863771 4282401093
-0.2781701684 -0.1024781391 0.5896775126 4283585367
-0.2786344588 -0.1019929126 0.5906617641 4284639599
-0.2786770165 -0.1013521180 0.5907519460 4286021252
-0.2791409791 -0.1008633971 0.5917354822 4287665309
-0.2791830897 -0.1002210602 0.5918247700 4288981169
-0.2796467245 -0.0997288451 0.5928075910 4290427077
-0.2796883881 -0.0990849510 0.5928959250 4291413972
-0.2805736363 -0.0987377241 0.5947724581 4292926433
-0.2779022753 -0.1328011006 0.5904999375 4292666345
-0.2779567540 -0.1321709156 0.5906156898 4292468966
-0.2780109942 -0.1315403581 0.5907309055 4292271587
-0.2776474655 -0.1307128668 0.5899584889 4292008415
-0.2777011395 -0.1300825179 0.5900725722 4291679450
-0.2781722546 -0.1296464801 0.5910735726 4291481305
-0.2782255411 -0.1290144622 0.5911868215 4290889168
-0.2782785594 -0.1283820719 0.5912994742 4289707202
-0.2783313692 -0.1277493387 0.5914116502 4288720307
-0.2783839107 -0.1271162331 0.5915233493 4287994023
-0.2784362137 -0.1264827698 0.5916345119 4287138714
-0.2789064348 -0.1260379106 0.5926336646 4286546052
-0.2793765962 -0.1255908012 0.5936326385 4285953915
-0.2794283330 -0.1249543652 0.5937425494 4286086280
-0.2794798315 -0.1243175864 0.5938519835 4286678417
-0.2795310616 -0.1236804500 0.5939608812 4287266180
-0.2795820832 -0.1230429634 0.5940692425 4286081906
-0.2787956297 -0.1220386475 0.5923981667 4290398270
-0.2788459957 -0.1214023829 0.5925051570 4290595649
-0.2784773409 -0.1205844358 0.5917218328 4290070593
-0.2785271406 -0.1199484393 0.5918276906 4289873214
-0.2781578004 -0.1191326827 0.5910428762 4290596419
-0.2777880430 -0.1183185056 0.5902571678 4290728005
-0.2774178982 -0.1175059006 0.5894706845 4291121222
-0.2774664760 -0.1168714240 0.5895739198 4291252808
-0.2775148153 -0.1162366197 0.5896766782 4291251779
-0.2771436572 -0.1154268533 0.5888879895 4290988607
-0.2771914303 -0.1147923470 0.5889894962 4290529086
-0.2772389650 -0.1141575053 0.5890905261 4290002742
-0.2772862613 -0.1135223433 0.5891909599 4289150522
-0.2769137323 -0.1127160788 0.5883994102 4288558385
-0.2769604623 -0.1120812297 0.5884987116 4287378999
-0.2765872180 -0.1112772077 0.5877056122 4286984241
-0.2762135863 -0.1104747877 0.5869117379 4285935926
-0.2762594223 -0.1098409146 0.5870091319 4286067512
-0.2763050199 -0.1092067212 0.5871059895 4285478974
-0.2763503492 -0.1085722148 0.5872023106 4285544767
-0.2768154740 -0.1081014350 0.5881906748 4283123277
-0.2768603861 -0.1074653417 0.5882861018 4283123277
-0.2769050598 -0.1068289429 0.5883809924 4282794828
-0.2769494653 -0.1061922386 0.5884753466 4282531656
-0.2769936025 -0.1055552289 0.5885691643 4282597449
-0.2766171098 -0.1047587022 0.5877691507 4282729035
-0.2766607106 -0.1041220501 0.5878617764 4282662725
-0.2762835026 -0.1033278257 0.5870602727 4282531139
-0.2763265073 -0.1026915461 0.5871517062 4282399294
-0.2763692737 -0.1020549685 0.5872425437 4282465087
-0.2764117718 -0.1014180928 0.5873328447 4282662213
-0.2768748105 -0.1009343266 0.5883167386 4282859592
-0.2769168913 -0.1002959013 0.5884061456 4282991439
-0.2769587040 -0.0996571854 0.5884949565 4283715162
-0.2770002484 -0.0990181789 0.5885832906 4285359734
-0.2774626017 -0.0985284001 0.5895656347 4287004559
-0.2775036991 -0.0978878438 0.5896530151 4288125850
-0.2779656947 -0.0973945782 0.5906347036 4289639089
-0.2780063748 -0.0967524946 0.5907210708 4291151562
-0.2784680426 -0.0962557495 0.5917021036 4292138457
-0.2785082459 -0.0956121236 0.5917875171 4292992741
-0.2767429352 -0.1299403310 0.5894275904 4292732391
-0.2767962217 -0.1293103397 0.5895410776 4292008415
-0.2768492997 -0.1286799759 0.5896540880 4292008415
-0.2773191333 -0.1282420903 0.5906547904 4291680476
-0.2773717940 -0.1276100576 0.5907669067 4291154132
-0.2774242163 -0.1269776672 0.5908785462 4290823376
-0.2774763703 -0.1263449192 0.5909897089 4290362825
-0.2775283158 -0.1257118136 0.5911003351 4289901496
-0.2784148455 -0.1254545301 0.5929884911 4288980394
-0.2784664333 -0.1248188019 0.5930984020 4287664799
-0.2785178125 -0.1241827309 0.5932077765 4287204248
-0.2785689235 -0.1235463023 0.5933166742 4287594116
-0.2782020569 -0.1227252558 0.5925353169 4285751912
-0.2778348327 -0.1219057739 0.5917531252 4289543735
-0.2778850496 -0.1212702170 0.5918601155 4290333251
-0.2779350579 -0.1206343174 0.5919666290 4290003258
-0.2775667608 -0.1198176220 0.5911822319 4289476914
-0.2776162028 -0.1191819906 0.5912874937 4288755248
-0.2772471905 -0.1183674932 0.5905016065 4289150006
-0.2768778205 -0.1175545752 0.5897148252 4289479998
-0.2769263685 -0.1169198528 0.5898182392 4289677377
-0.2765562534 -0.1161091402 0.5890299678 4289611323
-0.2766042352 -0.1154747158 0.5891321301 4289874495
-0.2762334347 -0.1146662235 0.5883423686 4290661954
-0.2762808502 -0.1140320972 0.5884433389 4290596161
-0.2763279974 -0.1133976504 0.5885438323 4290727486
-0.2759561539 -0.1125920266 0.5877518654 4290464314
-0.2760027647 -0.1119578928 0.5878511071 4290202944
-0.2756302357 -0.1111545116 0.5870576501 4290137151
-0.2756762505 -0.1105207056 0.5871556401 4288889918
-0.2753030062 -0.1097195819 0.5863606930 4288100402
-0.2757675648 -0.1092521399 0.5873501897 4287049264
-0.2758128643 -0.1086173877 0.5874466300 4286457127
-0.2758578956 -0.1079823226 0.5875425339 4285148720
-0.2759026885 -0.1073469445 0.5876379609 4285411892
-0.2759472132 -0.1067112610 0.5877327919 4284693056
-0.2759914994 -0.1060752645 0.5878271461 4284561470
-0.2760355473 -0.1054389700 0.5879209042 4283645770
-0.2760793269 -0.1048023701 0.5880141854 4283777356
-0.2757032216 -0.1040071622 0.5872130990 4283056717
-0.2757464349 -0.1033709273 0.5873051882 4282990924
-0.2753696442 -0.1025780216 0.5865026116 4282990410
-0.2754122913 -0.1019421592 0.5865934491 4282924617
-0.2754546702 -0.1013060063 0.5866837502 4283187274
-0.2754968107 -0.1006695628 0.5867735147 4283055688
-0.2759587467 -0.1001853123 0.5877573490 4282267201
-0.2760004401 -0.0995473117 0.5878461599 4282267201
-0.2760418952 -0.0989090204 0.5879344344 4282268997
-0.2760830820 -0.0982704461 0.5880221725 4282268997
-0.2761240304 -0.0976315886 0.5881093144 4283515212
-0.2761647105 -0.0969924405 0.5881959796 4285094244
-0.2762051225 -0.0963530168 0.5882821083 4286543746
-0.2762452960 -0.0957133099 0.5883676410 4287793813
-0.2767057419 -0.0952180326 0.5893483162 4288585125
-0.2767454684 -0.0945767984 0.5894329548 4289900985
-0.2772055566 -0.0940780491 0.5904129148 4290953671
-0.2776655257 -0.0935770795 0.5913925767 4292335324
-0.2755282521 -0.1277160496 0.5882319212 4292666599
-0.2764131725 -0.1274705827 0.5901212096 4292469220
-0.2764654458 -0.1268388927 0.5902327895 4292270308
-0.2765174806 -0.1262068599 0.5903438926 4291941343
-0.2765692770 -0.1255744547 0.5904544592 4291874773
-0.2770374417 -0.1251298785 0.5914539695 4291282636
-0.2770888209 -0.1244958192 0.5915636420 4291216593
-0.2771399915 -0.1238614097 0.5916728973 4290821835
-0.2776077092 -0.1234119534 0.5926714540 4290619567
-0.2772415578 -0.1225915402 0.5918897390 4287329917
-0.2768749893 -0.1217726916 0.5911071301 4288822328
-0.2769250870 -0.1211378425 0.5912141204 4289151293
-0.2769749463 -0.1205026582 0.5913205147 4289609015
-0.2766073644 -0.1196866035 0.5905357599 4289016878
-0.2766566575 -0.1190516874 0.5906410217 4288294192
-0.2762883604 -0.1182378232 0.5898547173 4288688950
-0.2763370872 -0.1176031902 0.5899587274 4288560187
-0.2759680748 -0.1167915389 0.5891709328 4288428601
-0.2760162354 -0.1161571965 0.5892737508 4287837745
-0.2756465077 -0.1153477505 0.5884844065 4288035124
-0.2756941020 -0.1147137135 0.5885860324 4289019960
-0.2757414579 -0.1140793413 0.5886871219 4289217339
-0.2757885754 -0.1134446487 0.5887877345 4289807673
-0.2754175067 -0.1126387045 0.5879955292 4289807673
-0.2750460505 -0.1118343621 0.5872024894 4290136638
-0.2750922740 -0.1112006232 0.5873011947 4290597189
-0.2751382589 -0.1105665714 0.5873993039 4290531659
-0.2747657597 -0.1097651273 0.5866041183 4290268487
-0.2752294838 -0.1092975065 0.5875940919 4290004810
-0.2752746940 -0.1086625084 0.5876906514 4289741638
-0.2753196955 -0.1080271900 0.5877866745 4289542193
-0.2753644288 -0.1073915660 0.5878822207 4288950056
-0.2749903500 -0.1065933853 0.5870835781 4286917931
-0.2750345469 -0.1059581116 0.5871778727 4286588966
-0.2750784457 -0.1053225324 0.5872716904 4285019703
-0.2751221359 -0.1046866477 0.5873649120 4285217082
-0.2751655579 -0.1040504649 0.5874575973 4284104771
-0.2747898400 -0.1032565758 0.5866554379 4284367943
-0.2748326659 -0.1026207581 0.5867469311 4283908933
-0.2748752832 -0.1019846424 0.5868378878 4283645761
-0.2749176323 -0.1013482362 0.5869283080 4283974726
-0.2745405734 -0.1005580127 0.5861233473 4284237898
-0.2745823562 -0.0999219939 0.5862125158 4283450186
-0.2746238708 -0.0992856845 0.5863012075 4283450186
-0.2746651471 -0.0986490846 0.5863893032 4283320143
-0.2747061849 -0.0980122015 0.5864768624 4282991178
-0.2751663923 -0.0975236967 0.5874594450 4282923342
-0.2747874558 -0.0967375785 0.5866504312 4282923342
-0.2748277187 -0.0960998461 0.5867363811 4282859340
-0.2748677135 -0.0954618305 0.5868217349 4283056719
-0.2749074697 -0.0948235393 0.5869066119 4283715414
-0.2749469578 -0.0941849723 0.5869909525 4284768102
-0.2749862075 -0.0935461372 0.5870746970 4285951863
-0.2754450738 -0.0930488631 0.5880543590 4287728274
-0.2754838467 -0.0924085006 0.5881371498 4288979370
-0.2759423852 -0.0919077620 0.5891160965 4290295230
-0.2764007747 -0.0914048031 0.5900947452 4290954959
-0.2772791386 -0.0910375565 0.5919699669 4292073440
-0.2751439512 -0.1258784235 0.5888076425 4292928492
-0.2751955092 -0.1252477020 0.5889180303 4292532705
-0.2752468586 -0.1246166080 0.5890278816 4291874775
-0.2752979696 -0.1239851713 0.5891372561 4291347920
-0.2757647634 -0.1235397235 0.5901361704 4290229439
-0.2758154571 -0.1229066253 0.5902447104 4290028457
-0.2758659124 -0.1222731844 0.5903526545 4288383632
-0.2754999697 -0.1214559302 0.5895695090 4288827987
-0.2755498588 -0.1208227575 0.5896763206 4287314748
-0.2755995095 -0.1201892346 0.5897825360 4287968566
-0.2756489217 -0.1195553765 0.5898882747 4288363324
-0.2756980658 -0.1189211681 0.5899934769 4287575862
-0.2753304541 -0.1181079522 0.5892068148 4287641655
-0.2753790617 -0.1174740344 0.5893108249 4287117108
-0.2754274309 -0.1168397814 0.5894142985 4286722350
-0.2754755318 -0.1162051931 0.5895172358 4286392615
-0.2751065791 -0.1153954342 0.5887276530 4286458408
-0.2751541138 -0.1147611439 0.5888293982 4287377710
-0.2747844458 -0.1139536127 0.5880383253 4287509296
-0.2748314440 -0.1133196354 0.5881388783 4288361779
-0.2748781741 -0.1126853302 0.5882388949 4288559158
-0.2745074928 -0.1118806750 0.5874456167 4288887608
-0.2745536566 -0.1112466902 0.5875444412 4289545538
-0.2745995820 -0.1106123850 0.5876427293 4290137418
-0.2746452689 -0.1099777594 0.5877404809 4290203211
-0.2746906877 -0.1093428284 0.5878376961 4290530895
-0.2743183374 -0.1085423678 0.5870409012 4290794067
-0.2743632197 -0.1079077646 0.5871369243 4291188299
-0.2744078338 -0.1072728559 0.5872324109 4290859334
-0.2744522095 -0.1066376418 0.5873273611 4290267458
-0.2744963169 -0.1060021147 0.5874217749 4289609528
-0.2745401859 -0.1053662896 0.5875156522 4289148725
-0.2745838165 -0.1047301516 0.5876089931 4288359209
-0.2746271789 -0.1040937155 0.5877017975 4287831840
-0.2742522359 -0.1032995135 0.5868993998 4287766047
-0.2742950320 -0.1026634425 0.5869910121 4287832353
-0.2739194036 -0.1018715501 0.5861871243 4288424490
-0.2739616334 -0.1012358591 0.5862774849 4288627010
-0.2740036249 -0.1005998775 0.5863673687 4288955975
-0.2740453482 -0.0999636054 0.5864566565 4286923852
-0.2740868330 -0.0993270427 0.5865454078 4286594887
-0.2737095356 -0.0985395238 0.5857380629 4285350994
-0.2741690278 -0.0980530530 0.5867213607 4284890443
-0.2742097676 -0.0974156335 0.5868085027 4282991439
-0.2738315165 -0.0966301709 0.5859990716 4283057232
-0.2734529078 -0.0958463848 0.5851888657 4283254098
-0.2734927535 -0.0952100605 0.5852741003 4282727754
-0.2735323310 -0.0945734680 0.5853587985 4282792518
-0.2735716701 -0.0939365998 0.5854429603 4282595139
-0.2736107409 -0.0932994485 0.5855265856 4282528833
-0.2736495435 -0.0926620364 0.5856096745 4283384142
-0.2736881077 -0.0920243487 0.5856921673 4283713879
-0.2741456032 -0.0915263370 0.5866712332 4285095532
-0.2746029496 -0.0910261124 0.5876499414 4286084737
-0.2750601768 -0.0905236602 0.5886283517 4287729562
-0.2759366035 -0.0901560038 0.5905039310 4289177519
-0.2768130004 -0.0897841677 0.5923793912 4290427586
-0.2776893675 -0.0894081593 0.5942548513 4291741906
-0.2781461477 -0.0888938904 0.5952323675 4292794594
-0.2739263773 -0.1236613765 0.5875986814 4292664802
-0.2743921280 -0.1232176647 0.5885977745 4291283149
-0.2744426131 -0.1225862429 0.5887060761 4290293682
-0.2744928598 -0.1219544709 0.5888138413 4288977822
-0.2745428681 -0.1213223562 0.5889211297 4289230715
-0.2745926380 -0.1206898913 0.5890278816 4287980648
-0.2746421397 -0.1200570911 0.5891340971 4287778646
-0.2746914327 -0.1194239408 0.5892397761 4286660165
-0.2747404575 -0.1187904552 0.5893449783 4286985781
-0.2743735313 -0.1179778725 0.5885578990 4286788402
-0.2744220197 -0.1173446700 0.5886618495 4286525743
-0.2744702399 -0.1167111322 0.5887653232 4286459950
-0.2745182216 -0.1160772666 0.5888682604 4286328362
-0.2745659649 -0.1154430583 0.5889706612 4286328362
-0.2741973698 -0.1146345735 0.5881800056 4286591277
-0.2742445469 -0.1140006781 0.5882812142 4286525484
-0.2742914855 -0.1133664548 0.5883818865 4286787373
-0.2743381560 -0.1127319038 0.5884820223 4286984752
-0.2739682496 -0.1119269282 0.5876885056 4287575348
-0.2744308114 -0.1114618331 0.5886807442 4288035899
-0.2740602493 -0.1106581464 0.5878858566 4288889150
-0.2741058767 -0.1100232750 0.5879837275 4288954943
-0.2741512656 -0.1093880907 0.5880810618 4289282108
-0.2741963863 -0.1087525934 0.5881778598 4289676866
-0.2738244832 -0.1079524681 0.5873801112 4290268483
-0.2738690674 -0.1073173136 0.5874757171 4290531655
-0.2739133835 -0.1066818461 0.5875707865 4290662984
-0.2735404670 -0.1058846638 0.5867708921 4290662984
-0.2735842168 -0.1052495539 0.5868647099 4291253325
-0.2736277282 -0.1046141386 0.5869580507 4291121739
-0.2736709714 -0.1039784178 0.5870508552 4290790718
-0.2737139761 -0.1033423990 0.5871430635 4290395960
-0.2737567425 -0.1027060822 0.5872347951 4289408805
-0.2733818591 -0.1019138694 0.5864306688 4290461493
-0.2734240592 -0.1012779325 0.5865211487 4291384137
-0.2734659910 -0.1006416976 0.5866110921 4291581516
-0.2730900943 -0.0998524949 0.5858048201 4290728784
-0.2731314898 -0.0992166549 0.5858935714 4290728784
-0.2731725872 -0.0985805169 0.5859817266 4289876564
-0.2736312151 -0.0980938673 0.5869655609 4289152841
-0.2732540667 -0.0973073989 0.5861565471 4286333255
-0.2732944489 -0.0966704115 0.5862430930 4286333255
-0.2729165852 -0.0958863050 0.5854325891 4285219147
-0.2725383937 -0.0951038748 0.5846213102 4284429631
-0.2725778520 -0.0944679976 0.5847060084 4283711310
-0.2726171017 -0.0938318446 0.5847901106 4283711310
-0.2726560533 -0.0931954235 0.5848737359 4282662474
-0.2726947665 -0.0925587267 0.5849567652 4282728267
-0.2727332413 -0.0919217616 0.5850393176 4282070589
-0.2731898129 -0.0914245397 0.5860186815 4281807417
-0.2736462355 -0.0909250826 0.5869977474 4281609524
-0.2736840546 -0.0902853608 0.5870788693 4282399040
-0.2741401494 -0.0897824466 0.5880572200 4283649367
-0.2754332721 -0.0895494968 0.5908311009 4285096813
-0.2763078213 -0.0891752988 0.5927071571 4286413962
-0.2767636478 -0.0886627883 0.5936849117 4288321959
-0.2768005729 -0.0880149007 0.5937641263 4289440944
-0.2772560418 -0.0874989256 0.5947411656 4290888390
-0.2781302333 -0.0871119276 0.5966163874 4291743699
-0.2785854638 -0.0865905359 0.5975928307 4292730594
-0.2726078331 -0.1227087677 0.5861667991 4292533981
-0.2730723917 -0.1222654954 0.5871657729 4292072403
-0.2731224298 -0.1216353998 0.5872733593 4291480266
-0.2731722295 -0.1210049540 0.5873804092 4291606464
-0.2732217908 -0.1203741655 0.5874869227 4290751155
-0.2736857831 -0.1199247390 0.5884846449 4290023580
-0.2737349272 -0.1192923039 0.5885903239 4288707720
-0.2737838328 -0.1186595336 0.5886954665 4288765541
-0.2734175920 -0.1178475991 0.5879079700 4287647060
-0.2734659314 -0.1172151119 0.5880119205 4286658623
-0.2735140324 -0.1165822893 0.5881153345 4285934900
-0.2735618949 -0.1159491315 0.5882182121 4285539368
-0.2736094892 -0.1153156459 0.5883206129 4285539368
-0.2736568749 -0.1146818325 0.5884224772 4286131503
-0.2732886672 -0.1138746291 0.5876307487 4286460468
-0.2733354568 -0.1132411212 0.5877313614 4286590766
-0.2737975121 -0.1127784178 0.5887248516 4286656559
-0.2730127871 -0.1118029580 0.5870375633 4287508528
-0.2734743953 -0.1113386527 0.5880301595 4287837493
-0.2735202312 -0.1107038558 0.5881286860 4288689972
-0.2735657990 -0.1100687385 0.5882266760 4288689972
-0.2736111283 -0.1094333082 0.5883241296 4288688942
-0.2736562192 -0.1087975577 0.5884211063 4288886321
-0.2737010419 -0.1081615016 0.5885174870 4289543733
-0.2733296156 -0.1073617190 0.5877187848 4289872698
-0.2733738720 -0.1067259982 0.5878139734 4290004286
-0.2730017304 -0.1059285030 0.5870137811 4290004286
-0.2730454504 -0.1052931398 0.5871077776 4290398279
-0.2730889022 -0.1046574786 0.5872012377 4290661451
-0.2731321156 -0.1040215045 0.5872941017 4290595145
-0.2727586329 -0.1032276377 0.5864910483 4290792524
-0.2728012800 -0.1025920436 0.5865827799 4291449677
-0.2728436589 -0.1019561440 0.5866739154 4291186505
-0.2724691927 -0.1011652723 0.5858687162 4291383108
-0.2725110054 -0.1005297601 0.5859586596 4291646280
-0.2725525796 -0.0998939499 0.5860480070 4292040007
-0.2730107307 -0.0994096249 0.5870330930 4292171593
-0.2730518579 -0.0987722725 0.5871215463 4292368974
-0.2730927467 -0.0981346294 0.5872094631 4292434767
-0.2727163732 -0.0973478481 0.5864002109 4290923084
-0.2723396122 -0.0965627357 0.5855901241 4290923084
-0.2723796070 -0.0959261879 0.5856761336 4289153872
-0.2720021904 -0.0951434374 0.5848645568 4288298563
-0.2720416188 -0.0945073143 0.5849493146 4286466898
-0.2716634870 -0.0937269330 0.5841363072 4285743175
-0.2717023790 -0.0930912346 0.5842198730 4283449672
-0.2717409730 -0.0924552605 0.5843029022 4283383879
-0.2717793286 -0.0918190181 0.5843853951 4282400070
-0.2722349763 -0.0913225710 0.5853651166 4282202691
-0.2726904750 -0.0908239037 0.5863445401 4282136128
-0.2735635042 -0.0904611200 0.5882217288 4282333507
-0.2736010849 -0.0898199007 0.5883024931 4282071107
-0.2744739354 -0.0894507095 0.5901793242 4281742142
-0.2753467560 -0.0890773460 0.5920560956 4281876297
-0.2758016586 -0.0885656103 0.5930342078 4283981673
-0.2758384645 -0.0879184380 0.5931133628 4287993245
-0.2762930095 -0.0874032453 0.5940907598 4288059038
-0.2767474055 -0.0868858248 0.5950678587 4288454050
-0.2767835557 -0.0862359256 0.5951455235 4289704117
-0.2772375941 -0.0857150555 0.5961218476 4292993767
-0.2781804800 -0.0840128064 0.5981491804 4292796388
-0.2782154679 -0.0833586976 0.5982244611 4292664801
-0.2778317630 -0.0825799853 0.5973994136 4292927973
-0.2717047930 -0.1219443902 0.5856236815 4293126629
-0.2717546225 -0.1213159636 0.5857310295 4292402906
-0.2718042135 -0.1206871942 0.5858379006 4292137434
-0.2718535364 -0.1200580746 0.5859442949 4291940055
-0.2723165154 -0.1196103990 0.5869421363 4291936718
-0.2723654509 -0.1189796403 0.5870476365 4291476167
-0.2724141479 -0.1183485463 0.5871526003 4290555312
-0.2724626064 -0.1177171171 0.5872570276 4289305245
-0.2725108266 -0.1170853451 0.5873609185 4288905350
-0.2725587785 -0.1164532378 0.5874643326 4287655283
-0.2726065218 -0.1158208027 0.5875672102 4286991700
-0.2722396255 -0.1150129810 0.5867764354 4285741633
-0.2722868025 -0.1143808439 0.5868781209 4286066997
-0.2723337412 -0.1137483791 0.5869792700 4285869618
-0.2723804116 -0.1131155863 0.5870798826 4286655278
-0.2724268436 -0.1124824733 0.5871799588 4286523692
-0.2724730372 -0.1118490398 0.5872794986 4287638574
-0.2725189924 -0.1112152785 0.5873785615 4288099125
-0.2725646794 -0.1105811968 0.5874770284 4288755511
-0.2726101577 -0.1099468023 0.5875750184 4288887097
-0.2726553679 -0.1093120873 0.5876724720 4288361776
-0.2727003098 -0.1086770594 0.5877693892 4288427569
-0.2727450430 -0.1080417186 0.5878657699 4288624691
-0.2727895081 -0.1074060649 0.5879616141 4288558898
-0.2728337049 -0.1067701057 0.5880569220 4288886580
-0.2724623382 -0.1059722900 0.5872564316 4289149752
-0.2725059986 -0.1053366810 0.5873505473 4289740862
-0.2725493908 -0.1047007665 0.5874441266 4289740862
-0.2725925446 -0.1040645465 0.5875371099 4289806142
-0.2722198665 -0.1032703668 0.5867338181 4290266693
-0.2722624540 -0.1026345193 0.5868256092 4290857799
-0.2723048031 -0.1019983739 0.5869168639 4290726213
-0.2719310820 -0.1012071818 0.5861114264 4290922303
-0.2719728649 -0.1005714163 0.5862014294 4291119682
-0.2724303305 -0.1000881717 0.5871874094 4291513411
-0.2724716663 -0.0994508490 0.5872765183 4291710790
-0.2725127339 -0.0988132432 0.5873650908 4291842119
-0.2725535929 -0.0981753469 0.5874531269 4291907912
-0.2721779943 -0.0973882526 0.5866435766 4290923843
-0.2718020082 -0.0966028273 0.5858331919 4291252808
-0.2718419731 -0.0959660262 0.5859193206 4291647056
-0.2714653313 -0.0951829627 0.5851075053 4292041814
-0.2715047002 -0.0945465788 0.5851923823 4291455081
-0.2711273730 -0.0937658921 0.5843790770 4289678670
-0.2711661756 -0.0931299403 0.5844627619 4285677382
-0.2712047398 -0.0924937129 0.5845459104 4285216831
-0.2712430656 -0.0918572173 0.5846284628 4282989645
-0.2716978490 -0.0913605765 0.5856086612 4282923852
-0.2725692689 -0.0910008550 0.5874868631 4282203730
-0.2726069689 -0.0903606191 0.5875682235 4282466902
-0.2730613351 -0.0898573026 0.5885475278 4282400589
-0.2735155523 -0.0893517658 0.5895265341 4281874245
-0.2743866146 -0.0889792368 0.5914039612 4282795338
-0.2744235396 -0.0883340314 0.5914835930 4285690230
-0.2744602263 -0.0876885653 0.5915625691 4285295734
-0.2749137878 -0.0871751234 0.5925402045 4282006084
-0.2753672004 -0.0866594613 0.5935174823 4282335049
-0.2754032016 -0.0860112682 0.5935950875 4284111460
-0.2758562863 -0.0854921490 0.5945715904 4287466901
-0.2758918107 -0.0848424658 0.5946481824 4289703863
-0.2763445079 -0.0843198970 0.5956239104 4289572277
-0.2763795555 -0.0836687312 0.5956994891 4286808971
-0.2759968042 -0.0828919113 0.5948745012 4285493365
-0.2756136954 -0.0821168125 0.5940487385 4286217088
-0.2752301991 -0.0813434497 0.5932222009 4287796120
-0.2752640545 -0.0806942582 0.5932951570 4289769910
-0.2748798728 -0.0799233615 0.5924671292 4291546320
-0.2744953632 -0.0791542083 0.5916383266 4292927973
-0.2704879344 -0.1197416335 0.5843998790 4292862180
-0.2709498703 -0.1192957014 0.5853978992 4292401629
-0.2709985971 -0.1186666265 0.5855032206 4292006871
-0.2710470855 -0.1180372089 0.5856079459 4291545808
-0.2710953355 -0.1174074560 0.5857121944 4291282636
-0.2711433470 -0.1167773604 0.5858159661 4291869895
-0.2711911201 -0.1161469370 0.5859191418 4291211965
-0.2712386549 -0.1155161858 0.5860218406 4290550951
-0.2712859511 -0.1148850918 0.5861240029 4289103505
-0.2713329792 -0.1142536774 0.5862256289 4287786357
-0.2717934847 -0.1137951389 0.5872205496 4286470497
-0.2714263499 -0.1129898652 0.5864273310 4286464326
-0.2714726627 -0.1123574674 0.5865274072 4285214259
-0.2715187371 -0.1117247492 0.5866269469 4286653220
-0.2715645432 -0.1110917106 0.5867259502 4287245357
-0.2716101408 -0.1104583517 0.5868244171 4287900455
-0.2716554701 -0.1098246798 0.5869223475 4287768869
-0.2717005312 -0.1091906801 0.5870197415 4287179555
-0.2717453837 -0.1085563749 0.5871166587 4287179555
-0.2717899680 -0.1079217568 0.5872129798 4287966769
-0.2718343139 -0.1072868183 0.5873088241 4287900976
-0.2718784213 -0.1066515744 0.5874040723 4288358958
-0.2719222903 -0.1060160249 0.5874988437 4288424751
-0.2719658911 -0.1053801700 0.5875930190 4288228651
-0.2715945840 -0.1045843363 0.5867908597 4288294444
-0.2716376185 -0.1039488390 0.5868838429 4288557869
-0.2716804147 -0.1033130437 0.5869762897 4288755248
-0.2717229724 -0.1026769429 0.5870682001 4290790720
-0.2717652619 -0.1020405516 0.5871595740 4290922306
-0.2713923156 -0.1012490466 0.5863538384 4290986556
-0.2718490958 -0.1007668748 0.5873407125 4291052349
-0.2718906403 -0.1001295969 0.5874304771 4291053889
-0.2719319165 -0.0994920209 0.5875196457 4291119682
-0.2719729543 -0.0988541618 0.5876083374 4291316802
-0.2715984583 -0.0980660692 0.5867992043 4291251009
-0.2716389298 -0.0974286050 0.5868866444 4291317061
-0.2712637484 -0.0966428667 0.5860760212 4291909198
-0.2713036537 -0.0960058197 0.5861622691 4292831330
-0.2709277868 -0.0952224359 0.5853501558 4294739327
-0.2709671259 -0.0945858061 0.5854351521 4294278524
-0.2705905437 -0.0938048065 0.5846216083 4291449425
-0.2706293464 -0.0931686014 0.5847053528 4285936189
-0.2706678510 -0.0925321206 0.5847886205 4285673017
-0.2707061172 -0.0918953717 0.5848712921 4283451992
-0.2711600363 -0.0913985297 0.5858519673 4283320406
-0.2716138065 -0.0908994675 0.5868323445 4283584863
-0.2720674276 -0.0903981775 0.5878124237 4283124312
-0.2721048594 -0.0897574201 0.5878933072 4283320153
-0.2725581527 -0.0892526656 0.5888726711 4282793809
-0.2730112970 -0.0887456909 0.5898516774 4283783263
-0.2734642923 -0.0882364884 0.5908304453 4285888639
-0.2735008597 -0.0875917450 0.5909094214 4282335047
-0.2739535272 -0.0870790780 0.5918874145 4280756015
-0.2739896178 -0.0864328444 0.5919654369 4280887601
-0.2740254700 -0.0857863501 0.5920428634 4280624429
-0.2740610540 -0.0851396024 0.5921197534 4281216566
-0.2745129466 -0.0846210122 0.5930960774 4282137668
-0.2749646604 -0.0841002017 0.5940720439 4281480506
-0.2745829225 -0.0833242983 0.5932472348 4280427818
-0.2742007971 -0.0825501159 0.5924216509 4280427818
-0.2734015286 -0.0816531926 0.5906947851 4280888369
-0.2730186284 -0.0808834508 0.5898675323 4281349175
-0.2726353407 -0.0801154375 0.5890394449 4282336070
-0.2726686299 -0.0794706792 0.5891113877 4284836204
-0.2718677223 -0.0785846189 0.5873809457 4286875787
-0.2702322900 -0.0774631947 0.5838475227 4289902265
-0.2694303393 -0.0765865445 0.5821149349 4291876055
-0.2696826756 -0.1177255213 0.5840616226 4292731109
-0.2697307169 -0.1170974448 0.5841656923 4292336351
-0.2697785199 -0.1164690331 0.5842692256 4292269530
-0.2702386677 -0.1160174161 0.5852657557 4291940565
-0.2702860832 -0.1153873801 0.5853683949 4291348682
-0.2703332305 -0.1147570163 0.5854705572 4290822338
-0.2699673474 -0.1139520779 0.5846781731 4290426038
-0.2704268098 -0.1134952903 0.5856732726 4289636522
-0.2704732418 -0.1128639430 0.5857738256 4289170832
-0.2705194354 -0.1122322679 0.5858738422 4287723386
-0.2705653906 -0.1116002724 0.5859733224 4287912285
-0.2706110775 -0.1109679490 0.5860723257 4286991183
-0.2706565559 -0.1103353128 0.5861707330 4287444540
-0.2707017660 -0.1097023562 0.5862686634 4286852403
-0.2707467079 -0.1090690866 0.5863660574 4287112238
-0.2707914412 -0.1084354967 0.5864629149 4286980652
-0.2708359063 -0.1078016013 0.5865592360 4287703849
-0.2708801329 -0.1071673855 0.5866550207 4287374884
-0.2709241211 -0.1065328643 0.5867502689 4287701796
-0.2709678411 -0.1058980376 0.5868449807 4288030761
-0.2710113525 -0.1052628979 0.5869391561 4288031272
-0.2710545659 -0.1046274602 0.5870327950 4288031272
-0.2710975707 -0.1039917171 0.5871258974 4288228650
-0.2711403072 -0.1033556685 0.5872184634 4288557615
-0.2711828053 -0.1027193218 0.5873104930 4290068026
-0.2712250352 -0.1020826772 0.5874019861 4290396991
-0.2708528936 -0.1012908593 0.5865960121 4290854971
-0.2713087797 -0.1008085012 0.5875833631 4290854971
-0.2713502944 -0.1001709700 0.5876731873 4290921276
-0.2713915110 -0.0995331481 0.5877625346 4290987069
-0.2714325190 -0.0988950357 0.5878512859 4290922814
-0.2710587978 -0.0981066301 0.5870419145 4291120193
-0.2710992098 -0.0974689201 0.5871294737 4291578440
-0.2707248032 -0.0966828614 0.5863186121 4291249475
-0.2707646787 -0.0960455611 0.5864049196 4292302678
-0.2708042860 -0.0954079777 0.5864906907 4294408054
-0.2704288661 -0.0946249887 0.5856776834 4293026917
-0.2700530887 -0.0938436687 0.5848638415 4290263611
-0.2700918317 -0.0932072103 0.5849477053 4285474610
-0.2701303065 -0.0925704837 0.5850310326 4285540403
-0.2701685131 -0.0919334739 0.5851138234 4282859592
-0.2710366249 -0.0915766805 0.5869939327 4283714901
-0.2710744739 -0.0909371823 0.5870758891 4283914081
-0.2711120546 -0.0902974159 0.5871572495 4283914081
-0.2715646029 -0.0897946879 0.5881373882 4284044903
-0.2716017365 -0.0891534090 0.5882177949 4283386973
-0.2720539570 -0.0886472166 0.5891971588 4284442220
-0.2720906138 -0.0880044326 0.5892766118 4284310634
-0.2725425065 -0.0874947682 0.5902552605 4281545531
-0.2725787163 -0.0868504941 0.5903336406 4281479738
-0.2726146579 -0.0862059593 0.5904115438 4281217336
-0.2722347379 -0.0854307413 0.5895887017 4280690992
-0.2722701132 -0.0847866833 0.5896653533 4281151543
-0.2727209628 -0.0842708424 0.5906417966 4281217336
-0.2731716633 -0.0837527812 0.5916178823 4280822576
-0.2727905512 -0.0829795152 0.5907924771 4280822576
-0.2719931602 -0.0820824653 0.5890655518 4280625197
-0.2716112435 -0.0813136399 0.5882384181 4280756783
-0.2708129883 -0.0804229975 0.5865095854 4280625710
-0.2708463371 -0.0797811747 0.5865818262 4281481019
-0.2708794475 -0.0791391060 0.5866534710 4281612604
-0.2696638405 -0.0781350732 0.5840208530 4283323222
-0.2684476674 -0.0771367252 0.5813869238 4287928732
-0.2676472068 -0.0762626827 0.5796533227 4290231487
-0.2672625780 -0.0755099729 0.5788202882 4291744467
-0.2688754499 -0.1157104969 0.5837174654 4293125352
-0.2693344653 -0.1152583808 0.5847139955 4292402399
-0.2693814933 -0.1146287322 0.5848160982 4292073434
-0.2694282830 -0.1139987558 0.5849176645 4292005846
-0.2694748342 -0.1133684516 0.5850186944 4291479502
-0.2695211470 -0.1127378270 0.5851192474 4291478474
-0.2695672214 -0.1121068746 0.5852192640 4290688958
-0.2696130276 -0.1114755943 0.5853187442 4289964204
-0.2696585953 -0.1108440012 0.5854176879 4288845723
-0.2697039545 -0.1102120876 0.5855160952 4288249730
-0.2697490156 -0.1095798537 0.5856139660 4286999663
-0.2697938681 -0.1089472994 0.5857113004 4286402134
-0.2698384821 -0.1083144322 0.5858081579 4285349446
-0.2698828280 -0.1076812595 0.5859044194 4287115829
-0.2699269354 -0.1070477664 0.5860002041 4286589485
-0.2699708045 -0.1064139679 0.5860953927 4286457895
-0.2700144053 -0.1057798639 0.5861901045 4286655274
-0.2700577676 -0.1051454470 0.5862842798 4287178532
-0.2701008916 -0.1045107320 0.5863778591 4287178532
-0.2701437771 -0.1038757116 0.5864709616 4288490793
-0.2701863945 -0.1032403857 0.5865634680 4289280309
-0.2706419826 -0.1027616486 0.5875525475 4290067254
-0.2706841826 -0.1021247581 0.5876441002 4290198840
-0.2707261145 -0.1014875695 0.5877351761 4290526519
-0.2707678080 -0.1008500829 0.5878257155 4290592312
-0.2708092630 -0.1002122983 0.5879156590 4290855484
-0.2708504498 -0.0995742306 0.5880051255 4290987070
-0.2708913982 -0.0989358649 0.5880939960 4290659645
-0.2705184519 -0.0981471464 0.5872843266 4290857024
-0.2705588341 -0.0975091830 0.5873720050 4291248709
-0.2701852024 -0.0967228115 0.5865608454 4291577674
-0.2702250183 -0.0960852578 0.5866473317 4291841362
-0.2702645659 -0.0954474211 0.5867332220 4292236120
-0.2698899508 -0.0946641192 0.5859199166 4291053129
-0.2695149481 -0.0938824937 0.5851057768 4289934648
-0.2695536315 -0.0932457820 0.5851897597 4285870649
-0.2695920765 -0.0926087946 0.5852732062 4285739063
-0.2700444162 -0.0921128169 0.5862552524 4282991177
-0.2700824142 -0.0914743096 0.5863377452 4284043865
-0.2705344558 -0.0909748599 0.5873190761 4284572009
-0.2705719769 -0.0903348327 0.5874005556 4284637802
-0.2706092596 -0.0896945521 0.5874814987 4285031798
-0.2710607648 -0.0891903788 0.5884616971 4284900212
-0.2710975707 -0.0885485858 0.5885416269 4285625726
-0.2711341679 -0.0879065245 0.5886210203 4282928213
-0.2711704671 -0.0872642174 0.5886998773 4281151543
-0.2712065279 -0.0866216421 0.5887781382 4281348922
-0.2712423205 -0.0859788209 0.5888558626 4281414715
-0.2708630860 -0.0852052569 0.5880325437 4281348922
-0.2708983123 -0.0845629051 0.5881090164 4281480508
-0.2709333003 -0.0839203075 0.5881849527 4281348922
-0.2709680200 -0.0832774639 0.5882602930 4281283127
-0.2710024714 -0.0826343745 0.5883351564 4280954162
-0.2702065408 -0.0817399174 0.5866072178 4280888369
-0.2698252499 -0.0809737295 0.5857794881 4280888369
-0.2690284550 -0.0800856948 0.5840496421 4280888882
-0.2690616250 -0.0794465616 0.5841216445 4281809984
-0.2695097923 -0.0789288133 0.5850946307 4280625710
-0.2682965398 -0.0779263452 0.5824607015 4283586395
-0.2670827210 -0.0769295692 0.5798255205 4290099902
-0.2662837803 -0.0760571361 0.5780910254 4292468450
-0.2658998370 -0.0753061026 0.5772575140 4292797157
-0.2680662870 -0.1136966199 0.5833674073 4293386472
-0.2681126297 -0.1130679995 0.5834682584 4292991714
-0.2681587338 -0.1124390587 0.5835686326 4292662495
-0.2682045996 -0.1118097976 0.5836684704 4292333530
-0.2682502270 -0.1111802086 0.5837677121 4291809493
