VERSION 0.7
FIELDS x y z rgba
SIZE 4 4 4 4
TYPE F F F U
COUNT 1 1 1 1
WIDTH 920
HEIGHT 1
VIEWPOINT 0.0 0.0 0.0 1.0 0.0 0.0 0.0
POINTS 920
DATA ascii
-0.3109987974 -0.1663605422 0.6254022121 4290757323
-0.3110684156 -0.1657027602 0.6255422235 4290757323
-0.3111377954 -0.1650445312 0.6256816983 4288321701
-0.3112069070 -0.1643858701 0.6258206964 4283321433
-0.3112757802 -0.1637267619 0.6259592175 4282992209
-0.3113444149 -0.1630672216 0.6260972023 4283058002
-0.3114128113 -0.1624072492 0.6262347698 4284176483
-0.3119147718 -0.1619721204 0.6272441745 4284965999
-0.3124166429 -0.1615347117 0.6282534599 4285952640
-0.3120504618 -0.1606481522 0.6275170445 4286610570
-0.3121179640 -0.1599855274 0.6276527643 4288760400
-0.3113168180 -0.1588792950 0.6260417104 4286260266
-0.3105150461 -0.1577763259 0.6244293451 4289341742
-0.3101470172 -0.1568963677 0.6236892939 4290854981
-0.3097785711 -0.1560178399 0.6229483485 4291128948
-0.3094096780 -0.1551407427 0.6222065687 4294953423
-0.3088576198 -0.1683515161 0.6224867105 4289903043
-0.3089278638 -0.1676980108 0.6226282716 4287468702
-0.3089978397 -0.1670440584 0.6227692962 4286875795
-0.3090675771 -0.1663896590 0.6229099035 4286875795
-0.3091370761 -0.1657348275 0.6230499744 4290164932
-0.3092063367 -0.1650795490 0.6231895089 4291217620
-0.3092753291 -0.1644238234 0.6233286262 4289506488
-0.3093441129 -0.1637676656 0.6234672070 4284243048
-0.3094126284 -0.1631110758 0.6236053109 4282795087
-0.3094809055 -0.1624540538 0.6237429380 4282992466
-0.3095489442 -0.1617965847 0.6238800287 4283781725
-0.3100497723 -0.1613640636 0.6248894334 4284768620
-0.3105505109 -0.1609292626 0.6258986592 4285820540
-0.3106180131 -0.1602686495 0.6260346770 4286741642
-0.3106852174 -0.1596076190 0.6261701584 4288699232
-0.3103187978 -0.1587244868 0.6254316568 4285277996
-0.3095184565 -0.1576220095 0.6238185763 4288551972
-0.3091510534 -0.1567426324 0.6230781674 4290986313
-0.3087832332 -0.1558646709 0.6223368049 4290598236
-0.3079812229 -0.1547701657 0.6207203865 4294948284
-0.3074325323 -0.1679506898 0.6210046411 4290429387
-0.3070712090 -0.1670641303 0.6202747822 4287929253
-0.3071408570 -0.1664126813 0.6204154491 4287138454
-0.3076416850 -0.1659936011 0.6214271784 4286612110
-0.3077109456 -0.1653403491 0.6215670109 4289309623
-0.3077799380 -0.1646866649 0.6217063665 4291217620
-0.3078486919 -0.1640325338 0.6218452454 4290230211
-0.3079171777 -0.1633779705 0.6219836473 4285493115
-0.3075534999 -0.1624947488 0.6212489605 4282729294
-0.3076214194 -0.1618402302 0.6213861704 4283255638
-0.3081212342 -0.1614116728 0.6223958135 4283584346
-0.3081887662 -0.1607553661 0.6225322485 4284637034
-0.3086884022 -0.1603231728 0.6235414743 4285623159
-0.3091879487 -0.1598887146 0.6245505810 4286610054
-0.3092549443 -0.1592292786 0.6246858835 4288440947
-0.3088890612 -0.1583476365 0.6239467859 4285611848
-0.3080900311 -0.1572465748 0.6223327518 4288027940
-0.3072903752 -0.1561487764 0.6207174659 4290264902
-0.3069230020 -0.1552732587 0.6199753881 4290398290
-0.3065551817 -0.1543991715 0.6192324162 4294943661
-0.3055795133 -0.1673137546 0.6186495423 4291021524
-0.3056491017 -0.1666643322 0.6187904477 4288389804
-0.3057184517 -0.1660144776 0.6189308763 4287204247
-0.3057875931 -0.1653641760 0.6190707684 4286677903
-0.3058564663 -0.1647134423 0.6192102432 4288716970
-0.3059251010 -0.1640622616 0.6193491817 4291282897
-0.3059934974 -0.1634106487 0.6194876432 4290756553
-0.3060616255 -0.1627585888 0.6196256280 4286940559
-0.3061295450 -0.1621060967 0.6197631359 4282795087
-0.3057659566 -0.1612257808 0.6190270185 4283058259
-0.3062646389 -0.1607998312 0.6200366020 4283715162
-0.3067632616 -0.1603716016 0.6210460663 4284570471
-0.3072618544 -0.1599411070 0.6220554709 4285622646
-0.3077603579 -0.1595083326 0.6230646968 4286412162
-0.3078270853 -0.1588504910 0.6231998205 4287984767
-0.3074617386 -0.1579703540 0.6224601269 4286010977
-0.3066640496 -0.1568707079 0.6208451986 4288292654
-0.3058657050 -0.1557743251 0.6192289591 4289608514
-0.3050667644 -0.1546812207 0.6176115274 4290462541
-0.3046994209 -0.1538095772 0.6168677807 4294937236
-0.3041601181 -0.1669119000 0.6171637177 4291416282
-0.3042294383 -0.1662640721 0.6173043847 4288784562
-0.3042985499 -0.1656158119 0.6174445748 4287270040
-0.3043673933 -0.1649671048 0.6175842881 4286875282
-0.3044359982 -0.1643179655 0.6177235246 4288191396
-0.3045043945 -0.1636683792 0.6178622246 4291086288
-0.3045725226 -0.1630183607 0.6180005074 4291151311
-0.3046404123 -0.1623678952 0.6181382537 4288453798
-0.3047080636 -0.1617169976 0.6182755232 4283255638
-0.3047754765 -0.1610656828 0.6184123158 4282795087
-0.3048426211 -0.1604139209 0.6185485721 4283518553
-0.3049095571 -0.1597617418 0.6186843514 4284308069
-0.3054069877 -0.1593338549 0.6196936965 4285359987
-0.3059043884 -0.1589037031 0.6207029223 4286083710
-0.3068326414 -0.1586941481 0.6225864291 4287658117
-0.3060368896 -0.1575926393 0.6209717989 4286342257
-0.3052405119 -0.1564944088 0.6193559170 4289083710
-0.3044435084 -0.1553994417 0.6177387238 4289741640
-0.3036459088 -0.1543077528 0.6161203384 4290724172
-0.3028476834 -0.1532193571 0.6145007014 4294145408
-0.3023833334 -0.1656284332 0.6149443388 4289508285
-0.3028810918 -0.1652166843 0.6159565449 4287467932
-0.3029496670 -0.1645695716 0.6160960793 4286941588
-0.3025888205 -0.1636898369 0.6153622270 4287862431
-0.3026568294 -0.1630427688 0.6155005097 4290757323
-0.3031539917 -0.1626256108 0.6165115833 4291414485
-0.3032216430 -0.1619767547 0.6166491508 4289638074
-0.3032890260 -0.1613274515 0.6167861819 4284374121
-0.3029264808 -0.1604501456 0.6160489321 4282729296
-0.3029932976 -0.1598009020 0.6161848307 4283518299
-0.3030598760 -0.1591512412 0.6163201928 4284242022
-0.3035561740 -0.1587259769 0.6173294783 4285031538
-0.3040524125 -0.1582984328 0.6183387041 4285821054
-0.3049787581 -0.1580916047 0.6202225685 4287264900
-0.3046144843 -0.1572144926 0.6194817424 4286935935
-0.3038194478 -0.1561176628 0.6178649068 4290203732
-0.3030237854 -0.1550241262 0.6162468195 4290137939
-0.3022275269 -0.1539338529 0.6146274209 4290985802
-0.3014306426 -0.1528468877 0.6130068302 4293814901
-0.3005412817 -0.1649921238 0.6125818491 4290232008
-0.3010378480 -0.1645829976 0.6135940552 4287731874
-0.3011060953 -0.1639383882 0.6137331128 4286876565
-0.3011740744 -0.1632933617 0.6138716936 4287533725
-0.3012418449 -0.1626478881 0.6140097976 4290099652
-0.3013093472 -0.1620019674 0.6141474247 4291480278
-0.3013766408 -0.1613556296 0.6142845154 4290361797
-0.3014436662 -0.1607088596 0.6144211888 4285361017
-0.3015104532 -0.1600616574 0.6145573258 4282860883
-0.3011480272 -0.1591872573 0.6138185859 4283453020
-0.3012142479 -0.1585401148 0.6139535904 4284110950
-0.3017094135 -0.1581174731 0.6149628162 4284834672
-0.3026337922 -0.1579165459 0.6168469191 4285755774
-0.3022702038 -0.1570422798 0.6161058545 4286805893
-0.3027651012 -0.1566137522 0.6171146035 4287398030
-0.3019712865 -0.1555192620 0.6154966354 4290928484
-0.3011768758 -0.1544280648 0.6138774157 4290073175
-0.3003818393 -0.1533401608 0.6122569442 4290919241
-0.2995862067 -0.1522555351 0.6106352210 4293879926
-0.2991305888 -0.1645902842 0.6110899448 4290626764
-0.2991987169 -0.1639486402 0.6112290621 4288191653
-0.2996940911 -0.1635398567 0.6122410893 4286875793
-0.2993341982 -0.1626640409 0.6115058661 4287072661
-0.2994016111 -0.1620210856 0.6116435528 4289309623
-0.2998965681 -0.1616082340 0.6126547456 4291480792
-0.2999635935 -0.1609634906 0.6127916574 4290822862
-0.3000303805 -0.1603183150 0.6129280925 4286940561
-0.3000968993 -0.1596727222 0.6130639911 4282927188
-0.2997350097 -0.1587998271 0.6123247147 4282992468
-0.2998009920 -0.1581542939 0.6124594808 4283453019
-0.2998667061 -0.1575083286 0.6125937104 4284637294
-0.3007891476 -0.1573101133 0.6144781709 4285295224
-0.3008545637 -0.1566614658 0.6146118641 4286543232
-0.3009197712 -0.1560123861 0.6147450209 4287727506
-0.3009847105 -0.1553628743 0.6148777008 4289883769
-0.3001917303 -0.1542721838 0.6132577062 4288238944
-0.2993981242 -0.1531847715 0.6116364598 4291641929
-0.2986039221 -0.1521006525 0.6100140214 4294076270
-0.2977223992 -0.1641879976 0.6095963120 4291021522
-0.2977902591 -0.1635479480 0.6097351909 4288849583
-0.2978578508 -0.1629074663 0.6098736525 4287204758
-0.2979252040 -0.1622665524 0.6100115776 4287006868
-0.2979923487 -0.1616251916 0.6101490259 4288651693
-0.2980592549 -0.1609833986 0.6102859974 4291349206
-0.2985530198 -0.1605709046 0.6112970710 4291086034
-0.2986195385 -0.1599273384 0.6114332676 4288190628
-0.2982585132 -0.1590554565 0.6106940508 4283782497
-0.2983244658 -0.1584119499 0.6108290553 4283189847
-0.2983901799 -0.1577680260 0.6109636426 4283321433
-0.2984556556 -0.1571236700 0.6110976934 4284505708
-0.2993762493 -0.1569272578 0.6129826307 4285163638
-0.2994414270 -0.1562802047 0.6131160855 4286411646
-0.2995063663 -0.1556327343 0.6132490635 4287530127
-0.2995710671 -0.1549848318 0.6133815050 4290278013
-0.2996355295 -0.1543365270 0.6135134697 4287251535
-0.2984153032 -0.1530291289 0.6110150218 4290326584
-0.2976225317 -0.1519455165 0.6093918085 4293353062
-0.2958909571 -0.1635499299 0.6072272658 4291284692
-0.2959584296 -0.1629123986 0.6073657274 4289507513
-0.2960256636 -0.1622744352 0.6075037718 4287467930
-0.2960926890 -0.1616360247 0.6076412797 4287138454
-0.2965855896 -0.1612288505 0.6086528301 4288191142
-0.2966522276 -0.1605886668 0.6087895632 4291151827
-0.2967186272 -0.1599480510 0.6089258194 4291217620
-0.2967847884 -0.1593070030 0.6090615988 4289440695
-0.2968507409 -0.1586655378 0.6091969013 4284637806
-0.2964898050 -0.1577965915 0.6084562540 4283189848
-0.2965551913 -0.1571551859 0.6085904241 4283124055
-0.2970471084 -0.1567385644 0.6095998883 4284308329
-0.2975389659 -0.1563196629 0.6106092930 4285097845
-0.2980307639 -0.1558984965 0.6116185784 4286214013
-0.2976683974 -0.1550302207 0.6108748913 4287398287
-0.2981598973 -0.1546063572 0.6118835807 4290936974
-0.2982240915 -0.1539596617 0.6120153666 4286857808
-0.2974333763 -0.1528732479 0.6103926301 4289210676
-0.2970694602 -0.1520088464 0.6096458435 4293092463
-0.2944885492 -0.1631466150 0.6057298779 4291416278
-0.2945557535 -0.1625106931 0.6058681011 4289968064
-0.2946227193 -0.1618743241 0.6060059071 4287731102
-0.2946894765 -0.1612375379 0.6061431766 4287204758
-0.2947559953 -0.1606003046 0.6062800288 4287928481
-0.2952477038 -0.1601934731 0.6072914004 4290822862
-0.2953138351 -0.1595544666 0.6074274778 4291349206
-0.2953797579 -0.1589150280 0.6075630188 4290164418
-0.2950197160 -0.1580470949 0.6068224311 4285822080
-0.2950850427 -0.1574077308 0.6069568396 4283189848
-0.2951501608 -0.1567679495 0.6070907712 4283321434
-0.2956410348 -0.1563530266 0.6081004143 4284045157
-0.2961318493 -0.1559358239 0.6091099381 4285229431
-0.2961964309 -0.1552929282 0.6092427969 4285623159
-0.2962607443 -0.1546496004 0.6093751192 4287267984
-0.2967512310 -0.1542274356 0.6103839874 4291138209
-0.2968151867 -0.1535823494 0.6105155349 4287585387
-0.2964523435 -0.1527171135 0.6097692251 4288690757
-0.2960890830 -0.1518533081 0.6090220213 4293164681
-0.2931555510 -0.1621085256 0.6043688059 4290363592
-0.2932222784 -0.1614737660 0.6045063138 4288060837
-0.2932887673 -0.1608385742 0.6046434045 4287336344
-0.2933550179 -0.1602029651 0.6047800183 4287731102
-0.2938456833 -0.1597978324 0.6057915092 4290230725
-0.2939115465 -0.1591604352 0.6059273481 4291414999
-0.2939772010 -0.1585226059 0.6060627103 4290690762
-0.2940426171 -0.1578843445 0.6061975360 4287401112
-0.2941077948 -0.1572456658 0.6063319445 4283453277
-0.2941727340 -0.1566065550 0.6064658165 4283453277
-0.2946626544 -0.1561924219 0.6074758172 4283716192
-0.2951525152 -0.1557760090 0.6084856987 4285361017
-0.2952169180 -0.1551337838 0.6086184978 4285163637
-0.2948556244 -0.1542685479 0.6078736782 4287005841
-0.2957706153 -0.1540697813 0.6097599864 4290486189
-0.2962600887 -0.1536461264 0.6107690334 4288907157
-0.2958979607 -0.1527805626 0.6100225449 4288766056
-0.2955354452 -0.1519164294 0.6092751622 4293239980
-0.2917578816 -0.1617059112 0.6028677821 4290889936
-0.2918243408 -0.1610727608 0.6030050516 4288652974
-0.2918905616 -0.1604391783 0.6031419039 4287402137
-0.2919565439 -0.1598051637 0.6032782793 4287467930
-0.2920223176 -0.1591707170 0.6034141779 4289638842
-0.2920878530 -0.1585358530 0.6035495400 4291349460
-0.2921531498 -0.1579005569 0.6036844850 4290953934
-0.2922182083 -0.1572648287 0.6038189530 4288651179
-0.2922830284 -0.1566286832 0.6039528847 4283979621
-0.2927719355 -0.1562185287 0.6049631238 4283190105
-0.2932607830 -0.1558060944 0.6059732437 4283321433
-0.2937496006 -0.1553913802 0.6069833040 4285426809
-0.2938137650 -0.1547507793 0.6071158648 4285229430
-0.2938776910 -0.1541097462 0.6072479486 4286676876
-0.2943661511 -0.1536900848 0.6082572937 4289504685
-0.2952794135 -0.1534889936 0.6101443768 4290228408
-0.2953428924 -0.1528439373 0.6102755666 4289958808
-0.2949811220 -0.1519794762 0.6095280051 4293577423
-0.2903627157 -0.1613028347 0.6013650298 4291218901
-0.2904289067 -0.1606712937 0.6015021205 4289245111
-0.2904948592 -0.1600393206 0.6016387343 4287599516
-0.2905606031 -0.1594069153 0.6017748713 4287402137
-0.2906261086 -0.1587740779 0.6019105315 4289309877
-0.2906913757 -0.1581408232 0.6020457149 4291086288
-0.2907564044 -0.1575071365 0.6021803617 4291085520
-0.2908211946 -0.1568730325 0.6023145914 4289374902
-0.2908857763 -0.1562384963 0.6024483442 4285032564
-0.2909501195 -0.1556035429 0.6025815606 4282927188
-0.2914378345 -0.1551937461 0.6035916805 4283058261
-0.2915017903 -0.1545570195 0.6037241220 4285163637
-0.2919892967 -0.1541436017 0.6047338247 4285885820
-0.2924767733 -0.1537279189 0.6057434082 4286346371
-0.2929641902 -0.1533099562 0.6067528725 4288651947
-0.2938756049 -0.1531106681 0.6086404920 4291152081
-0.2947871387 -0.1529072523 0.6105284095 4292134344
-0.2889700532 -0.1608992964 0.5998606086 4291416280
-0.2890360057 -0.1602693647 0.5999974608 4289639869
-0.2891016901 -0.1596390009 0.6001338363 4287796895
-0.2891671658 -0.1590082198 0.6002697349 4287533723
-0.2892324030 -0.1583769917 0.6004051566 4289178291
-0.2892974019 -0.1577453464 0.6005401015 4290888909
-0.2893621922 -0.1571132839 0.6006745696 4291282899
-0.2894267440 -0.1564807892 0.6008085608 4289901246
-0.2894910574 -0.1558478624 0.6009420753 4286216838
-0.2895551324 -0.1552145332 0.6010751128 4282992981
-0.2900417745 -0.1548064351 0.6020852923 4282992979
-0.2901054919 -0.1541713327 0.6022175550 4284769390
-0.2905919552 -0.1537596285 0.6032273769 4286476415
-0.2910783589 -0.1533456445 0.6042371392 4285950071
-0.2915647328 -0.1529293954 0.6052467227 4288060067
-0.2924742997 -0.1527319103 0.6071348786 4291415510
-0.2871588767 -0.1602603197 0.5974783897 4291678936
-0.2872244418 -0.1596329212 0.5976147652 4289968318
-0.2877110541 -0.1592382342 0.5986272097 4288323493
-0.2877762616 -0.1586090624 0.5987628698 4287402391
-0.2878412306 -0.1579794586 0.5988981128 4288783533
-0.2874844372 -0.1571190506 0.5981557369 4290428358
-0.2879704833 -0.1567189693 0.5991670489 4291151827
-0.2880347967 -0.1560880840 0.5993008018 4290033346
-0.2880988419 -0.1554567963 0.5994340777 4287335833
-0.2881626785 -0.1548250765 0.5995668769 4283388253
-0.2886482775 -0.1544186920 0.6005772352 4282729809
-0.2891338170 -0.1540100425 0.6015875340 4284308841
-0.2891971469 -0.1533752084 0.6017192602 4285953411
-0.2896824777 -0.1529629380 0.6027291417 4284440172
-0.2901678085 -0.1525484025 0.6037389040 4287663769
-0.2910755277 -0.1523527205 0.6056275368 4290887626
-0.2862577438 -0.1594641507 0.5969830155 4290363076
-0.2863229215 -0.1588370204 0.5971189141 4288586665
-0.2863878608 -0.1582094580 0.5972543359 4287533977
-0.2864525914 -0.1575814635 0.5973893404 4288651947
-0.2865170836 -0.1569530517 0.5975238085 4290033600
-0.2861604989 -0.1560946554 0.5967801809 4291151827
-0.2866453826 -0.1556949466 0.5977913737 4290164932
-0.2867091596 -0.1550652683 0.5979244113 4288125349
-0.2867727280 -0.1544351727 0.5980569720 4283783011
-0.2868360877 -0.1538046449 0.5981891155 4282927188
-0.2873204947 -0.1533986330 0.5991992950 4283650911
-0.2873834670 -0.1527663618 0.5993306041 4285821825
-0.2878676653 -0.1523567289 0.6003404260 4284637551
-0.2883518338 -0.1519448310 0.6013501287 4286677389
-0.2896792591 -0.1519730985 0.6041184664 4289967039
-0.2852919698 -0.1592951268 0.5963501930 4290823627
-0.2853569686 -0.1586686820 0.5964860916 4288849837
-0.2854217589 -0.1580418199 0.5966215134 4287599770
-0.2854863107 -0.1574145257 0.5967563987 4288717740
-0.2855506241 -0.1567867994 0.5968908668 4289507256
-0.2851947248 -0.1559290141 0.5961468816 4291086034
-0.2852584720 -0.1553013772 0.5962802172 4290230725
-0.2849018276 -0.1544455141 0.5955346823 4289178037
-0.2849650383 -0.1538179517 0.5956668258 4284572527
-0.2854484320 -0.1534159333 0.5966772437 4282993495
-0.2855112851 -0.1527866125 0.5968086123 4282993495
-0.2859944999 -0.1523809731 0.5978186727 4285558653
-0.2864776552 -0.1519730687 0.5988286138 4285098102
-0.2869607508 -0.1515628844 0.5998384953 4285756287
-0.2878646851 -0.1513717324 0.6017279625 4289045937
-0.2839083970 -0.1588914841 0.5948390961 4291152592
-0.2839731276 -0.1582666636 0.5949747562 4289178548
-0.2836187184 -0.1574088931 0.5942321420 4287796895
-0.2836829126 -0.1567841470 0.5943666697 4288651947
-0.2837468982 -0.1561589688 0.5945007205 4289178291
-0.2838106155 -0.1555333585 0.5946342349 4290954448
-0.2834548354 -0.1546785235 0.5938888192 4290428104
-0.2835180163 -0.1540530175 0.5940212011 4289835967
-0.2840004861 -0.1536540389 0.5950320363 4285888387
-0.2840633392 -0.1530267745 0.5951637030 4282993495
-0.2841259241 -0.1523990780 0.5952948928 4282664530
-0.2841883004 -0.1517709792 0.5954255462 4284769907
-0.2846703231 -0.1513657123 0.5964354277 4285493630
-0.2851522863 -0.1509581804 0.5974452496 4285033078
-0.2877344489 -0.1516553462 0.6028553247 4287993763
-0.2865361869 -0.1503567547 0.6003447771 4292007388
-0.2825273573 -0.1584873796 0.5933262706 4291547350
-0.2825918198 -0.1578641683 0.5934616923 4289639099
-0.2822379470 -0.1570079327 0.5927185416 4288060067
-0.2823019028 -0.1563848108 0.5928527713 4288323239
-0.2823656201 -0.1557612419 0.5929865837 4288981169
-0.2820106745 -0.1549074352 0.5922412276 4290757069
-0.2820738554 -0.1542839706 0.5923738480 4290822862
-0.2821367979 -0.1536600739 0.5925060511 4290033346
-0.2821995020 -0.1530357599 0.5926377177 4287138454
-0.2826807797 -0.1526371688 0.5936484337 4282927703
-0.2827431262 -0.1520111114 0.5937793851 4282532945
-0.2828052342 -0.1513846219 0.5939098597 4283914598
-0.2832861841 -0.1509810835 0.5949198604 4285625216
-0.2841862440 -0.1507976800 0.5968100429 4284769906
-0.2846671939 -0.1503886580 0.5978200436 4287072661
-0.2855674326 -0.1501979381 0.5997106433 4291086286
-0.2812130749 -0.1574612409 0.5919468999 4290033857
-0.2808597684 -0.1566065252 0.5912031531 4288323239
-0.2809234262 -0.1559850276 0.5913372040 4288191655
-0.2805693746 -0.1551322341 0.5905919075 4288981171
-0.2806324959 -0.1545108110 0.5907248259 4290428104
-0.2806954086 -0.1538889557 0.5908572078 4290954448
-0.2807581127 -0.1532666981 0.5909891725 4290033346
-0.2808205485 -0.1526440084 0.5911206603 4288125349
-0.2808827758 -0.1520209163 0.5912516117 4283519840
-0.2813628614 -0.1516226977 0.5922622085 4282664531
-0.2814247310 -0.1509978473 0.5923924446 4283322461
-0.2819046080 -0.1505960226 0.5934025645 4285559423
-0.2823844552 -0.1501919180 0.5944126248 4284835700
-0.2832826972 -0.1500071287 0.5963034034 4286151560
-0.2841810882 -0.1498182118 0.5981944799 4289968064
-0.2794204652 -0.1568241417 0.5895518661 4290428615
-0.2794841230 -0.1562046707 0.5896861553 4288586411
-0.2795475423 -0.1555847824 0.5898199081 4288323241
-0.2791940272 -0.1547335386 0.5890740752 4288915378
-0.2788400948 -0.1538837105 0.5883272886 4289967553
-0.2793195546 -0.1534935087 0.5893388987 4290954448
-0.2789649963 -0.1526446939 0.5885908008 4290164932
-0.2794441879 -0.1522518098 0.5896018744 4288783279
-0.2795061469 -0.1516303420 0.5897325873 4284769907
-0.2795678973 -0.1510084569 0.5898628831 4282861910
-0.2800467908 -0.1506106257 0.5908733010 4282992726
-0.2805256248 -0.1502105147 0.5918835998 4285361274
-0.2810043991 -0.1498081386 0.5928937793 4284967286
-0.2819007635 -0.1496251673 0.5947850347 4285296251
-0.2823795676 -0.1492173225 0.5957952738 4288717997
-0.2780476809 -0.1564202160 0.5880333185 4290757580
-0.2781110406 -0.1558023691 0.5881673694 4288915376
-0.2777583897 -0.1549521387 0.5874215961 4288257448
-0.2778212428 -0.1543343812 0.5875544548 4288717999
-0.2774678469 -0.1534860879 0.5868071318 4289704381
-0.2775301635 -0.1528684199 0.5869388580 4291020241
-0.2775922418 -0.1522503346 0.5870701671 4290559690
-0.2780703604 -0.1518591791 0.5880813599 4289243830
-0.2781320810 -0.1512393355 0.5882118940 4285888388
-0.2781935930 -0.1506190896 0.5883419514 4282861910
-0.2786713839 -0.1502229720 0.5893524289 4282597968
-0.2791491747 -0.1498245895 0.5903629065 4285032309
-0.2796269059 -0.1494239420 0.5913732052 4285033079
-0.2801045775 -0.1490210146 0.5923834443 4284638321
-0.2805822194 -0.1486158222 0.5933935642 4287599516
-0.2766774297 -0.1560158283 0.5865131617 4291152338
-0.2767405510 -0.1553996056 0.5866469145 4289310134
-0.2763884366 -0.1545509100 0.5859005451 4287928481
-0.2764510214 -0.1539347917 0.5860332251 4288520618
-0.2760981917 -0.1530880332 0.5852852464 4289112758
-0.2761602402 -0.1524719894 0.5854167938 4290823376
-0.2762220502 -0.1518555433 0.5855478644 4290428105
-0.2766991258 -0.1514661014 0.5865591168 4289770175
-0.2767605782 -0.1508478969 0.5866894126 4287006869
-0.2768218219 -0.1502292752 0.5868192315 4283256668
-0.2772985995 -0.1498348862 0.5878298879 4282401361
-0.2777753174 -0.1494382322 0.5888404846 4284704116
-0.2782519758 -0.1490392983 0.5898509622 4285493630
-0.2787286043 -0.1486380994 0.5908613205 4284440942
-0.2787890732 -0.1480137259 0.5909895301 4286678416
-0.2792655230 -0.1476089209 0.5919994712 4291678684
-0.2753097713 -0.1556109935 0.5849912167 4291349971
-0.2753726244 -0.1549964100 0.5851247907 4289639353
-0.2754352689 -0.1543813944 0.5852578878 4288191653
-0.2750833929 -0.1535347402 0.5845102072 4288323239
-0.2751455009 -0.1529198289 0.5846421719 4288915378
-0.2752073705 -0.1523044854 0.5847736597 4290494410
-0.2752690315 -0.1516887397 0.5849046707 4290559691
-0.2753304541 -0.1510725766 0.5850352049 4289901761
-0.2753916681 -0.1504560113 0.5851652622 4287796384
-0.2754526734 -0.1498390287 0.5852949023 4283848804
-0.2759283483 -0.1494463533 0.5863056779 4282598740
-0.2759889960 -0.1488276273 0.5864344835 4284309358
-0.2768796086 -0.1486542225 0.5883269310 4285559936
-0.2773551941 -0.1482547522 0.5893374681 4284441455
-0.2774154246 -0.1476320177 0.5894654393 4285823107
-0.2778908014 -0.1472289413 0.5904754996 4290889168
-0.2739446759 -0.1552057117 0.5834676623 4291678936
-0.2740072906 -0.1545927525 0.5836009383 4290099904
-0.2740696669 -0.1539793760 0.5837337971 4288520872
-0.2737183571 -0.1531342566 0.5829855800 4288126114
-0.2737801969 -0.1525209695 0.5831173062 4288783790
-0.2738417983 -0.1519072652 0.5832485557 4290165443
-0.2739032209 -0.1512931585 0.5833793283 4290822862
-0.2739644051 -0.1506786197 0.5835096240 4290033346
-0.2740253508 -0.1500636786 0.5836394429 4288783279
-0.2740860879 -0.1494483352 0.5837687850 4284638320
-0.2745607197 -0.1490574032 0.5847796798 4282730583
-0.2746210992 -0.1484403014 0.5849083066 4283651685
-0.2750955522 -0.1480457634 0.5859188437 4285691522
-0.2755699754 -0.1476489604 0.5869292617 4284704627
-0.2756298482 -0.1470287740 0.5870568156 4284902005
-0.2761040926 -0.1466283649 0.5880668759 4289836480
-0.2726445496 -0.1541886479 0.5820754170 4290494662
-0.2727066576 -0.1535768956 0.5822080374 4288849837
-0.2723558843 -0.1527333260 0.5814592242 4287994528
-0.2724174857 -0.1521216631 0.5815906525 4288783790
-0.2724788487 -0.1515095979 0.5817216635 4289770685
-0.2725399733 -0.1508971155 0.5818521976 4291086034
-0.2726009190 -0.1502842307 0.5819823146 4290099139
-0.2726616263 -0.1496709287 0.5821118951 4289507002
-0.2727220953 -0.1490572095 0.5822409987 4285559422
-0.2731956542 -0.1486680061 0.5832520723 4282730583
-0.2732557952 -0.1480525583 0.5833804011 4283256927
-0.2737291753 -0.1476597488 0.5843910575 4285494143
-0.2737889588 -0.1470425427 0.5845186710 4285033592
-0.2738485038 -0.1464249343 0.5846458077 4284244075
-0.2743215859 -0.1460271925 0.5856558084 4288717999
-0.2712844014 -0.1537840962 0.5805482268 4290757834
-0.2713462412 -0.1531739831 0.5806806087 4289178548
-0.2709960341 -0.1523319483 0.5799311399 4287994274
-0.2710573673 -0.1517219245 0.5800623894 4288717997
-0.2711184621 -0.1511114985 0.5801931620 4289441720
-0.2711793482 -0.1505006552 0.5803234577 4291086034
-0.2712400258 -0.1498893946 0.5804532766 4290099139
-0.2717127800 -0.1495046020 0.5814650059 4289901760
-0.2717730999 -0.1488915980 0.5815940499 4286612110
-0.2718332112 -0.1482781768 0.5817226768 4282730583
-0.2718930840 -0.1476643682 0.5818508267 4283125341
-0.2723654211 -0.1472732872 0.5828616023 4285296510
-0.2724249363 -0.1466577351 0.5829889774 4285296510
-0.2724842429 -0.1460417658 0.5831158757 4283980904
-0.2729562521 -0.1456457525 0.5841259956 4287270554
-0.2703377008 -0.1536125392 0.5799006224 4291086799
-0.2699884474 -0.1527706087 0.5791514516 4289573306
-0.2700498104 -0.1521617174 0.5792831182 4288060067
-0.2701109946 -0.1515524089 0.5794143081 4288652204
-0.2701719403 -0.1509426832 0.5795450211 4289178548
-0.2702326477 -0.1503325552 0.5796752572 4291086288
-0.2702931464 -0.1497220099 0.5798050761 4290165186
-0.2703534365 -0.1491110623 0.5799344182 4290099139
-0.2704135180 -0.1484996974 0.5800632238 4287664798
-0.2704733610 -0.1478879303 0.5801916122 4282730583
-0.2709447443 -0.1474999189 0.5812028050 4282730583
-0.2710042596 -0.1468864083 0.5813304186 4284901752
-0.2714754641 -0.1464947909 0.5823412538 4285559682
-0.2715346217 -0.1458795369 0.5824681520 4284112490
-0.2720056474 -0.1454843134 0.5834785700 4285954694
-0.2724766731 -0.1450868249 0.5844889283 4291612889
-0.2689819336 -0.1532071829 0.5783703327 4291349971
-0.2686332464 -0.1523668021 0.5776205659 4290034111
-0.2686943710 -0.1517595500 0.5777519941 4288191907
-0.2687552571 -0.1511518657 0.5778829455 4288520872
-0.2688159645 -0.1505437940 0.5780134797 4288981423
-0.2688764334 -0.1499352902 0.5781434774 4290888909
-0.2689366639 -0.1493263841 0.5782729983 4290362565
-0.2689967155 -0.1487170756 0.5784021020 4290099139
-0.2690565288 -0.1481073499 0.5785307288 4288651693
-0.2691161335 -0.1474972367 0.5786588788 4283388256
-0.2695864439 -0.1471109539 0.5796701908 4282269775
-0.2700567245 -0.1467224061 0.5806813836 4284244076
-0.2701158524 -0.1461092085 0.5808085203 4285559936
-0.2701747417 -0.1454955935 0.5809351206 4284507247
-0.2706447244 -0.1451021135 0.5819457173 4285296763
-0.2711146772 -0.1447063535 0.5829561949 4290757580
-0.2676288188 -0.1528013796 0.5768384337 4291481555
-0.2672806680 -0.1519625336 0.5760880709 4290428869
-0.2673415244 -0.1513569206 0.5762192011 4288323493
-0.2674021721 -0.1507508904 0.5763499141 4288389286
-0.2674626112 -0.1501444429 0.5764802098 4288784044
-0.2675228119 -0.1495375931 0.5766099691 4290691528
-0.2675828040 -0.1489303261 0.5767392516 4290428356
-0.2676425874 -0.1483226568 0.5768681169 4290165186
-0.2677021623 -0.1477145851 0.5769965053 4289244084
-0.2677614987 -0.1471061110 0.5771244168 4284835700
-0.2682307661 -0.1467215568 0.5781358480 4282467152
-0.2686999738 -0.1463347524 0.5791471601 4284177770
-0.2687588334 -0.1457231939 0.5792740583 4285625216
-0.2688174844 -0.1451112330 0.5794004798 4284770419
-0.2688758969 -0.1444988847 0.5795263648 4284836212
-0.2693446875 -0.1441057920 0.5805367827 4289770939
-0.2659307122 -0.1515578330 0.5745537877 4290692041
-0.2655827105 -0.1507219821 0.5738019943 4288849837
-0.2660517097 -0.1503494680 0.5748152137 4288191394
-0.2661118805 -0.1497446746 0.5749452114 4288849324
-0.2661718428 -0.1491394639 0.5750747323 4289967807
-0.2662315667 -0.1485338360 0.5752038360 4290625737
-0.2662910819 -0.1479278058 0.5753324628 4290230725
-0.2663504183 -0.1473213732 0.5754605532 4289704381
-0.2664094865 -0.1467145383 0.5755882263 4286677903
-0.2668776810 -0.1463317424 0.5765997767 4282993495
-0.2669364214 -0.1457231641 0.5767267346 4284507247
-0.2669949532 -0.1451141834 0.5768531561 4286086279
-0.2670532763 -0.1445048153 0.5769791007 4285494142
-0.2675210238 -0.1441157311 0.5779897571 4284770419
-0.2679887414 -0.1437243968 0.5790002942 4288652458
-0.2649910450 -0.1513855904 0.5739008188 4290889420
-0.2646437287 -0.1505503505 0.5731485486 4289047216
-0.2647038400 -0.1499475986 0.5732787848 4288322980
-0.2647637725 -0.1493444443 0.5734085441 4288717738
-0.2648234665 -0.1487408727 0.5735378861 4289704635
-0.2648829520 -0.1481368989 0.5736666918 4290494151
-0.2649422288 -0.1475325227 0.5737950802 4290230725
-0.2650012970 -0.1469277442 0.5739229321 4289704381
-0.2654685378 -0.1465480030 0.5749348998 4286546571
-0.2655272484 -0.1459414810 0.5750620365 4282796370
-0.2655857503 -0.1453345567 0.5751887560 4283585632
-0.2656440139 -0.1447272301 0.5753149390 4285230457
-0.2657020688 -0.1441195011 0.5754407048 4285428347
-0.2661687732 -0.1437321752 0.5764514208 4284967796
-0.2666354179 -0.1433425695 0.5774620771 4287928735
-0.2636455595 -0.1509800851 0.5723635554 4291086799
-0.2637057304 -0.1503784657 0.5724942088 4289244595
-0.2637656927 -0.1497764289 0.5726243854 4288388773
-0.2634182870 -0.1489437819 0.5718702078 4288520359
-0.2634777427 -0.1483418643 0.5719992518 4289309877
-0.2635369897 -0.1477395296 0.5721278787 4290428358
-0.2635959983 -0.1471368074 0.5722559690 4290230979
-0.2636547983 -0.1465336680 0.5723836422 4289112498
-0.2641209662 -0.1461556703 0.5733957291 4286875536
-0.2641794384 -0.1455508024 0.5735226274 4284441195
-0.2642376721 -0.1449455321 0.5736490488 4284572781
-0.2642956972 -0.1443398446 0.5737750530 4285099125
-0.2643535137 -0.1437337697 0.5739005208 4285757566
-0.2648191452 -0.1433481872 0.5749114156 4286349703
-0.2652847469 -0.1429603249 0.5759221911 4288389284
-0.2653420568 -0.1423511803 0.5760466456 4292073692
-0.2618966401 -0.1503410488 0.5699409842 4291284178
-0.2619564533 -0.1497420073 0.5700711608 4289705146
-0.2620160580 -0.1491425484 0.5702009201 4288257700
-0.2620754838 -0.1485426873 0.5703302026 4288257700
-0.2621346712 -0.1479424089 0.5704590082 4289046705
-0.2621936500 -0.1473417282 0.5705873370 4290296772
-0.2622523904 -0.1467406452 0.5707151890 4290033600
-0.2627176344 -0.1463657320 0.5717276335 4287599259
-0.2627760470 -0.1457629055 0.5718548298 4285099125
-0.2628342807 -0.1451596916 0.5719814897 4282598991
-0.2628922760 -0.1445560604 0.5721076727 4281612094
-0.2629500329 -0.1439520419 0.5722334385 4281677887
-0.2630076110 -0.1433476210 0.5723586679 4282006852
-0.2634721696 -0.1429637671 0.5733696818 4282401610
-0.2635293901 -0.1423576176 0.5734941959 4284507497
-0.2635863721 -0.1417510808 0.5736182332 4289705144
-0.2609624565 -0.1501677483 0.5692839622 4291678936
-0.2610220909 -0.1495694071 0.5694141388 4290099904
-0.2606761456 -0.1487393528 0.5686594248 4288257446
-0.2607353032 -0.1481411308 0.5687884688 4288191653
-0.2607942224 -0.1475425214 0.5689170361 4288849583
-0.2608529329 -0.1469434798 0.5690451264 4289836478
-0.2609114647 -0.1463440508 0.5691727400 4288915376
-0.2613756061 -0.1459708810 0.5701853037 4285099382
-0.2614337802 -0.1453697085 0.5703122020 4281612096
-0.2614917457 -0.1447681338 0.5704386234 4281348924
-0.2615495026 -0.1441661716 0.5705646276 4281348922
-0.2616070211 -0.1435638070 0.5706900954 4281480508
-0.2620706260 -0.1431830227 0.5717014670 4281677887
-0.2625342309 -0.1427999884 0.5727127790 4282006852
-0.2625912726 -0.1421945542 0.5728372335 4282336328
-0.2622415423 -0.1413695514 0.5720742941 4285297013
-0.2622980773 -0.1407642812 0.5721976161 4290823625
-0.2600292563 -0.1499941796 0.5686259866 4291613657
-0.2600887716 -0.1493965685 0.5687561035 4290100418
-0.2601480484 -0.1487985402 0.5688857436 4288257446
-0.2598024309 -0.1479696333 0.5681299567 4288060067
-0.2598612010 -0.1473717391 0.5682585239 4288717997
-0.2599197626 -0.1467734277 0.5683865547 4288981169
-0.2599781156 -0.1461747140 0.5685141683 4287007379
-0.2600362599 -0.1455755979 0.5686412454 4282862420
-0.2600941658 -0.1449760795 0.5687679052 4281414717
-0.2605570853 -0.1446010470 0.5697802305 4281480510
-0.2606146932 -0.1439998001 0.5699061751 4281283129
-0.2606720626 -0.1433981508 0.5700316429 4281217336
-0.2611346841 -0.1430181861 0.5710433125 4281546301
-0.2615973055 -0.1426359564 0.5720549226 4282270024
-0.2612485290 -0.1418110430 0.5712922812 4281875264
-0.2608993649 -0.1409876049 0.5705286860 4282467401
-0.2609556615 -0.1403839886 0.5706518292 4287928733
-0.2587527633 -0.1489910334 0.5672122240 4290232004
-0.2588117719 -0.1483946592 0.5673415661 4288520618
-0.2588706017 -0.1477978826 0.5674705505 4287796895
-0.2589291930 -0.1472007036 0.5675989985 4288520620
-0.2589876056 -0.1466031075 0.5677270293 4288257448
-0.2590457797 -0.1460051239 0.5678545237 4285362556
-0.2591037452 -0.1454067230 0.5679816008 4282401871
-0.2591615021 -0.1448079348 0.5681082606 4281809475
-0.2596234679 -0.1444337070 0.5691208839 4281546303
-0.2592763901 -0.1436091363 0.5683600903 4280756785
-0.2593335211 -0.1430091560 0.5684852600 4280559406
-0.2597950697 -0.1426309347 0.5694971085 4281019955
-0.2598518729 -0.1420292109 0.5696215630 4282664780
-0.2595035732 -0.1412068158 0.5688580871 4282730573
-0.2595598400 -0.1406052411 0.5689814091 4282006850
-0.2592108846 -0.1397848725 0.5682164431 4285757563
-0.2588615119 -0.1389659941 0.5674505830 4292139484
-0.2574194074 -0.1485850513 0.5656666160 4290495176
-0.2574781775 -0.1479903311 0.5657957792 4288784562
-0.2575367391 -0.1473952085 0.5659244657 4287534495
-0.2575950921 -0.1467996687 0.5660526752 4288389034
-0.2576532364 -0.1462037414 0.5661804080 4287994276
-0.2577111721 -0.1456073970 0.5663077235 4284836212
-0.2577688992 -0.1450106651 0.5664345622 4283388766
-0.2582298815 -0.1446395218 0.5674475431 4281941061
-0.2582872510 -0.1440410465 0.5675736666 4281480510
-0.2583444417 -0.1434421837 0.5676993132 4280625199
-0.2579976320 -0.1426197290 0.5669372082 4280296234
-0.2580543160 -0.1420210004 0.5670617223 4280427818
-0.2581107318 -0.1414218694 0.5671857595 4282204229
-0.2577629685 -0.1406019777 0.5664215088 4282730573
-0.2578188777 -0.1400030255 0.5665444136 4281414713
-0.2574703991 -0.1391851604 0.5657786727 4284770668
-0.2571215332 -0.1383688003 0.5650120378 4291481554
-0.2556867301 -0.1479460001 0.5632337928 4291087315
-0.2561472654 -0.1475855559 0.5642482638 4289442492
-0.2562055588 -0.1469920874 0.5643766522 4287863460
-0.2562636733 -0.1463982165 0.5645046234 4288323241
-0.2563215494 -0.1458039284 0.5646321774 4287599518
-0.2563792169 -0.1452092528 0.5647591949 4284902003
-0.2564366758 -0.1446141750 0.5648857951 4283849315
-0.2564939559 -0.1440186948 0.5650119185 4282467401
-0.2569537461 -0.1436479688 0.5660247803 4282138436
-0.2570106685 -0.1430507600 0.5661501288 4281019955
-0.2566644549 -0.1422298700 0.5653874874 4280427818
-0.2567208409 -0.1416328102 0.5655117631 4280690990
-0.2567770481 -0.1410353482 0.5656355619 4281875264
-0.2564298511 -0.1402170360 0.5648707151 4282731086
-0.2560822368 -0.1394001991 0.5641050339 4281612605
-0.2561376393 -0.1388034523 0.5642269850 4283652187
-0.2557893395 -0.1379886717 0.5634598136 4290297280
-0.2547607720 -0.1477717608 0.5625703931 4291547866
-0.2548190057 -0.1471803486 0.5626990199 4289837250
-0.2548770607 -0.1465885341 0.5628272295 4287929253
-0.2549349070 -0.1459963173 0.5629549623 4287797667
-0.2553941011 -0.1456326693 0.5639689565 4287600288
-0.2554516196 -0.1450387239 0.5640959740 4285363324
-0.2555088997 -0.1444443613 0.5642225146 4284573808
-0.2555660009 -0.1438496113 0.5643485785 4282730573
-0.2556228936 -0.1432544589 0.5644741654 4282006850
-0.2556795478 -0.1426589042 0.5645993352 4281283127
-0.2557360232 -0.1420629621 0.5647240281 4280625197
-0.2557922602 -0.1414666176 0.5648482442 4280690990
-0.2554460168 -0.1406483948 0.5640836358 4281809471
-0.2550994158 -0.1398316473 0.5633181930 4282796879
-0.2547523975 -0.1390164047 0.5625519156 4281612605
-0.2548075318 -0.1384213269 0.5626736879 4282928464
-0.2548624575 -0.1378258467 0.5627949834 4289639350
-0.2534934580 -0.1467746943 0.5611481667 4290363594
-0.2535512447 -0.1461845338 0.5612760782 4288258218
-0.2536088228 -0.1455939859 0.5614035726 4287666081
-0.2536661923 -0.1450030208 0.5615305901 4287995046
-0.2541241944 -0.1446397901 0.5625444055 4286218633
-0.2541812360 -0.1440470964 0.5626707077 4285560703
-0.2542380989 -0.1434540004 0.5627965331 4283322712
-0.2542947233 -0.1428605169 0.5629218817 4282006852
-0.2539499700 -0.1420422345 0.5621587038 4281743678
-0.2540060878 -0.1414488852 0.5622829795 4280822576
-0.2540619969 -0.1408551484 0.5624067187 4280625197
-0.2541176975 -0.1402610242 0.5625300407 4281677885
-0.2537716627 -0.1394458562 0.5617640018 4282928465
-0.2538268566 -0.1388518959 0.5618861914 4281744191
-0.2534801066 -0.1380387694 0.5611186624 4282204741
-0.2535347939 -0.1374449730 0.5612396598 4288784041
-0.2521705627 -0.1463686079 0.5595955849 4290560718
-0.2522281110 -0.1457801014 0.5597232580 4288652721
-0.2522854209 -0.1451912075 0.5598505139 4287863460
-0.2523425519 -0.1446019113 0.5599772334 4288389804
-0.2527994514 -0.1442404389 0.5609912276 4286810770
-0.2528562546 -0.1436493993 0.5611172318 4286152840
-0.2529128492 -0.1430579722 0.5612428188 4283651677
-0.2529692352 -0.1424661428 0.5613679290 4281809473
-0.2526250482 -0.1416494399 0.5606041551 4281809473
-0.2526809275 -0.1410577595 0.5607281327 4280822578
-0.2527365983 -0.1404656768 0.5608516932 4280559404
-0.2523914278 -0.1396515518 0.5600857139 4281612092
-0.2524465919 -0.1390596479 0.5602081418 4283322710
-0.2525015473 -0.1384673417 0.5603300333 4282533194
-0.2525562644 -0.1378746629 0.5604515076 4281546811
-0.2526108027 -0.1372815818 0.5605725050 4287994525
-0.2508503795 -0.1459620744 0.5580413342 4290626511
-0.2509076595 -0.1453752369 0.5581687689 4288850100
-0.2509647310 -0.1447879970 0.5582957268 4287731874
-0.2510215938 -0.1442003548 0.5584222674 4287929253
-0.2510782480 -0.1436123252 0.5585483313 4286744977
-0.2515339851 -0.1432512701 0.5595620871 4286481805
-0.2515903115 -0.1426615119 0.5596874356 4284243814
-0.2512470186 -0.1418458372 0.5589237213 4281875266
-0.2513028383 -0.1412562132 0.5590479374 4281743680
-0.2513584793 -0.1406662017 0.5591716766 4280888371
-0.2514138818 -0.1400758028 0.5592949390 4280493611
-0.2510693073 -0.1392632425 0.5585283637 4281480506
-0.2511242032 -0.1386730075 0.5586505532 4283256917
-0.2511789203 -0.1380823702 0.5587722063 4282796366
-0.2512334287 -0.1374913603 0.5588934422 4281020468
-0.2512876987 -0.1368999630 0.5590142012 4287205010
-0.2495328933 -0.1455551088 0.5564854145 4290889169
-0.2495899200 -0.1449699253 0.5566126108 4288981172
-0.2496467382 -0.1443843544 0.5567393303 4287270554
-0.2501015961 -0.1440277249 0.5577537417 4286875796
-0.2501581013 -0.1434404105 0.5578796864 4286349449
-0.2502143979 -0.1428527087 0.5580052733 4286349449
-0.2502704859 -0.1422646046 0.5581303239 4285099123
-0.2499277443 -0.1414505094 0.5573660135 4282204231
-0.2499833405 -0.1408625692 0.5574899912 4281743680
-0.2500387132 -0.1402742267 0.5576134920 4281217336
-0.2496950030 -0.1394627094 0.5568469763 4280756785
-0.2497498840 -0.1388745159 0.5569693446 4281348922
-0.2498045564 -0.1382859498 0.5570912957 4282598987
-0.2498590052 -0.1376969963 0.5572127104 4282335815
-0.2499132603 -0.1371076554 0.5573337078 4280690990
-0.2499673069 -0.1365179271 0.5574542284 4286414981
-0.2482181191 -0.1451476961 0.5549278259 4291086548
-0.2482748777 -0.1445641965 0.5550547242 4289046965
-0.2487287670 -0.1442106515 0.5560694933 4286744210
-0.2487852275 -0.1436254084 0.5561956763 4285823108
-0.2488414645 -0.1430397630 0.5563214421 4285691519
-0.2488975078 -0.1424537152 0.5564467311 4285691519
-0.2489533424 -0.1418672949 0.5565715432 4286019455
-0.2486111969 -0.1410547793 0.5558066368 4282664012
-0.2486665398 -0.1404684931 0.5559303761 4281743680
-0.2487216592 -0.1398818195 0.5560535789 4281480508
-0.2487765849 -0.1392947584 0.5561763644 4280954164
-0.2484331727 -0.1384853721 0.5554086566 4281283129
-0.2484875917 -0.1378984749 0.5555303097 4282204229
-0.2485418022 -0.1373111904 0.5556514859 4282138436
-0.2485958189 -0.1367235333 0.5557722449 4280559404
-0.2486496121 -0.1361354738 0.5558925271 4285757051
-0.2487031966 -0.1355470419 0.5560123324 4291810519
-0.2473023683 -0.1449721754 0.5542567968 4291152087
-0.2473589629 -0.1443894058 0.5543836355 4288980918
-0.2474153638 -0.1438062191 0.5545100570 4286546831
-0.2474715561 -0.1432226449 0.5546360016 4285296764
-0.2475275546 -0.1426386684 0.5547614694 4285362554
-0.2475833446 -0.1420543045 0.5548865199 4285033589
-0.2476389259 -0.1414695382 0.5550110936 4286874764
-0.2476942986 -0.1408843845 0.5551352501 4283190356
-0.2473524511 -0.1400739849 0.5543690324 4281743680
-0.2474073321 -0.1394889951 0.5544920564 4281612094
-0.2474620044 -0.1389036030 0.5546146035 4280888371
-0.2471191734 -0.1380958110 0.5538462400 4281085750
-0.2471733540 -0.1375105828 0.5539676547 4281941057
-0.2472273260 -0.1369249821 0.5540886521 4282138436
-0.2472810894 -0.1363389790 0.5542091131 4280559404
-0.2473346442 -0.1357526183 0.5543291569 4285428086
-0.2473879904 -0.1351658553 0.5544487238 4291613141
-0.2459921837 -0.1445639879 0.5526962280 4291284694
-0.2460485250 -0.1439828724 0.5528228283 4289047732
-0.2461046726 -0.1434013695 0.5529489517 4286481805
-0.2461606115 -0.1428194493 0.5530746579 4284705394
-0.2462163568 -0.1422371566 0.5531998873 4284310638
-0.2462718934 -0.1416544467 0.5533246398 4284179052
-0.2463272214 -0.1410713643 0.5534489751 4286743178
-0.2463823557 -0.1404878646 0.5535728335 4284374630
-0.2460410744 -0.1396790743 0.5528060794 4281940291
-0.2460957170 -0.1390957385 0.5529288054 4281742912
-0.2461501360 -0.1385120302 0.5530511141 4280888119
-0.2458079010 -0.1377058178 0.5522821546 4281085498
-0.2458618283 -0.1371222734 0.5524033308 4281743682
-0.2459155619 -0.1365383416 0.5525240302 4281941061
-0.2459690720 -0.1359540224 0.5526443124 4280427820
-0.2456255853 -0.1351509988 0.5518725514 4285428088
-0.2456786036 -0.1345668733 0.5519916415 4291678934
-0.2451355606 -0.1438074857 0.5521494150 4289574076
-0.2451915294 -0.1432267129 0.5522754788 4287008149
-0.2452473193 -0.1426455379 0.5524011254 4284968566
-0.2453028858 -0.1420639604 0.5525262952 4284310638
-0.2453582585 -0.1414819956 0.5526510477 4283784294
-0.2454134375 -0.1408996433 0.5527753234 4286282627
-0.2450731248 -0.1400909424 0.5520088077 4285229939
-0.2451277971 -0.1395087391 0.5521319509 4282138440
-0.2451822758 -0.1389261484 0.5522546172 4281875268
-0.2452365458 -0.1383431554 0.5523768663 4281217084
-0.2448949814 -0.1375375986 0.5516075492 4280559154
-0.2449487597 -0.1369547993 0.5517286658 4282006854
-0.2450023144 -0.1363715976 0.5518493056 4281875268
-0.2446597964 -0.1355686635 0.5510777831 4280625458
-0.2443168908 -0.1347672194 0.5503054261 4285625726
-0.2438297421 -0.1434001774 0.5505855680 4290166213
-0.2442794591 -0.1430518031 0.5516010523 4287666079
-0.2443350703 -0.1424713582 0.5517266393 4285494910
-0.2443904877 -0.1418905258 0.5518517494 4284508017
-0.2444456965 -0.1413092911 0.5519764423 4283850087
-0.2445007116 -0.1407276690 0.5521006584 4285362295
-0.2441610694 -0.1399196237 0.5513337255 4285888639
-0.2442155927 -0.1393381506 0.5514568090 4283125335
-0.2442699075 -0.1387562901 0.5515794754 4281875268
-0.2439292967 -0.1379508376 0.5508103967 4281611842
-0.2435883284 -0.1371468604 0.5500404239 4280559154
-0.2440367341 -0.1367870718 0.5510529876 4282598737
-0.2436951846 -0.1359842122 0.5502817035 4282401358
-0.2433532476 -0.1351828724 0.5495095849 4281086009
-0.2430109382 -0.1343830377 0.5487366319 4286283656
-0.2429197282 -0.1432241946 0.5499098301 4290889936
-0.2429752946 -0.1426458210 0.5500355959 4288521388
-0.2430306524 -0.1420670599 0.5501609445 4285889668
-0.2430858165 -0.1414878964 0.5502858162 4284573810
-0.2431407720 -0.1409083307 0.5504102111 4284047466
-0.2431955338 -0.1403283924 0.5505341887 4284506986
-0.2428564727 -0.1395219266 0.5497666597 4285822846
-0.2429107428 -0.1389421225 0.5498895049 4284375402
-0.2429648042 -0.1383619457 0.5500118732 4281875268
-0.2430186719 -0.1377813816 0.5501338243 4281414463
-0.2426783741 -0.1369780749 0.5493634343 4280822326
-0.2427317500 -0.1363976747 0.5494842529 4282928215
-0.2423907816 -0.1355964243 0.5487124324 4283059801
-0.2416552156 -0.1345771253 0.5470473170 4281414974
-0.2421020269 -0.1342170238 0.5480587482 4287204758
-0.2420108020 -0.1430479586 0.5492331386 4291482073
-0.2420661896 -0.1424703151 0.5493588448 4289508285
-0.2417289615 -0.1416623145 0.5485935807 4286547600
-0.2417838722 -0.1410848349 0.5487181544 4284771189
-0.2418385744 -0.1405069530 0.5488423109 4284376431
-0.2418930829 -0.1399286687 0.5489660501 4284375400
-0.2419473976 -0.1393500119 0.5490892529 4285033330
-0.2420015037 -0.1387709677 0.5492120385 4285164918
-0.2420554012 -0.1381915212 0.5493344069 4282993749
-0.2421091050 -0.1376117021 0.5494562984 4281349183
-0.2417694926 -0.1368090361 0.5486855507 4281020218
-0.2418227047 -0.1362293810 0.5488063097 4284046696
-0.2410891205 -0.1352082044 0.5471414328 4284441454
-0.2407483757 -0.1344100535 0.5463681221 4282072906
-0.2404072583 -0.1336134225 0.5455939770 4288520620
-0.2407666743 -0.1420635581 0.5477904081 4290232008
-0.2408216149 -0.1414872110 0.5479154587 4287337116
-0.2408763468 -0.1409104615 0.5480399728 4285165947
-0.2409309000 -0.1403333098 0.5481640697 4284508017
-0.2409852445 -0.1397557855 0.5482877493 4284638574
-0.2410393804 -0.1391778588 0.5484108925 4284243816
-0.2410933375 -0.1385995448 0.5485336781 4284967796
-0.2411470711 -0.1380208433 0.5486559272 4284112487
-0.2408084273 -0.1372182816 0.5478854179 4281743941
-0.2408616841 -0.1366397440 0.5480065942 4281086011
-0.2405223548 -0.1358392388 0.5472345948 4284704627
-0.2401826680 -0.1350402385 0.5464617014 4285230971
-0.2398426086 -0.1342427433 0.5456880331 4283060571
-0.2398947924 -0.1336655170 0.5458067656 4289771457
-0.2398605496 -0.1418874562 0.5471113920 4290889938
-0.2399153262 -0.1413118392 0.5472363234 4288324011
-0.2399699092 -0.1407358348 0.5473608375 4285824390
-0.2400242835 -0.1401594281 0.5474848747 4284574323
-0.2400784791 -0.1395826340 0.5476084352 4284902003
-0.2401324511 -0.1390054524 0.5477315784 4284112487
-0.2401862442 -0.1384278834 0.5478542447 4284309866
-0.2402398288 -0.1378499269 0.5479764938 4284309866
-0.2399018556 -0.1370480061 0.5472055674 4282533457
-0.2395634949 -0.1362475902 0.5464338064 4281217597
-0.2392247766 -0.1354486793 0.5456612110 4283257181
-0.2392773032 -0.1348720193 0.5457810163 4283783525
-0.2389379144 -0.1340751797 0.5450068712 4284968568
-0.2389899492 -0.1334986985 0.5451256037 4291153110
-0.2386202216 -0.1409059912 0.5456646085 4289377212
-0.2386745512 -0.1403316557 0.5457888842 4286877078
-0.2387286872 -0.1397569329 0.5459126234 4285100667
-0.2387826145 -0.1391818225 0.5460359454 4285033591
-0.2388363481 -0.1386063248 0.5461588502 4284704626
-0.2388898879 -0.1380304247 0.5462812781 4284178282
-0.2389432192 -0.1374541521 0.5464032292 4284178282
-0.2389963567 -0.1368774921 0.5465247631 4283717732
-0.2386586815 -0.1360777318 0.5457525849 4282204493
-0.2383206487 -0.1352794766 0.5449795723 4281743942
-0.2383730114 -0.1347035617 0.5450993180 4282336079
-0.2380343080 -0.1339073777 0.5443248153 4287271323
-0.2377169430 -0.1407300234 0.5449832082 4290364107
-0.2377711087 -0.1401564330 0.5451074243 4288389804
-0.2378250808 -0.1395824552 0.5452311039 4286350221
-0.2378788441 -0.1390080899 0.5453543663 4284639350
-0.2379324138 -0.1384333223 0.5454772115 4284047213
-0.2379857898 -0.1378581822 0.5455995798 4284046697
-0.2376493812 -0.1370579600 0.5448282957 4284046697
-0.2377022654 -0.1364829838 0.5449495912 4283849317
-0.2373652011 -0.1356848329 0.5441768169 4283125594
-0.2374175936 -0.1351100355 0.5442969203 4281284160
-0.2370798737 -0.1343139410 0.5435226560 4282928985
-0.2371317893 -0.1337393373 0.5436416864 4289574076
-0.2364265323 -0.1403234005 0.5434085131 4291219416
