VERSION 0.7
FIELDS x y z rgba
SIZE 4 4 4 4
TYPE F F F U
COUNT 1 1 1 1
WIDTH 920
HEIGHT 1
VIEWPOINT 0.0 0.0 0.0 1.0 0.0 0.0 0.0
POINTS 920
DATA ascii
-0.2755094767 -0.1280764490 0.5666921139 4289830733
-0.2755631208 -0.1274716109 0.5668023825 4289764940
-0.2756164968 -0.1268664300 0.5669122338 4290554454
-0.2756696641 -0.1262608916 0.5670215487 4290620247
-0.2757225633 -0.1256550103 0.5671303868 4290817626
-0.2757752538 -0.1250487715 0.5672387481 4290554454
-0.2762566805 -0.1246357262 0.5682289600 4289897035
-0.2763089836 -0.1240278631 0.5683365464 4290423379
-0.2763610184 -0.1234196499 0.5684436560 4290291280
-0.2768420577 -0.1230017915 0.5694330931 4290620245
-0.2768937349 -0.1223919466 0.5695393682 4291081051
-0.2769451737 -0.1217817664 0.5696451068 4291015258
-0.2769963443 -0.1211712435 0.5697504282 4290949465
-0.2770473063 -0.1205603778 0.5698552132 4290686293
-0.2770980299 -0.1199491844 0.5699595213 4290291533
-0.2771484852 -0.1193376482 0.5700633526 4290159947
-0.2771987319 -0.1187257841 0.5701667070 4289567294
-0.2776785791 -0.1182967126 0.5711536407 4289106743
-0.2777284086 -0.1176832318 0.5712561607 4289435708
-0.2782079875 -0.1172506511 0.5722426176 4288843571
-0.2782573998 -0.1166355610 0.5723442435 4288843569
-0.2783065736 -0.1160201505 0.5724454522 4289435706
-0.2787857652 -0.1155827790 0.5734310150 4290290765
-0.2788345218 -0.1149657667 0.5735313296 4290751316
-0.2793134153 -0.1145248935 0.5745163560 4290687055
-0.2793617845 -0.1139062792 0.5746158361 4291410778
-0.2798404098 -0.1134619042 0.5756003261 4292002662
-0.2803189456 -0.1130153015 0.5765846372 4291871076
-0.2807973921 -0.1125664711 0.5775687099 4291081558
-0.2812757194 -0.1121154130 0.5785526037 4290884179
-0.2813231349 -0.1114913896 0.5786501169 4290423891
-0.2822320759 -0.1112066135 0.5805197358 4291410786
-0.2827101052 -0.1107488722 0.5815029740 4292399227
-0.2840500772 -0.1106246412 0.5842591524 4292662399
-0.2853902280 -0.1104943529 0.5870156884 4291875215
-0.2867305577 -0.1103580073 0.5897725821 4292796317
-0.2921471298 -0.1588741392 0.6022898555 4289115566
-0.2917879224 -0.1580104232 0.6015492678 4285694330
-0.2910034359 -0.1569190472 0.5999320149 4285365618
-0.2893685400 -0.1553746313 0.5965614915 4284444516
-0.2877326310 -0.1538371593 0.5931888819 4287599219
-0.2852455378 -0.1518540531 0.5880615115 4287665012
-0.2831822932 -0.1501069963 0.5838078856 4289898341
-0.2815431654 -0.1485932469 0.5804287195 4288582481
-0.2799030840 -0.1470865011 0.5770475268 4288318533
-0.2791129649 -0.1460319757 0.5754186511 4289173842
-0.2783222795 -0.1449807733 0.5737885237 4289239635
-0.2779566646 -0.1441536248 0.5730347633 4288581705
-0.2775906026 -0.1433279514 0.5722801089 4287660603
-0.2772241533 -0.1425037384 0.5715246797 4286739501
-0.2768573165 -0.1416810006 0.5707683563 4286672938
-0.2764900625 -0.1408597231 0.5700111985 4287199282
-0.2765485048 -0.1402560472 0.5701317191 4286935851
-0.2761805058 -0.1394367963 0.5693730712 4287725367
-0.2758121192 -0.1386190355 0.5686135888 4288646469
-0.2758697271 -0.1380160749 0.5687323213 4289041227
-0.2759270668 -0.1374127418 0.5688505769 4289304399
-0.2755576372 -0.1365975887 0.5680889487 4288580676
-0.2751878202 -0.1357839108 0.5673265457 4289106507
-0.2752443254 -0.1351813227 0.5674430132 4289172300
-0.2748737633 -0.1343697160 0.5666791201 4288711747
-0.2749297321 -0.1337673217 0.5667944551 4287988024
-0.2749854624 -0.1331645548 0.5669093132 4287725106
-0.2750409544 -0.1325614303 0.5670237541 4287264555
-0.2750962079 -0.1319579333 0.5671377182 4287001383
-0.2751512527 -0.1313540787 0.5672511458 4286738211
-0.2752060592 -0.1307498664 0.5673641562 4287922485
-0.2752606571 -0.1301452816 0.5674766898 4287856692
-0.2753149867 -0.1295403391 0.5675887465 4286804003
-0.2749415040 -0.1287348419 0.5668187737 4286804003
-0.2749952972 -0.1281301379 0.5669296384 4287198759
-0.2750488818 -0.1275250614 0.5670400858 4287001380
-0.2751021981 -0.1269196570 0.5671500564 4288054068
-0.2751553059 -0.1263138801 0.5672594905 4287856689
-0.2752081752 -0.1257077605 0.5673685074 4287396138
-0.2752608061 -0.1251012981 0.5674769878 4287001380
-0.2761695385 -0.1248817146 0.5693504810 4288383798
-0.2762218714 -0.1242726669 0.5694583058 4288844349
-0.2762739658 -0.1236632690 0.5695657134 4287593767
-0.2763257921 -0.1230535358 0.5696725845 4287264802
-0.2763774097 -0.1224434525 0.5697790384 4287791146
-0.2764287889 -0.1218330339 0.5698849559 4287856939
-0.2764799297 -0.1212222725 0.5699903369 4288515124
-0.2765308321 -0.1206111684 0.5700953007 4288909882
-0.2765814960 -0.1199997365 0.5701997280 4288975673
-0.2766319215 -0.1193879619 0.5703036785 4288975673
-0.2766821086 -0.1187758595 0.5704071522 4288974903
-0.2771610916 -0.1183466166 0.5713946223 4289435454
-0.2772108614 -0.1177328974 0.5714972615 4290159431
-0.2776896060 -0.1173001528 0.5724841952 4290554189
-0.2777389586 -0.1166848242 0.5725860000 4291080533
-0.2777881026 -0.1160691679 0.5726872683 4291804256
-0.2782664001 -0.1156316251 0.5736733675 4291738726
-0.2783151269 -0.1150143668 0.5737738013 4292067691
-0.2787931859 -0.1145733297 0.5747593641 4291147093
-0.2788414955 -0.1139544696 0.5748589635 4290423370
-0.2793192863 -0.1135099232 0.5758439302 4290160719
-0.2797969580 -0.1130631417 0.5768287182 4289765961
-0.2802745402 -0.1126141399 0.5778133273 4289634629
-0.2807520330 -0.1121629104 0.5787976980 4290555731
-0.2812294066 -0.1117094457 0.5797818899 4292002923
-0.2817066908 -0.1112537608 0.5807658434 4292068716
-0.2821838558 -0.1107958406 0.5817495584 4292136316
-0.2835213840 -0.1106715724 0.5845069885 4292465281
-0.2844287753 -0.1103742644 0.5863776803 4292072349
-0.2861969471 -0.1104048565 0.5900229216 4292796072
-0.2903921306 -0.1576154679 0.6000456214 4284773228
-0.2896089852 -0.1565255076 0.5984274149 4284641126
-0.2884011269 -0.1552105695 0.5959315896 4284772712
-0.2867682576 -0.1536734253 0.5925575495 4287796598
-0.2847100794 -0.1519168466 0.5883046985 4287533426
-0.2826507688 -0.1501691043 0.5840494633 4289240411
-0.2810147703 -0.1486547589 0.5806689858 4288714067
-0.2793778181 -0.1471474171 0.5772864819 4288580936
-0.2785892487 -0.1460924894 0.5756570101 4289041487
-0.2782248557 -0.1452626288 0.5749040842 4289173073
-0.2774351835 -0.1442133933 0.5732723475 4288449350
-0.2770698965 -0.1433874071 0.5725175142 4288383557
-0.2767041922 -0.1425628811 0.5717618465 4289041487
-0.2763380706 -0.1417398155 0.5710053444 4288777801
-0.2759715319 -0.1409182400 0.5702480078 4287922492
-0.2756046057 -0.1400981247 0.5694897771 4287330609
-0.2756626904 -0.1394947618 0.5696097612 4286804265
-0.2752950191 -0.1386766881 0.5688501000 4286277410
-0.2749269605 -0.1378601044 0.5680895448 4286672168
-0.2749841809 -0.1372574717 0.5682078004 4287659061
-0.2750411630 -0.1366544664 0.5683255196 4286474787
-0.2746720910 -0.1358404756 0.5675628781 4287395373
-0.2747285366 -0.1352376640 0.5676795244 4287987510
-0.2743587196 -0.1344257295 0.5669153333 4288645954
-0.2744145989 -0.1338231117 0.5670308471 4289172298
-0.2744702697 -0.1332201213 0.5671458840 4289435470
-0.2745257318 -0.1326167583 0.5672604442 4289632849
-0.2745809257 -0.1320130378 0.5673745275 4290159447
-0.2742094696 -0.1312049031 0.5666069388 4289633103
-0.2742641270 -0.1306013912 0.5667198896 4289830482
-0.2743185759 -0.1299975216 0.5668324232 4290225240
-0.2743727863 -0.1293932945 0.5669444203 4289435724
-0.2744267583 -0.1287887096 0.5670559406 4289501517
-0.2744804919 -0.1281837672 0.5671669841 4289698895
-0.2745339870 -0.1275784671 0.5672775507 4289238344
-0.2745872736 -0.1269728243 0.5673876405 4289962067
-0.2746403217 -0.1263668239 0.5674972534 4289698895
-0.2746931314 -0.1257604659 0.5676063895 4288975172
-0.2747457027 -0.1251537651 0.5677149892 4289567309
-0.2756527960 -0.1249341071 0.5695893168 4289830731
-0.2757050693 -0.1243248209 0.5696973205 4290620247
-0.2757571042 -0.1237151921 0.5698048472 4289830731
-0.2758089006 -0.1231052205 0.5699118972 4290093903
-0.2758604586 -0.1224948987 0.5700184107 4290949210
-0.2759117782 -0.1218842417 0.5701245070 4290817624
-0.2759628594 -0.1212732419 0.5702300668 4291015003
-0.2760137022 -0.1206619069 0.5703350902 4290817624
-0.2760643065 -0.1200502291 0.5704396963 4291146844
-0.2761146724 -0.1194382235 0.5705437660 4291607395
-0.2761648297 -0.1188258752 0.5706473589 4291540832
-0.2766429484 -0.1183964759 0.5716353059 4291409246
-0.2766926885 -0.1177825183 0.5717380643 4291146072
-0.2767421603 -0.1171682253 0.5718403459 4291672416
-0.2767914236 -0.1165536046 0.5719420910 4291277658
-0.2772689462 -0.1161181331 0.5729289055 4290817107
-0.2773177922 -0.1155019104 0.5730298162 4290489171
-0.2777950764 -0.1150629222 0.5740160346 4289962827
-0.2782723010 -0.1146217138 0.5750020742 4289107257
-0.2783205509 -0.1140026078 0.5751017928 4289304636
-0.2787974775 -0.1135578901 0.5760872960 4289897548
-0.2792743146 -0.1131109446 0.5770725608 4290752857
-0.2797510326 -0.1126617640 0.5780577064 4291673959
-0.2802276611 -0.1122103557 0.5790425539 4292792440
-0.2807042003 -0.1117567196 0.5800272226 4293120892
-0.2811806202 -0.1113008559 0.5810116529 4292791927
-0.2820863128 -0.1110117286 0.5828831196 4292202109
-0.2829920053 -0.1107184514 0.5847545862 4292596867
-0.2843272686 -0.1105880886 0.5875136256 4292138419
-0.2856626809 -0.1104516536 0.5902730227 4292467384
-0.2893569767 -0.1580807418 0.5992820859 4288918189
-0.2889988422 -0.1572200656 0.5985403061 4284181093
-0.2882170379 -0.1561315358 0.5969211459 4284180577
-0.2874346375 -0.1550462693 0.5953007340 4284706921
-0.2858048081 -0.1535094380 0.5919252038 4287795830
-0.2837504745 -0.1517530978 0.5876705647 4288059002
-0.2821185887 -0.1502311528 0.5842907429 4288648276
-0.2804857194 -0.1487162113 0.5809089541 4288450897
-0.2792756855 -0.1474319845 0.5784028769 4289107026
-0.2780648768 -0.1461529136 0.5758951902 4288909647
-0.2777011991 -0.1453227550 0.5751420259 4289305177
-0.2769130766 -0.1442731172 0.5735097528 4288318282
-0.2765485048 -0.1434468031 0.5727546811 4287067445
-0.2761835456 -0.1426219493 0.5719987750 4287593789
-0.2758181691 -0.1417985857 0.5712420940 4288580423
-0.2754523754 -0.1409766823 0.5704845190 4288843595
-0.2755106986 -0.1403725445 0.5706052780 4289501524
-0.2751441896 -0.1395526677 0.5698462129 4289172559
-0.2747772932 -0.1387342811 0.5690863132 4288185665
-0.2744099796 -0.1379173696 0.5683255792 4287396149
-0.2740422487 -0.1371019483 0.5675640106 4288185407
-0.2740990818 -0.1364996582 0.5676817298 4286672168
-0.2737306654 -0.1356862932 0.5669186711 4286539810
-0.2737869620 -0.1350841820 0.5670352578 4286145052
-0.2738430202 -0.1344816983 0.5671513677 4285882648
-0.2738988698 -0.1338788420 0.5672670007 4285948441
-0.2739544809 -0.1332756281 0.5673822165 4286408992
-0.2740098536 -0.1326720417 0.5674968958 4286803750
-0.2740650177 -0.1320680827 0.5676111579 4287001129
-0.2736942768 -0.1312596351 0.5668433309 4287395887
-0.2737488747 -0.1306558996 0.5669564009 4288119610
-0.2738032639 -0.1300517917 0.5670690536 4288316989
-0.2738574147 -0.1294473410 0.5671811700 4288184889
-0.2739113271 -0.1288425177 0.5672928691 4288974405
-0.2739650309 -0.1282373518 0.5674040318 4289500747
-0.2740184665 -0.1276318133 0.5675147772 4289434954
-0.2740716934 -0.1270259321 0.5676249862 4290158677
-0.2745510042 -0.1266163141 0.5686176419 4290356056
-0.2746038437 -0.1260087788 0.5687270761 4288645438
-0.2746564448 -0.1254009008 0.5688360333 4289105989
-0.2751353681 -0.1249864474 0.5698279738 4289632584
-0.2751876116 -0.1243769303 0.5699360967 4290356307
-0.2752395868 -0.1237670630 0.5700437427 4290685272
-0.2752913237 -0.1231568530 0.5701509118 4290685272
-0.2753428221 -0.1225463003 0.5702576041 4290553686
-0.2753941119 -0.1219354048 0.5703637600 4290224721
-0.2754451334 -0.1213241667 0.5704694986 4289829961
-0.2754959166 -0.1207125932 0.5705747008 4289500996
-0.2755464911 -0.1201006770 0.5706793666 4289566789
-0.2755967975 -0.1194884256 0.5707836151 4289698375
-0.2756468952 -0.1188758463 0.5708873272 4289632836
-0.2761241496 -0.1184462756 0.5718758106 4289896008
-0.2761738300 -0.1178320795 0.5719786882 4289172285
-0.2762232721 -0.1172175482 0.5720810890 4289896008
-0.2762724757 -0.1166026890 0.5721829534 4289567043
-0.2767491639 -0.1161670461 0.5731702447 4289567043
-0.2767979503 -0.1155505851 0.5732712746 4290357835
-0.2772744000 -0.1151114330 0.5742580295 4291081558
-0.2773227692 -0.1144933626 0.5743582249 4291673186
-0.2777989507 -0.1140507013 0.5753443837 4292133737
-0.2782750130 -0.1136058122 0.5763304234 4292003694
-0.2787509859 -0.1131586954 0.5773162246 4292530038
-0.2792268693 -0.1127093434 0.5783017874 4292595831
-0.2797026634 -0.1122577563 0.5792871714 4292464245
-0.2806067467 -0.1119749025 0.5811595917 4292923000
-0.2810823917 -0.1115178987 0.5821446776 4292659828
-0.2815579176 -0.1110586673 0.5831295848 4292136829
-0.2828905880 -0.1109333709 0.5858896375 4292926345
-0.2837947607 -0.1106348783 0.5877622366 4292467654
-0.2851276994 -0.1104984060 0.5905228853 4292467654
-0.2879656851 -0.1576833725 0.5977756381 4288785835
-0.2876080871 -0.1568242013 0.5970333219 4284706669
-0.2872500420 -0.1559664607 0.5962901115 4283851101
-0.2864691019 -0.1548817158 0.5946689248 4282864206
-0.2852649093 -0.1535727084 0.5921691656 4285953117
-0.2836372256 -0.1520422548 0.5887903571 4288584837
-0.2820085585 -0.1505187899 0.5854094625 4289634403
-0.2803789377 -0.1490023285 0.5820266008 4289173852
-0.2787483335 -0.1474928558 0.5786417127 4288910419
-0.2779629230 -0.1464361846 0.5770113468 4288186696
-0.2771769166 -0.1453828067 0.5753796697 4288712786
-0.2763903141 -0.1443327665 0.5737468600 4288449614
-0.2760264874 -0.1435061246 0.5729916096 4287660098
-0.2756622732 -0.1426809728 0.5722354650 4287133754
-0.2752976120 -0.1418572813 0.5714785457 4286277927
-0.2749325633 -0.1410350651 0.5707207322 4285817376
-0.2749908268 -0.1404307038 0.5708417296 4286343461
-0.2746250629 -0.1396105140 0.5700824261 4287198770
-0.2742589116 -0.1387918144 0.5693222880 4288054338
-0.2738923132 -0.1379745901 0.5685613751 4288054338
-0.2739494145 -0.1373715103 0.5686798692 4289435732
-0.2735821307 -0.1365563273 0.5679174066 4288777802
-0.2736386657 -0.1359534264 0.5680348277 4289303888
-0.2732706666 -0.1351403147 0.5672708750 4289567060
-0.2733266652 -0.1345376074 0.5673871636 4288974151
-0.2733824551 -0.1339345276 0.5675029159 4288513600
-0.2734380066 -0.1333310753 0.5676182508 4288382268
-0.2734933496 -0.1327272505 0.5677331090 4287921717
-0.2735484242 -0.1321230829 0.5678474903 4287000615
-0.2731784582 -0.1313143075 0.5670794249 4287132201
-0.2732329965 -0.1307103485 0.5671926737 4287395373
-0.2732873261 -0.1301060170 0.5673054457 4286869029
-0.2733414173 -0.1295013279 0.5674177408 4286671650
-0.2733952701 -0.1288962662 0.5675295591 4287329580
-0.2738741636 -0.1284903884 0.5685236454 4287066406
-0.2739276588 -0.1278836876 0.5686346889 4287000613
-0.2739809155 -0.1272766292 0.5687451959 4288842817
-0.2740339041 -0.1266692132 0.5688552856 4290553435
-0.2740867138 -0.1260614544 0.5689648390 4288579647
-0.2741392553 -0.1254533380 0.5690739155 4288448061
-0.2746173143 -0.1250387430 0.5700663328 4287658796
-0.2746694982 -0.1244289801 0.5701746345 4287724589
-0.2747214139 -0.1238188818 0.5702823997 4288448312
-0.2747730911 -0.1232084334 0.5703896880 4288185140
-0.2748245597 -0.1225976422 0.5704964995 4287790382
-0.2748757601 -0.1219865084 0.5706028342 4288250933
-0.2749267519 -0.1213750318 0.5707086921 4288316724
-0.2749775052 -0.1207632199 0.5708140135 4288382517
-0.2750279903 -0.1201510727 0.5709188581 4288777275
-0.2750782669 -0.1195385829 0.5710231662 4289566791
-0.2751283050 -0.1189257577 0.5711270571 4290224721
-0.2756047249 -0.1184960306 0.5721160173 4291145823
-0.2756543458 -0.1178815886 0.5722190142 4290553684
-0.2757037282 -0.1172668189 0.5723215342 4291869544
-0.2757528722 -0.1166517213 0.5724235773 4291803751
-0.2762286961 -0.1162159145 0.5734113455 4292132716
-0.2762774527 -0.1155992076 0.5735124946 4292397925
-0.2767530382 -0.1151598841 0.5744997263 4292595304
-0.2772285044 -0.1147183329 0.5754867792 4292396909
-0.2772766650 -0.1140987426 0.5755867362 4292462702
-0.2777518928 -0.1136536822 0.5765732527 4292266863
-0.2782270312 -0.1132063940 0.5775595307 4292332656
-0.2787020504 -0.1127568707 0.5785456300 4292135792
-0.2791769803 -0.1123051122 0.5795314908 4292201585
-0.2800793946 -0.1120221466 0.5814048052 4292265325
-0.2805541754 -0.1115649715 0.5823904276 4292396911
-0.2814566195 -0.1112746745 0.5842637420 4292202620
-0.2823590934 -0.1109802276 0.5861371160 4292992136
-0.2836894691 -0.1108488217 0.5888988376 4292007111
-0.2850200236 -0.1107113436 0.5916608572 4291875525
-0.2865769267 -0.1572855413 0.5962675214 4288980391
-0.2862198651 -0.1564279050 0.5955245495 4285164397
-0.2858623564 -0.1555716842 0.5947807431 4284375131
-0.2850827575 -0.1544883549 0.5931586623 4283454029
-0.2847243249 -0.1536359191 0.5924128890 4283060017
-0.2830998003 -0.1521048695 0.5890327692 4284178498
-0.2818962634 -0.1508065611 0.5865286589 4286612813
-0.2802698612 -0.1492885649 0.5831446648 4288257638
-0.2786425054 -0.1477775723 0.5797587037 4289635431
-0.2774364352 -0.1464965791 0.5772492886 4289701224
-0.2766519785 -0.1454427987 0.5756171346 4289435223
-0.2758669257 -0.1443923414 0.5739837289 4289040465
-0.2755038440 -0.1435654014 0.5732282400 4289434194
-0.2751403451 -0.1427399218 0.5724719167 4288907850
-0.2747764289 -0.1419159174 0.5717147589 4287856963
-0.2744121253 -0.1410933882 0.5709567666 4287725377
-0.2744703293 -0.1404888034 0.5710778832 4287725891
-0.2741053104 -0.1396683007 0.5703184009 4287199547
-0.2737398744 -0.1388492733 0.5695580244 4286935085
-0.2733740509 -0.1380317360 0.5687968731 4286606120
-0.2734310627 -0.1374284327 0.5689155459 4288448829
-0.2734878659 -0.1368247420 0.5690337420 4288054071
-0.2731209993 -0.1360098124 0.5682703853 4287595313
-0.2731772661 -0.1354063153 0.5683874488 4288319036
-0.2728096843 -0.1345934421 0.5676226616 4288778312
-0.2728654146 -0.1339901388 0.5677385926 4288909898
-0.2729209065 -0.1333864629 0.5678540468 4289962327
-0.2729761600 -0.1327824146 0.5679690242 4290028120
-0.2730312049 -0.1321780086 0.5680835843 4290356572
-0.2726619840 -0.1313689351 0.5673152804 4290882916
-0.2727164626 -0.1307647228 0.5674287081 4290422367
-0.2727707326 -0.1301601678 0.5675415993 4290619746
-0.2728247643 -0.1295552552 0.5676540136 4290487390
-0.2728785574 -0.1289499700 0.5677659512 4290816355
-0.2733566165 -0.1285439432 0.5687605739 4290355545
-0.2734100223 -0.1279370040 0.5688717365 4290684510
-0.2734632194 -0.1273297071 0.5689824224 4291144291
-0.2735161781 -0.1267220676 0.5690926313 4291604842
-0.2735688984 -0.1261140704 0.5692023039 4291012707
-0.2736214101 -0.1255057305 0.5693115592 4290815328
-0.2736736536 -0.1248970255 0.5694202781 4290816606
-0.2741507292 -0.1244809777 0.5704128742 4290948192
-0.2742025852 -0.1238706410 0.5705208182 4290618970
-0.2742542326 -0.1232599616 0.5706282258 4290421591
-0.2743056417 -0.1226489320 0.5707352161 4291276898
-0.2743567824 -0.1220375597 0.5708416700 4291671656
-0.2744077146 -0.1214258522 0.5709475875 4291803755
-0.2744584084 -0.1208138019 0.5710530877 4291737962
-0.2745088637 -0.1202014089 0.5711580515 4292133488
-0.2745590806 -0.1195886806 0.5712625384 4291080800
-0.2746090591 -0.1189756244 0.5713664889 4291672935
-0.2750846148 -0.1185457334 0.5723559856 4291672935
-0.2751341760 -0.1179310530 0.5724591017 4291409247
-0.2751835287 -0.1173160449 0.5725617409 4291343454
-0.2752326131 -0.1167007014 0.5726639032 4290751317
-0.2757076025 -0.1162647307 0.5736522079 4290685524
-0.2757562697 -0.1156477779 0.5737534761 4291607902
-0.2762310207 -0.1152082905 0.5747412443 4292594797
-0.2767056525 -0.1147665754 0.5757287741 4292726646
-0.2771801651 -0.1143226177 0.5767161250 4292529267
-0.2772281170 -0.1137015074 0.5768158436 4292726647
-0.2777023911 -0.1132540405 0.5778026581 4292397682
-0.2781765461 -0.1128043458 0.5787892342 4292068204
-0.2790773511 -0.1125244722 0.5806635022 4292199790
-0.2795513868 -0.1120693460 0.5816497803 4291542372
-0.2800253332 -0.1116119921 0.5826358795 4292266095
-0.2809260786 -0.1113215908 0.5845100880 4292662419
-0.2822539210 -0.1111952588 0.5872728229 4292267661
-0.2835818827 -0.1110628545 0.5900359154 4290756014
-0.2849100530 -0.1109243706 0.5927993059 4291874495
-0.2851906717 -0.1568872780 0.5947576761 4288585633
-0.2848341465 -0.1560311615 0.5940141082 4285230190
-0.2844772041 -0.1551764607 0.5932697654 4284243545
-0.2841198444 -0.1543231905 0.5925244689 4283519822
-0.2837620974 -0.1534713507 0.5917783380 4282796344
-0.2825616896 -0.1521673948 0.5892749429 4281875242
-0.2813605070 -0.1508685797 0.5867699385 4282467365
-0.2805798352 -0.1497998387 0.5851418376 4283914811
-0.2789557874 -0.1482864022 0.5817549229 4286938706
-0.2773307860 -0.1467799842 0.5783660412 4288320359
-0.2769695222 -0.1459470093 0.5776126385 4289634666
-0.2757645249 -0.1446730793 0.5750996470 4289700459
-0.2749805152 -0.1436246037 0.5734646320 4289765474
-0.2746177614 -0.1427988112 0.5727081299 4289304923
-0.2742545903 -0.1419744939 0.5719507337 4288646993
-0.2738910317 -0.1411516517 0.5711925626 4288449614
-0.2739491761 -0.1405468434 0.5713137984 4288645964
-0.2735848725 -0.1397260278 0.5705540776 4288382792
-0.2732202113 -0.1389066875 0.5697935224 4288711749
-0.2728551030 -0.1380888373 0.5690321326 4288843335
-0.2729120851 -0.1374852955 0.5691509247 4289172559
-0.2729688287 -0.1368813813 0.5692692995 4287790906
-0.2726027071 -0.1360661387 0.5685057640 4286805300
-0.2726588845 -0.1354624182 0.5686229467 4286805300
-0.2727148831 -0.1348583102 0.5687397122 4286539553
-0.2723477185 -0.1340456903 0.5679740310 4287197483
-0.2724031508 -0.1334417909 0.5680896044 4288250167
-0.2728814483 -0.1330437958 0.5690870285 4287789616
-0.2725133598 -0.1322328895 0.5683193803 4286934820
-0.2725681067 -0.1316278726 0.5684335828 4287000613
-0.2726226151 -0.1310225129 0.5685473084 4287264301
-0.2726769149 -0.1304167807 0.5686604977 4288185403
-0.2727309763 -0.1298106909 0.5687732697 4289107018
-0.2727847993 -0.1292042434 0.5688855052 4288449088
-0.2728383839 -0.1285974234 0.5689972639 4288712513
-0.2728917599 -0.1279902607 0.5691086054 4289896787
-0.2729448974 -0.1273827404 0.5692194104 4289633615
-0.2734217048 -0.1269717216 0.5702137947 4289699408
-0.2734744549 -0.1263625473 0.5703237653 4289699666
-0.2735269964 -0.1257530153 0.5704333186 4290160217
-0.2735792696 -0.1251431406 0.5705423355 4290486615
-0.2736313045 -0.1245329231 0.5706508756 4290157650
-0.2736831307 -0.1239223480 0.5707589388 4289828685
-0.2737347186 -0.1233114302 0.5708665252 4290026064
-0.2742105424 -0.1228903979 0.5718588233 4290618200
-0.2742617130 -0.1222778484 0.5719655752 4290091856
-0.2738880515 -0.1214766130 0.5711863041 4289698379
-0.2739386857 -0.1208643243 0.5712918639 4290027344
-0.2739890814 -0.1202517003 0.5713970065 4290423127
-0.2740392387 -0.1196387336 0.5715016127 4288778302
-0.2745141089 -0.1192099676 0.5724919438 4288515384
-0.2745638490 -0.1185953841 0.5725957155 4288515384
-0.2746133804 -0.1179804653 0.5726989508 4288384309
-0.2746626735 -0.1173652112 0.5728017092 4288647481
-0.2747116983 -0.1167496294 0.5729039907 4288714044
-0.2751858234 -0.1163134947 0.5738927722 4289503560
-0.2756598592 -0.1158751175 0.5748813748 4291344983
-0.2757083178 -0.1152566448 0.5749824643 4292266085
-0.2761821151 -0.1148147583 0.5759704709 4292265836
-0.2762301564 -0.1141946837 0.5760707259 4291871078
-0.2771293819 -0.1139242798 0.5779460073 4292068203
-0.2776028514 -0.1134756878 0.5789334178 4292002410
-0.2776503861 -0.1128517687 0.5790325999 4292003173
-0.2781236172 -0.1123996675 0.5800194740 4292726896
-0.2790227234 -0.1121165007 0.5818945169 4292465281
-0.2799218595 -0.1118291840 0.5837696195 4291938937
-0.2803948820 -0.1113684550 0.5847561359 4290623891
-0.2817202508 -0.1112420857 0.5875201225 4289505410
-0.2830457687 -0.1111096442 0.5902844667 4289112221
-0.2843714356 -0.1109711155 0.5930491686 4291678148
-0.2845177054 -0.1582020074 0.5947316885 4289309875
-0.2845822871 -0.1575769931 0.5948666930 4288717738
-0.2838069797 -0.1564885527 0.5932461023 4287664785
-0.2838709354 -0.1558645219 0.5933797956 4284704100
-0.2830946147 -0.1547807902 0.5917569995 4283717456
-0.2827377915 -0.1539290398 0.5910111666 4283322698
-0.2828007638 -0.1533065289 0.5911428332 4283124806
-0.2820229232 -0.1522298604 0.5895168781 4282664255
-0.2808240950 -0.1509305388 0.5870109200 4282401084
-0.2804654241 -0.1500864029 0.5862612128 4282269498
-0.2788446248 -0.1485714465 0.5828732252 4282991413
-0.2776435316 -0.1472866684 0.5803625584 4283978308
-0.2768624425 -0.1462292969 0.5787298083 4285821256
-0.2756598890 -0.1449539214 0.5762161016 4287400288
-0.2748775184 -0.1439041197 0.5745806694 4288978528
-0.2745155692 -0.1430770904 0.5738241673 4289504872
-0.2737321258 -0.1420330107 0.5721864700 4289765987
-0.2733692825 -0.1412098408 0.5714280605 4289765987
-0.2734273672 -0.1406048089 0.5715494156 4289434971
-0.2730638385 -0.1397836804 0.5707895160 4288974420
-0.2726998627 -0.1389640272 0.5700287223 4289303119
-0.2723355293 -0.1381458640 0.5692671537 4288908361
-0.2723924220 -0.1375420988 0.5693861246 4288251711
-0.2724491060 -0.1369379610 0.5695045590 4288514883
-0.2720837295 -0.1361224055 0.5687408447 4288910668
-0.2721398771 -0.1355184466 0.5688582063 4288252738
-0.2721957862 -0.1349141300 0.5689750910 4288317251
-0.2722514868 -0.1343094260 0.5690914989 4288185665
-0.2723069489 -0.1337043643 0.5692074299 4288383043
-0.2727844417 -0.1333052814 0.5702055097 4288119871
-0.2728395462 -0.1326985359 0.5703206658 4287791160
-0.2724719644 -0.1318869442 0.5695523620 4287791160
-0.2725265026 -0.1312804073 0.5696663857 4287659574
-0.2721582353 -0.1304709017 0.5688965321 4287659574
-0.2722122371 -0.1298645884 0.5690094233 4288185916
-0.2722660005 -0.1292579025 0.5691217780 4287133228
-0.2723195255 -0.1286508590 0.5692337155 4287791411
-0.2723728418 -0.1280434728 0.5693451762 4288383548
-0.2724259198 -0.1274357140 0.5694561005 4286936100
-0.2729018629 -0.1270245463 0.5704509616 4287265065
-0.2729545832 -0.1264151335 0.5705611706 4287659825
-0.2730070353 -0.1258053780 0.5706707835 4287265067
-0.2730592489 -0.1251952648 0.5707799792 4287265841
-0.2731112540 -0.1245848089 0.5708886385 4287134255
-0.2731630206 -0.1239740029 0.5709968805 4287528497
-0.2732145488 -0.1233628467 0.5711045861 4288449599
-0.2732658386 -0.1227513477 0.5712117553 4289107529
-0.2737406194 -0.1223288700 0.5722042322 4288252220
-0.2737915218 -0.1217157319 0.5723106265 4287988790
-0.2734182775 -0.1209147945 0.5715304613 4288515134
-0.2734686434 -0.1203019321 0.5716356635 4290159444
-0.2735187411 -0.1196887270 0.5717404485 4289435721
-0.2739927471 -0.1192598045 0.5727312565 4290027344
-0.2740424573 -0.1186449751 0.5728351474 4290816860
-0.2740919292 -0.1180298179 0.5729385614 4291145310
-0.2741411328 -0.1174143255 0.5730414391 4291079517
-0.2741901278 -0.1167985052 0.5731438398 4291014235
-0.2746633887 -0.1163622066 0.5741331577 4291408993
-0.2751365900 -0.1159236655 0.5751222372 4291541333
-0.2751849890 -0.1153049469 0.5752234459 4291475540
-0.2752331793 -0.1146859080 0.5753241181 4291607642
-0.2757059038 -0.1142425686 0.5763123035 4292068193
-0.2766034603 -0.1139720753 0.5781884789 4292463215
-0.2770760953 -0.1135233045 0.5791764259 4292989559
-0.2775486112 -0.1130723059 0.5801641345 4292728697
-0.2780210376 -0.1126190722 0.5811516643 4292399732
-0.2784933746 -0.1121636033 0.5821389556 4289769075
-0.2793908417 -0.1118761748 0.5840149522 4287795285
-0.2802883387 -0.1115845963 0.5858910680 4285953644
-0.2816112936 -0.1114572287 0.5886564255 4286414195
-0.2825089395 -0.1111563817 0.5905327797 4288322711
-0.2838321626 -0.1110178158 0.5932987332 4291809740
-0.2834247649 -0.1592805982 0.5938258171 4288982191
-0.2830708921 -0.1584227681 0.5930843949 4288521640
-0.2831354439 -0.1577997953 0.5932196379 4287862940
-0.2831997871 -0.1571763903 0.5933544040 4286876045
-0.2828448415 -0.1563209742 0.5926107764 4285756788
-0.2829086483 -0.1556976438 0.5927444100 4284375135
-0.2825529873 -0.1548441499 0.5919992328 4283519564
-0.2821969092 -0.1539920866 0.5912532210 4282861634
-0.2822598219 -0.1533693522 0.5913850069 4282664002
-0.2814835012 -0.1522922665 0.5897585154 4282071865
-0.2811262012 -0.1514445096 0.5890098810 4282006336
-0.2799291015 -0.1501479894 0.5865017176 4282401094
-0.2791509926 -0.1490807980 0.5848714709 4282005815
-0.2779524326 -0.1477936506 0.5823602676 4281874229
-0.2771730423 -0.1467340142 0.5807273388 4281677610
-0.2759730220 -0.1454562843 0.5782130957 4281546024
-0.2747722268 -0.1441837549 0.5756971836 4282861096
-0.2739908993 -0.1431359351 0.5740602016 4284966472
-0.2736293077 -0.1423100531 0.5733025670 4287266893
-0.2732673287 -0.1414856464 0.5725441575 4288451167
-0.2729049325 -0.1406627297 0.5717848539 4289502554
-0.2725421190 -0.1398412734 0.5710247159 4289699933
-0.2717582285 -0.1388064474 0.5693823099 4289371471
-0.2718153000 -0.1382028311 0.5695018768 4289108299
-0.2722930014 -0.1378118545 0.5705027580 4289370703
-0.2723497152 -0.1372065544 0.5706216097 4289304910
-0.2724061906 -0.1366008669 0.5707399249 4289172047
-0.2720413506 -0.1357846260 0.5699754953 4288711496
-0.2720972896 -0.1351791322 0.5700926781 4288252990
-0.2721529901 -0.1345732659 0.5702094436 4288187197
-0.2722084820 -0.1339670420 0.5703256726 4288383808
-0.2722637355 -0.1333604306 0.5704414248 4288581187
-0.2723187804 -0.1327534616 0.5705567598 4288646726
-0.2719519436 -0.1319415569 0.5697881579 4288909898
-0.2720064223 -0.1313347816 0.5699023604 4289238606
-0.2720606923 -0.1307276487 0.5700160265 4289435985
-0.2716928422 -0.1299184263 0.5692452788 4289501778
-0.2717465460 -0.1293115169 0.5693578124 4289435985
-0.2722220719 -0.1289040893 0.5703541636 4289632851
-0.2722754180 -0.1282955259 0.5704659224 4289369679
-0.2723285258 -0.1276865900 0.5705771446 4289105739
-0.2723813951 -0.1270773113 0.5706879497 4290026841
-0.2724340260 -0.1264676601 0.5707982183 4290290014
-0.2724864483 -0.1258576810 0.5709080100 4290158428
-0.2725386024 -0.1252473295 0.5710173249 4290093404
-0.2730131745 -0.1248298734 0.5720116496 4290159197
-0.2730649412 -0.1242178828 0.5721201301 4290224988
-0.2731164992 -0.1236055493 0.5722281337 4290290781
-0.2731678188 -0.1229928657 0.5723356605 4290488669
-0.2732189000 -0.1223798394 0.5724426508 4290028118
-0.2732697427 -0.1217664704 0.5725491643 4289962580
-0.2733203471 -0.1211527586 0.5726552010 4290159959
-0.2733707130 -0.1205387041 0.5727607608 4290620508
-0.2734208405 -0.1199243143 0.5728657842 4290488922
-0.2734707296 -0.1193095818 0.5729703307 4290423381
-0.2735203803 -0.1186945215 0.5730743408 4290357588
-0.2735697925 -0.1180791259 0.5731778741 4290357586
-0.2736189663 -0.1174633950 0.5732809305 4290818137
-0.2736679018 -0.1168473288 0.5733834505 4291279454
-0.2737165987 -0.1162309423 0.5734854937 4291476833
-0.2741888463 -0.1157931909 0.5744748712 4291936867
-0.2746610045 -0.1153532043 0.5754641294 4292397418
-0.2751330435 -0.1149109751 0.5764532089 4292726900
-0.2756050229 -0.1144665107 0.5774420500 4292661107
-0.2760768831 -0.1140198186 0.5784306526 4292004471
-0.2765486538 -0.1135708764 0.5794190764 4291017576
-0.2770203054 -0.1131197065 0.5804073215 4288781915
-0.2779161930 -0.1128385663 0.5822843313 4287005504
-0.2783877254 -0.1123819649 0.5832722783 4284506182
-0.2792836130 -0.1120934784 0.5851492882 4284308803
-0.2801795006 -0.1118008345 0.5870264173 4284704100
-0.2815000415 -0.1116724685 0.5897931457 4286151546
-0.2823961079 -0.1113705486 0.5916705728 4288454297
-0.2837168872 -0.1112309769 0.5944378972 4292007119
-0.2823325694 -0.1603544354 0.5929172039 4288982190
-0.2819799781 -0.1594962180 0.5921767354 4288521639
-0.2820447981 -0.1588747948 0.5923128724 4287863709
-0.2816914618 -0.1580184847 0.5915708542 4287271572
-0.2817557752 -0.1573971212 0.5917058587 4286349701
-0.2818198204 -0.1567753404 0.5918403864 4285297013
-0.2818836868 -0.1561531276 0.5919744968 4284769641
-0.2815289795 -0.1552997380 0.5912296176 4283848539
-0.2811738551 -0.1544477791 0.5904838443 4282993221
-0.2808183134 -0.1535972357 0.5897371769 4282466877
-0.2812995911 -0.1532041132 0.5907478929 4282466623
-0.2805247307 -0.1521275342 0.5891206264 4282203451
-0.2801680565 -0.1512804031 0.5883715749 4281874749
-0.2798109651 -0.1504346877 0.5876216888 4281874749
-0.2794534564 -0.1495904326 0.5868709087 4282138420
-0.2786765099 -0.1485242844 0.5852392316 4281941041
-0.2774797976 -0.1472390294 0.5827260613 4281743929
-0.2767015398 -0.1461804360 0.5810917020 4281546550
-0.2750840485 -0.1446840614 0.5776948333 4281282349
-0.2747238576 -0.1438536048 0.5769383907 4280624419
-0.2739437819 -0.1428059191 0.5753001571 4280820496
-0.2735826969 -0.1419793367 0.5745418668 4281741598
-0.2728015184 -0.1409374028 0.5729013681 4283451174
-0.2724395394 -0.1401147097 0.5721412301 4285622343
-0.2720771730 -0.1392934918 0.5713801980 4287003986
-0.2717143893 -0.1384737641 0.5706183314 4287727709
-0.2717712820 -0.1378686130 0.5707377791 4288648025
-0.2718279362 -0.1372630894 0.5708567500 4289371748
-0.2718843520 -0.1366571933 0.5709752440 4290092884
-0.2715202272 -0.1358406246 0.5702105761 4290092884
-0.2715761065 -0.1352349073 0.5703279376 4290224469
-0.2716317773 -0.1346288174 0.5704448223 4290224469
-0.2716871798 -0.1340223551 0.5705611706 4290027093
-0.2717423737 -0.1334155202 0.5706771016 4289895507
-0.2717973590 -0.1328083277 0.5707925558 4289567058
-0.2714312673 -0.1319961101 0.5700237751 4289238093
-0.2714857161 -0.1313891113 0.5701380372 4289303884
-0.2715398967 -0.1307817549 0.5702518821 4289303884
-0.2715938687 -0.1301740259 0.5703652501 4289173064
-0.2712264657 -0.1293650568 0.5695936084 4289370443
-0.2717011273 -0.1289574951 0.5705904365 4289305161
-0.2717543840 -0.1283486933 0.5707023144 4289239368
-0.2718074322 -0.1277395338 0.5708137155 4289370701
-0.2718602717 -0.1271300167 0.5709246397 4289699666
-0.2719128430 -0.1265201420 0.5710350871 4289436496
-0.2719651759 -0.1259099096 0.5711449981 4289633875
-0.2720173001 -0.1252993345 0.5712544918 4290092626
-0.2724910080 -0.1248817295 0.5722492337 4290421591
-0.2725427151 -0.1242695004 0.5723578930 4290487893
-0.2725942135 -0.1236569285 0.5724660158 4290356307
-0.2726454735 -0.1230440140 0.5725736618 4290620247
-0.2726964951 -0.1224307492 0.5726808310 4290817626
-0.2727472782 -0.1218171418 0.5727874637 4291146591
-0.2727978528 -0.1212031990 0.5728936195 4291146591
-0.2728481591 -0.1205889061 0.5729992986 4291343718
-0.2728982270 -0.1199742779 0.5731044412 4291541097
-0.2729480565 -0.1193593144 0.5732091069 4291607405
-0.2729976773 -0.1187440082 0.5733132958 4291607405
-0.2730470300 -0.1181283742 0.5734169483 4291673709
-0.2730961442 -0.1175124049 0.5735201240 4292200053
-0.2731450498 -0.1168961003 0.5736227632 4292398198
-0.2736165822 -0.1164594740 0.5746130347 4291937647
-0.2736650705 -0.1158415526 0.5747148395 4291741056
-0.2745594084 -0.1155794859 0.5765930414 4290951540
-0.2750306726 -0.1151361391 0.5775827169 4289701750
-0.2755018473 -0.1146905497 0.5785722136 4288320097
-0.2755496502 -0.1140675098 0.5786725879 4286150730
-0.2764438987 -0.1137926653 0.5805506110 4284374319
-0.2769147754 -0.1133403555 0.5815394521 4283191092
-0.2773855627 -0.1128858179 0.5825281739 4283191092
-0.2782797813 -0.1126004234 0.5844061375 4284046166
-0.2791740596 -0.1123108715 0.5862841606 4284506717
-0.2800683975 -0.1120171621 0.5881622434 4285296235
-0.2813864946 -0.1118877977 0.5909304023 4286414716
-0.2822809517 -0.1115847975 0.5928088427 4288651165
-0.2831754386 -0.1112776473 0.5946872830 4292335573
-0.2807588577 -0.1618033499 0.5909907818 4289048243
-0.2808244228 -0.1611843407 0.5911287665 4288850353
-0.2808897495 -0.1605648994 0.5912663341 4288587181
-0.2805380225 -0.1597077101 0.5905259252 4288192674
-0.2806028128 -0.1590883285 0.5906623006 4287534744
-0.2806673944 -0.1584685296 0.5907981992 4286810251
-0.2803145945 -0.1576137394 0.5900556445 4286086528
-0.2803786397 -0.1569940001 0.5901904106 4285297015
-0.2804424465 -0.1563738286 0.5903246999 4284507499
-0.2805060148 -0.1557532400 0.5904585719 4284572779
-0.2801518738 -0.1549013853 0.5897130370 4283454298
-0.2802149057 -0.1542808861 0.5898457766 4282598470
-0.2798600197 -0.1534309536 0.5890987515 4281940540
-0.2795047164 -0.1525824666 0.5883508325 4281742900
-0.2791489959 -0.1517354101 0.5876020789 4281874486
-0.2787928879 -0.1508897990 0.5868524313 4281875001
-0.2784363627 -0.1500456333 0.5861019492 4281480243
-0.2784975767 -0.1494272798 0.5862308145 4281349422
-0.2781403065 -0.1485850960 0.5854787827 4281349422
-0.2773643136 -0.1475218385 0.5838453174 4281283891
-0.2765876949 -0.1464619040 0.5822106004 4281152305
-0.2753919661 -0.1451846510 0.5796936154 4281349425
-0.2746140957 -0.1441323012 0.5780562162 4281086253
-0.2734169364 -0.1428645104 0.5755361915 4280821798
-0.2743130028 -0.1426911503 0.5774223804 4280953384
-0.2731147408 -0.1414290965 0.5749000907 4280887342
-0.2723347247 -0.1403882504 0.5732581615 4280492584
-0.2715541124 -0.1393507421 0.5716150403 4280820522
-0.2716112435 -0.1387448162 0.5717352629 4281478452
-0.2716681361 -0.1381385028 0.5718550086 4282463776
-0.2713054717 -0.1373195797 0.5710916519 4283582257
-0.2713618279 -0.1367134452 0.5712102652 4285686823
-0.2709984779 -0.1358965784 0.5704454184 4286739511
-0.2710542977 -0.1352906227 0.5705628991 4287726907
-0.2711098790 -0.1346843094 0.5706799030 4288516423
-0.2711652517 -0.1340776235 0.5707964301 4289239895
-0.2712203860 -0.1334705651 0.5709125400 4289897825
-0.2708553672 -0.1326574534 0.5701441765 4290226025
-0.2709099650 -0.1320506036 0.5702590942 4290028646
-0.2709643245 -0.1314433664 0.5703735352 4290291554
-0.2710184753 -0.1308357865 0.5704874992 4290357347
-0.2710723877 -0.1302278340 0.5706009865 4290554462
-0.2711260617 -0.1296195090 0.5707139969 4290488669
-0.2711795270 -0.1290108413 0.5708264709 4290883682
-0.2712327242 -0.1284018010 0.5709385276 4291015268
-0.2712857127 -0.1277924180 0.5710500479 4291014756
-0.2713384926 -0.1271826625 0.5711610913 4291277928
-0.2713910043 -0.1265725642 0.5712716579 4291343469
-0.2714433074 -0.1259621084 0.5713817477 4291343469
-0.2714953423 -0.1253512949 0.5714913011 4291343978
-0.2719681859 -0.1249335259 0.5724866390 4291409771
-0.2720198631 -0.1243210658 0.5725953579 4291542123
-0.2720713019 -0.1237082630 0.5727036595 4291542123
-0.2721225023 -0.1230951101 0.5728114247 4291739500
-0.2721734643 -0.1224816069 0.5729187131 4291739500
-0.2722241879 -0.1218677685 0.5730255246 4291870835
-0.2722747028 -0.1212535799 0.5731317997 4291673456
-0.2723249495 -0.1206390560 0.5732375979 4291673207
-0.2723749578 -0.1200241894 0.5733429193 4291673207
-0.2720030546 -0.1192241460 0.5725600123 4291541371
-0.2720525265 -0.1186095551 0.5726641417 4291409785
-0.2725236118 -0.1181775704 0.5736557841 4290884209
-0.2725726664 -0.1175613627 0.5737590790 4290028900
-0.2730435133 -0.1171258539 0.5747501850 4288910670
-0.2730921805 -0.1165080220 0.5748526454 4287660603
-0.2739849389 -0.1162481084 0.5767318606 4285492301
-0.2740332782 -0.1156277135 0.5768336058 4283979062
-0.2745036781 -0.1151841953 0.5778237581 4282663745
-0.2749739885 -0.1147384346 0.5788137913 4282400573
-0.2754442096 -0.1142904386 0.5798035860 4282138173
-0.2759143412 -0.1138402075 0.5807931423 4282335552
-0.2768069506 -0.1135611013 0.5826721191 4282994257
-0.2772769332 -0.1131054312 0.5836614370 4283783773
-0.2777468264 -0.1126475185 0.5846505165 4283849566
-0.2786394358 -0.1123578548 0.5865294337 4284310117
-0.2799549699 -0.1122335792 0.5892986059 4285033063
-0.2808476985 -0.1119346395 0.5911778212 4286151544
-0.2817404866 -0.1116315350 0.5930570960 4289045927
-0.2826332748 -0.1113242656 0.5949364305 4292993507
-0.2797347009 -0.1622466594 0.5902147889 4289047730
-0.2793845534 -0.1613886207 0.5894760489 4288587179
-0.2794498205 -0.1607712358 0.5896137953 4288192934
-0.2795148790 -0.1601534039 0.5897510648 4287666590
-0.2791636884 -0.1592977494 0.5890100598 4287271573
-0.2792282104 -0.1586799920 0.5891461968 4286547850
-0.2788763046 -0.1578262448 0.5884037018 4285757564
-0.2789402902 -0.1572085470 0.5885387063 4285231220
-0.2790040672 -0.1565904170 0.5886732340 4284836464
-0.2786510885 -0.1557390839 0.5879284739 4284310120
-0.2787142992 -0.1551210433 0.5880618691 4284441193
-0.2787773013 -0.1545025855 0.5881948471 4283585884
-0.2788400948 -0.1538837105 0.5883272886 4282466887
-0.2784857452 -0.1530353129 0.5875796676 4281677371
-0.2789649963 -0.1526446939 0.5885908008 4281479732
-0.2781929374 -0.1515700817 0.5869618654 4281282353
-0.2778374553 -0.1507250816 0.5862118006 4281479730
-0.2778988481 -0.1501069218 0.5863413215 4281940281
-0.2775426209 -0.1492638886 0.5855897665 4281545271
-0.2771860361 -0.1484223008 0.5848373771 4281347892
-0.2764114738 -0.1473595798 0.5832030773 4281348403
-0.2760539353 -0.1465218365 0.5824487805 4281545782
-0.2752783000 -0.1454648226 0.5808122158 4281349423
-0.2749198675 -0.1446309388 0.5800560117 4281086251
-0.2741431594 -0.1435796469 0.5784171820 4280955431
-0.2737838328 -0.1427496374 0.5776590109 4281087017
-0.2734241188 -0.1419211030 0.5769000649 4281217837
-0.2726458013 -0.1408779770 0.5752578974 4281217837
-0.2722851932 -0.1400533319 0.5744970441 4281348144
-0.2715058327 -0.1390159726 0.5728526711 4281150765
-0.2715627551 -0.1384084970 0.5729727149 4281412397
-0.2716194391 -0.1378006488 0.5730923414 4281149225
-0.2716759145 -0.1371924281 0.5732114911 4281213986
-0.2713134587 -0.1363733560 0.5724467635 4281345572
-0.2709506154 -0.1355558038 0.5716812015 4281478940
-0.2710062265 -0.1349483132 0.5717985630 4281939491
-0.2706426680 -0.1341328174 0.5710314512 4282399792
-0.2706977427 -0.1335255355 0.5711476803 4283057722
-0.2707525790 -0.1329178661 0.5712633729 4283912254
-0.2708072066 -0.1323098391 0.5713786483 4284438598
-0.2704423070 -0.1314975768 0.5706087351 4285622083
-0.2704963982 -0.1308897585 0.5707228780 4286148427
-0.2705502510 -0.1302815825 0.5708364844 4287003453
-0.2706038654 -0.1296730340 0.5709496140 4287661383
-0.2706572711 -0.1290641278 0.5710622668 4288187197
-0.2707104087 -0.1284548640 0.5711744428 4288187197
-0.2707633376 -0.1278452426 0.5712860823 4288909890
-0.2708160579 -0.1272352487 0.5713973045 4289304648
-0.2708685100 -0.1266249120 0.5715079904 4289435721
-0.2709207535 -0.1260142326 0.5716181993 4289567307
-0.2709727585 -0.1254031807 0.5717279315 4289567309
-0.2714447081 -0.1249852702 0.5727236867 4289501516
-0.2714963257 -0.1243725792 0.5728326440 4289567820
-0.2715477049 -0.1237595379 0.5729410052 4289502027
-0.2715988457 -0.1231461465 0.5730489492 4289108299
-0.2716497779 -0.1225324124 0.5731563568 4288318783
-0.2717004418 -0.1219183356 0.5732632875 4287726923
-0.2717508972 -0.1213039160 0.5733696818 4287266372
-0.2718010843 -0.1206891537 0.5734755993 4286345553
-0.2718510628 -0.1200740486 0.5735810399 4285621830
-0.2719007730 -0.1194586083 0.5736860037 4284109894
-0.2719502747 -0.1188428327 0.5737904310 4283386171
-0.2719995379 -0.1182267144 0.5738943219 4282794551
-0.2724696696 -0.1177923307 0.5748862624 4282399793
-0.2729397416 -0.1173556969 0.5758780837 4282137133
-0.2734096944 -0.1169168279 0.5768696666 4281808168
-0.2738795877 -0.1164757088 0.5778610706 4281808693
-0.2743493617 -0.1160323545 0.5788522363 4282598209
-0.2743975520 -0.1154094785 0.5789539218 4282664012
-0.2748670578 -0.1149625927 0.5799445510 4282466633
-0.2753365040 -0.1145134717 0.5809350014 4282730326
-0.2762275338 -0.1142365113 0.5828150511 4283059291
-0.2766968310 -0.1137819439 0.5838052034 4283059801
-0.2775878906 -0.1134976223 0.5856852531 4283322973
-0.2780570686 -0.1130376160 0.5866751671 4283718234
-0.2785261273 -0.1125753596 0.5876648426 4284441957
-0.2794171572 -0.1122804806 0.5895448327 4285032813
-0.2803082466 -0.1119814292 0.5914249420 4286348673
-0.2811993361 -0.1116782129 0.5933050513 4289901495
-0.2783623934 -0.1618299484 0.5886989236 4288784558
-0.2780127823 -0.1609734446 0.5879595876 4288258214
-0.2780778110 -0.1603576690 0.5880970359 4287733149
-0.2781426013 -0.1597414613 0.5882341266 4287009426
-0.2782071829 -0.1591248363 0.5883706808 4286547849
-0.2778562009 -0.1582711935 0.5876284242 4285955712
-0.2775048316 -0.1574189663 0.5868852735 4285231220
-0.2775685489 -0.1568028927 0.5870200396 4284902255
-0.2776320577 -0.1561864018 0.5871543884 4284704875
-0.2776953280 -0.1555694789 0.5872882009 4284244324
-0.2773425877 -0.1547201723 0.5865421891 4284310118
-0.2774053216 -0.1541033387 0.5866749287 4284046946
-0.2774678469 -0.1534860879 0.5868071318 4283322196
-0.2775301635 -0.1528684199 0.5869388580 4282006336
-0.2775922418 -0.1522503346 0.5870701671 4281150513
-0.2772378027 -0.1514045000 0.5863206387 4281347892
-0.2768829763 -0.1505601108 0.5855702162 4281413685
-0.2769442201 -0.1499426514 0.5856996775 4281084720
-0.2765886486 -0.1491002291 0.5849477053 4281347885
-0.2762326896 -0.1482592523 0.5841948986 4281347885
-0.2758763134 -0.1474197358 0.5834412575 4281348393
-0.2751027048 -0.1463599354 0.5818051696 4281216807
-0.2751623690 -0.1457450837 0.5819312930 4280954148
-0.2748047709 -0.1449099630 0.5811750293 4281151527
-0.2740296721 -0.1438573301 0.5795358419 4281283378
-0.2736711800 -0.1430260688 0.5787776709 4281020206
-0.2733123004 -0.1421962976 0.5780186653 4281019692
-0.2733703554 -0.1415841430 0.5781415105 4281217071
-0.2730107605 -0.1407563835 0.5773809552 4281479468
-0.2722332180 -0.1397158206 0.5757365227 4281150503
-0.2718726993 -0.1388919652 0.5749741197 4281413676
-0.2719295025 -0.1382820159 0.5750942826 4281413676
-0.2719860971 -0.1376716793 0.5752139091 4281348146
-0.2716245651 -0.1368504316 0.5744493604 4281545525
-0.2712626457 -0.1360306740 0.5736839175 4281151016
-0.2709003091 -0.1352124363 0.5729176402 4281085223
-0.2709557116 -0.1346034110 0.5730348229 4280755755
-0.2705926895 -0.1337872297 0.5722670555 4280624169
-0.2706475556 -0.1331783980 0.5723831058 4280492326
-0.2707022130 -0.1325691938 0.5724986792 4280426533
-0.2703381479 -0.1317556798 0.5717287064 4280951577
-0.2703922391 -0.1311466843 0.5718431473 4281083163
-0.2704461217 -0.1305373311 0.5719571114 4280951812
-0.2704997659 -0.1299276203 0.5720705390 4281149191
-0.2705531716 -0.1293175370 0.5721834898 4281149696
-0.2706063688 -0.1287070960 0.5722959638 4281281280
-0.2706592977 -0.1280962974 0.5724079609 4281806339
-0.2707120180 -0.1274851412 0.5725194812 4281806339
-0.2707645297 -0.1268736273 0.5726304650 4282134538
-0.2708167732 -0.1262617558 0.5727409720 4282463503
-0.2708688080 -0.1256495267 0.5728510022 4282331664
-0.2709206045 -0.1250369549 0.5729605556 4282265871
-0.2713916302 -0.1246166378 0.5739566684 4282135306
-0.2714430094 -0.1240024120 0.5740653872 4282135306
-0.2714941800 -0.1233878359 0.5741736293 4282201612
-0.2715451121 -0.1227729172 0.5742813349 4282004233
-0.2715958059 -0.1221576557 0.5743885636 4282004247
-0.2716462910 -0.1215420440 0.5744952559 4281938454
-0.2716965079 -0.1209260970 0.5746015310 4281807658
-0.2717464864 -0.1203097999 0.5747072101 4282070830
-0.2717962563 -0.1196931675 0.5748124123 4281676857
-0.2718457580 -0.1190761998 0.5749171376 4281742650
-0.2723152936 -0.1186419874 0.5759100914 4281940542
-0.2723644078 -0.1180233881 0.5760139823 4282203714
-0.2728336453 -0.1175856441 0.5770063996 4282532416
-0.2733028233 -0.1171456501 0.5779986382 4282598209
-0.2737719119 -0.1167034134 0.5789906979 4282729805
-0.2742409110 -0.1162589341 0.5799825788 4282729805
-0.2747098207 -0.1158122048 0.5809742212 4282861632
-0.2751786113 -0.1153632402 0.5819656849 4282993218
-0.2756473124 -0.1149120256 0.5829569101 4282992717
-0.2761159241 -0.1144585758 0.5839479566 4282861131
-0.2765844166 -0.1140028760 0.5849388242 4283124817
-0.2774738967 -0.1137174964 0.5868198872 4283782747
-0.2779422700 -0.1132563502 0.5878104568 4284046684
-0.2788317204 -0.1129636019 0.5896915197 4284244063
-0.2792999446 -0.1124970093 0.5906817913 4284770156
-0.2801894248 -0.1121968850 0.5925628543 4287401876
-0.2806575000 -0.1117248386 0.5935528278 4291677907
-0.2769273818 -0.1620269865 0.5870429873 4289047730
-0.2769926488 -0.1614127904 0.5871813893 4288652972
-0.2766435742 -0.1605577916 0.5864413977 4288258214
-0.2767083347 -0.1599436402 0.5865786672 4287862940
-0.2767728567 -0.1593290567 0.5867154598 4287139217
-0.2768371701 -0.1587140411 0.5868517756 4286349701
