VERSION 0.7
FIELDS x y z rgba
SIZE 4 4 4 4
TYPE F F F U
COUNT 1 1 1 1
WIDTH 920
HEIGHT 1
VIEWPOINT 0.0 0.0 0.0 1.0 0.0 0.0 0.0
POINTS 920
DATA ascii
-0.2730600536 -0.2033755481 0.5642318726 4283261039
-0.2727256417 -0.2025003582 0.5635408759 4282736496
-0.2719762325 -0.2013194859 0.5619923472 4282868082
-0.2757880390 -0.2035078853 0.5698688626 4282607225
-0.2708902359 -0.1992717981 0.5597483516 4282804604
-0.2693090439 -0.1974903494 0.5564810634 4282543488
-0.2681418061 -0.1960187703 0.5540691614 4282411902
-0.2669736445 -0.1945518851 0.5516553521 4282215552
-0.2666352391 -0.1936931312 0.5509561300 4282149759
-0.2662964165 -0.1928356290 0.5502559543 4282084225
-0.2655416131 -0.1916794032 0.5486963391 4282018432
-0.2660332024 -0.1914234757 0.5497121215 4281886846
-0.2665248513 -0.1911653429 0.5507279634 4281821053
-0.2661847174 -0.1903102696 0.5500251651 4281820794
-0.2666762471 -0.1900494397 0.5510408282 4281689208
-0.2667516768 -0.1894907802 0.5511966944 4281952639
-0.2672431767 -0.1892263889 0.5522123575 4281886846
-0.2677347660 -0.1889597774 0.5532280803 4281886846
-0.2678098679 -0.1883979440 0.5533832908 4281886846
-0.2683014274 -0.1881277710 0.5543990135 4281755260
-0.2683763206 -0.1875641197 0.5545537472 4281821053
-0.2688678503 -0.1872903705 0.5555694103 4281952380
-0.2689424753 -0.1867249161 0.5557236075 4281952380
-0.2694340050 -0.1864475906 0.5567392707 4282083453
-0.2695083618 -0.1858803034 0.5568929315 4282149246
-0.2699998617 -0.1855994165 0.5579085350 4282215039
-0.2700739801 -0.1850303113 0.5580616593 4282280832
-0.2709829807 -0.1850309521 0.5599399805 4282412418
-0.2706393003 -0.1841749251 0.5592297912 4282741383
-0.2711307108 -0.1838868856 0.5602452755 4283267211
-0.2716221809 -0.1835966110 0.5612607598 4283661969
-0.2712776959 -0.1827409565 0.5605489612 4283726984
-0.2717690170 -0.1824479699 0.5615642071 4284055949
-0.2718421519 -0.1818729639 0.5617153049 4284647060
-0.2723334134 -0.1815764010 0.5627304316 4284910232
-0.2715693712 -0.1804435104 0.5611516833 4285500572
-0.2716418207 -0.1798679978 0.5613013506 4285961123
-0.2717140615 -0.1792920232 0.5614506602 4286684074
-0.2717861235 -0.1787156016 0.5615995526 4287144625
-0.2722768784 -0.1784131825 0.5626136065 4288130748
-0.2723486423 -0.1778349578 0.5627619028 4288722885
-0.2724202275 -0.1772562563 0.5629097819 4289446351
-0.2729108334 -0.1769489199 0.5639235377 4290170074
-0.2729821205 -0.1763684303 0.5640708804 4290893796
-0.2726337910 -0.1755174398 0.5633510947 4291485933
-0.2727045715 -0.1749369353 0.5634973645 4291946484
-0.2665529847 -0.1581395417 0.5507861376 4291685106
-0.2657737434 -0.1570670605 0.5491759777 4291224815
-0.2658378184 -0.1564946026 0.5493083596 4290632678
-0.2654796243 -0.1556742340 0.5485682487 4289778914
-0.2651210129 -0.1548552811 0.5478272438 4289318363
-0.2651842833 -0.1542834193 0.5479579568 4288463315
-0.2652473450 -0.1537111402 0.5480882525 4288265936
-0.2653101981 -0.1531384438 0.5482181311 4288003022
-0.2653728426 -0.1525653601 0.5483475924 4288003022
-0.2650126219 -0.1517498344 0.5476032495 4287938512
-0.2650747597 -0.1511768401 0.5477316380 4288070098
-0.2647138238 -0.1503632516 0.5469858050 4288005332
-0.2643524706 -0.1495510936 0.5462391973 4288136918
-0.2644138038 -0.1489787400 0.5463658571 4287743442
-0.2644748986 -0.1484059840 0.5464921594 4287809235
-0.2645358145 -0.1478328258 0.5466180444 4287940305
-0.2645965219 -0.1472592801 0.5467434525 4288006098
-0.2642335594 -0.1464506388 0.5459934473 4288137169
-0.2642937303 -0.1458772123 0.5461177826 4288005583
-0.2643537223 -0.1453033984 0.5462417603 4287874510
-0.2644134760 -0.1447291970 0.5463652611 4287940303
-0.2644730508 -0.1441546082 0.5464882851 4287875280
-0.2645323873 -0.1435796320 0.5466109514 4287875280
-0.2645915151 -0.1430042833 0.5467331409 4287875541
-0.2646504343 -0.1424285322 0.5468548536 4287875541
-0.2651333809 -0.1420797259 0.5478527546 4287875029
-0.2651919723 -0.1415022910 0.5479738116 4287940822
-0.2652503550 -0.1409244686 0.5480944514 4288136920
-0.2653085291 -0.1403462589 0.5482146740 4288202713
-0.2653664649 -0.1397676766 0.5483344197 4288270044
-0.2654242218 -0.1391887218 0.5484537482 4288730595
-0.2654817402 -0.1386093795 0.5485725999 4289256428
-0.2655390501 -0.1380296648 0.5486910343 4289322221
-0.2655961514 -0.1374495775 0.5488089919 4289321192
-0.2656530142 -0.1368691176 0.5489265323 4288992227
-0.2657096684 -0.1362882853 0.5490435958 4288597212
-0.2661913335 -0.1359242201 0.5500388741 4288136661
-0.2658223510 -0.1351255029 0.5492764115 4288070097
-0.2658783495 -0.1345435679 0.5493921638 4288070097
-0.2663596272 -0.1341755986 0.5503866673 4288136660
-0.2664152980 -0.1335919797 0.5505016446 4288202453
-0.2664707303 -0.1330080181 0.5506162047 4288071380
-0.2665259540 -0.1324236691 0.5507302880 4288005587
-0.2665809691 -0.1318389773 0.5508439541 4287808208
-0.2666357458 -0.1312539130 0.5509571433 4287545036
-0.2671163380 -0.1308772266 0.5519502163 4287347402
-0.2671707571 -0.1302905083 0.5520626307 4287478988
-0.2672249377 -0.1297034323 0.5521746278 4287676109
-0.2672789395 -0.1291160136 0.5522862077 4287676109
-0.2673326731 -0.1285282224 0.5523972511 4287806666
-0.2678126693 -0.1281441301 0.5533890724 4287806666
-0.2678660452 -0.1275546998 0.5534994006 4288134861
-0.2683458328 -0.1271670908 0.5544908047 4288463826
-0.2683988810 -0.1265760213 0.5546003580 4289055963
-0.2684516609 -0.1259845942 0.5547094345 4289384928
-0.2685042322 -0.1253928244 0.5548180938 4289976291
-0.2685565948 -0.1248007119 0.5549262762 4290371049
-0.2686086893 -0.1242082492 0.5550339222 4290963186
-0.2686606050 -0.1236154437 0.5551411510 4291555323
-0.2687122524 -0.1230222881 0.5552479029 4292212735
-0.2691909671 -0.1226234436 0.5562371016 4292739071
-0.2692422569 -0.1220286638 0.5563430786 4292149245
-0.2692933083 -0.1214335486 0.5564485788 4292280319
-0.2697716653 -0.1210299060 0.5574370027 4292149247
-0.2702499628 -0.1206240281 0.5584253073 4291952638
-0.2703004777 -0.1200260147 0.5585296750 4291756031
-0.2703507543 -0.1194276586 0.5586336255 4291690494
-0.2708286643 -0.1190169975 0.5596210957 4291492863
-0.2708785534 -0.1184170321 0.5597242117 4291098106
-0.2713562548 -0.1180028617 0.5607112646 4290703611
-0.2714057565 -0.1174012870 0.5608135462 4290177267
-0.2714550197 -0.1167993844 0.5609154105 4289453807
-0.2715040743 -0.1161971614 0.5610167384 4288795877
-0.2715528607 -0.1155946031 0.5611175895 4288072415
-0.2716014385 -0.1149917245 0.5612179041 4287611864
-0.2716497779 -0.1143885255 0.5613178015 4287217107
-0.2716978788 -0.1137849987 0.5614171624 4286756556
-0.2717457116 -0.1131811589 0.5615160465 4286493126
-0.2717933357 -0.1125769988 0.5616144538 4286558919
-0.2718407214 -0.1119725183 0.5617123842 4286558919
-0.2723167241 -0.1115433872 0.5626959205 4286558919
-0.2723636925 -0.1109373271 0.5627929568 4286493637
-0.2728394270 -0.1105047017 0.5637760162 4286362051
-0.2728859782 -0.1098970622 0.5638722181 4286296258
-0.2729323208 -0.1092891097 0.5639679432 4286296258
-0.2734076083 -0.1088517308 0.5649500489 4286033854
-0.2734535336 -0.1082422063 0.5650449395 4286099647
-0.2739285529 -0.1078013405 0.5660265088 4286099647
-0.2744034827 -0.1073582619 0.5670078993 4286033854
-0.2748783231 -0.1069129556 0.5679890513 4285902527
-0.2749234736 -0.1062993407 0.5680823326 4285770941
-0.2749683857 -0.1056854203 0.5681751370 4285705148
-0.2750130594 -0.1050712019 0.5682674050 4285770941
-0.2750574648 -0.1044566855 0.5683591962 4285837245
-0.2751016319 -0.1038418710 0.5684505105 4285968831
-0.2751455605 -0.1032267585 0.5685412288 4285902527
-0.2756192386 -0.1027716845 0.5695199966 4285836734
-0.2756627202 -0.1021550298 0.5696098804 4285901498
-0.2757059932 -0.1015380844 0.5696992278 4286164670
-0.2757489681 -0.1009208411 0.5697880983 4284577928
-0.2762219906 -0.1004597992 0.5707654953 4283525240
-0.2766948640 -0.0999965370 0.5717426538 4284112240
-0.2767372727 -0.0993765071 0.5718302131 4284243826
-0.2780707479 -0.0992169604 0.5745856166 4285033342
-0.2789738476 -0.0988987163 0.5764517784 4285493893
-0.2798769772 -0.0985763222 0.5783178806 4285097591
-0.2799188197 -0.0979484096 0.5784043074 4284571247
-0.2795296609 -0.0971704870 0.5776002407 4284375402
-0.2804324627 -0.0968404934 0.5794657469 4284638574
-0.2796119452 -0.0959151983 0.5777702332 4283453281
-0.2793422937 -0.0932574049 0.5772130489 4287007130
-0.2793819606 -0.0926292315 0.5772950053 4286743958
-0.2802837789 -0.0922847390 0.5791584849 4286678935
-0.2816168368 -0.0920771062 0.5819129944 4286218384
-0.2842439711 -0.0922835022 0.5873415470 4286152591
-0.2860088050 -0.0921998397 0.5909882784 4286349970
-0.2847537398 -0.0911414996 0.5883948803 4285362305
-0.2869500816 -0.0911856890 0.5929332376 4283454308
-0.2861257792 -0.0902668610 0.5912300348 4282861144
-0.2844377756 -0.0890813023 0.5877420306 4280426803
-0.2844757438 -0.0884400830 0.5878204703 4279636774
-0.2845134437 -0.0877986029 0.5878983736 4281939529
-0.2841930687 -0.0857423544 0.5872363448 4290032577
-0.2842296660 -0.0851008445 0.5873119831 4288848303
-0.2838339508 -0.0843307376 0.5864943266 4287269271
-0.2856341898 -0.0835540667 0.5902141929 4285033079
-0.2873986065 -0.0834103748 0.5938600302 4284440942
-0.2861375213 -0.0823874548 0.5912542939 4284638321
-0.2879018784 -0.0822344869 0.5949000120 4284769907
-0.2883693576 -0.0817059651 0.5958659649 4284704113
-0.2888366878 -0.0811752453 0.5968316197 4284375148
-0.2893038392 -0.0806423426 0.5977968574 4284177769
-0.2897708118 -0.0801072419 0.5987617970 4284243562
-0.2906701565 -0.0796885416 0.6006201506 4284506734
-0.2911368608 -0.0791480765 0.6015844941 4284769906
-0.2916033566 -0.0786054283 0.6025484800 4284770420
-0.2925024033 -0.0781762376 0.6044061780 4285230971
-0.2929686010 -0.0776282325 0.6053695083 4285888901
-0.2934346497 -0.0770780370 0.6063324809 4286678417
-0.2934676409 -0.0764129534 0.6064006686 4287204761
-0.2935003638 -0.0757476464 0.6064683199 4287533726
-0.2939657569 -0.0751928538 0.6074299812 4287994791
-0.2939979732 -0.0745261237 0.6074965596 4288850100
-0.2944629490 -0.0739679560 0.6084573269 4289047479
-0.2953608036 -0.0735153928 0.6103125811 4288981686
-0.2958254516 -0.0729518756 0.6112726927 4288586928
-0.2962899208 -0.0723861754 0.6122323871 4287797412
-0.2958877385 -0.0716086105 0.6114013791 4286811030
-0.2963517010 -0.0710405186 0.6123601198 4286087307
-0.2968154848 -0.0704702586 0.6133184433 4285429377
-0.2972790897 -0.0698978156 0.6142763495 4284837240
-0.2977424562 -0.0693232045 0.6152338982 4285232000
-0.2982056439 -0.0687464178 0.6161909699 4285626758
-0.2986686528 -0.0681674555 0.6171476841 4286942618
-0.2991314232 -0.0675863251 0.6181039214 4287929513
-0.2995940149 -0.0670030192 0.6190598011 4289245373
-0.3000849187 -0.0657349154 0.6200741529 4291087577
-0.3001131415 -0.0650520846 0.6201325059 4291942886
-0.2828480005 -0.2209132463 0.5858014226 4290890457
-0.2829340994 -0.2203294188 0.5859797597 4290627285
-0.2826080322 -0.2194251865 0.5853044391 4290627285
-0.2822815478 -0.2185221314 0.5846282840 4290693078
-0.2811302245 -0.2169839293 0.5822437406 4290429906
-0.2808026373 -0.2160849273 0.5815653205 4290758871
-0.2792372406 -0.2142377645 0.5783232450 4290035148
-0.2780832648 -0.2127124965 0.5759332180 4287206049
-0.2769283652 -0.2111918479 0.5735413432 4285627017
-0.2753597200 -0.2093619257 0.5702925920 4285429638
-0.2750287652 -0.2084774375 0.5696071982 4285232259
-0.2742843330 -0.2072819769 0.5680654049 4285166466
-0.2739524543 -0.2064007521 0.5673779845 4285166466
-0.2740334570 -0.2058311999 0.5675457716 4285298052
-0.2741142809 -0.2052611411 0.5677131414 4284445312
-0.2746084929 -0.2049993128 0.5687367320 4284116347
-0.2751027644 -0.2047352493 0.5697604418 4283394426
-0.2743556798 -0.2035479397 0.5682131648 4283262840
-0.2731940150 -0.2020574212 0.5658072233 4282935676
-0.2765859962 -0.2039297223 0.5728322864 4282804090
-0.2721104622 -0.2000037134 0.5635631084 4282410617
-0.2705321610 -0.1982211173 0.5602943301 4282476410
-0.2693671286 -0.1967476457 0.5578814745 4282280316
-0.2690302730 -0.1958825141 0.5571837425 4282148730
-0.2682783306 -0.1947176903 0.5556264520 4282017660
-0.2679405212 -0.1938559413 0.5549268126 4281951867
-0.2680171728 -0.1932946593 0.5550855398 4282082424
-0.2680936456 -0.1927328855 0.5552439690 4282148217
-0.2685850561 -0.1924681216 0.5562617183 4282410360
-0.2690765262 -0.1922011375 0.5572795868 4282476153
-0.2691527009 -0.1916361898 0.5574373603 4282279803
-0.2692286968 -0.1910707653 0.5575947165 4282279803
-0.2693044841 -0.1905048639 0.5577517152 4282345596
-0.2697958350 -0.1902316064 0.5587692857 4282477182
-0.2698713839 -0.1896638721 0.5589258075 4282542975
-0.2703627050 -0.1893870234 0.5599433780 4282674561
-0.2704380155 -0.1888174713 0.5600993037 4283134083
-0.2705131173 -0.1882474273 0.5602548718 4283397255
-0.2710043490 -0.1879656613 0.5612722635 4283594121
-0.2710792124 -0.1873937994 0.5614272952 4283857293
-0.2715704143 -0.1871084422 0.5624446273 4284120464
-0.2716450095 -0.1865347475 0.5625991225 4284383636
-0.2717194259 -0.1859605908 0.5627532601 4284844187
-0.2722105086 -0.1856702864 0.5637703538 4285370531
-0.2718676925 -0.1848108619 0.5630602837 4286093740
-0.2723586261 -0.1845178604 0.5640770793 4286685877
-0.2720151842 -0.1836592406 0.5633658171 4287539381
-0.2720886469 -0.1830827445 0.5635179281 4288065725
-0.2721619308 -0.1825057715 0.5636696815 4288789448
-0.2722350061 -0.1819283217 0.5638210773 4289513171
-0.2714726031 -0.1807941347 0.5622420311 4290302687
-0.2711273134 -0.1799402833 0.5615268946 4290960617
-0.2711994648 -0.1793641150 0.5616763830 4291618032
-0.2712714374 -0.1787874848 0.5618254542 4292012790
-0.2645284235 -0.1597342640 0.5478600860 4291750645
-0.2624900639 -0.1578993797 0.5436384678 4290305256
-0.2638165355 -0.1580902338 0.5463857055 4289778912
-0.2643016875 -0.1577727795 0.5473905206 4289187290
-0.2631030083 -0.1564518064 0.5449079275 4288726739
-0.2631666958 -0.1558841020 0.5450398326 4288201422
-0.2632302046 -0.1553159952 0.5451713800 4288135629
-0.2628722191 -0.1544998735 0.5444299579 4288201424
-0.2629352212 -0.1539318562 0.5445604324 4288267217
-0.2629980147 -0.1533634216 0.5446904898 4287874001
-0.2630605996 -0.1527945846 0.5448200703 4287939794
-0.2631229758 -0.1522253454 0.5449492931 4287940822
-0.2627633810 -0.1514126509 0.5442045331 4288072408
-0.2628252804 -0.1508435160 0.5443327427 4288006872
-0.2628869414 -0.1502739787 0.5444604754 4287941079
-0.2625263631 -0.1494637430 0.5437136292 4287809493
-0.2625875175 -0.1488943249 0.5438402891 4287612114
-0.2626484632 -0.1483245045 0.5439665318 4287742924
-0.2622868717 -0.1475167423 0.5432176590 4287808717
-0.2623473108 -0.1469470561 0.5433428288 4287874510
-0.2624075711 -0.1463769674 0.5434676409 4287940303
-0.2624675930 -0.1458064914 0.5435919762 4287940305
-0.2625274360 -0.1452356130 0.5437158942 4287742926
-0.2625870705 -0.1446643621 0.5438393950 4287611340
-0.2630694211 -0.1443247497 0.5448383689 4287545547
-0.2631287277 -0.1437517852 0.5449612141 4287742672
-0.2631878257 -0.1431784481 0.5450835824 4287808465
-0.2632467151 -0.1426047236 0.5452055335 4287677650
-0.2637287080 -0.1422589570 0.5462037921 4287677650
-0.2637872398 -0.1416835338 0.5463250279 4287677396
-0.2638455927 -0.1411077231 0.5464459062 4287743189
-0.2639037371 -0.1405315399 0.5465663075 4287939800
-0.2643853426 -0.1401796192 0.5475637317 4287939800
-0.2644431293 -0.1396017522 0.5476834774 4287809493
-0.2645007372 -0.1390235126 0.5478027463 4287875286
-0.2641341388 -0.1382230222 0.5470434427 4287809236
-0.2641912103 -0.1376449466 0.5471616387 4287611857
-0.2646721900 -0.1372865140 0.5481578708 4287808466
-0.2647289336 -0.1367067546 0.5482753515 4288005845
-0.2652097642 -0.1363447905 0.5492712259 4288005074
-0.2652661502 -0.1357633621 0.5493879914 4287676109
-0.2653223276 -0.1351815760 0.5495043397 4287939281
-0.2653782666 -0.1345994174 0.5496202111 4287873488
-0.2654339969 -0.1340168864 0.5497356057 4287741903
-0.2654895186 -0.1334339976 0.5498505831 4287676110
-0.2655448318 -0.1328507364 0.5499651432 4287479243
-0.2655999064 -0.1322671026 0.5500791669 4287413450
-0.2656547427 -0.1316831261 0.5501927733 4287413707
-0.2657093704 -0.1310987771 0.5503059626 4287479500
-0.2657637894 -0.1305140704 0.5504186153 4287938765
-0.2662433088 -0.1301368922 0.5514117479 4288333523
-0.2662973702 -0.1295505315 0.5515236855 4288990424
-0.2663511932 -0.1289638132 0.5516352057 4289450975
-0.2668303847 -0.1285818219 0.5526276231 4289911011
-0.2668838501 -0.1279934496 0.5527383685 4290371562
-0.2673628330 -0.1276079416 0.5537303686 4291029233
-0.2674159408 -0.1270179302 0.5538403988 4291555577
-0.2674688399 -0.1264275759 0.5539498925 4292147711
-0.2675215006 -0.1258368641 0.5540589690 4292410879
-0.2675739229 -0.1252458096 0.5541675687 4292607743
-0.2676261365 -0.1246544048 0.5542756915 4292673535
-0.2681043446 -0.1242602095 0.5552661419 4292607999
-0.2681561708 -0.1236671731 0.5553734899 4292542463
-0.2682077885 -0.1230737939 0.5554803610 4292345855
-0.2691121399 -0.1228695139 0.5573533177 4292214781
-0.2691634595 -0.1222735643 0.5574595928 4291756031
-0.2692145407 -0.1216772795 0.5575653911 4291361535
-0.2692653835 -0.1210806444 0.5576707125 4290638584
-0.2697428167 -0.1206746250 0.5586594939 4289980654
-0.2697932720 -0.1200763732 0.5587640405 4289388265
-0.2698435187 -0.1194777861 0.5588681102 4288927714
-0.2698935270 -0.1188788712 0.5589716434 4288532959
-0.2703704238 -0.1184667721 0.5599593520 4288269787
-0.2708472311 -0.1180524454 0.5609468818 4287612116
-0.2708967030 -0.1174506396 0.5610492826 4287283151
-0.2709459364 -0.1168485060 0.5611512661 4286691786
-0.2709949017 -0.1162460372 0.5612527132 4286362821
-0.2710436583 -0.1156432480 0.5613536835 4286099649
-0.2710921764 -0.1150401309 0.5614541769 4286165442
-0.2711404562 -0.1144366935 0.5615541935 4286428614
-0.2711885273 -0.1138329357 0.5616536736 4286494407
-0.2712363303 -0.1132288575 0.5617526770 4286493375
-0.2712838948 -0.1126244590 0.5618512034 4286559168
-0.2713312209 -0.1120197400 0.5619492531 4286493635
-0.2718063593 -0.1115904376 0.5629332662 4286296256
-0.2718532979 -0.1109841391 0.5630304813 4286098625
-0.2723281682 -0.1105513498 0.5640139580 4286098625
-0.2723746896 -0.1099434644 0.5641103387 4285967810
-0.2724209726 -0.1093352735 0.5642061830 4285770431
-0.2724670172 -0.1087267771 0.5643015504 4285836737
-0.2729412913 -0.1082879603 0.5652837753 4285836737
-0.2734154463 -0.1078469306 0.5662658811 4285771454
-0.2738895416 -0.1074036732 0.5672476888 4285639868
-0.2739348114 -0.1067910716 0.5673415065 4285640120
-0.2744086087 -0.1063443348 0.5683227777 4285640120
-0.2744534910 -0.1057301685 0.5684157014 4285509303
-0.2744981050 -0.1051157042 0.5685080886 4285575096
-0.2745424807 -0.1045009419 0.5685999990 4285968831
-0.2745866179 -0.1038858816 0.5686914325 4285639866
-0.2746304870 -0.1032705233 0.5687822700 4285443259
-0.2746741176 -0.1026548743 0.5688726306 4285574845
-0.2751467526 -0.1021983698 0.5698515177 4285836988
-0.2751899660 -0.1015811712 0.5699409842 4286034367
-0.2756623030 -0.1011211947 0.5709192753 4284644750
-0.2757050693 -0.1005024537 0.5710078478 4283394683
-0.2761771083 -0.1000390127 0.5719854832 4284244340
-0.2766490281 -0.0995733514 0.5729628801 4283520617
-0.2779801190 -0.0994127765 0.5757196546 4283980654
-0.2793113589 -0.0992461368 0.5784767866 4284770170
-0.2802129686 -0.0989216864 0.5803440213 4285032311
-0.2802548707 -0.0982915834 0.5804308653 4284769139
-0.2807264328 -0.0978109837 0.5814074874 4284770419
-0.2764682472 -0.0956911594 0.5725884438 4284441454
-0.2769388556 -0.0952167735 0.5735630989 4283782244
-0.2765491605 -0.0944464132 0.5727559924 4285098104
-0.2770592570 -0.0933455378 0.5738124847 4286283148
-0.2775291800 -0.0928652287 0.5747857094 4286020233
-0.2797203064 -0.0929547399 0.5793237090 4286020233
-0.2797597945 -0.0923241004 0.5794054866 4286481556
-0.2810904086 -0.0921163931 0.5821613073 4286481556
-0.2824211121 -0.0919025913 0.5849173069 4286152591
-0.2859047949 -0.0923783258 0.5921323299 4285823626
-0.2868053615 -0.0920093283 0.5939974189 4285625477
-0.2864137888 -0.0912246406 0.5931864977 4285033340
-0.2855910957 -0.0903054252 0.5914825797 4284309104
-0.2843370736 -0.0892546028 0.5888854265 4282861658
-0.2843750715 -0.0886121467 0.5889641047 4281018940
-0.2839818597 -0.0878361464 0.5881497264 4279176736
-0.2840932608 -0.0859094039 0.5883804560 4287862178
-0.2836987078 -0.0851372704 0.5875633359 4289770175
-0.2837350070 -0.0844952539 0.5876384974 4290822863
-0.2842022777 -0.0839804262 0.5886062980 4290362312
-0.2868260145 -0.0840956941 0.5940402150 4289112245
-0.2872932255 -0.0835715905 0.5950078964 4287730592
-0.2873288989 -0.0829207823 0.5950817466 4286283145
-0.2882272303 -0.0825167894 0.5969422460 4285362043
-0.2882624269 -0.0818635449 0.5970152020 4285033332
-0.2887289524 -0.0813316330 0.5979813933 4285230711
-0.2891953290 -0.0807975307 0.5989472866 4285757055
-0.2896615267 -0.0802612305 0.5999127626 4286414985
-0.2905592620 -0.0798413754 0.6017721295 4287204501
-0.2910251617 -0.0792997107 0.6027370095 4287994017
-0.2923545539 -0.0789892077 0.6054903269 4288192683
-0.2928202152 -0.0784412026 0.6064546704 4288982199
-0.2928537428 -0.0777762905 0.6065241694 4289442750
-0.2933189869 -0.0772248879 0.6074876785 4289245371
-0.2933520079 -0.0765585452 0.6075561047 4288916406
-0.2938168347 -0.0760037452 0.6085187793 4288390062
-0.2942814827 -0.0754467621 0.6094810963 4287337374
-0.2947459221 -0.0748875961 0.6104429960 4286350479
-0.2952102125 -0.0743262395 0.6114045978 4285297791
-0.2952420115 -0.0736548603 0.6114704609 4284771447
-0.2961381674 -0.0731969774 0.6133264899 4284442484
-0.2966018915 -0.0726290792 0.6142868400 4284639863
-0.2962005734 -0.0718492195 0.6134557128 4285297793
-0.2966637909 -0.0712789223 0.6144151092 4286218895
-0.2966943383 -0.0706035271 0.6144783497 4287337889
-0.2985443175 -0.0682958141 0.6183097959 4290100941
-0.2814854980 -0.2203559577 0.5843237042 4291351008
-0.2815712392 -0.2197736502 0.5845016837 4290824664
-0.2812456191 -0.2188708335 0.5838257074 4290561492
-0.2800969481 -0.2173309028 0.5814412832 4290561492
-0.2797702551 -0.2164321244 0.5807630420 4290693078
-0.2794431150 -0.2155345380 0.5800839663 4290956250
-0.2787038684 -0.2143215537 0.5785494447 4289246402
-0.2775521576 -0.2127957344 0.5761586428 4286022545
-0.2768114507 -0.2115894109 0.5746210217 4285035650
-0.2756580412 -0.2100719810 0.5722267032 4285364615
-0.2753280401 -0.2091854662 0.5715416670 4285167236
-0.2749976218 -0.2083001733 0.5708557963 4285101443
-0.2746667862 -0.2074160725 0.5701690316 4285035650
-0.2747480571 -0.2068437636 0.5703377724 4284969857
-0.2752418220 -0.2065806687 0.5713627338 4284576641
-0.2757356465 -0.2063153386 0.5723878145 4284445055
-0.2762295306 -0.2060477883 0.5734130740 4284117379
-0.2763104737 -0.2054708600 0.5735810995 4284183172
-0.2772175074 -0.2055059671 0.5754639506 4283724677
-0.2748187482 -0.2030938864 0.5704844594 4283132540
-0.2740719020 -0.2019098252 0.5689340830 4282673018
-0.2708433867 -0.1989066750 0.5622321367 4283001983
-0.2725762129 -0.1995505989 0.5658292770 4283200133
-0.2718273699 -0.1983754337 0.5642747879 4283068547
-0.2706640363 -0.1969021708 0.5618598461 4283002756
-0.2703277469 -0.1960340440 0.5611618161 4282936963
-0.2699910402 -0.1951671690 0.5604628325 4283133570
-0.2700681388 -0.1946000010 0.5606228709 4283265156
-0.2705594003 -0.1943299472 0.5616426468 4283724677
-0.2706362605 -0.1937609464 0.5618022084 4283922056
-0.2707129121 -0.1931914687 0.5619613528 4284119437
-0.2712040842 -0.1929164678 0.5629809499 4284251023
-0.2712805271 -0.1923451424 0.5631396174 4284317327
-0.2709418535 -0.1914801002 0.5624365807 4284580499
-0.2714328170 -0.1912010461 0.5634557605 4284908951
-0.2715086937 -0.1906282753 0.5636132360 4285237916
-0.2715843618 -0.1900550276 0.5637703538 4285895330
-0.2716598809 -0.1894813031 0.5639270544 4286421674
-0.2713196874 -0.1886182427 0.5632209182 4287276470
-0.2718102932 -0.1883324087 0.5642393827 4287868607
-0.2718852460 -0.1877572387 0.5643949509 4288460998
-0.2719599903 -0.1871816069 0.5645501018 4289053135
-0.2720345557 -0.1866054982 0.5647048950 4289776345
-0.2716928422 -0.1857444644 0.5639955401 4290302689
-0.2717669308 -0.1851682961 0.5641493201 4290959849
-0.2718408108 -0.1845916510 0.5643026829 4291617779
-0.2637000680 -0.1626422107 0.5474036932 4291487474
-0.2633465528 -0.1618167907 0.5466698408 4290961130
-0.2634120882 -0.1612495184 0.5468058586 4290238436
-0.2630578876 -0.1604259610 0.5460705757 4289843678
-0.2627032399 -0.1596037894 0.5453343987 4289383386
-0.2623482347 -0.1587830037 0.5445974469 4288988628
-0.2615729272 -0.1577104777 0.5429880619 4287874775
-0.2612169981 -0.1568933874 0.5422491431 4287611603
-0.2608606517 -0.1560776979 0.5415094495 4287678677
-0.2609240711 -0.1555138528 0.5416411161 4287744470
-0.2597264946 -0.1542010307 0.5391550660 4287941334
-0.2610503137 -0.1543848962 0.5419031382 4288204506
-0.2611131370 -0.1538198143 0.5420335531 4288466649
-0.2611757517 -0.1532543302 0.5421635509 4288400856
-0.2612381876 -0.1526884288 0.5422931314 4288006612
-0.2613004148 -0.1521221250 0.5424222946 4287809233
-0.2613624334 -0.1515554190 0.5425510406 4287547857
-0.2614242435 -0.1509883106 0.5426793694 4287547857
-0.2614858449 -0.1504207999 0.5428072810 4287416017
-0.2615472674 -0.1498528868 0.5429347754 4287481810
-0.2616084516 -0.1492845714 0.5430617929 4287809236
-0.2616694570 -0.1487158537 0.5431884527 4287743443
-0.2613087893 -0.1479081959 0.5424397588 4287676107
-0.2613692880 -0.1473395973 0.5425653458 4287676107
-0.2614295781 -0.1467706263 0.5426904559 4287676879
-0.2614896595 -0.1462012529 0.5428152084 4287742672
-0.2619714141 -0.1458663642 0.5438151956 4287546064
-0.2620311677 -0.1452952921 0.5439392924 4287480271
-0.2620907426 -0.1447238326 0.5440629125 4287545810
-0.2621500790 -0.1441519707 0.5441861153 4287480017
-0.2622092366 -0.1435797215 0.5443089008 4287611089
-0.2626904845 -0.1432373822 0.5453079343 4287676882
-0.2627493143 -0.1426634490 0.5454300642 4287611603
-0.2628079355 -0.1420891136 0.5455517173 4287611603
-0.2628663182 -0.1415144056 0.5456729531 4287480528
-0.2633472383 -0.1411659122 0.5466712117 4287546321
-0.2634052932 -0.1405895203 0.5467917919 4287415760
-0.2634631395 -0.1400127411 0.5469118953 4287284174
-0.2635208070 -0.1394355893 0.5470315218 4287742415
-0.2635782361 -0.1388580501 0.5471507907 4287742415
-0.2636354566 -0.1382801384 0.5472695231 4287676880
-0.2636924684 -0.1377018541 0.5473878980 4287742673
-0.2637492418 -0.1371231973 0.5475057960 4287742672
-0.2642292678 -0.1367633343 0.5485022068 4287611086
-0.2642857134 -0.1361829937 0.5486193895 4287348684
-0.2643419504 -0.1356022805 0.5487361550 4287348684
-0.2643979788 -0.1350212097 0.5488524437 4287413707
-0.2644537687 -0.1344397515 0.5489682555 4287479500
-0.2649332583 -0.1340724528 0.5499635935 4287742415
-0.2649887204 -0.1334893405 0.5500786901 4287874001
-0.2650439441 -0.1329058707 0.5501933694 4288267476
-0.2650989592 -0.1323220283 0.5503075719 4288530648
-0.2651537657 -0.1317378134 0.5504212976 4289122526
-0.2652083337 -0.1311532557 0.5505346060 4289648870
-0.2652626932 -0.1305683255 0.5506474376 4290701040
-0.2657413185 -0.1301910132 0.5516410470 4291293177
-0.2657953203 -0.1296044290 0.5517531633 4292147711
-0.2658491135 -0.1290174872 0.5518648028 4292607999
-0.2663274407 -0.1286353618 0.5528576970 4292870143
-0.2663808465 -0.1280467659 0.5529686213 4292739071
-0.2664340436 -0.1274578273 0.5530790091 4292739065
-0.2669120431 -0.1270708740 0.5540712476 4292804602
-0.2669648528 -0.1264802963 0.5541809201 4292738805
-0.2670174539 -0.1258893609 0.5542901158 4292870135
-0.2670698464 -0.1252980828 0.5543988347 4292607738
-0.2675473392 -0.1249050274 0.5553900599 4292607738
-0.2675993741 -0.1243121102 0.5554980636 4292082431
-0.2680766582 -0.1239155382 0.5564888716 4291556089
-0.2681283057 -0.1233209893 0.5565960407 4290570231
-0.2681797147 -0.1227260903 0.5567027330 4289846508
-0.2686566412 -0.1223247200 0.5576928258 4288796130
-0.2687076628 -0.1217281967 0.5577987432 4288335579
-0.2687584758 -0.1211313382 0.5579041839 4287612369
-0.2692350447 -0.1207251623 0.5588935018 4287151818
-0.2692854702 -0.1201266795 0.5589981675 4286822598
-0.2697618008 -0.1197169945 0.5599869490 4286559426
-0.2698118389 -0.1191168949 0.5600908399 4286559428
-0.2698616385 -0.1185164601 0.5601941943 4286756807
-0.2699111998 -0.1179156974 0.5602970719 4286756809
-0.2703869939 -0.1174999401 0.5612847805 4286756809
-0.2704361677 -0.1168975681 0.5613868833 4286625739
-0.2704851329 -0.1162948683 0.5614884496 4286494153
-0.2709605396 -0.1158743203 0.5624753833 4286231494
-0.2710090876 -0.1152700186 0.5625761151 4286099908
-0.2710573971 -0.1146653891 0.5626764297 4286296774
-0.2711054683 -0.1140604392 0.5627762079 4286428360
-0.2711533010 -0.1134551689 0.5628755093 4286493637
-0.2712008953 -0.1128495783 0.5629742742 4286296258
-0.2712482512 -0.1122436747 0.5630726218 4286230463
-0.2712953687 -0.1116374508 0.5631704330 4286164670
-0.2717695534 -0.1112057567 0.5641547441 4285968061
-0.2718162537 -0.1105979532 0.5642517209 4285968061
-0.2718627453 -0.1099898294 0.5643482208 4285968572
-0.2719089687 -0.1093813926 0.5644441843 4285771193
-0.2719549537 -0.1087726504 0.5645396709 4285574327
-0.2724283934 -0.1083336696 0.5655224323 4285705913
-0.2733294666 -0.1080615744 0.5673928857 4285509050
-0.2733749449 -0.1074490398 0.5674872994 4285377464
-0.2734201550 -0.1068361923 0.5675812364 4285311932
-0.2738931179 -0.1063892767 0.5685629845 4285311932
-0.2739379406 -0.1057748720 0.5686560273 4285311933
-0.2744106054 -0.1053244770 0.5696372390 4285311933
-0.2744550109 -0.1047085077 0.5697293878 4285377464
-0.2744991481 -0.1040922403 0.5698210597 4285311671
-0.2745430470 -0.1034756750 0.5699121952 4285443516
-0.2745867074 -0.1028588116 0.5700027943 4285311930
-0.2746301293 -0.1022416577 0.5700929165 4285574843
-0.2751018107 -0.1017827541 0.5710720420 4285772222
-0.2755733430 -0.1013216302 0.5720509291 4284513677
-0.2756161392 -0.1007016823 0.5721397400 4282079336
-0.2760874033 -0.1002370864 0.5731180310 4282731614
-0.2765585482 -0.0997702777 0.5740960240 4282600028
-0.2774583995 -0.0994549692 0.5759640336 4282796894
-0.2792160809 -0.0994410142 0.5796126723 4284244340
-0.2801160812 -0.0991154835 0.5814809799 4284901495
-0.2805870473 -0.0986349732 0.5824586153 4284111979
-0.2797706127 -0.0977026969 0.5807638168 4284573810
-0.2776661515 -0.0963273644 0.5763952732 4283850087
-0.2768485248 -0.0954051763 0.5746979713 4283848037
-0.2768889368 -0.0947804749 0.5747818351 4285229690
-0.2777877748 -0.0944474638 0.5766477585 4285822595
-0.2765395641 -0.0933852568 0.5740566850 4286085767
-0.2770086527 -0.0929047540 0.5750303864 4285626243
-0.2783366144 -0.0927081779 0.5777871013 4285889415
-0.2805239260 -0.0927897096 0.5823275447 4286087309
-0.2818522453 -0.0925790146 0.5850849748 4286547860
-0.2806023955 -0.0915212929 0.5824905038 4286021262
-0.2840794027 -0.0920001492 0.5897082686 4285692297
-0.2854079604 -0.0917721391 0.5924661756 4285231487
-0.2863067091 -0.0914007798 0.5943318605 4284968315
-0.2859156132 -0.0906164795 0.5935199261 4285757063
-0.2850940824 -0.0896985605 0.5918145776 4285362305
-0.2838420272 -0.0886499658 0.5892155170 4282927451
-0.2838796973 -0.0880069882 0.5892937183 4282006349
-0.2839542925 -0.0867202729 0.5894485116 4279769641
-0.2831305861 -0.0858156905 0.5877386332 4281809222
-0.2835974395 -0.0853030980 0.5887078047 4285427837
-0.2832033634 -0.0845313743 0.5878897309 4288256936
-0.2845306993 -0.0842713118 0.5906450748 4289967554
-0.2854276001 -0.0838786364 0.5925069451 4290888656
-0.2876161337 -0.0838584155 0.5970500112 4290888656
-0.2880824804 -0.0833299458 0.5980180502 4291151827
-0.2881179750 -0.0826756880 0.5980917811 4290493897
-0.2885839343 -0.0821437985 0.5990590453 4290231236
-0.2890497148 -0.0816097111 0.6000259519 4290099650
-0.2895153463 -0.0810734257 0.6009925008 4290099904
-0.2899807990 -0.0805349499 0.6019586921 4290165697
-0.2904460728 -0.0799942762 0.6029245257 4289507513
-0.2913421392 -0.0795691162 0.6047846675 4288981169
-0.2922381461 -0.0791397989 0.6066446900 4287864231
-0.2927030027 -0.0785905868 0.6076096296 4286548371
-0.2927698195 -0.0772580206 0.6077483296 4284508788
-0.2932340503 -0.0767041966 0.6087119579 4283982444
-0.2936980724 -0.0761481896 0.6096752286 4283850858
-0.2941619158 -0.0755899921 0.6106381416 4284377204
-0.2946255803 -0.0750296041 0.6116006374 4285100927
-0.2946576476 -0.0743581653 0.6116671562 4286022029
-0.2951208949 -0.0737943873 0.6126288176 4286745752
-0.2960154414 -0.0733353347 0.6144858003 4287535268
-0.2802108824 -0.2192173004 0.5830219984 4290890198
-0.2798857093 -0.2183158696 0.5823454261 4290429647
-0.2795601189 -0.2174156159 0.5816679597 4290824405
-0.2792340815 -0.2165165544 0.5809895992 4290824664
-0.2789076269 -0.2156186551 0.5803103447 4290429906
-0.2781698704 -0.2144052535 0.5787753463 4288127151
-0.2770204544 -0.2128788978 0.5763837695 4285692810
-0.2762812078 -0.2116721421 0.5748457313 4285956754
-0.2759525776 -0.2107824236 0.5741619468 4285627789
-0.2756235301 -0.2098939121 0.5734773278 4285890961
-0.2748825550 -0.2086941749 0.5719355941 4285956754
-0.2749641836 -0.2081204802 0.5721054077 4286285719
-0.2750456035 -0.2075462788 0.5722748041 4286285719
-0.2755387127 -0.2072813958 0.5733008385 4286221726
-0.2760319114 -0.2070142925 0.5743269920 4286353312
-0.2765251398 -0.2067449540 0.5753532648 4286748584
-0.2761940062 -0.2058588862 0.5746642351 4286814377
-0.2758624256 -0.2049740255 0.5739743710 4285630616
-0.2751179636 -0.2037848532 0.5724253654 4284314756
-0.2768484056 -0.2044266015 0.5760257840 4284051071
-0.2740397751 -0.2017191947 0.5701820254 4284380036
-0.2732934654 -0.2005380392 0.5686292052 4284380549
-0.2729594409 -0.1996619254 0.5679342151 4284577928
-0.2722119093 -0.1984858513 0.5663788915 4284710284
-0.2722901106 -0.1979134083 0.5665416121 4284907663
-0.2719548345 -0.1970410049 0.5658439994 4284973969
-0.2720325589 -0.1964684427 0.5660057068 4285368727
-0.2721100748 -0.1958953887 0.5661669970 4286091939
-0.2721874416 -0.1953218579 0.5663279891 4286618283
-0.2726784050 -0.1950437874 0.5673494935 4287079345
-0.2723416090 -0.1941733062 0.5666487217 4287671482
-0.2724184096 -0.1935983002 0.5668085217 4288263617
-0.2724950314 -0.1930228025 0.5669679642 4288855754
-0.2721572220 -0.1921543628 0.5662651062 4289578964
-0.2722333670 -0.1915787756 0.5664234757 4290105308
-0.2723093033 -0.1910027117 0.5665814877 4290566372
-0.2723850608 -0.1904261559 0.5667391419 4290961130
-0.2720459402 -0.1895601600 0.5660335422 4291881719
-0.2623821497 -0.1658427268 0.5459265709 4291882231
-0.2616131604 -0.1647518724 0.5443265438 4291355887
-0.2616795897 -0.1641887724 0.5444647074 4290567401
-0.2596551776 -0.1623183191 0.5402526855 4290041057
-0.2613936067 -0.1628007889 0.5438697338 4288990170
-0.2610410154 -0.1619777083 0.5431361198 4288529619
-0.2606880069 -0.1611560285 0.5424016118 4288004304
-0.2603345811 -0.1603357196 0.5416662693 4287872718
-0.2603994310 -0.1597736627 0.5418011546 4287611087
-0.2604640722 -0.1592112035 0.5419356823 4287742673
-0.2605285048 -0.1586483121 0.5420697331 4287612886
-0.2597548366 -0.1575766951 0.5404599905 4287744472
-0.2598186731 -0.1570147872 0.5405928493 4287743953
-0.2594631612 -0.1562001258 0.5398530960 4287809746
-0.2595264912 -0.1556382924 0.5399849415 4287744725
-0.2595896423 -0.1550760567 0.5401163101 4287613139
-0.2592331171 -0.1542637944 0.5393745303 4287416018
-0.2592957616 -0.1537016481 0.5395048857 4287547604
-0.2589385509 -0.1528912932 0.5387616158 4287547093
-0.2594204843 -0.1525761336 0.5397643447 4287349714
-0.2594825327 -0.1520127654 0.5398934484 4287086542
-0.2595443726 -0.1514489949 0.5400221348 4287152335
-0.2600261271 -0.1511289775 0.5410244465 4287283149
-0.2600876689 -0.1505634934 0.5411525369 4287348942
-0.2601490021 -0.1499976069 0.5412801504 4287414477
-0.2602101564 -0.1494313180 0.5414074063 4287414477
-0.2602711022 -0.1488646418 0.5415341854 4287545036
-0.2603318393 -0.1482975483 0.5416605473 4287413450
-0.2603923678 -0.1477300674 0.5417864919 4287545042
-0.2604527175 -0.1471621990 0.5419120789 4287610835
-0.2605128288 -0.1465939283 0.5420371294 4287414478
-0.2605727613 -0.1460252702 0.5421618223 4287414478
-0.2610535324 -0.1456912011 0.5431621671 4287480783
-0.2611131370 -0.1451208442 0.5432862043 4287546576
-0.2611725330 -0.1445500851 0.5434097648 4287678414
-0.2612317204 -0.1439789385 0.5435329080 4287941586
-0.2612907290 -0.1434074193 0.5436556339 4287743953
-0.2617710233 -0.1430658698 0.5446550250 4287743953
-0.2618297040 -0.1424926519 0.5447770953 4287809748
-0.2618881464 -0.1419190466 0.5448986888 4287941334
-0.2619463801 -0.1413450539 0.5450198650 4288071640
-0.2624263167 -0.1409973502 0.5460184813 4287874261
-0.2624842525 -0.1404216737 0.5461389422 4287873496
-0.2625419497 -0.1398456097 0.5462590456 4288005082
-0.2625994384 -0.1392691731 0.5463786721 4287679182
-0.2626567185 -0.1386923492 0.5464978218 4287481803
-0.2627137899 -0.1381151527 0.5466165543 4287349965
-0.2627706528 -0.1375375837 0.5467348695 4287481551
-0.2632498443 -0.1371798217 0.5477318764 4287678162
-0.2633063495 -0.1366005689 0.5478494763 4287743955
-0.2633626461 -0.1360209584 0.5479665995 4288465883
-0.2634187341 -0.1354409605 0.5480833054 4288992227
-0.2634746134 -0.1348605901 0.5481995344 4289780458
-0.2635302544 -0.1342798620 0.5483153462 4290241009
-0.2640087903 -0.1339133680 0.5493109822 4291028981
-0.2644872665 -0.1335446388 0.5503065586 4291357946
-0.2645424306 -0.1329609454 0.5504213572 4292080123
-0.2645973861 -0.1323768795 0.5505357385 4292474879
-0.2646521330 -0.1317924559 0.5506495833 4293000447
-0.2647066712 -0.1312076747 0.5507630706 4293197823
-0.2647609711 -0.1306225210 0.5508760214 4293656575
-0.2652387321 -0.1302450746 0.5518701077 4293656575
-0.2652926743 -0.1296582669 0.5519823432 4293787647
-0.2653464079 -0.1290711164 0.5520941615 4293722111
-0.2653999031 -0.1284835935 0.5522054434 4293656575
-0.2658772171 -0.1281000227 0.5531985760 4293591039
-0.2659303546 -0.1275108606 0.5533091426 4293197823
-0.2659832835 -0.1269213408 0.5534192324 4292934911
-0.2664602697 -0.1265329719 0.5544117093 4292344575
-0.2665128112 -0.1259418130 0.5545210242 4291620853
-0.2665651441 -0.1253502965 0.5546299219 4290569970
-0.2670417726 -0.1249570996 0.5556216240 4289714661
-0.2670937479 -0.1243639588 0.5557297468 4288992227
-0.2671454549 -0.1237704679 0.5558373332 4288136918
-0.2676217556 -0.1233724579 0.5568283796 4287611089
-0.2676731050 -0.1227773428 0.5569351912 4287150538
-0.2677242458 -0.1221818775 0.5570415854 4286494664
-0.2682001591 -0.1217790619 0.5580318570 4286494664
-0.2682509124 -0.1211819798 0.5581374168 4286494664
-0.2687266171 -0.1207756475 0.5591272116 4286494664
-0.2687769830 -0.1201769337 0.5592319965 4286494664
-0.2692524791 -0.1197670922 0.5602213144 4286494664
-0.2693024576 -0.1191667616 0.5603253245 4286428871
-0.2693521976 -0.1185661033 0.5604287982 4286363078
-0.2694017291 -0.1179651022 0.5605318546 4286363332
-0.2698766589 -0.1175491884 0.5615200400 4286231746
-0.2699258029 -0.1169465780 0.5616222620 4286231746
-0.2699746788 -0.1163436472 0.5617240071 4286165953
-0.2700233459 -0.1157403812 0.5618252158 4286099647
-0.2704977393 -0.1153184026 0.5628122687 4286099647
-0.2705459893 -0.1147135347 0.5629126430 4286099647
-0.2705940008 -0.1141083539 0.5630125999 4286099647
-0.2706418037 -0.1135028452 0.5631120205 4285968574
-0.2706893384 -0.1128970161 0.5632109046 4285968574
-0.2707366347 -0.1122908667 0.5633093715 4286034367
-0.2707837224 -0.1116844043 0.5634073019 4286034367
-0.2712570429 -0.1112525538 0.5643921494 4285968574
-0.2713037133 -0.1106445044 0.5644892454 4285902781
-0.2713501453 -0.1100361422 0.5645858049 4285771452
-0.2713963091 -0.1094274670 0.5646818876 4285771452
-0.2714422643 -0.1088184789 0.5647774935 4285837247
-0.2723416984 -0.1085494682 0.5666489005 4285771454
-0.2728142440 -0.1081071347 0.5676321387 4285574845
-0.2728596628 -0.1074943542 0.5677266717 4285574845
-0.2729048729 -0.1068812683 0.5678206682 4285640638
-0.2733769715 -0.1064341813 0.5688029528 4285640638
-0.2734217346 -0.1058195308 0.5688961148 4285640638
-0.2738935649 -0.1053689569 0.5698778033 4285640638
-0.2739379108 -0.1047527418 0.5699700713 4285180344
-0.2739820182 -0.1041362286 0.5700618625 4285640895
-0.2744533718 -0.1036809087 0.5710425973 4285638844
-0.2744970322 -0.1030628458 0.5711334348 4285704637
-0.2745404840 -0.1024444774 0.5712237954 4285639868
-0.2745836675 -0.1018258259 0.5713136792 4286363591
-0.2750543654 -0.1013645157 0.5722930431 4284910493
-0.2755249441 -0.1009009928 0.5732721686 4282278773
-0.2759954333 -0.1004352570 0.5742510557 4283587953
-0.2764657736 -0.0999672934 0.5752297044 4284048504
-0.2777920663 -0.0998046845 0.5779892802 4285363845
-0.2791185081 -0.0996359885 0.5807490945 4286482326
-0.2795887589 -0.0991575122 0.5817275047 4285822854
-0.2800588608 -0.0986768082 0.5827056766 4284441201
-0.2801005840 -0.0980439782 0.5827924609 4284441201
-0.2801420093 -0.0974108651 0.5828787088 4283520099
-0.2788979709 -0.0963335410 0.5802902579 4283651174
-0.2776532769 -0.0952617526 0.5777004957 4285032827
-0.2772650421 -0.0944875777 0.5768927336 4285625218
-0.2768764198 -0.0937150791 0.5760841370 4285427839
-0.2782020867 -0.0935206413 0.5788423419 4285362046
-0.2778129578 -0.0927475989 0.5780327320 4285822597
-0.2791385949 -0.0925448611 0.5807909369 4286283407
-0.2817508578 -0.0927595869 0.5862261653 4286283407
-0.2835057974 -0.0926819518 0.5898775458 4286612372
-0.2822581828 -0.0916215852 0.5872817039 4286349200
-0.2848711610 -0.0918112099 0.5927184224 4285363073
-0.2857682705 -0.0914397091 0.5945849419 4284705143
-0.2853779197 -0.0906550810 0.5937727690 4285231487
-0.2845579684 -0.0897367820 0.5920667648 4286021003
-0.2833082974 -0.0886877477 0.5894666314 4285626504
-0.2842045724 -0.0883113071 0.5913314223 4284771195
-0.2838127017 -0.0875334367 0.5905160904 4284967799
-0.2838498652 -0.0868887082 0.5905934572 4282862423
-0.2825983167 -0.0858523101 0.5879894495 4280691254
-0.2826347947 -0.0852100030 0.5880653262 4280296496
-0.2839597762 -0.0849530250 0.5908221602 4281678148
-0.2831366062 -0.0840522051 0.5891094208 4283717731
-0.2853208482 -0.0840410292 0.5936540365 4285757314
-0.2862160802 -0.0836430639 0.5955167413 4287336346
-0.2884007096 -0.0836147740 0.6000621915 4288454827
-0.2888661325 -0.0830819309 0.6010305882 4289112757
-0.2884715796 -0.0823015720 0.6002096534 4288587181
-0.2889365852 -0.0817662850 0.6011770964 4287205528
-0.2894014120 -0.0812288001 0.6021442413 4286021254
-0.2902961075 -0.0808088407 0.6040058732 4285034359
-0.2911907732 -0.0803847164 0.6058673263 4284179050
-0.2916551828 -0.0798386857 0.6068336368 4283784292
-0.2921194136 -0.0792904571 0.6077995300 4283587688
-0.2925834656 -0.0787400380 0.6087650657 4284114032
-0.2930473685 -0.0781874210 0.6097302437 4284837501
-0.2926503122 -0.0774049535 0.6089041233 4285824396
-0.2931137383 -0.0768499151 0.6098683476 4286548119
-0.2935769856 -0.0762926936 0.6108322144 4287140256
-0.2788530588 -0.2186603397 0.5815407038 4291746020
-0.2789379358 -0.2180805504 0.5817177296 4290759125
-0.2786129117 -0.2171808630 0.5810398459 4290364367
-0.2778775990 -0.2159638107 0.5795063972 4290232527
-0.2775515914 -0.2150673270 0.5788265467 4289969355
-0.2772251666 -0.2141720206 0.5781458020 4288456886
-0.2768983245 -0.2132779211 0.5774641633 4287404198
-0.2761607170 -0.2120698839 0.5759258866 4288127923
-0.2754224241 -0.2108647674 0.5743862391 4288062130
-0.2755046785 -0.2102893442 0.5745577216 4288259509
-0.2751760185 -0.2094008774 0.5738723278 4288259509
-0.2752577662 -0.2088252902 0.5740427971 4288391352
-0.2753393352 -0.2082491815 0.5742129683 4288522938
-0.2758318186 -0.2079825252 0.5752400160 4288326587
-0.2755019665 -0.2070954442 0.5745521188 4288326587
-0.2759943306 -0.2068260461 0.5755789280 4288261307
-0.2764867842 -0.2065544128 0.5766058564 4287866549
-0.2765676975 -0.2059740424 0.5767746568 4287011240
-0.2766484618 -0.2053931504 0.5769430399 4286484896
-0.2759054303 -0.2042022049 0.5753934979 4286748068
-0.2747498155 -0.2027102858 0.5729835033 4287274412
-0.2740053535 -0.2015261203 0.5714309216 4287604147
-0.2736723721 -0.2006471008 0.5707365274 4288064698
-0.2737512589 -0.2000706196 0.5709010363 4288657092
-0.2730051875 -0.1988927722 0.5693451166 4289249229
-0.2726709545 -0.1980174631 0.5686480999 4289775573
-0.2727489471 -0.1974421144 0.5688107014 4290236124
-0.2728267312 -0.1968662590 0.5689729452 4290762468
-0.2724914849 -0.1959929615 0.5682738423 4291157226
-0.2729817927 -0.1957130879 0.5692963600 4291684593
-0.2726459503 -0.1948405504 0.5685959458 4291947765
-0.2607792318 -0.1676283777 0.5438482165 4290963440
-0.2608465552 -0.1670672446 0.5439885855 4290502889
-0.2604968846 -0.1662396789 0.5432593822 4289910752
-0.2601467967 -0.1654134840 0.5425292850 4289187029
-0.2597963214 -0.1645886451 0.5417983532 4288398285
-0.2581940591 -0.1629753262 0.5384569168 4288069320
-0.2595113516 -0.1632054746 0.5412040353 4287807177
-0.2591597438 -0.1623838693 0.5404708385 4287675591
-0.2592251897 -0.1618242115 0.5406072736 4287676622
-0.2588728964 -0.1610044390 0.5398725867 4287808208
-0.2585201859 -0.1601860672 0.5391370058 4287940052
-0.2585848272 -0.1596269459 0.5392718315 4288137431
-0.2586492896 -0.1590674222 0.5394062400 4288006361
-0.2587135434 -0.1585074663 0.5395402312 4287874775
-0.2587775886 -0.1579471081 0.5396738648 4287743702
-0.2584232986 -0.1571320593 0.5389350057 4287677909
-0.2584868670 -0.1565717608 0.5390675664 4287677909
-0.2581318617 -0.1557586193 0.5383272171 4287546323
-0.2581949532 -0.1551984102 0.5384587646 4287547093
-0.2582578063 -0.1546377987 0.5385898948 4287678679
-0.2583205104 -0.1540767699 0.5387206078 4287743700
-0.2583829761 -0.1535153240 0.5388509035 4287480528
-0.2584452629 -0.1529534906 0.5389807820 4287480271
-0.2585073411 -0.1523912400 0.5391102433 4287480271
-0.2585692406 -0.1518285871 0.5392392874 4287480270
-0.2590501010 -0.1515107006 0.5402421355 4287414477
-0.2591116726 -0.1509463191 0.5403705835 4287348684
-0.2591730654 -0.1503815502 0.5404985547 4287348684
-0.2592342496 -0.1498163790 0.5406261683 4287282891
-0.2592952251 -0.1492508054 0.5407533646 4287282891
-0.2597756684 -0.1489254236 0.5417553186 4287414477
-0.2598363459 -0.1483581364 0.5418818593 4287348684
-0.2598968148 -0.1477904469 0.5420079827 4287611340
-0.2595371306 -0.1469845325 0.5412577987 4287611340
-0.2600171566 -0.1466539055 0.5422589183 4287414475
-0.2600769997 -0.1460850388 0.5423837304 4287480268
-0.2601366639 -0.1455157697 0.5425081253 4287414990
-0.2606164515 -0.1451802850 0.5435087681 4287283404
-0.2606757879 -0.1446093321 0.5436325073 4287151563
-0.2607349157 -0.1440379769 0.5437557697 4287151563
-0.2607938349 -0.1434662342 0.5438786745 4287283151
-0.2612732947 -0.1431245953 0.5448785424 4287283151
-0.2613318861 -0.1425511539 0.5450007319 4287151567
-0.2613902688 -0.1419773400 0.5451225042 4287019981
-0.2614484429 -0.1414031386 0.5452438593 4287019981
-0.2615064085 -0.1408285499 0.5453647375 4287085774
-0.2619853914 -0.1404794306 0.5463635921 4287414226
-0.2620430291 -0.1399031579 0.5464838147 4287743191
-0.2621004581 -0.1393264979 0.5466035604 4287940570
-0.2621576786 -0.1387494653 0.5467228889 4288466914
-0.2622146606 -0.1381720603 0.5468418002 4289190118
-0.2622714639 -0.1375942677 0.5469602346 4289848048
-0.2623280585 -0.1370161176 0.5470782518 4290571251
-0.2623844147 -0.1364375800 0.5471957922 4291097595
-0.2628624737 -0.1360770911 0.5481927991 4291951099
-0.2629185021 -0.1354968846 0.5483096242 4292280063
-0.2629743218 -0.1349163055 0.5484260321 4293066751
-0.2630299032 -0.1343353540 0.5485419631 4293132287
-0.2635075748 -0.1339687407 0.5495381355 4293328895
-0.2639851868 -0.1335998774 0.5505341887 4293197823
-0.2640403211 -0.1330159605 0.5506491065 4293394430
-0.2640952170 -0.1324316859 0.5507636070 4293525503
-0.2641499043 -0.1318470389 0.5508776307 4293787647
-0.2642043531 -0.1312620342 0.5509912372 4293853183
-0.2642585933 -0.1306766570 0.5511043668 4293132287
-0.2647355199 -0.1302990764 0.5520989299 4292935679
-0.2647894025 -0.1297120601 0.5522113442 4292607743
-0.2648430765 -0.1291246712 0.5523232222 4292212990
