VERSION 0.7
FIELDS x y z rgba
SIZE 4 4 4 4
TYPE F F F U
COUNT 1 1 1 1
WIDTH 920
HEIGHT 1
VIEWPOINT 0.0 0.0 0.0 1.0 0.0 0.0 0.0
POINTS 920
DATA ascii
-0.3124035001 -0.1635891646 0.6254331470 4284635233
-0.3120370507 -0.1627032012 0.6246995330 4286345851
-0.3107995987 -0.1613666266 0.6222221851 4288646553
-0.3091259301 -0.1598100513 0.6188714504 4290883515
-0.3078867495 -0.1584845781 0.6163906455 4292263628
-0.3049044311 -0.1562712044 0.6104199886 4291342526
-0.3027918935 -0.1545149684 0.6061907411 4291666100
-0.3011139631 -0.1529889107 0.6028314829 4291534514
-0.2985633016 -0.1510288715 0.5977250338 4291535027
-0.2964472473 -0.1492990553 0.5934886932 4291863992
-0.2973823249 -0.1491084993 0.5953607559 4292128191
-0.2957007289 -0.1476075947 0.5919941664 4292786121
-0.2953268290 -0.1467640400 0.5912455916 4293248725
-0.2949525118 -0.1459219307 0.5904962420 4293840862
-0.3050252199 -0.2253616005 0.6120226979 4285625215
-0.3051152825 -0.2247479558 0.6122034192 4282401358
-0.3047812581 -0.2238224596 0.6115332246 4282072647
-0.3048708439 -0.2232085764 0.6117129326 4282467405
-0.3045360446 -0.2222845554 0.6110411882 4282137670
-0.3033522964 -0.2207442522 0.6086660624 4281479740
-0.3017432094 -0.2189006656 0.6054374576 4281676345
-0.3005574644 -0.2173704058 0.6030582786 4282071103
-0.2968229353 -0.2140077949 0.5955651402 4282663240
-0.2935107648 -0.2109654099 0.5889193416 4282992205
-0.2918959856 -0.2091540396 0.5856793523 4283519062
-0.2915550768 -0.2082597762 0.5849953294 4284045406
-0.2924891114 -0.2082749009 0.5868694186 4283190097
-0.2942739129 -0.2088898122 0.5904505849 4281413686
-0.2935073078 -0.2076912969 0.5889123678 4280821549
-0.2948674560 -0.2079964131 0.5916414857 4280558377
-0.2958025336 -0.2079965770 0.5935177207 4280558890
-0.2963121831 -0.2076943517 0.5945402980 4280756269
-0.2959701419 -0.2067947984 0.5938540101 4280756015
-0.2964796424 -0.2064898312 0.5948762894 4280756015
-0.2965630591 -0.2058867961 0.5950436592 4280821808
-0.2962200940 -0.2049883157 0.5943555236 4280361257
-0.2963030040 -0.2043851316 0.5945218801 4280296745
-0.2968121767 -0.2040746659 0.5955435038 4280362538
-0.2968948185 -0.2034696043 0.5957093239 4280362538
-0.2969772518 -0.2028640509 0.5958747268 4280296745
-0.2970595062 -0.2022579759 0.5960397124 4280361511
-0.2967146039 -0.2013616860 0.5953477025 4280427304
-0.2967963219 -0.2007554770 0.5955116749 4280492071
-0.2968778312 -0.2001487911 0.5956752300 4280492071
-0.2973864377 -0.1998286992 0.5966957211 4280886829
-0.2970402539 -0.1989338845 0.5960011482 4280952622
-0.2966936529 -0.1980403364 0.5953057408 4281018415
-0.2954913676 -0.1965790689 0.5928933620 4281018415
-0.2959991395 -0.1962569952 0.5939121842 4280953134
-0.2956512272 -0.1953672171 0.5932140946 4281084720
-0.2957308590 -0.1947605610 0.5933738947 4281413428
-0.2962383926 -0.1944343746 0.5943921804 4281545014
-0.2958894968 -0.1935457587 0.5936921835 4281610552
-0.2963968515 -0.1932168454 0.5947101712 4282136896
-0.2960473299 -0.1923290193 0.5940088630 4283516751
-0.2961259186 -0.1917199194 0.5941665769 4284108888
-0.2962043285 -0.1911103427 0.5943238735 4286204763
-0.2962825000 -0.1905002743 0.5944806933 4287125865
-0.2963604629 -0.1898897141 0.5946371555 4288895346
-0.2960092425 -0.1890047640 0.5939324498 4288895346
-0.2960866690 -0.1883941442 0.5940878391 4288566894
-0.2961639166 -0.1877830327 0.5942427516 4288566894
-0.2962409258 -0.1871714443 0.5943973064 4289093752
-0.2967471778 -0.1868297607 0.5954130888 4287712099
-0.2972534299 -0.1864858270 0.5964288712 4285941593
-0.2969003916 -0.1856024414 0.5957204700 4289691794
-0.2974064350 -0.1852557808 0.5967358947 4288519330
-0.2979125082 -0.1849068701 0.5977512598 4288256158
-0.2984185815 -0.1845556945 0.5987666845 4289044397
-0.2984945476 -0.1839372367 0.5989190936 4289636534
-0.2990005016 -0.1835824549 0.5999343395 4289044911
-0.2995064855 -0.1832254082 0.6009495258 4288123809
-0.2987211347 -0.1820790321 0.5993737578 4286808975
-0.2987962365 -0.1814586818 0.5995244384 4285361529
-0.2984404564 -0.1805773079 0.5988106132 4283520867
-0.2985150218 -0.1799569279 0.5989601612 4282270800
-0.2981584668 -0.1790772974 0.5982447863 4281087039
-0.2982324660 -0.1784568876 0.5983932614 4280560695
-0.2983062565 -0.1778360158 0.5985413194 4281087039
-0.2983798087 -0.1772146821 0.5986889601 4282139727
-0.2984531522 -0.1765928864 0.5988360643 4283126622
-0.2980948985 -0.1757163554 0.5981172323 4284376689
-0.2981676757 -0.1750945449 0.5982632637 4285824137
-0.2978086472 -0.1742197871 0.5975428820 4287074204
-0.2978808880 -0.1735979766 0.5976878405 4287862178
-0.2979528904 -0.1729757190 0.5978323221 4288322729
-0.2980246842 -0.1723529994 0.5979763865 4288454315
-0.2980962396 -0.1717298329 0.5981199741 4288520108
-0.2985997200 -0.1713542044 0.5991301537 4288388522
-0.2986709476 -0.1707292348 0.5992730856 4288454315
-0.2987419367 -0.1701038182 0.5994154811 4288652207
-0.2996775806 -0.1699685007 0.6012928486 4288257449
-0.3001808524 -0.1695847362 0.6023026109 4287994277
-0.3011167347 -0.1694421768 0.6041804552 4287467933
-0.3016200662 -0.1690530032 0.6051903963 4287402140
-0.3012576997 -0.1681782901 0.6044632792 4287336347
-0.3017607629 -0.1677864045 0.6054726839 4286612624
-0.3022637963 -0.1673922688 0.6064820290 4285691522
-0.3027667999 -0.1669958532 0.6074912548 4285033592
-0.3032697737 -0.1665971875 0.6085004807 4284573041
-0.3042060435 -0.1664333493 0.6103790998 4284439655
-0.3042756021 -0.1657930762 0.6105186343 4283979104
-0.3047784865 -0.1653876156 0.6115276217 4283453532
-0.3052812815 -0.1649799049 0.6125364900 4283256153
-0.3057840765 -0.1645699143 0.6135452986 4283256668
-0.3062868118 -0.1641576737 0.6145540476 4283256668
-0.3067894876 -0.1637431681 0.6155626774 4282928985
-0.3072921336 -0.1633263826 0.6165711880 4283323743
-0.3073606193 -0.1626775712 0.6167085767 4283847775
-0.3074288368 -0.1620283276 0.6168454885 4283979361
-0.3079311252 -0.1616065800 0.6178533435 4283192407
-0.3075645566 -0.1607285291 0.6171178222 4282731856
-0.3063285351 -0.1593996882 0.6146377325 4285615451
-0.3042224944 -0.1576255858 0.6104120612 4287983999
-0.3012458384 -0.1554117352 0.6044394970 4291265432
-0.2982676625 -0.1532103568 0.5984638333 4291725983
-0.2965925634 -0.1516887099 0.5951028466 4292905639
-0.2949164808 -0.1501740366 0.5917398334 4292971432
-0.2936744690 -0.1488869041 0.5892478228 4293037482
-0.2928668559 -0.1478245705 0.5876273513 4293234861
-0.2924938798 -0.1469842494 0.5868790150 4293432240
-0.2921204865 -0.1461453736 0.5861297846 4293498033
-0.2917466760 -0.1453079581 0.5853797793 4293498546
-0.2918079793 -0.1446879655 0.5855027437 4293695925
-0.2923046649 -0.1442825943 0.5864993930 4292979391
-0.2923656106 -0.1436608881 0.5866215825 4293768907
-0.2924262881 -0.1430387944 0.5867433548 4293317339
-0.3036213815 -0.2248254418 0.6105666161 4285822848
-0.3037111163 -0.2242133021 0.6107470393 4282533198
-0.3033775389 -0.2232891917 0.6100762486 4282270026
-0.3034667671 -0.2226768285 0.6102556586 4282467405
-0.3031324148 -0.2217542082 0.6095833182 4282269256
-0.3032211363 -0.2211416066 0.6097617149 4281348154
-0.3020387888 -0.2196044773 0.6073840857 4282400583
-0.3008555174 -0.2180719525 0.6050046086 4282926927
-0.2988235950 -0.2159314752 0.6009185314 4283519064
-0.2955182791 -0.2128827572 0.5942717195 4283453271
-0.2934831679 -0.2107609808 0.5901791453 4284242787
-0.2918708324 -0.2089509815 0.5869368911 4284045408
-0.2915304005 -0.2080558985 0.5862522721 4282005823
-0.2924629748 -0.2080679983 0.5881276131 4281150514
-0.2933958471 -0.2080761194 0.5900035501 4280953135
-0.2943289876 -0.2080802917 0.5918800831 4280887342
-0.2952624261 -0.2080805004 0.5937572122 4280822062
-0.2957712114 -0.2077782005 0.5947803259 4281019441
-0.2962800264 -0.2074736655 0.5958034992 4280953648
-0.2967888713 -0.2071668804 0.5968267918 4280887855
-0.2968724668 -0.2065619230 0.5969948769 4280887855
-0.2969558537 -0.2059564590 0.5971626043 4280690476
-0.2970390618 -0.2053504735 0.5973298550 4280624683
-0.2971220315 -0.2047439963 0.5974967480 4280558890
-0.2972048223 -0.2041369975 0.5976632833 4280296232
-0.2972874343 -0.2035294920 0.5978293419 4280230439
-0.2973698080 -0.2029214799 0.5979950428 4280295718
-0.2970258594 -0.2020231187 0.5973033309 4280558890
-0.2971077263 -0.2014149725 0.5974680185 4280755756
-0.2971894145 -0.2008063346 0.5976322293 4280887342
-0.2972708642 -0.2001971900 0.5977960229 4281018928
-0.2973521352 -0.1995875388 0.5979594588 4281084721
-0.2965797186 -0.1984064281 0.5964062214 4281150514
-0.2970871925 -0.1980821341 0.5974267125 4281150514
-0.2963137925 -0.1969044209 0.5958714485 4281216049
-0.2955397367 -0.1957297176 0.5943148732 4281413428
-0.2956193984 -0.1951219738 0.5944750309 4281741623
-0.2961261868 -0.1947948337 0.5954941511 4281939002
-0.2957781255 -0.1939050257 0.5947942138 4281874239
-0.2962847054 -0.1935751289 0.5958129168 4282334790
-0.2963636518 -0.1929645538 0.5959717035 4283451728
-0.2960146368 -0.1920759082 0.5952698588 4283912279
-0.2960930467 -0.1914652437 0.5954275727 4285679448
-0.2961712778 -0.1908540726 0.5955848098 4286534757
-0.2962492704 -0.1902424395 0.5957416892 4288370542
-0.2963270843 -0.1896303147 0.5958981514 4288567921
-0.2959763408 -0.1887445599 0.5951928496 4288436335
-0.2960536182 -0.1881323606 0.5953481793 4288436335
-0.2961306572 -0.1875196695 0.5955031514 4289291644
-0.2966361642 -0.1871770024 0.5965197086 4288370542
-0.2967129052 -0.1865624785 0.5966740251 4285415251
-0.2972183228 -0.1862161905 0.5976904035 4287586420
-0.2972947359 -0.1855998188 0.5978440642 4287531922
-0.2978000641 -0.1852499098 0.5988602638 4288058266
-0.2983053923 -0.1848977506 0.5998764038 4288189088
-0.2988107204 -0.1845433265 0.6008926034 4288781225
-0.2984571755 -0.1836581379 0.6001816392 4289044397
-0.2989622653 -0.1833009869 0.6011974216 4289636534
-0.2986080945 -0.1824166328 0.6004851460 4289901246
-0.2986832261 -0.1817951798 0.6006361842 4289703867
-0.2983282506 -0.1809125841 0.5999224186 4288718000
-0.2979728580 -0.1800312996 0.5992077589 4287994277
-0.2980471253 -0.1794102341 0.5993570685 4286218893
-0.2981211543 -0.1787887067 0.5995059609 4284771447
-0.2981949747 -0.1781667173 0.5996543765 4283520867
-0.2982685566 -0.1775442660 0.5998023748 4282270800
-0.2979114354 -0.1766660661 0.5990841985 4281218112
-0.2979844809 -0.1760435849 0.5992310643 4281152319
-0.2976265848 -0.1751671582 0.5985113978 4282007630
-0.2972682714 -0.1742920876 0.5977908373 4282731353
-0.2973404229 -0.1736700535 0.5979359150 4284177770
-0.2974123657 -0.1730475575 0.5980806351 4285362044
-0.2974840999 -0.1724246144 0.5982248187 4286612624
-0.2971243560 -0.1715522408 0.5975013971 4287467933
-0.2976268530 -0.1711773872 0.5985119343 4287599519
-0.2976979017 -0.1705531031 0.5986548066 4287665312
-0.2977687418 -0.1699283719 0.5987972617 4288125863
-0.2978393137 -0.1693031937 0.5989391804 4288389035
-0.2987731993 -0.1691664904 0.6008171439 4288389035
-0.2992753983 -0.1687821597 0.6018270850 4288652207
-0.2997775674 -0.1683955789 0.6028369069 4288783793
-0.2994155884 -0.1675232649 0.6021090150 4288454828
-0.2994853556 -0.1668931544 0.6022492647 4287797412
-0.2999871373 -0.1665025204 0.6032583714 4287534240
-0.3000565469 -0.1658706069 0.6033979058 4287139482
-0.3005581498 -0.1654763669 0.6044065952 4286613138
-0.3006272018 -0.1648426801 0.6045454144 4286282629
-0.3006959856 -0.1642085612 0.6046837568 4285756285
-0.3007645309 -0.1635739952 0.6048216820 4284836212
-0.3012657166 -0.1631734520 0.6058294773 4284244075
-0.3013339043 -0.1625371128 0.6059666276 4283718501
-0.3018349111 -0.1621329486 0.6069741249 4283323743
-0.3023358881 -0.1617265344 0.6079815030 4283190874
-0.3028368056 -0.1613178700 0.6089888215 4283059288
-0.3029043376 -0.1606770605 0.6091246605 4283387735
-0.3029716313 -0.1600358188 0.6092599630 4283387735
-0.3034722209 -0.1596221924 0.6102666259 4283649621
-0.3018046319 -0.1580707282 0.6069132090 4284307551
-0.3005697429 -0.1567523926 0.6044299006 4287587958
-0.2984664142 -0.1549886167 0.6002002358 4289430162
-0.2959280014 -0.1530092657 0.5950956345 4291855772
-0.2942562103 -0.1514874101 0.5917337537 4291855772
-0.2925834656 -0.1499725282 0.5883699059 4292053408
-0.2917780876 -0.1489077955 0.5867503881 4292053408
-0.2914064229 -0.1480670124 0.5860029459 4292315553
-0.2905999422 -0.1470079422 0.5843811631 4292644518
-0.2902273238 -0.1461709887 0.5836318731 4292907692
-0.2898542881 -0.1453354955 0.5828816891 4293039278
-0.2899155021 -0.1447184235 0.5830047727 4292908719
-0.2899764776 -0.1441009641 0.5831273794 4293106098
-0.2900372148 -0.1434831172 0.5832495093 4292579754
-0.2900977135 -0.1428648680 0.5833712220 4292777133
-0.2905929983 -0.1424595118 0.5843671560 4292844466
-0.2902179956 -0.1416272372 0.5836130977 4293239224
-0.2911481857 -0.1414306611 0.5854836702 4293308867
-0.2912079096 -0.1408090293 0.5856037736 4294164176
-0.2917027771 -0.1403965652 0.5865989327 4294431711
-0.2921975851 -0.1399818510 0.5875939727 4294958569
-0.3017978966 -0.2239754349 0.6082581878 4286020227
-0.3014649451 -0.2230532616 0.6075871587 4282335819
-0.3015538752 -0.2224437892 0.6077663898 4282729807
-0.3016426265 -0.2218337953 0.6079453230 4283256151
-0.3013086021 -0.2209134251 0.6072720885 4283584857
-0.3001286983 -0.2193762660 0.6048940420 4282532169
-0.2985250354 -0.2175355852 0.6016619205 4282992977
-0.2973431349 -0.2160084993 0.5992798805 4283650907
-0.2940448821 -0.2129539847 0.5926324129 4283848286
-0.2924373150 -0.2111348957 0.5893924832 4284374630
-0.2916752398 -0.2099315375 0.5878565311 4284440423
-0.2913359404 -0.2090349346 0.5871726871 4282664012
-0.2918433547 -0.2087454796 0.5881953835 4281084980
-0.2931982279 -0.2090580016 0.5909259915 4281084980
-0.2945536375 -0.2093648463 0.5936577320 4281282613
-0.2954856157 -0.2093656063 0.5955361128 4281216820
-0.2959938347 -0.2090628892 0.5965604186 4281085234
-0.2960779369 -0.2084592730 0.5967299342 4281019441
-0.2965861261 -0.2081529200 0.5977541804 4280953648
-0.2970943749 -0.2078443319 0.5987784863 4280756269
-0.2971780896 -0.2072374523 0.5989472270 4280690476
-0.2972616553 -0.2066300511 0.5991156101 4280756269
-0.2973449826 -0.2060221285 0.5992835760 4280624170
-0.2974281311 -0.2054136992 0.5994511843 4280426791
-0.2975110710 -0.2048047781 0.5996183753 4280361511
-0.2975938320 -0.2041953206 0.5997850895 4280361511
-0.2976763546 -0.2035853714 0.5999515057 4280296232
-0.2977586985 -0.2029749155 0.6001174450 4280427818
-0.2974153757 -0.2020748556 0.5994254351 4280559404
-0.2974971831 -0.2014642656 0.5995903611 4280559404
-0.2975788116 -0.2008531690 0.5997548103 4280690990
-0.2972343862 -0.1999550909 0.5990606546 4280822576
-0.2973154783 -0.1993438751 0.5992240906 4281019441
-0.2965442240 -0.1981627047 0.5976697206 4281151027
-0.2966246605 -0.1975522339 0.5978318453 4281282099
-0.2958523333 -0.1963753402 0.5962752104 4281413685
-0.2959321439 -0.1957656443 0.5964360833 4281807416
-0.2960117459 -0.1951554418 0.5965965390 4281939002
-0.2960911393 -0.1945447475 0.5967565179 4281940032
-0.2965970933 -0.1942130029 0.5977762938 4282268997
-0.2962493300 -0.1933218986 0.5970753431 4283188557
-0.2963280976 -0.1927097291 0.5972341299 4283649108
-0.2964066863 -0.1920970827 0.5973924994 4285089107
-0.2964850366 -0.1914839447 0.5975504518 4285747037
-0.2961358726 -0.1905952990 0.5968466997 4287649131
-0.2962137163 -0.1899820864 0.5970035791 4287846510
-0.2962913215 -0.1893683821 0.5971599817 4287977324
-0.2959410846 -0.1884818226 0.5964540839 4287779945
-0.2960181534 -0.1878680438 0.5966094732 4288437364
-0.2965229154 -0.1875243783 0.5976267457 4288042606
-0.2965996861 -0.1869087517 0.5977815390 4285152079
-0.2971043587 -0.1865614802 0.5987986326 4285481044
-0.2971808314 -0.1859440058 0.5989527106 4286148472
-0.2976853848 -0.1855930984 0.5999696851 4287398539
-0.2981899679 -0.1852399409 0.6009865999 4287925403
-0.2982659936 -0.1846192628 0.6011398435 4288451747
-0.2987704575 -0.1842624694 0.6021565795 4288649639
-0.2984174192 -0.1833764911 0.6014450192 4288847018
-0.2980639338 -0.1824918091 0.6007325649 4288979631
-0.2981389761 -0.1818701476 0.6008838415 4289242803
-0.2982138097 -0.1812479943 0.6010347009 4289310137
-0.2978592515 -0.1803655028 0.6003200412 4289836481
-0.2975042164 -0.1794843227 0.5996045470 4289573823
-0.2980076075 -0.1791206747 0.6006190777 4289047479
-0.2980814576 -0.1784975678 0.6007679105 4288521135
-0.2977254689 -0.1776176989 0.6000504494 4287468447
-0.2977987528 -0.1769945621 0.6001981497 4285757315
-0.2974420190 -0.1761164665 0.5994791389 4284244076
-0.2975147665 -0.1754933149 0.5996257663 4283388513
-0.2971572578 -0.1746170074 0.5989052057 4282730583
-0.2967993021 -0.1737420410 0.5981838107 4282336079
-0.2968711853 -0.1731193364 0.5983286500 4282401872
-0.2969428301 -0.1724961698 0.5984730721 4282928216
-0.2970142663 -0.1718725562 0.5986170173 4283980904
-0.2966549098 -0.1710003018 0.5978927612 4285099385
-0.2967257798 -0.1703767031 0.5980356336 4285823108
-0.2967964113 -0.1697526425 0.5981780291 4286546831
-0.2972977161 -0.1693736166 0.5991883278 4287138968
-0.2973680198 -0.1687477678 0.5993300080 4287862691
-0.2978691459 -0.1683651209 0.6003400087 4288060070
-0.2983702719 -0.1679802239 0.6013500094 4288257963
-0.2980087996 -0.1671094000 0.6006215215 4288521135
-0.2980782986 -0.1664808691 0.6007615328 4288587183
-0.2985790372 -0.1660919338 0.6017707586 4288455597
-0.2982165813 -0.1652225107 0.6010402441 4288192425
-0.2982853651 -0.1645926684 0.6011788845 4288126632
-0.2974903882 -0.1634878367 0.5995766521 4287862688
-0.2971266508 -0.1626225859 0.5988435745 4287467930
-0.2971944809 -0.1619941890 0.5989802480 4286744979
-0.2972620428 -0.1613653600 0.5991164446 4286152842
-0.2977615595 -0.1609697342 0.6001231670 4285626498
-0.2978287637 -0.1603391320 0.6002585888 4285231740
-0.2983280718 -0.1599399000 0.6012650132 4284901492
-0.2983949184 -0.1593075395 0.6013996601 4284309355
-0.2984615266 -0.1586747468 0.6015338898 4283782236
-0.2985278964 -0.1580415219 0.6016676426 4283453271
-0.2981612682 -0.1571797580 0.6009287834 4284107349
-0.2964957058 -0.1556378007 0.5975719094 4285489002
-0.2952620685 -0.1543290466 0.5950855613 4289032835
-0.2935945988 -0.1528000385 0.5917248726 4290217109
-0.2914930284 -0.1510535479 0.5874892473 4291722133
-0.2902567089 -0.1497628987 0.5849975348 4291787926
-0.2898862064 -0.1489225924 0.5842508078 4291788696
-0.2890819013 -0.1478620470 0.5826297998 4291788696
-0.2891439795 -0.1472463310 0.5827549100 4292050841
-0.2887722254 -0.1464103609 0.5820056796 4292379806
-0.2884000838 -0.1455758512 0.5812556148 4292577444
-0.2880274951 -0.1447428018 0.5805046558 4292709030
-0.2880883813 -0.1441282779 0.5806273818 4292644520
-0.2881489992 -0.1435133666 0.5807495713 4292907692
-0.2882094085 -0.1428980529 0.5808712840 4292972202
-0.2882695794 -0.1422823668 0.5809925795 4293037995
-0.2883295119 -0.1416662931 0.5811133981 4293365420
-0.2883892059 -0.1410498321 0.5812336802 4293365420
-0.2884486616 -0.1404329836 0.5813535452 4293038765
-0.2889423966 -0.1400263309 0.5823486447 4293170351
-0.2894360721 -0.1396174282 0.5833435655 4292714420
-0.2899296880 -0.1392062902 0.5843384266 4293109178
-0.2899884582 -0.1385851353 0.5844568610 4292590025
-0.2904818356 -0.1381704509 0.5854513049 4293116369
-0.2905402482 -0.1375476271 0.5855689645 4293905885
-0.2910334170 -0.1371293813 0.5865629315 4294826987
-0.2999784052 -0.2231245786 0.6059474945 4286217606
-0.3000671864 -0.2225171775 0.6061269045 4282335819
-0.2997342348 -0.2215975523 0.6054543257 4283124563
-0.2998225093 -0.2209899276 0.6056326628 4284177251
-0.2994888127 -0.2200718075 0.6049585342 4284572009
-0.2983107865 -0.2185366601 0.6025789380 4283256149
-0.2971318066 -0.2170061022 0.6001974940 4283387735
-0.2955297232 -0.2151727825 0.5969613194 4284374630
-0.2926595509 -0.2124262005 0.5911636949 4284506216
-0.2910547554 -0.2106081545 0.5879220366 4284243044
-0.2915615737 -0.2103205174 0.5889458060 4283124563
-0.2912230790 -0.2094227374 0.5882620215 4281808703
-0.2917297482 -0.2091323584 0.5892854929 4281545531
-0.2930823267 -0.2094441950 0.5920176506 4281282359
-0.2940123677 -0.2094489783 0.5938963294 4281151027
-0.2949427366 -0.2094497979 0.5957756042 4281348406
-0.2958733737 -0.2094466388 0.5976554751 4281479992
-0.2963808775 -0.2091407329 0.5986806750 4281743164
-0.2968884706 -0.2088325769 0.5997059345 4281940543
-0.2973960638 -0.2085221857 0.6007313132 4281808957
-0.2974799573 -0.2079133540 0.6009007692 4281743164
-0.2971397638 -0.2070087194 0.6002135873 4281743164
-0.2972231507 -0.2063997388 0.6003820300 4281743164
-0.2973063290 -0.2057902366 0.6005499959 4281414199
-0.2973892987 -0.2051802427 0.6007176042 4281282613
-0.2966233790 -0.2039860785 0.5991704464 4281019441
-0.2975546718 -0.2039587051 0.6010516286 4280690990
-0.2976370454 -0.2033471614 0.6012180448 4280427818
-0.2977192104 -0.2027351260 0.6013840437 4280362280
-0.2973763645 -0.2018342465 0.6006914973 4280099108
-0.2974579930 -0.2012220770 0.6008564234 4280164901
-0.2975394428 -0.2006093860 0.6010209322 4280230694
-0.2971955240 -0.1997105032 0.6003261805 4280296487
-0.2972764373 -0.1990976930 0.6004896760 4280362280
-0.2969317734 -0.1982004195 0.5997933745 4280624682
-0.2965866327 -0.1973044276 0.5990962386 4280822061
-0.2966667116 -0.1966918707 0.5992580056 4281084720
-0.2958950996 -0.1955161989 0.5976993442 4281216306
-0.2959745228 -0.1949044168 0.5978597999 4281281589
-0.2964797318 -0.1945717037 0.5988802910 4281478968
-0.2965588570 -0.1939580590 0.5990401506 4282200892
-0.2962116003 -0.1930661350 0.5983386636 4282793029
-0.2958638668 -0.1921754926 0.5976362824 4284037446
-0.2959421575 -0.1915621459 0.5977944136 4284629583
-0.2960202396 -0.1909483075 0.5979521275 4286270045
-0.2960981131 -0.1903339922 0.5981094241 4286533217
-0.2961757481 -0.1897192001 0.5982663035 4286729054
-0.2958263159 -0.1888314337 0.5975604653 4286992226
-0.2959034443 -0.1882165521 0.5977162123 4287649131
-0.2964074612 -0.1878719032 0.5987343192 4287912303
-0.2964842618 -0.1872551739 0.5988894701 4286270047
-0.2969881892 -0.1869069040 0.5999073386 4284756808
-0.2970646620 -0.1862883270 0.6000618935 4283579978
-0.2971409559 -0.1856692880 0.6002159715 4284040529
-0.2972170115 -0.1850497574 0.6003695726 4284635753
-0.2977206111 -0.1846951246 0.6013868451 4286148992
-0.2982242107 -0.1843382269 0.6024041176 4287333779
-0.2978718877 -0.1834519058 0.6016923785 4287728537
-0.2979471684 -0.1828296036 0.6018444896 4287992736
-0.2980222702 -0.1822068095 0.6019961834 4288453287
-0.2980971336 -0.1815835536 0.6021474004 4288388522
-0.2977433801 -0.1806998253 0.6014328599 4288520108
-0.2973891795 -0.1798174381 0.6007173657 4288849586
-0.2974631786 -0.1791945696 0.6008668542 4289112758
-0.2975369394 -0.1785712391 0.6010158658 4289507516
-0.2976105213 -0.1779474467 0.6011644602 4289968067
-0.2976838350 -0.1773231924 0.6013125777 4289902274
-0.2973279059 -0.1764438748 0.6005936265 4289441723
-0.2969715297 -0.1755658835 0.5998737812 4288783280
-0.2970440090 -0.1749420613 0.6000201106 4287730592
-0.2966868877 -0.1740658730 0.5992987156 4286217612
-0.2963293195 -0.1731910259 0.5985764861 4285164924
-0.2964009047 -0.1725676507 0.5987210870 4283914857
-0.2964722514 -0.1719437987 0.5988652110 4283191134
-0.2961136103 -0.1710712314 0.5981407762 4282994009
-0.2961844206 -0.1704473943 0.5982837677 4283388767
-0.2962549925 -0.1698231250 0.5984263420 4284178283
-0.2963253558 -0.1691983938 0.5985684395 4285033592
-0.2968256474 -0.1688178927 0.5995790362 4286152073
-0.2968956530 -0.1681913733 0.5997204781 4287073175
-0.2969654202 -0.1675644070 0.5998613834 4287468702
-0.2966044843 -0.1666950732 0.5991322994 4287600288
-0.2966737151 -0.1660681367 0.5992721319 4287863460
-0.2967426777 -0.1654407680 0.5994114876 4288060839
-0.2963806689 -0.1645737439 0.5986801982 4288324011
-0.2968799770 -0.1641847044 0.5996888280 4288587183
-0.2960863113 -0.1630812585 0.5980855823 4288587694
-0.2957231104 -0.1622175127 0.5973519087 4288521901
-0.2953594625 -0.1613551527 0.5966174006 4288389034
-0.2954266667 -0.1607288271 0.5967531800 4288060069
-0.2954936326 -0.1601020843 0.5968884826 4287534495
-0.2959918678 -0.1597077250 0.5978948474 4287205530
-0.2964900434 -0.1593111157 0.5989011526 4287006868
-0.2961248755 -0.1584502906 0.5981634855 4286348938
-0.2961910069 -0.1578209251 0.5982971191 4286084480
-0.2958250642 -0.1569620073 0.5975579023 4285623929
-0.2954587042 -0.1561045051 0.5968178511 4285818737
-0.2937957346 -0.1545665115 0.5934587121 4286674046
-0.2916996479 -0.1528090835 0.5892246366 4290081932
-0.2908990979 -0.1517368257 0.5876075625 4290410897
-0.2892332375 -0.1502187699 0.5842426419 4291129996
-0.2888637185 -0.1493785530 0.5834962130 4291327375
-0.2880612314 -0.1483170688 0.5818752050 4291523986
-0.2876907885 -0.1474806517 0.5811268687 4291458193
-0.2877526283 -0.1468665302 0.5812518001 4291655572
-0.2873814106 -0.1460320950 0.5805019736 4291984537
-0.2874426842 -0.1454181075 0.5806257725 4292246939
-0.2870707512 -0.1445856690 0.5798744559 4292312732
-0.2871314585 -0.1439718306 0.5799971223 4292313759
-0.2871919572 -0.1433576047 0.5801192522 4292576931
-0.2872522175 -0.1427429914 0.5802409649 4292249249
-0.2873122394 -0.1421279907 0.5803622007 4292446628
-0.2873720229 -0.1415126175 0.5804830194 4292447655
-0.2869980335 -0.1406843364 0.5797275901 4292513448
-0.2870572507 -0.1400691122 0.5798472166 4292579241
-0.2871162593 -0.1394535154 0.5799663663 4292645034
-0.2876088023 -0.1390472502 0.5809612870 4293039278
-0.2876674235 -0.1384299695 0.5810796618 4293302450
-0.2881597579 -0.1380201727 0.5820742249 4293432242
-0.2882179916 -0.1374011934 0.5821918249 4293103277
-0.2882759571 -0.1367818564 0.5823089480 4292840105
-0.2883337140 -0.1361621320 0.5824255943 4293432242
-0.2883912027 -0.1355420351 0.5825417042 4293044414
-0.2888828814 -0.1351247728 0.5835348964 4293636551
-0.2889399827 -0.1345030069 0.5836502314 4292988117
-0.2894314528 -0.1340821981 0.5846429467 4293711840
-0.2977423668 -0.2219593823 0.6027831435 4286349190
-0.2986719012 -0.2219804972 0.6046649814 4282533196
-0.2983393669 -0.2210622728 0.6039918065 4283256149
-0.2984273136 -0.2204561681 0.6041698456 4284703595
-0.2980940342 -0.2195394486 0.6034951210 4285098353
-0.2973391712 -0.2183146626 0.6019668579 4283979872
-0.2961623371 -0.2167844176 0.5995843410 4283849056
-0.2954059541 -0.2155662924 0.5980530977 4284178021
-0.2938058674 -0.2137377709 0.5948136449 4284309607
-0.2913612723 -0.2113040090 0.5898645520 4283059540
-0.2906021476 -0.2100997865 0.5883277059 4282006852
-0.2902642190 -0.2092025578 0.5876435637 4282204231
-0.2907699049 -0.2089129686 0.5886673331 4282006852
-0.2916978002 -0.2089235038 0.5905458331 4281480508
-0.2930482030 -0.2092315406 0.5932797790 4281348920
-0.2939767838 -0.2092332691 0.5951597095 4281743678
-0.2949056625 -0.2092310190 0.5970402360 4282270022
-0.2954122126 -0.2089259177 0.5980657339 4282862159
-0.2963415384 -0.2089165747 0.5999471545 4283125331
-0.2968482673 -0.2086060941 0.6009730697 4283125331
-0.2973550558 -0.2082933784 0.6019990444 4283059538
-0.2974387705 -0.2076829672 0.6021685600 4282862159
-0.2970990837 -0.2067774981 0.6014808416 4282204229
-0.2971822917 -0.2061669379 0.6016492844 4281875264
-0.2972653210 -0.2055558562 0.6018173695 4282006336
-0.2973481119 -0.2049442679 0.6019849777 4281743164
-0.2974307239 -0.2043321729 0.6021522284 4281479992
-0.2975131273 -0.2037195712 0.6023190618 4281151027
-0.2975953519 -0.2031064481 0.6024854779 4281216307
-0.2972533107 -0.2022043765 0.6017930508 4280953135
-0.2973349988 -0.2015911192 0.6019583941 4280755755
-0.2974164784 -0.2009773701 0.6021233797 4280689962
-0.2970733643 -0.2000772804 0.6014287472 4280558376
-0.2967298031 -0.1991784424 0.6007332206 4280426790
-0.2968104482 -0.1985649318 0.6008964181 4280295717
-0.2964661121 -0.1976677179 0.6001994014 4280361510
-0.2965462208 -0.1970540881 0.6003615856 4280362280
-0.2962011695 -0.1961585283 0.5996629596 4280428073
-0.2962807417 -0.1955447793 0.5998241305 4280755245
-0.2963601351 -0.1949305385 0.5999848247 4280821038
-0.2960139811 -0.1940370202 0.5992840528 4281345583
-0.2960928380 -0.1934226751 0.5994436741 4281871927
-0.2957459390 -0.1925308257 0.5987413526 4282986300
-0.2958242595 -0.1919163913 0.5988999009 4283512644
-0.2959023714 -0.1913014650 0.5990580320 4284825933
-0.2959802747 -0.1906860620 0.5992157459 4285154898
-0.2960579395 -0.1900701672 0.5993730426 4285350224
-0.2961354256 -0.1894537807 0.5995298624 4285613396
-0.2957864702 -0.1885652095 0.5988234282 4286532703
-0.2962897420 -0.1882195771 0.5998423100 4287190633
-0.2963665724 -0.1876017451 0.5999978781 4287126896
-0.2968697548 -0.1872524768 0.6010165215 4286140001
-0.2969462574 -0.1866327971 0.6011714339 4284696663
-0.2970225811 -0.1860126406 0.6013259292 4284630870
-0.2970986664 -0.1853920072 0.6014800072 4283714649
-0.2971745431 -0.1847708970 0.6016336083 4283846235
-0.2976773083 -0.1844138950 0.6026514173 4284175713
-0.2981800437 -0.1840546429 0.6036692262 4284767850
-0.2978281975 -0.1831675172 0.6029568911 4285492602
-0.2979032993 -0.1825436205 0.6031090021 4286413704
-0.2975506783 -0.1816582531 0.6023951173 4286941075
-0.2976252735 -0.1810343117 0.6025460958 4287599005
-0.2972718775 -0.1801506877 0.6018306613 4288125862
-0.2973459065 -0.1795267016 0.6019805670 4288586413
-0.2974197268 -0.1789022535 0.6021299362 4288981171
-0.2970652580 -0.1780208349 0.6014123559 4289310136
-0.2971385121 -0.1773963571 0.6015606523 4289573309
-0.2972115576 -0.1767714173 0.6017085314 4289902274
-0.2968560159 -0.1758922040 0.6009887457 4290362312
-0.2965000272 -0.1750143468 0.6002680063 4290296519
-0.2961436212 -0.1741378307 0.5995464921 4290625486
-0.2957867682 -0.1732626557 0.5988240242 4289967556
-0.2962870598 -0.1728892475 0.5998368859 4289046454
-0.2959295809 -0.1720149815 0.5991131067 4287730594
-0.2955716550 -0.1711420864 0.5983884931 4286414734
-0.2956423759 -0.1705180258 0.5985317230 4285362046
-0.2957128882 -0.1698935181 0.5986744165 4284638834
-0.2957831621 -0.1692685783 0.5988167524 4284507248
-0.2958532274 -0.1686431766 0.5989585519 4284309869
-0.2959230542 -0.1680173427 0.5990999341 4284836213
-0.2959926426 -0.1673910618 0.5992408395 4285230971
-0.2956323326 -0.1665222943 0.5985113382 4285691522
-0.2952715755 -0.1656549126 0.5977810025 4286481037
-0.2953402996 -0.1650291383 0.5979201198 4287007381
-0.2954087853 -0.1644029319 0.5980588198 4287402139
-0.2954770625 -0.1637762785 0.5981969833 4287928483
-0.2946846783 -0.1626742333 0.5965928435 4287995816
-0.2943220139 -0.1618119776 0.5958585739 4288390574
-0.2939588726 -0.1609511077 0.5951234698 4288783279
-0.2940258384 -0.1603263915 0.5952590108 4288783279
-0.2940925360 -0.1597012579 0.5953940749 4288652207
-0.2945897281 -0.1593085825 0.5964006186 4288454828
-0.2950868607 -0.1589136720 0.5974070430 4288191656
-0.2947221994 -0.1580543518 0.5966687799 4287731105
-0.2943571210 -0.1571964324 0.5959296823 4287794328
-0.2935605347 -0.1561107039 0.5943169594 4287333777
-0.2927633226 -0.1550282240 0.5927030444 4286939271
-0.2915342450 -0.1537216157 0.5902147293 4287005064
-0.2894416451 -0.1519671679 0.5859782696 4290473097
-0.2886422276 -0.1508981735 0.5843598247 4290538890
-0.2878422141 -0.1498324573 0.5827401876 4290604937
-0.2874732316 -0.1489937603 0.5819931626 4290868109
-0.2871038020 -0.1481564939 0.5812452435 4290736010
-0.2867339849 -0.1473206729 0.5804965496 4290736010
-0.2863637507 -0.1464863122 0.5797469616 4291129485
-0.2864250839 -0.1458734125 0.5798711777 4291524243
-0.2864862084 -0.1452601254 0.5799949765 4291787158
-0.2861149311 -0.1444282830 0.5792432427 4291787158
-0.2861754894 -0.1438151449 0.5793658495 4291919001
-0.2858034372 -0.1429852843 0.5786126256 4292182173
-0.2858634591 -0.1423722953 0.5787341595 4291920797
-0.2859232426 -0.1417589188 0.5788551569 4291986590
-0.2859827876 -0.1411451697 0.5789757371 4292052897
-0.2860420942 -0.1405310184 0.5790957808 4292118690
-0.2856683433 -0.1397048235 0.5783391595 4292445858
-0.2857270837 -0.1390908509 0.5784580708 4292577444
-0.2862186134 -0.1386862993 0.5794531703 4293102248
-0.2862769961 -0.1380706429 0.5795713663 4293431213
-0.2863351405 -0.1374546140 0.5796890855 4293431213
-0.2863930464 -0.1368381977 0.5798062682 4293431213
-0.2864507139 -0.1362214088 0.5799230337 4293101221
-0.2865081131 -0.1356042624 0.5800392628 4292903842
-0.2865653038 -0.1349867284 0.5801550746 4292644007
-0.2866222560 -0.1343688369 0.5802703500 4293236144
-0.2866789699 -0.1337505728 0.5803851485 4292910259
-0.2867354453 -0.1331319362 0.5804995298 4292318122
-0.2867916822 -0.1325129420 0.5806133151 4292712369
-0.2872816324 -0.1320931315 0.5816052556 4293436092
-0.2873374522 -0.1314724684 0.5817182660 4293506761
-0.2878271937 -0.1310491115 0.5827097297 4294296277
-0.2883168459 -0.1306235194 0.5837010145 4293450208
-0.2967711687 -0.2217339724 0.6021710038 4285954432
-0.2960194051 -0.2205049098 0.6006455421 4283125333
-0.2969469726 -0.2205264121 0.6025276780 4283782493
-0.2966144383 -0.2196107507 0.6018529534 4284900974
-0.2958612144 -0.2183860838 0.6003246307 4284967537
-0.2925850451 -0.2153081894 0.5936769843 4284309607
-0.2947732508 -0.2162538916 0.5981170535 4284506988
-0.2935974896 -0.2147294283 0.5957313180 4284375402
-0.2924207747 -0.2132095695 0.5933437347 4283651679
-0.2904014289 -0.2110825181 0.5892462730 4282664784
-0.2900646329 -0.2101837844 0.5885629058 4282598991
-0.2897273898 -0.2092862576 0.5878786445 4282862163
-0.2902322114 -0.2089965940 0.5889029503 4282401610
-0.2911584377 -0.2090071738 0.5907823443 4281809473
-0.2925064564 -0.2093153894 0.5935175419 4282598989
-0.2934333682 -0.2093171626 0.5953983665 4283256919
-0.2943606079 -0.2093149573 0.5972797275 4283783263
-0.2948662639 -0.2090097666 0.5983057618 4283980642
-0.2953719795 -0.2087023407 0.5993319154 4283849056
-0.2958777249 -0.2083926499 0.6003581285 4283717470
-0.2963835299 -0.2080807090 0.6013844013 4283454298
-0.2964670360 -0.2074709833 0.6015539169 4282993747
-0.2965503633 -0.2068607360 0.6017229557 4282533196
-0.2966334820 -0.2062499672 0.6018916368 4282138438
-0.2967164218 -0.2056386918 0.6020599008 4282401094
-0.2967991531 -0.2050269097 0.6022277474 4282072129
-0.2968816757 -0.2044146061 0.6023951769 4281940030
-0.2969639897 -0.2038017958 0.6025621891 4281545272
-0.2970460951 -0.2031884789 0.6027288437 4281742138
-0.2971280217 -0.2025746554 0.6028950810 4281413173
-0.2967863679 -0.2016726285 0.6022018194 4281347380
-0.2968677580 -0.2010586709 0.6023669243 4281347380
-0.2965253294 -0.2001582682 0.6016721725 4281281587
-0.2966062129 -0.1995441616 0.6018362641 4281215794
-0.2962630391 -0.1986453831 0.6011399627 4280953135
-0.2959194183 -0.1977478564 0.6004427075 4280821549
-0.2964235246 -0.1974164546 0.6014655828 4280624683
-0.2960792780 -0.1965196878 0.6007670760 4280558890
-0.2957345843 -0.1956241876 0.6000676751 4280624172
-0.2958138883 -0.1950097382 0.6002285480 4280689965
-0.2954684496 -0.1941159070 0.5995276570 4281083181
-0.2959718406 -0.1937793791 0.6005491018 4281412146
-0.2956257761 -0.1928863078 0.5998468995 4282199094
-0.2957041264 -0.1922707856 0.6000058651 4282528059
-0.2957822680 -0.1916547716 0.6001644135 4283316544
-0.2958602011 -0.1910382658 0.6003225446 4283842888
-0.2959378958 -0.1904212683 0.6004801989 4284104520
-0.2960154116 -0.1898037940 0.6006374955 4284301899
-0.2960927188 -0.1891858280 0.6007943153 4285484379
-0.2961697876 -0.1885673851 0.6009507179 4286010723
-0.2962466776 -0.1879484504 0.6011067033 4286471277
-0.2967490852 -0.1875981838 0.6021261215 4286668656
-0.2968256474 -0.1869774163 0.6022815108 4286144109
-0.2969019711 -0.1863561422 0.6024363637 4285815144
-0.2969781160 -0.1857344061 0.6025908589 4285227118
-0.2970540226 -0.1851121932 0.6027448773 4286082427
-0.2975560129 -0.1847541928 0.6037634611 4286807433
-0.2976315916 -0.1841301173 0.6039168239 4286939019
-0.2977069616 -0.1835055798 0.6040697694 4286216323
-0.2977820933 -0.1828805804 0.6042222381 4285426807
-0.2978570461 -0.1822550893 0.6043742895 4285098355
-0.2975049019 -0.1813689172 0.6036598086 4285229941
-0.2971523404 -0.1804840714 0.6029444337 4285954691
-0.2972263992 -0.1798589677 0.6030946970 4286678414
-0.2973002493 -0.1792334020 0.6032445431 4287533725
-0.2973738611 -0.1786073744 0.6033939123 4288257448
-0.2970198989 -0.1777251512 0.6026756763 4288652206
-0.2970929742 -0.1770990938 0.6028239131 4288915378
-0.2967382371 -0.1762186587 0.6021041274 4289309623
-0.2963830829 -0.1753395647 0.6013835073 4289441209
-0.2960274816 -0.1744618267 0.6006619930 4290099142
-0.2960993350 -0.1738366336 0.6008077860 4290230728
-0.2961709797 -0.1732109934 0.6009531617 4290493900
-0.2958143055 -0.1723354906 0.6002294421 4290757072
-0.2954572141 -0.1714613587 0.5995048285 4290757072
-0.2955279648 -0.1708361804 0.5996484160 4290230728
-0.2955985069 -0.1702105403 0.5997915268 4289046965
-0.2952403128 -0.1693386883 0.5990647674 4288060070
-0.2953102887 -0.1687130630 0.5992067456 4287402140
-0.2953800559 -0.1680869907 0.5993483067 4286875796
-0.2950207889 -0.1672174335 0.5986192822 4286152073
-0.2946610749 -0.1663492620 0.5978894234 4285757315
-0.2947299480 -0.1657236964 0.5980291963 4285428350
-0.2943694890 -0.1648573726 0.5972977877 4285165178
-0.2944378257 -0.1642318368 0.5974364281 4285494143
-0.2945058942 -0.1636058688 0.5975745916 4286283659
-0.2941443622 -0.1627418846 0.5968409777 4286877335
-0.2937823832 -0.1618793011 0.5961065292 4287206300
-0.2934200168 -0.1610181183 0.5953711867 4287795870
-0.2934868932 -0.1603931785 0.5955069065 4287927456
-0.2935535312 -0.1597677916 0.5956421494 4287928998
-0.2936199605 -0.1591420025 0.5957769156 4288257963
-0.2936861515 -0.1585157663 0.5959112048 4288914866
-0.2937521040 -0.1578891277 0.5960450768 4289178038
-0.2933876514 -0.1570318043 0.5953055620 4289242803
-0.2925924957 -0.1559465677 0.5936921239 4288716459
-0.2913663089 -0.1546361744 0.5912041068 4288318871
-0.2897088826 -0.1531033963 0.5878410339 4287463562
-0.2880504429 -0.1515775621 0.5844759941 4290340484
-0.2872523665 -0.1505099982 0.5828565955 4290406277
-0.2868844271 -0.1496704519 0.5821100473 4290144900
-0.2865160704 -0.1488323361 0.5813626051 4290276486
-0.2861472964 -0.1479956657 0.5806143284 4290603141
-0.2857781053 -0.1471604556 0.5798652172 4290537348
-0.2854084969 -0.1463266909 0.5791152716 4290931079
-0.2854697108 -0.1457144916 0.5792394280 4291325837
-0.2855306864 -0.1451018900 0.5793631673 4291458193
-0.2855914235 -0.1444889158 0.5794864297 4291589779
-0.2852204144 -0.1436582059 0.5787336230 4291525526
-0.2848490179 -0.1428289562 0.5779800415 4291657112
-0.2849088907 -0.1422166675 0.5781015158 4291722135
-0.2849685252 -0.1416039765 0.5782225132 4291919514
-0.2845960557 -0.1407772899 0.5774667263 4292575391
-0.2850870788 -0.1403774768 0.5784630775 4292706977
-0.2847139537 -0.1395518780 0.5777059793 4292706977
-0.2847725749 -0.1389386058 0.5778249502 4292706977
-0.2848309577 -0.1383249462 0.5779433846 4292511138
-0.2848891020 -0.1377109140 0.5780613422 4292642724
-0.2849470079 -0.1370965093 0.5781788230 4292577442
-0.2850046754 -0.1364817172 0.5782958269 4292709028
-0.2846295238 -0.1356603950 0.5775346756 4292774821
-0.2846866250 -0.1350457966 0.5776505470 4292709028
-0.2847435176 -0.1344308406 0.5777659416 4292775591
-0.2848001420 -0.1338155121 0.5778808594 4293104556
-0.2848565280 -0.1331998259 0.5779953003 4292907179
-0.2849127054 -0.1325837523 0.5781092644 4292183456
-0.2849686146 -0.1319673359 0.5782226920 4291853721
-0.2850243151 -0.1313505471 0.5783357024 4292445858
-0.2855129838 -0.1309320778 0.5793272853 4292777133
-0.2855682969 -0.1303136349 0.5794394612 4293171891
-0.2860567570 -0.1298916489 0.5804306269 4292320432
-0.2861116529 -0.1292715371 0.5805419683 4292254639
-0.2861662805 -0.1286510825 0.5806528926 4292652220
-0.2866543531 -0.1282242537 0.5816432238 4293770701
-0.2867085934 -0.1276021600 0.5817532539 4294102494
-0.2871964276 -0.1271717995 0.5827431083 4294760424
-0.2953819335 -0.2211944759 0.6007058620 4283256919
-0.2954695821 -0.2205924839 0.6008840799 4281677887
-0.2947185636 -0.2193658650 0.5993568301 4282795598
-0.2935475111 -0.2178309560 0.5969753265 4283519321
-0.2953118980 -0.2184729576 0.6005634665 4283782493
-0.2945594788 -0.2172507346 0.5990332365 4283585114
-0.2933866382 -0.2157227993 0.5966480970 4283914597
-0.2905334830 -0.2129684538 0.5908457637 4283914597
-0.2889383435 -0.2111462951 0.5876017809 4282927702
-0.2890223861 -0.2105546594 0.5877727270 4282401358
-0.2891062498 -0.2099625170 0.5879433155 4282467151
-0.2896102667 -0.2096741647 0.5889682770 4282467151
-0.2905347943 -0.2096870393 0.5908484459 4282599250
-0.2918801904 -0.2099985331 0.5935845375 4282599250
-0.2928054035 -0.2100026011 0.5954661369 4284902005
-0.2937309444 -0.2100026906 0.5973483324 4286415244
-0.2942357957 -0.2096988112 0.5983750224 4287665311
-0.2947407365 -0.2093926817 0.5994018912 4288191655
-0.2952456772 -0.2090843022 0.6004288197 4288257448
-0.2953293920 -0.2084762752 0.6005990505 4287994276
-0.2958343327 -0.2081642598 0.6016258597 4287402139
-0.2963393033 -0.2078499943 0.6026527882 4286744209
-0.2960009873 -0.2069438845 0.6019648314 4285822848
-0.2960840166 -0.2063329220 0.6021336913 4284770160
-0.2961668670 -0.2057214528 0.6023021340 4284112230
-0.2962495089 -0.2051094621 0.6024702191 4282927956
-0.2963319421 -0.2044969648 0.6026378274 4282532428
-0.2964141667 -0.2038839459 0.6028050780 4282006084
-0.2964962125 -0.2032704353 0.6029719114 4282203463
-0.2961555719 -0.2023677230 0.6022791862 4281742912
-0.2958144844 -0.2014662474 0.6015855074 4281742653
-0.2963183820 -0.2011398971 0.6026102901 4281676860
-0.2959766686 -0.2002391666 0.6019153595 4281676347
-0.2960574627 -0.1996248662 0.6020796299 4281676347
-0.2961380184 -0.1990100592 0.6022435427 4281676347
-0.2957952321 -0.1981113404 0.6015464067 4281610554
-0.2958753109 -0.1974964142 0.6017091870 4281413688
-0.2959551513 -0.1968809962 0.6018716097 4281347895
-0.2960347831 -0.1962650716 0.6020335555 4280954164
-0.2956905961 -0.1953687668 0.6013336182 4280822578
-0.2957697213 -0.1947527379 0.6014944911 4281346099
-0.2954247892 -0.1938580722 0.6007930040 4281543478
-0.2955033779 -0.1932419538 0.6009528637 4281871669
-0.2955817580 -0.1926253289 0.6011122465 4282069048
-0.2956599295 -0.1920082122 0.6012712121 4282398011
-0.2957378924 -0.1913906038 0.6014297605 4282792769
-0.2958156168 -0.1907725185 0.6015878916 4283318086
-0.2958931625 -0.1901539415 0.6017455459 4283910223
-0.2959704995 -0.1895348728 0.6019027829 4285290082
-0.2960475981 -0.1889153272 0.6020596623 4286211184
-0.2961245179 -0.1882953048 0.6022160053 4286934395
-0.2966261804 -0.1879440397 0.6032362580 4288184462
-0.2967027426 -0.1873221546 0.6033920050 4288908187
-0.2967791259 -0.1866997927 0.6035472751 4288842394
-0.2968552709 -0.1860769391 0.6037021875 4289306027
-0.2969312370 -0.1854536235 0.6038566232 4291214024
-0.2976586521 -0.1832176596 0.6053359509 4291018701
-0.2977336049 -0.1825910658 0.6054884195 4289440693
-0.2978083491 -0.1819639951 0.6056404114 4287730075
-0.2974567115 -0.1810770184 0.6049252748 4286349192
-0.2971046567 -0.1801913828 0.6042093039 4285757055
-0.2971785367 -0.1795646995 0.6043595076 4285362556
-0.2968257070 -0.1786808223 0.6036419868 4285823107
-0.2964724302 -0.1777982712 0.6029235721 4286809490
-0.2969721258 -0.1774269193 0.6039397717 4287730592
-0.2961914241 -0.1762912273 0.6023520827 4288388007
-0.2958369851 -0.1754118055 0.6016312838 4288651179
-0.2954820991 -0.1745337397 0.6009095907 4288849073
-0.2955538929 -0.1739083230 0.6010555625 4289243831
-0.2956254482 -0.1732824594 0.6012011170 4289572796
-0.2952694893 -0.1724066436 0.6004772186 4290033347
-0.2949131131 -0.1715321690 0.5997524261 4290493898
-0.2949838042 -0.1709067672 0.5998961926 4290757070
-0.2950542569 -0.1702809036 0.6000394821 4290757583
-0.2946967781 -0.1694087237 0.5993125439 4290494411
-0.2947666943 -0.1687828749 0.5994547009 4290297032
-0.2948364019 -0.1681565791 0.5995964408 4289902274
-0.2944778204 -0.1672866940 0.5988672376 4289441723
-0.2941188514 -0.1664181948 0.5981371999 4288783793
-0.2937594354 -0.1655510664 0.5974062681 4288060070
-0.2938279212 -0.1649257392 0.5975455046 4287336347
-0.2934677303 -0.1640604883 0.5968130827 4286284173
-0.2935356796 -0.1634352058 0.5969511867 4285428864
-0.2936033607 -0.1628094912 0.5970888734 4284968568
-0.2932421267 -0.1619465798 0.5963542461 4285231740
-0.2928804457 -0.1610850543 0.5956187248 4285823877
-0.2925183475 -0.1602249444 0.5948823094 4286416014
-0.2925848365 -0.1596002579 0.5950175524 4286745750
-0.2926510870 -0.1589751393 0.5951522589 4287206301
-0.2927171290 -0.1583496034 0.5952865481 4288058530
-0.2927829325 -0.1577236503 0.5954203606 4288321702
-0.2919896841 -0.1566365659 0.5938072205 4288454827
-0.2911958396 -0.1555527449 0.5921928287 4288257448
-0.2899717987 -0.1542436779 0.5897035003 4289364116
-0.2887469530 -0.1529397070 0.5872126222 4288377221
-0.2870915234 -0.1514141858 0.5838460326 4290012289
-0.2862948775 -0.1503471285 0.5822259188 4290209668
-0.2859275639 -0.1495081782 0.5814788938 4290341252
-0.2855598330 -0.1486706734 0.5807310939 4290472838
-0.2856218517 -0.1480575800 0.5808572173 4290601855
-0.2852534056 -0.1472220421 0.5801078677 4290536062
-0.2848845124 -0.1463879496 0.5793577433 4290733441
-0.2849456668 -0.1457755268 0.5794820786 4291062406
-0.2850065827 -0.1451627016 0.5796059370 4291194249
-0.2850672603 -0.1445494890 0.5797293186 4291391628
-0.2846969962 -0.1437184513 0.5789763331 4291458191
-0.2843263149 -0.1428888887 0.5782225132 4291523984
-0.2843861282 -0.1422763616 0.5783441663 4291457423
-0.2844457030 -0.1416634470 0.5784652829 4291589009
-0.2845050395 -0.1410501450 0.5785859823 4291917461
-0.2841329873 -0.1402236819 0.5778293610 4292049047
-0.2841917574 -0.1396105587 0.5779489279 4291852951
-0.2842503190 -0.1389970481 0.5780679584 4292050330
-0.2838771939 -0.1381731629 0.5773091912 4292052383
-0.2839351892 -0.1375598311 0.5774271488 4292183969
-0.2839929461 -0.1369461119 0.5775445700 4291921822
-0.2840504944 -0.1363320351 0.5776615739 4291724443
-0.2836759984 -0.1355113089 0.5769000053 4291789979
-0.2837329507 -0.1348974258 0.5770158768 4291921565
-0.2837896943 -0.1342831552 0.5771312118 4292576672
-0.2834141552 -0.1334650815 0.5763674974 4292839844
-0.2834703326 -0.1328510195 0.5764816999 4293167782
-0.2835262418 -0.1322365850 0.5765954852 4293167782
-0.2835819423 -0.1316218078 0.5767087340 4292643237
-0.2836374044 -0.1310066581 0.5768215060 4292906409
-0.2836926281 -0.1303911507 0.5769338012 4292973999
-0.2841801643 -0.1299730986 0.5779252648 4292842413
-0.2842349708 -0.1293559372 0.5780367851 4291986590
-0.2842895687 -0.1287384182 0.5781477690 4291262867
-0.2843438983 -0.1281205416 0.5782583356 4292051100
-0.2843980193 -0.1275023073 0.5783683062 4293169581
-0.2848848403 -0.1270768493 0.5793583393 4293566138
-0.2849385440 -0.1264569759 0.5794675946 4294092482
-0.2854251266 -0.1260280013 0.5804570913 4293636551
-0.2854784131 -0.1254064739 0.5805655122 4294031309
-0.2855314612 -0.1247846112 0.5806733966 4293448155
-0.2855842710 -0.1241624057 0.5807808042 4294237671
-0.2939951420 -0.2206543833 0.5992391109 4281150773
-0.2940824330 -0.2200539112 0.5994170308 4280887601
-0.2941695452 -0.2194529027 0.5995945930 4282664012
-0.2938379049 -0.2185400426 0.5989186168 4283190356
-0.2918310463 -0.2163865566 0.5948281288 4283321942
-0.2902415693 -0.2145507187 0.5915883780 4283190356
-0.2903267145 -0.2139561623 0.5917618871 4283717219
-0.2895735204 -0.2127453089 0.5902267098 4282796117
-0.2879813015 -0.2109233439 0.5869813561 4282927703
-0.2880651355 -0.2103323936 0.5871522427 4282927703
-0.2889876664 -0.2103515118 0.5890325904 4282598738
-0.2886518240 -0.2094533592 0.5883480310 4282532945
-0.2899942398 -0.2097707242 0.5910842419 4283454560
-0.2909173965 -0.2097796649 0.5929659009 4285757315
-0.2918408513 -0.2097846568 0.5948481560 4288652207
-0.2954509556 -0.2070269436 0.6022064090 4289375929
-0.2955338955 -0.2064157873 0.6023755074 4288520620
-0.2951955199 -0.2055109441 0.6016858220 4288191655
-0.2952779531 -0.2048996240 0.6018538475 4287270553
-0.2953602076 -0.2042877972 0.6020214558 4286678416
-0.2954422235 -0.2036754638 0.6021886468 4285625728
-0.2955240607 -0.2030626088 0.6023554802 4284771187
-0.2956056893 -0.2024492621 0.6025218368 4283586913
