VERSION 0.7
FIELDS x y z rgba
SIZE 4 4 4 4
TYPE F F F U
COUNT 1 1 1 1
WIDTH 920
HEIGHT 1
VIEWPOINT 0.0 0.0 0.0 1.0 0.0 0.0 0.0
POINTS 920
DATA ascii
-0.2526631355 -0.1127365232 0.5593101382 4285361265
-0.2527084649 -0.1121352091 0.5594105124 4285163886
-0.2527535856 -0.1115335748 0.5595104098 4285032300
-0.2523933649 -0.1107538491 0.5587129593 4285163886
-0.2524379492 -0.1101525351 0.5588116646 4285295472
-0.2528876066 -0.1097267494 0.5598070025 4285163886
-0.2529318035 -0.1091238409 0.5599048734 4285032300
-0.2521649599 -0.1081727892 0.5582073927 4284900714
-0.2518031001 -0.1073982418 0.5574063063 4284966507
-0.2510353327 -0.1064533368 0.5557067394 4285098093
-0.2506726384 -0.1056830063 0.5549038649 4285361265
-0.2503096163 -0.1049143076 0.5541002750 4285624437
-0.2503519654 -0.1043163091 0.5541940331 4285756023
-0.2495824546 -0.1033818126 0.5524905324 4286150781
-0.2496242076 -0.1027851477 0.5525829792 4286874504
-0.2496657521 -0.1021881923 0.5526749492 4287598227
-0.2497070581 -0.1015909314 0.5527663827 4287598227
-0.2497481257 -0.1009933800 0.5528573394 4287071883
-0.2497889847 -0.1003955379 0.5529477596 4287137676
-0.2498296052 -0.0997973979 0.5530376434 4287071883
-0.2502762973 -0.0993602648 0.5540264845 4286611332
-0.2503165007 -0.0987605751 0.5541155338 4286479746
-0.2503564954 -0.0981605947 0.5542040467 4286545539
-0.2503962815 -0.0975603238 0.5542920828 4286479746
-0.2504357994 -0.0969597772 0.5543795824 4286348160
-0.2500684857 -0.0962025151 0.5535664558 4286413953
-0.2501074970 -0.0956023708 0.5536528230 4286545539
-0.2501462698 -0.0950019434 0.5537386537 4286611332
-0.2501848042 -0.0944012478 0.5538239479 4286677125
-0.2502231002 -0.0938002691 0.5539087653 4287071883
-0.2502611876 -0.0931990147 0.5539930463 4287269262
-0.2502990365 -0.0925974846 0.5540767908 4287203469
-0.2499295771 -0.0918461010 0.5532589555 4287072396
-0.2503740191 -0.0913936198 0.5542427897 4287138189
-0.2504111528 -0.0907912850 0.5543249846 4287335055
-0.2508552670 -0.0903353244 0.5553081632 4287400848
-0.2512992918 -0.0898771435 0.5562911034 4287532945
-0.2521505654 -0.0895614177 0.5581754446 4287532945
-0.2530018091 -0.0892415121 0.5600598454 4287532945
-0.2534455955 -0.0887746885 0.5610422492 4287796117
-0.2538892627 -0.0883056372 0.5620243549 4287401359
-0.2543327808 -0.0878343657 0.5630061626 4287335566
-0.2543685436 -0.0872210935 0.5630853772 4287204234
-0.2548117936 -0.0867463499 0.5640665293 4287467406
-0.2556626499 -0.0864071995 0.5659500360 4288783266
-0.2556978464 -0.0857902020 0.5660279393 4291480779
-0.2489744872 -0.1758208871 0.5525031686 4290297280
-0.2490418851 -0.1752544492 0.5526527166 4284112481
-0.2491091043 -0.1746875495 0.5528018475 4283783516
-0.2491761446 -0.1741201878 0.5529506207 4283848539
-0.2492430061 -0.1735523790 0.5530989766 4283914332
-0.2493096739 -0.1729841083 0.5532469749 4283782487
-0.2485857457 -0.1718688905 0.5516404510 4283782487
-0.2478612214 -0.1707568318 0.5500326753 4283914073
-0.2479269207 -0.1701908112 0.5501784682 4283848280
-0.2464103401 -0.1685422063 0.5468130112 4283585108
-0.2409364879 -0.1642040908 0.5346658826 4283716694
-0.2354595512 -0.1598908752 0.5225118995 4283650901
-0.2323545218 -0.1572094858 0.5156215429 4283453522
-0.2308314294 -0.1556098312 0.5122416019 4283914073
-0.2300994098 -0.1545490175 0.5106171370 4285361519
-0.2293667942 -0.1534914374 0.5089914203 4285558898
-0.2294261009 -0.1529654413 0.5091230273 4285624691
-0.2294852287 -0.1524390578 0.5092542171 4286677379
-0.2291477323 -0.1516498774 0.5085052848 4287203723
-0.2292064130 -0.1511235833 0.5086355209 4288256411
-0.2296615839 -0.1508574337 0.5096455812 4289572271
-0.2297200114 -0.1503294259 0.5097752213 4290821825
-0.2301751226 -0.1500597298 0.5107851624 4291808720
-0.2302333117 -0.1495299935 0.5109142661 4292532443
-0.2302913070 -0.1489998698 0.5110430121 4292861408
-0.2307462990 -0.1487253159 0.5120526552 4292664289
-0.2312012911 -0.1484485269 0.5130623579 4291151050
-0.2316563129 -0.1481695175 0.5140721202 4289703604
-0.2317139059 -0.1476350427 0.5141999125 4288124572
-0.2317713201 -0.1471001655 0.5143273473 4286874504
-0.2322262079 -0.1468162984 0.5153367519 4286019195
-0.2322833538 -0.1462797076 0.5154635906 4285361265
-0.2323403209 -0.1457427293 0.5155900121 4285295472
-0.2327950448 -0.1454539895 0.5165990591 4285361776
-0.2332497835 -0.1451630145 0.5176081657 4285427569
-0.2333063930 -0.1446230114 0.5177338123 4285624948
-0.2337610573 -0.1443284899 0.5187427402 4285888120
-0.2334190756 -0.1435418278 0.5179838538 4285822327
-0.2342719734 -0.1434886903 0.5198765397 4285559155
-0.2343280464 -0.1429452747 0.5200009942 4285361776
-0.2347825319 -0.1426436454 0.5210095644 4285295983
-0.2348383218 -0.1420985311 0.5211333632 4284966759
-0.2352927327 -0.1417933553 0.5221416950 4284637794
-0.2353482395 -0.1412465274 0.5222648978 4284374624
-0.2358025461 -0.1409377903 0.5232730508 4284177245
-0.2358577698 -0.1403892636 0.5233955979 4283321936
-0.2359127998 -0.1398403645 0.5235177279 4284506210
-0.2355683744 -0.1390553862 0.5227534175 4289374892
-0.2356229424 -0.1385066360 0.5228744745 4289967029
-0.2352778614 -0.1377236843 0.5221087337 4288387997
-0.2357314825 -0.1374080032 0.5231153965 4287598481
-0.2353858352 -0.1366261691 0.5223483443 4286940297
-0.2350398153 -0.1358458102 0.5215804577 4287137676
-0.2342935950 -0.1348368376 0.5199245214 4287269262
-0.2331469208 -0.1336020827 0.5173799396 4286874504
-0.2319995165 -0.1323725581 0.5148336887 4286677125
-0.2316515446 -0.1316028535 0.5140615106 4286545539
-0.2313032150 -0.1308346689 0.5132885575 4286545539
-0.2309545130 -0.1300679743 0.5125147104 4286348160
-0.2306054384 -0.1293028146 0.5117400885 4286216574
-0.2298555523 -0.1283156127 0.5100759864 4286150781
-0.2299061865 -0.1277770251 0.5101884007 4286084988
-0.2299566269 -0.1272380799 0.5103003383 4286019195
-0.2300068885 -0.1266987771 0.5104118586 4285953402
-0.2300569564 -0.1261591315 0.5105229616 4285953402
-0.2301068306 -0.1256191283 0.5106335878 4285821816
-0.2301564962 -0.1250787824 0.5107438564 4285953402
-0.2302059829 -0.1245380789 0.5108536482 4285953402
-0.2306564301 -0.1242130473 0.5118532181 4285887609
-0.2307056040 -0.1236707121 0.5119623542 4285887609
-0.2307545990 -0.1231280267 0.5120710731 4285887609
-0.2312047929 -0.1227981821 0.5130701065 4285887609
-0.2312534750 -0.1222538650 0.5131781697 4285953402
-0.2313019633 -0.1217091978 0.5132857561 4286150781
-0.2313502580 -0.1211641952 0.5133929253 4286150781
-0.2313983440 -0.1206188500 0.5134996772 4286019195
-0.2314462513 -0.1200731620 0.5136059523 4286019195
-0.2314939499 -0.1195271388 0.5137118101 4286150781
-0.2315414548 -0.1189807802 0.5138171911 4285953402
-0.2315887511 -0.1184340790 0.5139222145 4285492851
-0.2320380062 -0.1180917174 0.5149191022 4285098093
-0.2312805355 -0.1171359718 0.5132382512 4285229680
-0.2325340956 -0.1171975210 0.5160200000 4285229680
-0.2325807661 -0.1166475937 0.5161235332 4285229680
-0.2326272279 -0.1160973310 0.5162266493 4285361266
-0.2334785908 -0.1159465611 0.5181159377 4285163887
-0.2347327024 -0.1159906015 0.5208989978 4284769129
-0.2331681252 -0.1146425828 0.5174270272 4284900715
-0.2372417450 -0.1160605252 0.5264668465 4285229680
-0.2364823371 -0.1151059493 0.5247815847 4285295473
-0.2341106236 -0.1133743152 0.5195184946 4285229680
-0.2357680053 -0.1135956347 0.5231963992 4285229680
-0.2410536855 -0.1155479997 0.5349259377 4285295473
-0.2406966984 -0.1147834137 0.5341337323 4285361266
-0.2371133119 -0.1124899462 0.5261818171 4285361266
-0.2395782918 -0.1130686626 0.5316518545 4285361779
-0.2440610081 -0.1145825163 0.5415995717 4285427572
-0.2457208037 -0.1147559211 0.5452828407 4285559157
-0.2449596375 -0.1137964725 0.5435937047 4285427571
-0.2462161183 -0.1137731001 0.5463820100 4285427571
-0.2470691353 -0.1135580912 0.5482749343 4285230192
-0.2471146584 -0.1129697338 0.5483759642 4285164399
-0.2439291030 -0.1109120101 0.5413068533 4285098606
-0.2480129004 -0.1121573672 0.5503692627 4284835434
-0.2480579168 -0.1115661114 0.5504691601 4284835434
-0.2481026947 -0.1109745353 0.5505685210 4285229679
-0.2481472641 -0.1103826389 0.5506674051 4285163886
-0.2477873862 -0.1096116081 0.5498688221 4284834921
-0.2478314340 -0.1090200469 0.5499665737 4284703335
-0.2482796162 -0.1086050421 0.5509611368 4284505956
-0.2479188591 -0.1078359634 0.5501605868 4284440163
-0.2475577295 -0.1070685089 0.5493592024 4285163886
-0.2467916608 -0.1061287001 0.5476591587 4285690230
-0.2464297265 -0.1053654626 0.5468560457 4286545539
-0.2456627190 -0.1044318080 0.5451539159 4287006090
-0.2461095750 -0.1040149555 0.5461455584 4287401102
-0.2457466274 -0.1032556519 0.5453401208 4287532688
-0.2457882464 -0.1026671231 0.5454325080 4287598481
-0.2458296418 -0.1020782962 0.5455243587 4287795860
-0.2462758571 -0.1016563699 0.5465145707 4287730067
-0.2446963638 -0.1004010737 0.5430095196 4287532688
-0.2463576645 -0.1004752964 0.5466960669 4286940297
-0.2468034774 -0.1000486091 0.5476854444 4286479746
-0.2468438745 -0.0994563624 0.5477750897 4286479746
-0.2472894490 -0.0990261734 0.5487638116 4286479746
-0.2473294586 -0.0984323844 0.5488526225 4286216574
-0.2473692447 -0.0978383049 0.5489408970 4286216574
-0.2478143871 -0.0974033549 0.5499287248 4286413953
-0.2482594252 -0.0969661698 0.5509163141 4286545539
-0.2482986599 -0.0963692889 0.5510033965 4286611332
-0.2483376563 -0.0957721248 0.5510899425 4286611332
-0.2483764142 -0.0951746777 0.5511759520 4286545539
-0.2484149635 -0.0945769548 0.5512614846 4286479746
-0.2484532595 -0.0939789489 0.5513464808 4286677125
-0.2488973737 -0.0935332552 0.5523319840 4287071883
-0.2489352673 -0.0929337218 0.5524160862 4287400848
-0.2489729375 -0.0923339203 0.5524997115 4287532434
-0.2490103841 -0.0917338505 0.5525828004 4287203982
-0.2490475923 -0.0911335051 0.5526653528 4287467154
-0.2494909018 -0.0906805769 0.5536491275 4287664533
-0.2499340922 -0.0902254283 0.5546326041 4287664533
-0.2503771782 -0.0897680521 0.5556158423 4287861910
-0.2516331673 -0.0895979330 0.5584030151 4287861910
-0.2520761192 -0.0891341418 0.5593860149 4287598738
-0.2529256046 -0.0888109058 0.5612711310 4287664531
-0.2533683777 -0.0883416757 0.5622537136 4287138957
-0.2538110316 -0.0878702179 0.5632359982 4287928473
-0.2542535663 -0.0873965397 0.5642180443 4289112745
-0.2546959817 -0.0869206339 0.5651997328 4290625984
-0.2480623275 -0.1756095588 0.5518390536 4290165695
-0.2481295317 -0.1750438362 0.5519886017 4284046688
-0.2481965572 -0.1744776517 0.5521376729 4283783516
-0.2482634038 -0.1739110202 0.5522863865 4283716953
-0.2479358912 -0.1730687767 0.5515577793 4283651160
-0.2480022609 -0.1725021154 0.5517054200 4283519061
-0.2464909106 -0.1708416194 0.5483433008 4283519061
-0.2434005737 -0.1680981219 0.5414685607 4283584854
-0.2442543358 -0.1680840254 0.5433678031 4283650647
-0.2387931496 -0.1637356728 0.5312188268 4283322195
-0.2345132679 -0.1602213979 0.5216978192 4283322195
-0.2318105549 -0.1578019261 0.5156853795 4283322195
-0.2306862622 -0.1564663947 0.5131843090 4283190609
-0.2295611799 -0.1551358849 0.5106814504 4283519061
-0.2292257398 -0.1543426216 0.5099352002 4284176991
-0.2292852402 -0.1538159549 0.5100675821 4284111198
-0.2289491445 -0.1530245990 0.5093199015 4284045405
-0.2290081978 -0.1524980366 0.5094512701 4284045405
-0.2290670723 -0.1519710571 0.5095822811 4284505956
-0.2291257828 -0.1514436752 0.5097128749 4285229679
-0.2291843146 -0.1509158909 0.5098430514 4285887609
-0.2296385914 -0.1506474465 0.5108536482 4286413953
-0.2296968848 -0.1501179338 0.5109832883 4287137676
-0.2301511168 -0.1498459429 0.5119938254 4288650915
-0.2302091420 -0.1493147165 0.5121229291 4290098361
-0.2306633294 -0.1490391791 0.5131332874 4291545295
-0.2303246707 -0.1482510716 0.5123798847 4292137432
-0.2311752290 -0.1482271403 0.5142720342 4291940308
-0.2312327474 -0.1476924866 0.5144000053 4290953413
-0.2312900722 -0.1471574306 0.5145275593 4289835189
-0.2313472331 -0.1466219872 0.5146546960 4288585122
-0.2314042151 -0.1460861266 0.5147814155 4287335055
-0.2314610034 -0.1455498934 0.5149077773 4286348160
-0.2315176278 -0.1450132430 0.5150337219 4285756277
-0.2315740585 -0.1444762200 0.5151592493 4284966761
-0.2316303104 -0.1439387947 0.5152844191 4284637796
-0.2316863686 -0.1434009820 0.5154091120 4284637796
-0.2317422628 -0.1428627819 0.5155334473 4284243549
-0.2321955562 -0.1425683051 0.5165418983 4284046170
-0.2318534851 -0.1417852044 0.5157808661 4284243549
-0.2323065996 -0.1414881051 0.5167888999 4284375135
-0.2323618382 -0.1409474313 0.5169118047 4284374622
-0.2324168980 -0.1404063702 0.5170342922 4284111450
-0.2324717790 -0.1398649216 0.5171563625 4283914071
-0.2325264663 -0.1393230855 0.5172780156 4283914071
-0.2325809598 -0.1387808770 0.5173992515 4283321934
-0.2326352745 -0.1382382810 0.5175200701 4282927176
-0.2326893955 -0.1376952976 0.5176404715 4286940551
-0.2327433378 -0.1371519566 0.5177604556 4289243306
-0.2327970862 -0.1366082281 0.5178800225 4288453790
-0.2328506410 -0.1360641122 0.5179991722 4287795860
-0.2333028167 -0.1357516944 0.5190050602 4287203723
-0.2329571843 -0.1349747777 0.5182362199 4287335309
-0.2322122008 -0.1339691877 0.5165789127 4287466895
-0.2318657339 -0.1331962049 0.5158081651 4287269516
-0.2307205647 -0.1319680810 0.5132606030 4287335055
-0.2303731889 -0.1311999708 0.5124878287 4287400848
-0.2296260744 -0.1302069277 0.5108258128 4287598227
-0.2296773195 -0.1296682954 0.5109397769 4287532434
-0.2301278859 -0.1293538660 0.5119421482 4287598227
-0.2297791988 -0.1285899282 0.5111664534 4287664020
-0.2294301689 -0.1278275102 0.5103899837 4287861399
-0.2294805497 -0.1272883862 0.5105020404 4287795606
-0.2291308492 -0.1265280694 0.5097241402 4287664020
-0.2291807681 -0.1259891689 0.5098351836 4287598227
-0.2296305448 -0.1256688535 0.5108357668 4287861399
-0.2296801507 -0.1251283139 0.5109460950 4287861399
-0.2297295779 -0.1245874166 0.5110560656 4287927192
-0.2301791161 -0.1242622808 0.5120561123 4287927192
-0.2302282453 -0.1237197518 0.5121653676 4287927192
-0.2302771658 -0.1231768653 0.5122742057 4287992985
-0.2303259075 -0.1226336434 0.5123826265 4287861399
-0.2303744406 -0.1220900714 0.5124906301 4287664020
-0.2304227799 -0.1215461567 0.5125981569 4287072137
-0.2304709256 -0.1210018992 0.5127052665 4286743172
-0.2305188775 -0.1204573065 0.5128119588 4286348414
-0.2305666357 -0.1199123710 0.5129181743 4286216828
-0.2306141853 -0.1193671003 0.5130239725 4286150781
-0.2306615561 -0.1188214868 0.5131292939 4286019195
-0.2307087183 -0.1182755455 0.5132342577 4285690230
-0.2311569899 -0.1179340109 0.5142315030 4285295472
-0.2316052318 -0.1175902411 0.5152286291 4285163886
-0.2316519618 -0.1170413941 0.5153325796 4285361265
-0.2312969267 -0.1162903234 0.5145428181 4285361266
-0.2325480878 -0.1163445935 0.5173261166 4285361266
-0.2333978117 -0.1161928251 0.5192164183 4285492852
-0.2330422699 -0.1154398099 0.5184254646 4285756024
-0.2322844714 -0.1144903004 0.5167396665 4285756024
-0.2339379042 -0.1147270277 0.5204178691 4285295473
-0.2343856394 -0.1143672839 0.5214139223 4285492852
-0.2336270064 -0.1134196594 0.5197262764 4285427059
-0.2368897498 -0.1144181192 0.5269845724 4285361265
-0.2341195196 -0.1125014201 0.5208219290 4285295472
-0.2345667630 -0.1121365577 0.5218168497 4285295472
-0.2374284714 -0.1129177734 0.5281830430 4285229679
-0.2382785678 -0.1127331108 0.5300741196 4285295472
-0.2395313233 -0.1127337664 0.5328609943 4285361265
-0.2403816730 -0.1125398278 0.5347526670 4285295472
-0.2380103171 -0.1108413413 0.5294773579 4285229679
-0.2416798472 -0.1119528785 0.5376405716 4285230192
-0.2425303757 -0.1117474139 0.5395327210 4285098606
-0.2425750941 -0.1111684516 0.5396322012 4284901227
-0.2430226356 -0.1107728705 0.5406277776 4284967020
-0.2438731790 -0.1105577871 0.5425199270 4285032813
-0.2439174801 -0.1099749729 0.5426184535 4285295985
-0.2439615577 -0.1093918532 0.5427165031 4285624437
-0.2440054119 -0.1088084131 0.5428140759 4285690230
-0.2436456531 -0.1080457717 0.5420137644 4285624437
-0.2436890006 -0.1074626744 0.5421102047 4285887609
-0.2437321246 -0.1068792567 0.5422061086 4286084988
-0.2437750399 -0.1062955409 0.5423015952 4286413953
-0.2430103868 -0.1053614691 0.5406005383 4287466895
-0.2434564531 -0.1049531251 0.5415928364 4288190618
-0.2426909953 -0.1040232852 0.5398899913 4288387997
-0.2431367040 -0.1036133617 0.5408815145 4288190618
-0.2415625602 -0.1023454741 0.5373796821 4287861653
-0.2428157926 -0.1022762805 0.5401676297 4287532688
-0.2428569347 -0.1016933471 0.5402591825 4287532688
-0.2428978682 -0.1011101156 0.5403501987 4287598481
-0.2433428019 -0.1006938592 0.5413400531 4287269516
-0.2437876612 -0.1002753675 0.5423296094 4286743172
-0.2446367741 -0.1000199616 0.5442185998 4286479746
-0.2446770817 -0.0994316787 0.5443082452 4286282367
-0.2451216578 -0.0990064815 0.5452972651 4286413953
-0.2455661446 -0.0985790491 0.5462860465 4286545539
-0.2456059009 -0.0979879498 0.5463744998 4286479746
-0.2460501343 -0.0975570232 0.5473627448 4286479746
-0.2464942634 -0.0971238613 0.5483507514 4286545539
-0.2469382882 -0.0966884643 0.5493385196 4286677125
-0.2469773442 -0.0960932970 0.5494254231 4286677125
-0.2470161617 -0.0954978615 0.5495117903 4286611332
-0.2470547557 -0.0949021354 0.5495976210 4286479746
-0.2470931113 -0.0943061337 0.5496829748 4286413953
-0.2467261106 -0.0935562328 0.5488665104 4286611332
-0.2475743443 -0.0932659507 0.5507534742 4286874504
-0.2480173260 -0.0928198099 0.5517389774 4287269262
-0.2480548918 -0.0922207534 0.5518225431 4287598227
-0.2480922192 -0.0916214213 0.5519055724 4287269775
-0.2485347688 -0.0911705568 0.5528900623 4287532947
-0.2489771843 -0.0907174572 0.5538742542 4287796119
-0.2494195104 -0.0902621299 0.5548582077 4287598740
-0.2502673268 -0.0899503678 0.5567442775 4287467154
-0.2507094741 -0.0894896016 0.5577278733 4287598740
-0.2515572309 -0.0891704336 0.5596138239 4288059289
-0.2519991696 -0.0887042359 0.5605970025 4288914598
-0.2524410188 -0.0882358104 0.5615798831 4289507505
-0.2528827190 -0.0877651498 0.5625625253 4291020744
-0.2467582971 -0.1751190871 0.5502977967 4290099902
-0.2468252033 -0.1745549738 0.5504469872 4284112481
-0.2468919158 -0.1739904135 0.5505957603 4283783516
-0.2469584644 -0.1734253913 0.5507441759 4283651160
-0.2470248193 -0.1728599072 0.5508921742 4283585367
-0.2466975451 -0.1720196307 0.5501623154 4283650647
-0.2459763139 -0.1709072441 0.5485538840 4283650647
-0.2452544868 -0.1697980016 0.5469441414 4283650647
-0.2370503992 -0.1635306776 0.5286481380 4283716440
-0.2335682511 -0.1605497599 0.5208825469 4283387988
-0.2312660068 -0.1583942026 0.5157483220 4283256402
-0.2297505140 -0.1567869633 0.5123685598 4283256402
-0.2290223837 -0.1557226032 0.5107447505 4283387988
-0.2298708260 -0.1557299197 0.5126368999 4283453781
-0.2287475616 -0.1544021517 0.5101318955 4283585367
-0.2288069725 -0.1538753211 0.5102643967 4283651160
-0.2288662195 -0.1533480734 0.5103965402 4283519574
-0.2285306007 -0.1525569409 0.5096480846 4283190609
-0.2285894006 -0.1520297974 0.5097792149 4283387988
-0.2286480367 -0.1515022367 0.5099099278 4283716440
-0.2287064940 -0.1509742737 0.5100402832 4283913819
-0.2291598767 -0.1507057548 0.5110514164 4284045405
-0.2296132892 -0.1504350007 0.5120625496 4284308577
-0.2296714187 -0.1499039978 0.5121921897 4284769128
-0.2297293693 -0.1493726075 0.5123214126 4285229679
-0.2297871411 -0.1488407999 0.5124502778 4287071626
-0.2302403450 -0.1485638618 0.5134609938 4288387486
-0.2306935638 -0.1482846886 0.5144717097 4288584865
-0.2307510078 -0.1477498561 0.5145998001 4288650658
-0.2308082730 -0.1472146213 0.5147274733 4289308845
-0.2308653593 -0.1466789842 0.5148547888 4289835189
-0.2309222519 -0.1461429596 0.5149816871 4289769650
-0.2309789807 -0.1456065327 0.5151081681 4288980134
-0.2310355157 -0.1450697184 0.5152342916 4288059032
-0.2310918719 -0.1445325017 0.5153599977 4287006344
-0.2307515740 -0.1437479109 0.5146010518 4286480000
-0.2308074683 -0.1432108283 0.5147257447 4286282621
-0.2308631837 -0.1426733732 0.5148499608 4285558896
-0.2313154936 -0.1423797309 0.5158586502 4284900966
-0.2309740782 -0.1415972710 0.5150972605 4284637794
-0.2310292423 -0.1410586536 0.5152202845 4284308829
-0.2314812839 -0.1407610774 0.5162283778 4284308829
-0.2315361649 -0.1402207613 0.5163508058 4283848278
-0.2311936319 -0.1394404620 0.5155869126 4283979864
-0.2312480658 -0.1389002949 0.5157082677 4283650899
-0.2313023061 -0.1383597553 0.5158292651 4283124555
-0.2313563675 -0.1378188431 0.5159497857 4282335039
-0.2314102352 -0.1372775286 0.5160699487 4284308831
-0.2314639091 -0.1367358565 0.5161896348 4287401102
-0.2315174043 -0.1361937970 0.5163089633 4288190618
-0.2315707207 -0.1356513649 0.5164278150 4288124825
-0.2316238284 -0.1351085752 0.5165463090 4288256411
-0.2316767573 -0.1345653981 0.5166643262 4288651169
-0.2309331894 -0.1335612833 0.5150060654 4288848548
-0.2305873036 -0.1327898949 0.5142347217 4288848548
-0.2302410454 -0.1320199966 0.5134625435 4288914341
-0.2298944294 -0.1312516183 0.5126895308 4289045927
-0.2295474410 -0.1304847449 0.5119157434 4288980393
-0.2295987010 -0.1299449652 0.5120300055 4289177772
-0.2292510718 -0.1291801780 0.5112547874 4289309358
-0.2289030701 -0.1284169108 0.5104786754 4289440944
-0.2289535701 -0.1278779358 0.5105913281 4289572530
-0.2290038913 -0.1273386180 0.5107035041 4289572530
-0.2286549658 -0.1265780330 0.5099253654 4289572017
-0.2287048101 -0.1260389388 0.5100365877 4289572017
-0.2291536927 -0.1257185191 0.5110375881 4289308845
-0.2292032391 -0.1251777858 0.5111480951 4289177259
-0.2292526066 -0.1246366948 0.5112581849 4289243052
-0.2293017656 -0.1240952611 0.5113678575 4289374638
-0.2297503054 -0.1237687245 0.5123681426 4289374638
-0.2297991663 -0.1232256517 0.5124770999 4289308845
-0.2298478484 -0.1226822287 0.5125856400 4289111466
-0.2298963219 -0.1221384630 0.5126937628 4288782501
-0.2299446017 -0.1215943545 0.5128014088 4288387997
-0.2299926877 -0.1210499033 0.5129086375 4287927446
-0.2300405800 -0.1205051094 0.5130154490 4287532688
-0.2300882638 -0.1199599802 0.5131217837 4287203723
-0.2301357687 -0.1194145083 0.5132277608 4286874504
-0.2301830649 -0.1188687012 0.5133332014 4286611332
-0.2302301675 -0.1183225587 0.5134382844 4286479746
-0.2302770615 -0.1177760810 0.5135428309 4286282367
-0.2307243347 -0.1174331456 0.5145403147 4286282367
-0.2307709306 -0.1168850511 0.5146442056 4286084988
-0.2312180400 -0.1165385991 0.5156413317 4285888122
-0.2316651046 -0.1161899120 0.5166383386 4285953915
-0.2309094965 -0.1152387857 0.5149532557 4286019708
-0.2313562483 -0.1148884892 0.5159495473 4286085501
-0.2326050401 -0.1149322763 0.5187345147 4286085501
-0.2322496176 -0.1141811907 0.5179418325 4285756536
-0.2314926386 -0.1132354364 0.5162537098 4285624437
-0.2331428081 -0.1134649441 0.5199337602 4285887609
-0.2347934097 -0.1136864722 0.5236147642 4286216574
-0.2340358198 -0.1127397493 0.5219252706 4286348160
-0.2336792201 -0.1119889617 0.5211300254 4286150781
-0.2353301942 -0.1121970713 0.5248118639 4286019195
-0.2365799248 -0.1122066975 0.5275989175 4285953402
-0.2350177169 -0.1108834371 0.5241150260 4285887609
-0.2378746569 -0.1116419584 0.5304862857 4286348414
-0.2395267785 -0.1118238494 0.5341706872 4285953656
-0.2391694635 -0.1110644117 0.5333738327 4285953656
-0.2380076945 -0.1099351868 0.5307829976 4286216828
-0.2400621921 -0.1102893203 0.5353647470 4286545793
-0.2401062697 -0.1097146347 0.5354630351 4286874758
-0.2405523956 -0.1093224436 0.5364579558 4287137930
-0.2409984618 -0.1089280173 0.5374526978 4287269516
-0.2410420477 -0.1083504558 0.5375499129 4287598481
-0.2410854101 -0.1077725887 0.5376466513 4287269516
-0.2411285490 -0.1071944088 0.5377428532 4286940551
-0.2411714941 -0.1066159159 0.5378385782 4287137930
-0.2408115119 -0.1058600917 0.5370358229 4287466895
-0.2408539355 -0.1052819490 0.5371304154 4287664274
-0.2408961505 -0.1047035083 0.5372245312 4287993239
-0.2409381419 -0.1041247621 0.5373182297 4288190618
-0.2409799099 -0.1035457104 0.5374113321 4287993239
-0.2410214692 -0.1029663607 0.5375040174 4287532688
-0.2398534566 -0.1018730626 0.5348992348 4287269516
-0.2407007366 -0.1016365215 0.5367887616 4287401102
-0.2411448061 -0.1012265235 0.5377790928 4287598481
-0.2411854863 -0.1006459892 0.5378698111 4287466895
-0.2416293323 -0.1002324894 0.5388596654 4287006344
-0.2420730889 -0.0998167545 0.5398492813 4286677379
-0.2429202795 -0.0995641798 0.5417386293 4286677125
-0.2433639318 -0.0991430059 0.5427280068 4286545539
-0.2434038371 -0.0985561535 0.5428169966 4286611332
-0.2438472360 -0.0981314778 0.5438057780 4286611332
-0.2442905307 -0.0977045745 0.5447944403 4286545539
-0.2443298995 -0.0971149132 0.5448821783 4286413953
-0.2447729409 -0.0966845080 0.5458702445 4286282367
-0.2452158928 -0.0962518752 0.5468580723 4286413953
-0.2456587404 -0.0958170071 0.5478456616 4286611332
-0.2456973940 -0.0952232927 0.5479318500 4286742918
-0.2457358092 -0.0946292952 0.5480175018 4286808711
-0.2457740009 -0.0940350145 0.5481026769 4286874504
-0.2466205508 -0.0937478319 0.5499905944 4286940297
-0.2470627576 -0.0933037624 0.5509767532 4287006090
-0.2475048602 -0.0928574502 0.5519627333 4287335055
-0.2475423813 -0.0922581628 0.5520463586 4287795606
-0.2479842007 -0.0918083712 0.5530316830 4287467154
-0.2488305271 -0.0915051401 0.5549190640 4287401361
-0.2492721826 -0.0910499096 0.5559040308 4287336338
-0.2493090034 -0.0904456154 0.5559861660 4287599510
-0.2497503906 -0.0899869055 0.5569704771 4288125854
-0.2501916289 -0.0895259678 0.5579544902 4288981163
-0.2506327927 -0.0890628025 0.5589383245 4290494400
-0.2454569489 -0.1746280938 0.5487548709 4290099901
-0.2455235571 -0.1740656048 0.5489037633 4284178274
-0.2455899715 -0.1735026538 0.5490522385 4283783516
-0.2456562221 -0.1729392558 0.5492003560 4283651160
-0.2453297526 -0.1721000373 0.5484704971 4283585367
-0.2457881719 -0.1718110889 0.5494953394 4283716440
-0.2450683862 -0.1706992090 0.5478861928 4283584854
-0.2439551800 -0.1693178266 0.5453974009 4283453268
-0.2412693650 -0.1668544263 0.5393928885 4283387475
-0.2358305603 -0.1625073254 0.5272336602 4283387729
-0.2327475846 -0.1598047614 0.5203412175 4283190350
-0.2304493040 -0.1576543450 0.5152031183 4283256143
-0.2285429835 -0.1557824910 0.5109412074 4283321936
-0.2289962322 -0.1555226296 0.5119545460 4283321936
-0.2282688171 -0.1544615924 0.5103282928 4283321936
-0.2283281684 -0.1539345980 0.5104609728 4283519315
-0.2279935628 -0.1531426758 0.5097129345 4283453522
-0.2280524671 -0.1526157707 0.5098446012 4283058764
-0.2281111926 -0.1520884484 0.5099758506 4283058764
-0.2281697392 -0.1515607238 0.5101067424 4283124557
-0.2286222875 -0.1512934417 0.5111185312 4283058764
-0.2286805958 -0.1507639885 0.5112488866 4282927178
-0.2287387252 -0.1502341330 0.5113788247 4283058764
-0.2291911542 -0.1499619782 0.5123903155 4283387729
-0.2292490304 -0.1494304091 0.5125197172 4283519315
-0.2293067276 -0.1488984227 0.5126487017 4283848280
-0.2297590375 -0.1486214101 0.5136598945 4284177245
-0.2302113473 -0.1483421624 0.5146710873 4283716694
-0.2302687168 -0.1478071511 0.5147993565 4283519315
-0.2303259075 -0.1472717375 0.5149272084 4284374624
-0.2303829044 -0.1467359215 0.5150546432 4285493105
-0.2304397374 -0.1461997181 0.5151816607 4286085242
-0.2304963768 -0.1456631124 0.5153083205 4285822070
-0.2305528522 -0.1451261044 0.5154345632 4286282621
-0.2310046852 -0.1448367238 0.5164447427 4285953656
-0.2306652367 -0.1440509260 0.5156858563 4286019449
-0.2307211608 -0.1435127407 0.5158108473 4286085242
-0.2307769060 -0.1429741830 0.5159354806 4285690484
-0.2308324575 -0.1424352229 0.5160596967 4285295726
-0.2308878303 -0.1418958753 0.5161834955 4284966759
-0.2309430242 -0.1413561255 0.5163068771 4284506208
-0.2309980243 -0.1408160031 0.5164298415 4284243038
-0.2310528457 -0.1402755082 0.5165523887 4284045659
-0.2307110727 -0.1394949257 0.5157883167 4283914071
-0.2307654321 -0.1389545798 0.5159097910 4283585106
-0.2304230034 -0.1381760240 0.5151442885 4283124555
-0.2304769009 -0.1376358420 0.5152647495 4282664004
-0.2305306047 -0.1370952874 0.5153848529 4283453522
-0.2305841148 -0.1365543604 0.5155044794 4285493105
-0.2306374609 -0.1360130459 0.5156236887 4286348414
-0.2306905985 -0.1354713589 0.5157425404 4286611586
-0.2307435572 -0.1349292994 0.5158609152 4287006342
-0.2307963222 -0.1343868673 0.5159788728 4287401100
-0.2300542444 -0.1333833337 0.5143198967 4287927444
-0.2297090441 -0.1326125860 0.5135481358 4288256409
-0.2297609746 -0.1320718527 0.5136641860 4288519583
-0.2294151187 -0.1313031912 0.5128909945 4288848548
-0.2290688902 -0.1305360347 0.5121169686 4288914598
-0.2291200757 -0.1299960762 0.5122314095 4289243563
-0.2287732065 -0.1292310059 0.5114559531 4289375149
-0.2284764200 -0.1279283017 0.5107923746 4289440942
-0.2285266668 -0.1273887902 0.5109047294 4289440942
-0.2285767347 -0.1268489212 0.5110166669 4289506735
-0.2286265939 -0.1263086945 0.5111281276 4289638321
-0.2286762744 -0.1257681102 0.5112392306 4289572271
-0.2287257612 -0.1252271831 0.5113498569 4289572271
-0.2287750542 -0.1246859059 0.5114600658 4289769650
-0.2288241684 -0.1241442785 0.5115698576 4289967029
-0.2292718142 -0.1238176376 0.5125706196 4290032822
-0.2293206155 -0.1232743636 0.5126796961 4290098615
-0.2293692231 -0.1227307543 0.5127883554 4290032822
-0.2294176221 -0.1221867949 0.5128965974 4289901236
-0.2294658422 -0.1216424853 0.5130044222 4289572017
-0.2295138687 -0.1210978404 0.5131117702 4289243052
-0.2295617014 -0.1205528527 0.5132187009 4289111466
-0.2296093255 -0.1200075299 0.5133252144 4288914087
-0.2296567708 -0.1194618568 0.5134312510 4288453536
-0.2297040075 -0.1189158559 0.5135368705 4288058778
-0.2297510356 -0.1183695123 0.5136420131 4287861399
-0.2297978848 -0.1178228408 0.5137467384 4287729813
-0.2298445255 -0.1172758341 0.5138510466 4287467154
-0.2302907854 -0.1169314981 0.5148487091 4287598740
-0.2307370156 -0.1165849268 0.5158463120 4287664533
-0.2303832471 -0.1158339158 0.5150554180 4287730326
-0.2308292240 -0.1154847741 0.5160524249 4287664533
-0.2312751710 -0.1151334047 0.5170494318 4287730326
-0.2313208580 -0.1145815551 0.5171515346 4287664533
-0.2313663363 -0.1140293777 0.5172532201 4287269775
-0.2310112566 -0.1132805571 0.5164594054 4287072137
-0.2318571508 -0.1131194308 0.5183505416 4287269516
-0.2323026210 -0.1127597392 0.5193464756 4287532688
-0.2319468558 -0.1120108962 0.5185510516 4287466895
-0.2327927500 -0.1118411496 0.5204421878 4287137930
-0.2348410189 -0.1122418642 0.5250213742 4287006344
-0.2344848663 -0.1114891917 0.5242251754 4287072137
-0.2353310585 -0.1113069728 0.5261169672 4287072137
-0.2361773551 -0.1111205965 0.5280089974 4286808965
-0.2366226912 -0.1107423604 0.5290045738 4286808965
-0.2374690920 -0.1105486229 0.5308968425 4286874758
-0.2379143685 -0.1101649478 0.5318922997 4287203723
-0.2379583120 -0.1095942110 0.5319905281 4287137930
-0.2384033948 -0.1092070118 0.5329856277 4286940551
-0.2384469807 -0.1086346880 0.5330830812 4287137930
-0.2384903580 -0.1080620512 0.5331799984 4287401102
-0.2389350981 -0.1076700538 0.5341743231 4287532688
-0.2389781177 -0.1070958301 0.5342704654 4287401102
-0.2390209138 -0.1065212935 0.5343661904 4287269516
-0.2390635163 -0.1059464514 0.5344613791 4287203723
-0.2391058952 -0.1053713039 0.5345561504 4287269516
-0.2391480505 -0.1047958434 0.5346503854 4287335309
-0.2391899973 -0.1042200848 0.5347441435 4287466895
-0.2392317206 -0.1036440283 0.5348374248 4287795860
-0.2392732352 -0.1030676663 0.5349302292 4287598227
-0.2389123142 -0.1023187488 0.5341233611 4287335055
-0.2393555939 -0.1019140407 0.5351144075 4287203469
-0.2393964529 -0.1013367921 0.5352057219 4287466641
-0.2398395091 -0.1009285823 0.5361962318 4287664020
-0.2394775152 -0.1001813933 0.5353869796 4287400848
-0.2403228283 -0.0999380574 0.5372767448 4286940297
-0.2407655567 -0.0995241180 0.5382665396 4286677125
-0.2416108847 -0.0992733985 0.5401564240 4286742918
-0.2424562722 -0.0990184918 0.5420463681 4286611332
-0.2428988665 -0.0985959023 0.5430359244 4286677125
-0.2433413863 -0.0981710702 0.5440251827 4286677125
-0.2433808446 -0.0975824445 0.5441134572 4286611332
-0.2434200943 -0.0969935358 0.5442011952 4286545539
-0.2438621968 -0.0965639502 0.5451895595 4286413953
-0.2443041950 -0.0961321294 0.5461776853 4286479746
-0.2447460890 -0.0956980735 0.5471656322 4286545539
-0.2447846234 -0.0951051041 0.5472517610 4286808711
-0.2452262640 -0.0946675539 0.5482391119 4287071883
-0.2452643961 -0.0940730497 0.5483244061 4287203469
-0.2453023046 -0.0934782699 0.5484091640 4287335055
-0.2457435131 -0.0930359885 0.5493955016 4287466641
-0.2461846024 -0.0925914645 0.5503816605 4287664020
-0.2466256022 -0.0921447128 0.5513675213 4287861399
-0.2470664829 -0.0916957334 0.5523532033 4287665301
-0.2479110062 -0.0913933665 0.5542412400 4288125852
-0.2479479015 -0.0907910764 0.5543237329 4288652198
-0.2491962165 -0.0906291753 0.5571145415 4289770679
-0.2500407100 -0.0903152153 0.5590025187 4291415502
-0.2441583276 -0.1741365790 0.5472103357 4290099901
-0.2442246228 -0.1735757142 0.5473589301 4283915102
-0.2442907393 -0.1730143875 0.5475071073 4283520344
-0.2443566918 -0.1724525988 0.5476549268 4283453781
-0.2444224507 -0.1718903631 0.5478023291 4283453781
-0.2440962195 -0.1710531116 0.5470711589 4283519315
-0.2437696159 -0.1702172160 0.5463391542 4283519315
-0.2426585704 -0.1688371599 0.5438491106 4283453522
-0.2399782389 -0.1663746536 0.5378419161 4283453522
-0.2349429280 -0.1622986794 0.5265567303 4283321936
-0.2322587073 -0.1598660648 0.5205408335 4283190350
-0.2303577363 -0.1579839736 0.5162803531 4283124557
-0.2292406261 -0.1566469967 0.5137766600 4283124557
-0.2285153717 -0.1555823684 0.5121511817 4283058764
-0.2277895361 -0.1545209587 0.5105244517 4282992971
-0.2278487980 -0.1539937854 0.5106572509 4283256143
-0.2279078960 -0.1534661949 0.5107896924 4283124557
-0.2275737673 -0.1526745260 0.5100408792 4282861385
-0.2276324183 -0.1521470249 0.5101723075 4282598213
-0.2276908904 -0.1516191214 0.5103033185 4282861385
-0.2281425297 -0.1513517648 0.5113155842 4283190350
-0.2282007635 -0.1508221477 0.5114460588 4283058764
-0.2282588184 -0.1502921134 0.5115761757 4283058764
-0.2287103385 -0.1500198841 0.5125881433 4283190350
-0.2287681401 -0.1494881362 0.5127177238 4283124557
-0.2292196155 -0.1492123604 0.5137295127 4283190607
-0.2288832068 -0.1484234333 0.5129755735 4283190607
-0.2297285795 -0.1483995616 0.5148702264 4283059021
-0.2297858596 -0.1478643715 0.5149986148 4282730056
-0.2298429757 -0.1473287791 0.5151266456 4282664263
-0.2298998982 -0.1467927843 0.5152541995 4282927435
-0.2303510904 -0.1465072632 0.5162654519 4282927435
-0.2300132364 -0.1457196027 0.5155082345 4282861642
-0.2300696224 -0.1451824307 0.5156345963 4283322193
-0.2305205613 -0.1448929608 0.5166452527 4283453779
-0.2301818579 -0.1441068798 0.5158861279 4283716694
-0.2302377075 -0.1435685158 0.5160112977 4283782487
-0.2302933782 -0.1430297643 0.5161360502 4283782487
-0.2303488553 -0.1424906254 0.5162604451 4283979866
-0.2304041535 -0.1419510990 0.5163843632 4284045659
-0.2304592729 -0.1414111704 0.5165078640 4283914073
-0.2305142134 -0.1408708692 0.5166310072 4283519572
-0.2305689603 -0.1403301805 0.5167537332 4283848537
-0.2302279472 -0.1395493150 0.5159894228 4283125068
-0.2302822322 -0.1390087903 0.5161110759 4283190861
-0.2303363234 -0.1384678781 0.5162323117 4282796103
-0.2299943864 -0.1376895905 0.5154659748 4282927689
-0.2300480157 -0.1371488571 0.5155861974 4283848537
-0.2301014662 -0.1366077363 0.5157059431 4284440674
-0.2301547229 -0.1360662282 0.5158253312 4284440674
-0.2298115790 -0.1352910995 0.5150562525 4284506467
-0.2298643738 -0.1347497851 0.5151745677 4284440928
-0.2299169898 -0.1342080981 0.5152925253 4284111963
-0.2291764170 -0.1332051307 0.5136327147 4284177756
-0.2292284667 -0.1326645613 0.5137493610 4284243549
-0.2288836539 -0.1318950504 0.5129765868 4284111709
-0.2285384685 -0.1311270446 0.5122029781 4284374881
-0.2281929255 -0.1303605437 0.5114285350 4284901225
-0.2278470099 -0.1295955628 0.5106532574 4285361776
-0.2278977633 -0.1290569305 0.5107669830 4285493362
-0.2279483229 -0.1285179406 0.5108802915 4285361776
-0.2276014835 -0.1277556419 0.5101029873 4285361776
-0.2280488908 -0.1274388880 0.5111057162 4285427569
-0.2277015001 -0.1266777515 0.5103271008 4285493362
-0.2277512103 -0.1261382848 0.5104385614 4285624948
-0.2278007418 -0.1255984604 0.5105495453 4285822327
-0.2278500795 -0.1250582784 0.5106601119 4286019706
-0.2282969505 -0.1247350574 0.5116616488 4286414207
-0.2283459902 -0.1241932362 0.5117715597 4286611586
-0.2283948362 -0.1236510649 0.5118810534 4286611586
-0.2284434885 -0.1231085509 0.5119900703 4286677379
-0.2288900167 -0.1227792129 0.5129908323 4286808965
-0.2289383709 -0.1222350597 0.5130991936 4287006344
-0.2289865315 -0.1216905564 0.5132071376 4287137676
-0.2290344834 -0.1211457178 0.5133146644 4287137676
-0.2290822566 -0.1206005365 0.5134217143 4287269262
-0.2291298211 -0.1200550124 0.5135282874 4287466641
-0.2291771919 -0.1195091456 0.5136345029 4287400848
-0.2292243689 -0.1189629510 0.5137401819 4287071883
-0.2292713523 -0.1184164137 0.5138455033 4286940297
-0.2293181419 -0.1178695410 0.5139503479 4287006090
-0.2297636122 -0.1175263673 0.5149487853 4286743431
-0.2302090526 -0.1171809658 0.5159471035 4286940810
-0.2298563570 -0.1164290532 0.5151566267 4287072396
-0.2303015590 -0.1160810813 0.5161544085 4287072396
-0.2299482971 -0.1153304130 0.5153626800 4286875017
-0.2303932607 -0.1149798706 0.5163599253 4286743431
-0.2300394326 -0.1142304614 0.5155669451 4286611843
-0.2300847024 -0.1136799976 0.5156683922 4286348671
-0.2309288383 -0.1135220155 0.5175602436 4285493362
-0.2317730784 -0.1133598909 0.5194523931 4285690741
-0.2314183563 -0.1126101315 0.5186573863 4285953913
-0.2318628132 -0.1122490391 0.5196534991 4285953913
-0.2323072255 -0.1118857041 0.5206495523 4285887863
-0.2327515781 -0.1115201339 0.5216454268 4285953656
-0.2327958941 -0.1109616682 0.5217447281 4286151035
-0.2336401343 -0.1107822806 0.5236368775 4286151035
-0.2352847606 -0.1109761968 0.5273228288 4286743172
-0.2357291281 -0.1105987877 0.5283187628 4286677379
-0.2361734211 -0.1102191359 0.5293145180 4286611586
-0.2366176695 -0.1098372489 0.5303101540 4286808965
-0.2366614044 -0.1092682332 0.5304082036 4286808965
-0.2359039038 -0.1083310470 0.5287104249 4286611586
-0.2371488363 -0.1083122119 0.5315005779 4287072137
-0.2371920049 -0.1077412888 0.5315973759 4287598481
-0.2372349799 -0.1071700528 0.5316936374 4287466895
-0.2372777164 -0.1065985039 0.5317894816 4287335309
-0.2377211452 -0.1062057540 0.5327832699 4287269516
-0.2377635390 -0.1056326255 0.5328782797 4287335309
-0.2378057092 -0.1050591990 0.5329728127 4287729813
-0.2378476709 -0.1044854596 0.5330668688 4287795606
-0.2378894240 -0.1039114222 0.5331604481 4287466641
-0.2379309535 -0.1033370793 0.5332534909 4287664020
-0.2383735776 -0.1029357314 0.5342454910 4287269262
-0.2380133718 -0.1021874994 0.5334382057 4287466641
-0.2384556979 -0.1017836183 0.5344295502 4287466641
-0.2384964377 -0.1012071148 0.5345208645 4287466641
-0.2389385402 -0.1007997245 0.5355117321 4287664020
-0.2393805534 -0.1003901064 0.5365023613 4287532434
-0.2398224771 -0.0999782458 0.5374928117 4287071883
-0.2406661063 -0.0997306481 0.5393835306 4286808711
-0.2415097803 -0.0994788632 0.5412744284 4286808711
-0.2419515848 -0.0990583524 0.5422645807 4286611332
-0.2419913113 -0.0984720290 0.5423536301 4286611332
-0.2412267327 -0.0975602120 0.5406400561 4286611332
-0.2420701236 -0.0972985104 0.5425302386 4286611332
-0.2425113618 -0.0968719721 0.5435191393 4286677125
-0.2429524958 -0.0964432061 0.5445078611 4286611332
-0.2429912388 -0.0958535001 0.5445947051 4286611332
-0.2434321344 -0.0954212397 0.5455827713 4286677125
-0.2438729107 -0.0949867368 0.5465707183 4286940297
-0.2439111024 -0.0943942368 0.5466563106 4287006090
-0.2443516254 -0.0939562544 0.5476436019 4287071883
-0.2443894297 -0.0933622196 0.5477283001 4287269262
-0.2448296845 -0.0929207429 0.5487149954 4287532434
-0.2452698350 -0.0924770385 0.5497014523 4287532434
-0.2457098663 -0.0920310989 0.5506876707 4287400848
-0.2465526611 -0.0917328149 0.5525766015 4287533715
-0.2469925433 -0.0912814364 0.5535624623 4290099642
-0.2433189601 -0.1733635813 0.5466899872 4283980895
-0.2433848828 -0.1728029847 0.5468381047 4283388758
-0.2434506267 -0.1722419113 0.5469858646 4283585367
-0.2431253195 -0.1714048386 0.5462549329 4283716953
-0.2427996248 -0.1705691069 0.5455231667 4283519572
-0.2424735427 -0.1697347164 0.5447905064 4283387986
-0.2413646877 -0.1683559716 0.5422991514 4283387729
-0.2382985502 -0.1656224132 0.5354101658 4283453522
-0.2340563834 -0.1620897353 0.5258787870 4283584854
-0.2317692786 -0.1599272788 0.5207400918 4283453268
-0.2298723459 -0.1580445021 0.5164781213 4283387475
-0.2291493565 -0.1569753736 0.5148536563 4283321682
-0.2292093933 -0.1564443111 0.5149886012 4283321682
-0.2273096889 -0.1545802504 0.5107203126 4283321682
-0.2273688763 -0.1540528983 0.5108532906 4283321682
-0.2270357758 -0.1532604545 0.5101048946 4283387475
-0.2270945162 -0.1527331918 0.5102368593 4283453268
-0.2271530777 -0.1522055268 0.5103684664 4283255889
-0.2272114754 -0.1516774595 0.5104996562 4283255889
-0.2276622206 -0.1514100283 0.5115123987 4283321682
-0.2277203649 -0.1508802176 0.5116430521 4283321682
-0.2281710654 -0.1506092399 0.5126556754 4283321682
-0.2282289714 -0.1500777155 0.5127857327 4283255889
-0.2286796123 -0.1498031914 0.5137982368 4283255889
-0.2287372500 -0.1492699385 0.5139277577 4283059021
-0.2291878462 -0.1489918530 0.5149401426 4283190607
-0.2292452306 -0.1484568715 0.5150691271 4283124814
-0.2293024510 -0.1479215026 0.5151976347 4282598470
-0.2293594778 -0.1473857313 0.5153257847 4282927435
-0.2294163406 -0.1468495727 0.5154535174 4282927435
-0.2294730097 -0.1463129967 0.5155808926 4282795849
-0.2295295149 -0.1457760334 0.5157077909 4282730056
-0.2295858264 -0.1452386677 0.5158343315 4282992971
-0.2296419591 -0.1447009146 0.5159604549 4283190350
-0.2296979278 -0.1441627592 0.5160862207 4283190348
-0.2293596119 -0.1433778703 0.5153260827 4283058762
-0.2294151038 -0.1428398490 0.5154507756 4283124555
-0.2294704169 -0.1423014551 0.5155750513 4282992969
-0.2295255512 -0.1417626739 0.5156989098 4282861385
-0.2295804918 -0.1412234902 0.5158223510 4282861385
-0.2296352684 -0.1406839192 0.5159454346 4283190350
-0.2296898514 -0.1401439756 0.5160680413 4283058764
-0.2297442406 -0.1396036446 0.5161902905 4283058762
-0.2297984660 -0.1390629262 0.5163120627 4282861383
-0.2298524827 -0.1385218203 0.5164334774 4282598211
-0.2299063355 -0.1379803419 0.5165544748 4282861383
-0.2295648605 -0.1372023374 0.5157872438 4283782487
-0.2296182513 -0.1366610378 0.5159071684 4284111452
-0.2296714336 -0.1361193508 0.5160266757 4283848280
-0.2293290496 -0.1353439391 0.5152574182 4283979866
-0.2293817848 -0.1348024309 0.5153759122 4284045659
-0.2290387452 -0.1340290755 0.5146051645 4283979866
-0.2282996774 -0.1330266744 0.5129445791 4283914073
-0.2287473232 -0.1327164769 0.5139504075 4283848280
-0.2280074209 -0.1317180097 0.5122879744 4283914073
-0.2280588597 -0.1311783940 0.5124035478 4283914073
-0.2277140766 -0.1304116249 0.5116288662 4284439134
-0.2277650386 -0.1298722327 0.5117433667 4284636513
-0.2278158069 -0.1293324679 0.5118574500 4284439904
-0.2274701148 -0.1285683662 0.5110807419 4284374111
-0.2275204211 -0.1280288249 0.5111937523 4284439904
-0.2271740735 -0.1272668242 0.5104156137 4284439904
-0.2272239178 -0.1267275214 0.5105276108 4284374109
-0.2272735685 -0.1261878461 0.5106391311 4284505695
-0.2273230404 -0.1256478429 0.5107502937 4284439902
-0.2273723036 -0.1251074672 0.5108609796 4284374109
-0.2274213880 -0.1245667487 0.5109712481 4284177243
-0.2278672606 -0.1242421269 0.5119730830 4284111450
-0.2279160321 -0.1236997619 0.5120826364 4284045657
-0.2279646248 -0.1231570542 0.5121918321 4284111450
-0.2284102589 -0.1228276119 0.5131930709 4284439902
-0.2284585387 -0.1222832650 0.5133015513 4284439902
-0.2285066396 -0.1217385679 0.5134096146 4284834662
-0.2285545319 -0.1211935356 0.5135172606 4285097834
-0.2286022455 -0.1206481531 0.5136244297 4285098347
-0.2286497504 -0.1201024354 0.5137311816 4285098347
-0.2286970615 -0.1195563748 0.5138374567 4285164140
-0.2291419953 -0.1192169487 0.5148371458 4285164140
-0.2291889936 -0.1186692640 0.5149427056 4285295472
-0.2292357981 -0.1181212440 0.5150479078 4285558644
-0.2292823941 -0.1175728887 0.5151525736 4285492851
-0.2293288112 -0.1170241982 0.5152568817 4285427058
-0.2297732383 -0.1166773885 0.5162554383 4285493364
-0.2294210196 -0.1159258187 0.5154640675 4285493364
-0.2298652083 -0.1155764461 0.5164620876 4285559157
-0.2299109101 -0.1150254756 0.5165647268 4285624950
-0.2295578569 -0.1142757833 0.5157715082 4285690743
-0.2296030670 -0.1137251183 0.5158730745 4285953915
-0.2296480685 -0.1131741330 0.5159742236 4285690484
-0.2300916612 -0.1128183380 0.5169708133 4285624691
-0.2305351943 -0.1124603152 0.5179674029 4285953656
-0.2301808298 -0.1117128357 0.5171712041 4286151035
-0.2322201133 -0.1121228561 0.5217530727 4286150781
-0.2314664125 -0.1111811176 0.5200596452 4286216574
-0.2331071496 -0.1113872975 0.5237460732 4286216574
-0.2335505784 -0.1110161617 0.5247423649 4286479746
-0.2339939475 -0.1106427759 0.5257385373 4286677125
-0.2344372720 -0.1102671623 0.5267345905 4286611332
-0.2344810665 -0.1097024158 0.5268329978 4287006090
-0.2349241972 -0.1093232781 0.5278286338 4287203469
-0.2349676490 -0.1087569371 0.5279262662 4286940297
-0.2354105860 -0.1083742753 0.5289214253 4286940297
-0.2354536951 -0.1078063473 0.5290182829 4287400848
-0.2358964235 -0.1074201763 0.5300130248 4287335055
-0.2359391749 -0.1068506613 0.5301091075 4287006344
-0.2359817326 -0.1062808335 0.5302047133 4287072137
-0.2360240668 -0.1057107002 0.5302997828 4287335309
-0.2364663035 -0.1053184643 0.5312934518 4287466895
-0.2365082949 -0.1047467515 0.5313877463 4287532688
-0.2369503081 -0.1043510064 0.5323808789 4287664274
-0.2369919419 -0.1037777215 0.5324743986 4287664274
-0.2374337465 -0.1033784673 0.5334670544 4287730067
-0.2366740704 -0.1024568826 0.5317602754 4287927192
-0.2375160605 -0.1022284552 0.5336520076 4287466641
-0.2379574925 -0.1018244177 0.5346438289 4287335055
-0.2379981726 -0.1012476981 0.5347352624 4287598227
-0.2376379073 -0.1005012095 0.5339257717 4287598227
-0.2384796888 -0.1002618819 0.5358171463 4287269262
-0.2389206737 -0.0998508483 0.5368078947 4286940297
-0.2393615544 -0.0994375721 0.5377984643 4286808711
-0.2402033657 -0.0991876498 0.5396898389 4286742918
-0.2406441420 -0.0987689272 0.5406802297 4286742918
-0.2406836897 -0.0981843248 0.5407691002 4286743172
-0.2407230288 -0.0975994393 0.5408574343 4286677379
-0.2411634028 -0.0971759558 0.5418468714 4286677379
-0.2416036874 -0.0967502370 0.5428361297 4286677379
-0.2420438826 -0.0963222831 0.5438251495 4286677125
-0.2420825064 -0.0957333297 0.5439119339 4286545539
-0.2425224334 -0.0953018814 0.5449003577 4286479746
-0.2425606847 -0.0947113931 0.5449863076 4286611332
-0.2421970516 -0.0939647928 0.5441693068 4286611843
-0.2430382073 -0.0936844274 0.5460591912 4286940808
-0.2434776127 -0.0932459980 0.5470464826 4286875015
-0.2439169139 -0.0928053334 0.5480334759 4286809222
-0.2443561107 -0.0923624411 0.5490202904 4286414466
-0.2447952032 -0.0919173136 0.5500068069 4286348673
-0.2456362098 -0.0916199014 0.5518963933 4288191647
-0.2420246303 -0.1728727669 0.5451422334 4283980895
-0.2420902550 -0.1723137945 0.5452900529 4283388758
-0.2421557009 -0.1717543602 0.5454375148 4283519574
-0.2418309152 -0.1709187925 0.5447059274 4283651160
-0.2418958992 -0.1703593582 0.5448523164 4283519574
-0.2415704578 -0.1695255935 0.5441192985 4283453781
-0.2404638976 -0.1681472510 0.5416268110 4283387729
-0.2377946526 -0.1656856537 0.5356145501 4283321936
-0.2339520752 -0.1624228060 0.5269594193 4283387729
-0.2316699475 -0.1602586508 0.5218191147 4283453522
-0.2297771871 -0.1583742797 0.5175558329 4283519315
-0.2306193858 -0.1583776176 0.5194528103 4283453522
-0.2275519967 -0.1557016224 0.5125437379 4283453522
-0.2268293053 -0.1546394676 0.5109159350 4283453522
-0.2268884033 -0.1541119367 0.5110490918 4283321682
-0.2269473374 -0.1535840183 0.5111818314 4283124303
-0.2270061076 -0.1530556679 0.5113141537 4283453268
