VERSION 0.7
FIELDS x y z rgba
SIZE 4 4 4 4
TYPE F F F U
COUNT 1 1 1 1
WIDTH 920
HEIGHT 1
VIEWPOINT 0.0 0.0 0.0 1.0 0.0 0.0 0.0
POINTS 920
DATA ascii
-0.2784790397 -0.1409660876 0.5917254090 4286861918
-0.2781202197 -0.1401278675 0.5909630656 4287385441
-0.2777610123 -0.1392911375 0.5901997685 4287582820
-0.2774014175 -0.1384558976 0.5894356966 4287714406
-0.2774580121 -0.1378290951 0.5895559192 4287845992
-0.2770976722 -0.1369959116 0.5887902975 4288305517
-0.2767369449 -0.1361642331 0.5880237818 4288568689
-0.2767926753 -0.1355381757 0.5881421566 4289158516
-0.2768481672 -0.1349117607 0.5882600546 4289290102
-0.2769033909 -0.1342849433 0.5883774757 4289814136
-0.2765413225 -0.1334564835 0.5876080990 4289879929
-0.2765960097 -0.1328298748 0.5877243280 4290142844
-0.2762331963 -0.1320034862 0.5869534016 4290274430
-0.2758699954 -0.1311786324 0.5861816406 4290471296
-0.2755063772 -0.1303552985 0.5854090452 4290537089
-0.2751423717 -0.1295334995 0.5846355557 4290602112
-0.2751955688 -0.1289088428 0.5847485662 4290536319
-0.2748308480 -0.1280891597 0.5839735866 4290470269
-0.2744657099 -0.1272710264 0.5831977725 4290536062
-0.2741002142 -0.1264544129 0.5824211240 4290602112
-0.2741522193 -0.1258311719 0.5825316310 4290602112
-0.2737859786 -0.1250167042 0.5817534328 4290602112
-0.2734193504 -0.1242038012 0.5809744000 4290667905
-0.2734704912 -0.1235814020 0.5810830593 4290733441
-0.2731031477 -0.1227706447 0.5803025365 4290601855
-0.2731537223 -0.1221485063 0.5804100037 4290338942
-0.2723672986 -0.1211538166 0.5787389874 4290338942
-0.2724172473 -0.1205328926 0.5788450837 4290338942
-0.2724669576 -0.1199116334 0.5789507031 4290404735
-0.2720978260 -0.1191067919 0.5781663656 4290404735
-0.2721469700 -0.1184858084 0.5782707930 4290338942
-0.2717771232 -0.1176831573 0.5774849653 4290404735
-0.2718257308 -0.1170624644 0.5775882006 4290404735
-0.2714551985 -0.1162620187 0.5768008828 4290338940
-0.2710842490 -0.1154631525 0.5760126710 4290404733
-0.2711319923 -0.1148433834 0.5761141181 4290470526
-0.2707603574 -0.1140467376 0.5753244162 4290536319
-0.2708075345 -0.1134272739 0.5754246712 4290667648
-0.2704351842 -0.1126328632 0.5746334791 4290601855
-0.2700624466 -0.1118400469 0.5738415122 4290601855
-0.2701087594 -0.1112215370 0.5739399195 4290601855
-0.2697353363 -0.1104309633 0.5731464624 4290536062
-0.2697811127 -0.1098127887 0.5732436776 4290667648
-0.2694069743 -0.1090244725 0.5724487305 4290733441
-0.2690324783 -0.1082377657 0.5716529489 4290733441
-0.2686575949 -0.1074526832 0.5708563924 4290799234
-0.2687021792 -0.1068361476 0.5709511042 4290799234
-0.2687465250 -0.1062192991 0.5710453391 4290733439
-0.2683706284 -0.1054371521 0.5702466369 4290733439
-0.2684144080 -0.1048206612 0.5703396797 4290733441
-0.2680378258 -0.1040408015 0.5695394874 4290799234
-0.2685012519 -0.1035867929 0.5705242157 4290865027
-0.2685443163 -0.1029694080 0.5706157088 4290930820
-0.2685871124 -0.1023517251 0.5707066655 4291128199
-0.2686296999 -0.1017337516 0.5707970858 4291588750
-0.2682515681 -0.1009572446 0.5699936152 4291917715
-0.2682935596 -0.1003396586 0.5700829029 4292049301
-0.2679147422 -0.0995654687 0.5692779422 4291852179
-0.2679561973 -0.0989482701 0.5693660378 4292312730
-0.2679974139 -0.0983307883 0.5694536567 4292246937
-0.2680383921 -0.0977130160 0.5695406795 4292773281
-0.2676582634 -0.0969425440 0.5687329769 4293168039
-0.2676986754 -0.0963251814 0.5688188672 4291786386
-0.2673178613 -0.0955570564 0.5680096745 4291589007
-0.2673577368 -0.0949401110 0.5680943727 4292049558
-0.2673973441 -0.0943228900 0.5681785345 4292181146
-0.2670155466 -0.0935578272 0.5673672557 4292970662
-0.2670545876 -0.0929410309 0.5674502850 4292971432
-0.2670933902 -0.0923239663 0.5675327182 4290339712
-0.2671319544 -0.0917066336 0.5676146746 4288234336
-0.2671702802 -0.0910890400 0.5676960945 4288760680
-0.2667868733 -0.0903284773 0.5668814182 4291458193
-0.2668246329 -0.0897113234 0.5669616461 4292510881
-0.2668621540 -0.0890939087 0.5670413375 4293037482
-0.2668994069 -0.0884762406 0.5671204925 4292708517
-0.2665147185 -0.0877195150 0.5663030744 4292313759
-0.2661296427 -0.0869644806 0.5654848814 4292379552
-0.2661660612 -0.0863479972 0.5655622482 4292906407
-0.2662022114 -0.0857312605 0.5656390786 4293235372
-0.2662380934 -0.0851142704 0.5657153130 4292906407
-0.2658517659 -0.0843631178 0.5648944378 4293366958
-0.2658871114 -0.0837466121 0.5649695396 4293171889
-0.2659221888 -0.0831298605 0.5650441051 4293566647
-0.2655348778 -0.0823818967 0.5642210841 4293698233
-0.2659916282 -0.0818956345 0.5651916265 4293764026
-0.2660259604 -0.0812781528 0.5652645826 4293830334
-0.2660600543 -0.0806604400 0.5653370023 4293961920
-0.2656715214 -0.0799154341 0.5645114183 4294028740
-0.2657050490 -0.0792982355 0.5645827055 4294160326
-0.2653158605 -0.0785557032 0.5637556911 4293963717
-0.2653488219 -0.0779390186 0.5638257861 4293963717
-0.2653815448 -0.0773221031 0.5638952851 4293503166
-0.2654140294 -0.0767049566 0.5639643073 4292911029
-0.2654462457 -0.0760875866 0.5640327930 4292845236
-0.2654782236 -0.0754700005 0.5641006827 4293437373
-0.2655099332 -0.0748521835 0.5641680956 4293569729
-0.2651185393 -0.0741159394 0.5633364916 4293832901
-0.2655726075 -0.0736158937 0.5643012524 4293046978
-0.2656035423 -0.0729974210 0.5643669963 4292915392
-0.2656342387 -0.0723787323 0.5644322634 4293177022
-0.2656646967 -0.0717598274 0.5644969344 4293637573
-0.2652718127 -0.0710274354 0.5636621118 4294229967
-0.2653017044 -0.0704090968 0.5637255907 4294756311
-0.2677974701 -0.2125607580 0.5703748465 4290824403
-0.2678789496 -0.2119915187 0.5705484152 4290561231
-0.2679602802 -0.2114217579 0.5707215667 4290100422
-0.2676383555 -0.2105344087 0.5700359344 4289705664
-0.2677192092 -0.2099644840 0.5702081323 4290100422
-0.2762615681 -0.1539033353 0.5884023309 4290097335
-0.2763237655 -0.1532840729 0.5885347724 4289307819
-0.2763857245 -0.1526643932 0.5886667371 4288649376
-0.2764474452 -0.1520442963 0.5887982249 4287991446
-0.2765089571 -0.1514237821 0.5889292359 4287530124
-0.2769842744 -0.1510286033 0.5899415612 4287201159
-0.2770454288 -0.1504063308 0.5900718570 4287066747
-0.2766921520 -0.1495597661 0.5893194079 4286737782
-0.2771670520 -0.1491605639 0.5903308988 4286868083
-0.2772275209 -0.1485370696 0.5904597044 4286539118
-0.2772877812 -0.1479131579 0.5905879736 4286405992
-0.2773478031 -0.1472888589 0.5907158256 4286340199
-0.2774075866 -0.1466641426 0.5908432007 4286470245
-0.2774671614 -0.1460390240 0.5909700394 4286207073
-0.2775264680 -0.1454134881 0.5910964012 4286535009
-0.2780005038 -0.1450040042 0.5921060443 4286403423
-0.2780594826 -0.1443767399 0.5922316313 4286467674
-0.2777031064 -0.1435345262 0.5914725661 4286336088
-0.2777615190 -0.1429074109 0.5915970206 4286467160
-0.2778196931 -0.1422799081 0.5917209387 4286467160
-0.2778776288 -0.1416520029 0.5918443203 4286336088
-0.2775199115 -0.1408129036 0.5910823941 4286336088
-0.2775773108 -0.1401851624 0.5912046432 4286859611
-0.2772188485 -0.1393481046 0.5904412270 4286859611
-0.2768599987 -0.1385125518 0.5896768570 4286794331
-0.2769165337 -0.1378855258 0.5897972584 4286925917
-0.2765569389 -0.1370520145 0.5890313983 4287124066
-0.2766129076 -0.1364251673 0.5891506076 4287387238
-0.2762526274 -0.1355937272 0.5883832574 4287911785
-0.2763080299 -0.1349670738 0.5885012746 4288109164
-0.2763632238 -0.1343400329 0.5886188149 4288567662
-0.2764181793 -0.1337126195 0.5887358785 4288699248
-0.2760565281 -0.1328843981 0.5879656076 4289354355
-0.2761109173 -0.1322571784 0.5880814791 4289617527
-0.2757485509 -0.1314310580 0.5873096585 4290142331
-0.2753857672 -0.1306064725 0.5865370035 4290339710
-0.2754392922 -0.1299800426 0.5866509676 4290601853
-0.2750758231 -0.1291575581 0.5858768225 4290601853
-0.2747119367 -0.1283366084 0.5851017833 4290601855
-0.2743476331 -0.1275172085 0.5843259096 4290667648
-0.2743999660 -0.1268921793 0.5844373703 4290799234
-0.2740349770 -0.1260749102 0.5836599469 4290733441
-0.2740867734 -0.1254501194 0.5837702751 4290733441
-0.2737210691 -0.1246349886 0.5829913616 4290733441
-0.2737722993 -0.1240104511 0.5831004381 4290601855
-0.2729884684 -0.1230093837 0.5814309716 4290404476
-0.2734565437 -0.1225731894 0.5824279785 4290470015
-0.2730894089 -0.1217623800 0.5816460252 4290470015
-0.2727218866 -0.1209531277 0.5808632374 4290470015
-0.2727716863 -0.1203297228 0.5809693336 4290535808
-0.2724034786 -0.1195226535 0.5801850557 4290470528
-0.2720348537 -0.1187171564 0.5793999434 4290404735
-0.2716658413 -0.1179132387 0.5786139965 4290470015
-0.2717144489 -0.1172913462 0.5787175298 4290470015
-0.2713447511 -0.1164896265 0.5779300928 4290404476
-0.2713928223 -0.1158680320 0.5780324936 4290404476
-0.2710224092 -0.1150685251 0.5772435069 4290470015
-0.2706515789 -0.1142706126 0.5764537454 4290470015
-0.2706987858 -0.1136499494 0.5765542984 4290535808
-0.2703272998 -0.1128542572 0.5757630467 4290535808
-0.2699553967 -0.1120601743 0.5749709606 4290601855
-0.2695831358 -0.1112676859 0.5741780400 4290536062
-0.2696291506 -0.1106486171 0.5742760897 4290536062
-0.2692561746 -0.1098583788 0.5734816790 4290601855
-0.2693016231 -0.1092396453 0.5735785365 4290798464
-0.2689279616 -0.1084516644 0.5727826953 4290798464
-0.2685539126 -0.1076653078 0.5719860196 4290798464
-0.2681795061 -0.1068805605 0.5711885095 4290666878
-0.2682237923 -0.1062634811 0.5712828040 4290666876
-0.2682678401 -0.1056460887 0.5713766217 4290666876
-0.2678923905 -0.1048642918 0.5705770254 4290732671
-0.2683551908 -0.1044104025 0.5715627074 4290798464
-0.2679791451 -0.1036299318 0.5707617998 4290864257
-0.2680221498 -0.1030123010 0.5708534122 4290930050
-0.2680649161 -0.1023943797 0.5709444880 4290930820
-0.2681074440 -0.1017761603 0.5710350275 4291062406
-0.2677300870 -0.1009993404 0.5702313185 4291259531
-0.2677720487 -0.1003815085 0.5703206658 4291391117
-0.2678137720 -0.0997633860 0.5704095364 4291325324
-0.2674354017 -0.0989895687 0.5696036816 4291720082
-0.2674765885 -0.0983718410 0.5696913600 4291720082
-0.2675175071 -0.0977538228 0.5697785616 4291917461
-0.2675581872 -0.0971355289 0.5698651671 4292312219
-0.2671785057 -0.0963654295 0.5690565705 4292246426
-0.2667984664 -0.0955969989 0.5682471395 4292509598
-0.2668382823 -0.0949798077 0.5683318973 4292312219
-0.2668778598 -0.0943623409 0.5684161782 4292114840
-0.2664968371 -0.0935969651 0.5676046610 4293035942
-0.2661154568 -0.0928332731 0.5667923093 4293168041
-0.2661541402 -0.0922169313 0.5668747425 4290865286
-0.2666131258 -0.0917450413 0.5678523183 4289352047
-0.2666513920 -0.0911271945 0.5679338574 4290009977
-0.2662687898 -0.0903663188 0.5671189427 4292115351
-0.2663064897 -0.0897489265 0.5671992302 4292904867
-0.2659232020 -0.0889904574 0.5663828850 4293233832
-0.2659603655 -0.0883735120 0.5664620399 4292049558
-0.2659972608 -0.0877563059 0.5665406585 4290865284
-0.2656129897 -0.0870009735 0.5657221675 4290141561
-0.2656493485 -0.0863842368 0.5657995939 4291392398
-0.2656854391 -0.0857672468 0.5658764839 4293168809
-0.2657213211 -0.0851500109 0.5659528971 4293563567
-0.2653357387 -0.0843985528 0.5651316643 4293366188
-0.2653710544 -0.0837818012 0.5652068853 4293236142
-0.2649848163 -0.0830327868 0.5643842816 4293236142
-0.2654409111 -0.0825475529 0.5653556585 4293236142
-0.2650540769 -0.0818000212 0.5645317435 4293433521
-0.2650883198 -0.0811832696 0.5646046996 4293434804
-0.2651223242 -0.0805662870 0.5646771193 4293632183
-0.2651560605 -0.0799490660 0.5647490025 4293633469
-0.2647679448 -0.0792054832 0.5639223456 4293633469
-0.2643794715 -0.0784636363 0.5630949736 4293832131
-0.2644123733 -0.0778476819 0.5631650090 4293832131
-0.2644450068 -0.0772314966 0.5632345080 4293700545
-0.2644774020 -0.0766150802 0.5633035302 4293437373
-0.2645095289 -0.0759984478 0.5633719563 4293633982
-0.2645414174 -0.0753815845 0.5634398460 4293962947
-0.2645730376 -0.0747644976 0.5635071993 4294226889
-0.2646044195 -0.0741471946 0.5635740161 4294095303
-0.2646355331 -0.0735296682 0.5636403561 4294291910
-0.2646664083 -0.0729119331 0.5637061000 4293765566
-0.2646970153 -0.0722939745 0.5637713075 4293697206
-0.2647273839 -0.0716758072 0.5638359785 4293762999
-0.2647574842 -0.0710574239 0.5639001131 4293895612
-0.2643650472 -0.0703264922 0.5630642176 4294027198
-0.2643946111 -0.0697086751 0.5631271601 4293374147
-0.2644239068 -0.0690906569 0.5631895661 4293768905
-0.2644529343 -0.0684724376 0.5632514358 4293443533
-0.2754921317 -0.1518781483 0.5881548524 4290360507
-0.2755534947 -0.1512583494 0.5882858038 4289636271
-0.2756146193 -0.1506381184 0.5884162784 4288978341
-0.2756755054 -0.1500174999 0.5885463357 4288318868
-0.2757361829 -0.1493964493 0.5886758566 4287792524
-0.2762101293 -0.1489980519 0.5896876454 4287462532
-0.2762704194 -0.1483752578 0.5898164511 4286738809
-0.2763305306 -0.1477520615 0.5899447203 4286474095
-0.2759766281 -0.1469081938 0.5891891718 4286408302
-0.2764500082 -0.1465044320 0.5901998281 4286669677
-0.2765094042 -0.1458800286 0.5903266668 4286603884
-0.2765685916 -0.1452552080 0.5904529691 4286865514
-0.2766275406 -0.1446300000 0.5905788541 4286668135
-0.2771004736 -0.1442199498 0.5915884972 4286732386
-0.2771590352 -0.1435929984 0.5917135477 4286535007
-0.2768030167 -0.1427519619 0.5909534693 4286337371
-0.2768610418 -0.1421251595 0.5910773277 4286205785
-0.2769188285 -0.1414979547 0.5912007093 4286205015
-0.2765617669 -0.1406594813 0.5904384255 4286073429
-0.2766190171 -0.1400324404 0.5905606151 4286662743
-0.2762612104 -0.1391960084 0.5897967815 4286531157
-0.2763178945 -0.1385691464 0.5899177790 4286268755
-0.2759594023 -0.1377347559 0.5891523957 4286334548
-0.2760155499 -0.1371080577 0.5892722607 4286466134
-0.2760714591 -0.1364809722 0.5893916488 4286663513
-0.2761271298 -0.1358535141 0.5895105004 4286925915
-0.2757672668 -0.1350223273 0.5887421966 4287057501
-0.2758223712 -0.1343950480 0.5888599157 4287450719
-0.2758772671 -0.1337673962 0.5889770985 4287648098
-0.2759319246 -0.1331393719 0.5890937448 4288369511
-0.2755707204 -0.1323114187 0.5883225799 4288566890
-0.2756248116 -0.1316836029 0.5884380937 4289223023
-0.2752628624 -0.1308577359 0.5876653790 4289551988
-0.2753164172 -0.1302301288 0.5877797008 4290076536
-0.2753697336 -0.1296021491 0.5878935456 4290208122
-0.2750067711 -0.1287789941 0.5871186256 4290536319
-0.2746433914 -0.1279573590 0.5863428116 4290667905
-0.2742796242 -0.1271372736 0.5855662227 4290733698
-0.2747480273 -0.1267026812 0.5865662098 4290733698
-0.2743836343 -0.1258837879 0.5857882500 4290733698
-0.2744352818 -0.1252565086 0.5858985186 4290733698
-0.2740701735 -0.1244397536 0.5851190686 4290733441
-0.2737046480 -0.1236245558 0.5843387246 4290601855
-0.2733387649 -0.1228109077 0.5835575461 4290601855
-0.2729724646 -0.1219988316 0.5827755332 4290601855
-0.2730225921 -0.1213736162 0.5828825831 4290601601
-0.2726556063 -0.1205637082 0.5820990801 4290601601
-0.2727051973 -0.1199387610 0.5822049379 4290601601
-0.2723374665 -0.1191310436 0.5814198852 4290535808
-0.2719693780 -0.1183248982 0.5806340575 4290666880
-0.2716009021 -0.1175203249 0.5798473358 4290601087
-0.2712320089 -0.1167173386 0.5790597796 4290404222
-0.2712801099 -0.1160945371 0.5791624784 4290404222
-0.2709105313 -0.1152937636 0.5783734322 4290404222
-0.2709580660 -0.1146712676 0.5784749389 4290338429
-0.2705877721 -0.1138727143 0.5776844025 4290404222
-0.2702170908 -0.1130757555 0.5768930316 4290535808
-0.2698460519 -0.1122803912 0.5761008859 4290732671
-0.2694746256 -0.1114866287 0.5753079057 4290666878
-0.2695206404 -0.1108663604 0.5754061937 4290666878
-0.2691485286 -0.1100748479 0.5746117234 4290666878
-0.2687759995 -0.1092849448 0.5738164186 4290666878
-0.2688211799 -0.1086656600 0.5739128590 4290666878
-0.2684479654 -0.1078780219 0.5731160641 4290797951
-0.2680743635 -0.1070920005 0.5723184943 4290732158
-0.2681186795 -0.1064737141 0.5724130869 4290666619
-0.2681627572 -0.1058551148 0.5725071430 4290732412
-0.2682065666 -0.1052362174 0.5726007223 4290732158
-0.2678316534 -0.1044538021 0.5718002915 4290732158
-0.2678749263 -0.1038352624 0.5718926787 4290732158
-0.2679179609 -0.1032164246 0.5719845295 4290797951
-0.2679607570 -0.1025972888 0.5720759034 4290864257
-0.2675845325 -0.1018185243 0.5712727308 4290930050
-0.2672079504 -0.1010413915 0.5704687238 4291061636
-0.2672498524 -0.1004233137 0.5705581903 4291127429
-0.2672915459 -0.0998049453 0.5706471801 4291061638
-0.2673329711 -0.0991862863 0.5707356334 4291127431
-0.2669550776 -0.0984128490 0.5699288845 4291193224
-0.2669959366 -0.0977945849 0.5700161457 4291390603
-0.2670365870 -0.0971760452 0.5701028705 4291391117
-0.2666576803 -0.0964056402 0.5692939758 4291456910
-0.2666977644 -0.0957875028 0.5693795085 4291720082
-0.2663182020 -0.0950194597 0.5685691833 4291456910
-0.2663577199 -0.0944017470 0.5686535835 4291786388
-0.2659774721 -0.0936360657 0.5678417683 4292312732
-0.2655968666 -0.0928720608 0.5670291781 4292839076
-0.2660551667 -0.0924012214 0.5680076480 4292115353
-0.2660936415 -0.0917833969 0.5680897832 4291917974
-0.2661318779 -0.0911653042 0.5681713820 4291983767
-0.2657500207 -0.0904041231 0.5673561692 4292444316
-0.2657876909 -0.0897864774 0.5674365759 4292773281
-0.2654051781 -0.0890277028 0.5666199327 4293102246
-0.2654422820 -0.0884105116 0.5666992068 4290009975
-0.2654791772 -0.0877930596 0.5667778850 4287641427
-0.2655157745 -0.0871753544 0.5668560863 4288562529
-0.2651319802 -0.0864204317 0.5660367012 4291589007
-0.2651680410 -0.0858031958 0.5661137104 4292904867
-0.2652038634 -0.0851857066 0.5661901832 4293036453
-0.2648190856 -0.0844339505 0.5653687119 4292641695
-0.2652747631 -0.0839499906 0.5663415194 4291985048
-0.2648893595 -0.0831996948 0.5655187368 4291721876
-0.2645036280 -0.0824511200 0.5646951795 4292248220
-0.2645380795 -0.0818343610 0.5647687316 4293103529
-0.2645722926 -0.0812173635 0.5648418069 4293103786
-0.2646062374 -0.0806001276 0.5649142861 4293169579
-0.2642192245 -0.0798554942 0.5640880466 4293171632
-0.2642526329 -0.0792387724 0.5641593337 4293369011
-0.2638649344 -0.0784966201 0.5633316636 4293303990
-0.2638978064 -0.0778804123 0.5634018183 4293501369
-0.2639304101 -0.0772639737 0.5634713769 4293502396
-0.2635417581 -0.0765250698 0.5626416802 4293633982
-0.2635737956 -0.0759091601 0.5627101064 4293765568
-0.2636055946 -0.0752930343 0.5627779961 4293765568
-0.2640582919 -0.0747959763 0.5637444258 4294094533
-0.2640896142 -0.0741784126 0.5638113618 4293962947
-0.2641207278 -0.0735606402 0.5638777018 4293633723
-0.2637302577 -0.0728263110 0.5630441308 4293370551
-0.2637608051 -0.0722090900 0.5631092787 4293106609
-0.2637910843 -0.0715916529 0.5631739497 4293172402
-0.2638210952 -0.0709739998 0.5632380843 4293568187
-0.2638508677 -0.0703561455 0.5633016229 4294028738
-0.2634588480 -0.0696266741 0.5624647141 4293635522
-0.2634880841 -0.0690093860 0.5625271201 4293503936
-0.2635170519 -0.0683918968 0.5625889301 4293568189
-0.2635457516 -0.0677742064 0.5626502633 4293436603
-0.2639959455 -0.0672637597 0.5636113286 4293829821
-0.2640241981 -0.0666446835 0.5636716485 4293961407
-0.2640521824 -0.0660253987 0.5637313724 4293702085
-0.2640799284 -0.0654059276 0.5637906194 4294096843
-0.2641074061 -0.0647862554 0.5638492703 4293248207
-0.2743081748 -0.1496282071 0.5870190859 4290491063
-0.2743685842 -0.1490088105 0.5871484280 4289898926
-0.2748414576 -0.1486121416 0.5881603360 4289372069
-0.2749015391 -0.1479909867 0.5882889032 4288516760
-0.2749613822 -0.1473694295 0.5884169340 4287923596
-0.2750209868 -0.1467474550 0.5885444880 4287463045
-0.2750803530 -0.1461250931 0.5886716247 4287264124
-0.2755526602 -0.1457207948 0.5896822810 4286803573
-0.2756116688 -0.1450966746 0.5898085833 4286867826
-0.2756704688 -0.1444721669 0.5899344087 4286670447
-0.2757290304 -0.1438472718 0.5900596976 4286932077
-0.2757873535 -0.1432219595 0.5901845694 4286800491
-0.2754319012 -0.1423824728 0.5894238949 4286732901
-0.2754896879 -0.1417573094 0.5895475149 4286601315
-0.2755472362 -0.1411317587 0.5896707177 4286600800
-0.2756045759 -0.1405058205 0.5897933841 4286337628
-0.2756616473 -0.1398794949 0.5899155736 4286532953
-0.2757185102 -0.1392527670 0.5900372267 4286269781
-0.2753610909 -0.1384175271 0.5892723203 4286137169
-0.2754173875 -0.1377909631 0.5893928409 4286071376
-0.2754734755 -0.1371640414 0.5895128250 4286136399
-0.2755293250 -0.1365367174 0.5896323323 4286202192
-0.2755849361 -0.1359090209 0.5897513628 4286267985
-0.2752258182 -0.1350775212 0.5889828801 4286267985
-0.2752808928 -0.1344500035 0.5891007185 4286399314
-0.2753356993 -0.1338221282 0.5892180204 4286662486
-0.2753902972 -0.1331938654 0.5893348455 4287121754
-0.2754446566 -0.1325652301 0.5894511938 4287384926
-0.2750838697 -0.1317375302 0.5886790752 4288040546
-0.2751376629 -0.1311091036 0.5887942314 4288369511
-0.2747761607 -0.1302835047 0.5880206227 4288960363
-0.2748294175 -0.1296553016 0.5881345868 4289091949
-0.2752976716 -0.1292216182 0.5891366005 4289682550
-0.2745198905 -0.1282038242 0.5874722004 4289945722
-0.2741569877 -0.1273824722 0.5866955519 4290143101
-0.2746245861 -0.1269467622 0.5876962543 4290077308
-0.2742610276 -0.1261266023 0.5869181752 4290142844
-0.2743126750 -0.1254981309 0.5870287418 4290274430
-0.2739484012 -0.1246801093 0.5862492323 4290405503
-0.2735837400 -0.1238636374 0.5854688287 4290405503
-0.2736345232 -0.1232360154 0.5855774879 4290602112
-0.2732691467 -0.1224217117 0.5847955942 4290667905
-0.2729033828 -0.1216089725 0.5840128660 4290733441
-0.2725372016 -0.1207977906 0.5832292438 4290667648
-0.2725868225 -0.1201716512 0.5833353996 4290798464
-0.2722199559 -0.1193626598 0.5825502872 4290666878
-0.2718526721 -0.1185552403 0.5817643404 4290601087
-0.2714850307 -0.1177494004 0.5809775591 4290469501
-0.2711170018 -0.1169451401 0.5801900029 4290404222
-0.2711651027 -0.1163211465 0.5802929401 4290404222
-0.2707963586 -0.1155190915 0.5795038342 4290404222
-0.2708438933 -0.1148953959 0.5796055794 4290338429
-0.2704744637 -0.1140955687 0.5788149834 4290404222
-0.2701046169 -0.1132973358 0.5780235529 4290535808
-0.2697344124 -0.1125006974 0.5772312880 4290666880
-0.2693638206 -0.1117056683 0.5764381886 4290666880
-0.2694098651 -0.1110841930 0.5765367746 4290666878
-0.2690385878 -0.1102914065 0.5757421851 4290601085
-0.2690840662 -0.1096702665 0.5758395791 4290601085
-0.2687120736 -0.1088797376 0.5750434995 4290601085
-0.2683397233 -0.1080908254 0.5742465854 4290666365
-0.2679669559 -0.1073035300 0.5734488964 4290600572
-0.2680113018 -0.1066840366 0.5735437870 4290666365
-0.2680553794 -0.1060642302 0.5736381412 4290666365
-0.2676816285 -0.1052798778 0.5728383064 4290732412
-0.2677251399 -0.1046604291 0.5729314685 4290600826
-0.2673507035 -0.1038783714 0.5721301436 4290666619
-0.2673936784 -0.1032592952 0.5722221136 4290732412
-0.2674364150 -0.1026399136 0.5723135471 4290797951
-0.2674789131 -0.1020202413 0.5724045038 4290797951
-0.2671031654 -0.1012418345 0.5716003776 4290929537
-0.2667270303 -0.1004650742 0.5707954764 4290995330
-0.2667686641 -0.0998464599 0.5708845258 4291192709
-0.2668100297 -0.0992275551 0.5709730983 4290995330
-0.2668511868 -0.0986083671 0.5710611343 4290995845
-0.2664737403 -0.0978353024 0.5702534318 4291193224
-0.2665143311 -0.0972165167 0.5703402758 4291127431
-0.2665546834 -0.0965974480 0.5704266429 4291127431
-0.2661762536 -0.0958274230 0.5696167946 4291324810
-0.2662160397 -0.0952087641 0.5697019696 4291390603
-0.2658369243 -0.0944411084 0.5688906908 4291325324
-0.2658761740 -0.0938228741 0.5689746141 4291456910
-0.2654964030 -0.0930575877 0.5681619048 4291851668
-0.2655350566 -0.0924397856 0.5682446957 4291917461
-0.2655735016 -0.0918217152 0.5683269501 4292049047
-0.2656116784 -0.0912033692 0.5684086084 4291785875
-0.2652306259 -0.0904418901 0.5675931573 4291785875
-0.2652682364 -0.0898239911 0.5676736832 4292378012
-0.2653056383 -0.0892058387 0.5677536726 4292904356
-0.2649235725 -0.0884474739 0.5669360757 4291259531
-0.2649604082 -0.0878297761 0.5670149326 4290272890
-0.2649970055 -0.0872118175 0.5670931935 4291391371
-0.2650333345 -0.0865936056 0.5671709180 4292838817
-0.2646499872 -0.0858391076 0.5663506389 4292970403
-0.2646857798 -0.0852213725 0.5664271712 4293299368
-0.2643017769 -0.0844693035 0.5656054616 4292312473
-0.2647565901 -0.0839851499 0.5665787458 4288826469
-0.2643719912 -0.0832345486 0.5657556653 4289089641
-0.2639870048 -0.0824856684 0.5649318099 4290602880
-0.2640214264 -0.0818686634 0.5650054812 4292576670
-0.2640556097 -0.0812514201 0.5650786161 4293037221
-0.2640895247 -0.0806339309 0.5651512146 4293168807
-0.2637032866 -0.0798889995 0.5643246770 4292774821
-0.2637366652 -0.0792720243 0.5643960834 4292445856
-0.2633497417 -0.0785295665 0.5635681152 4292841897
-0.2633825839 -0.0779131055 0.5636383295 4293368241
-0.2634151280 -0.0772964209 0.5637080073 4293238195
-0.2630272806 -0.0765572116 0.5628780127 4293303988
-0.2630592883 -0.0759410560 0.5629464984 4293238965
-0.2630910575 -0.0753246695 0.5630144477 4293173172
-0.2635428905 -0.0748274103 0.5639814138 4293304758
-0.2635741830 -0.0742096007 0.5640484095 4293304758
-0.2636052370 -0.0735915750 0.5641148686 4293699516
-0.2632155716 -0.0728569403 0.5632809401 4293699516
-0.2632460594 -0.0722394660 0.5633462071 4293501883
-0.2628557384 -0.0715073645 0.5625109076 4293501883
-0.2628856897 -0.0708904490 0.5625750422 4294093506
-0.2629154027 -0.0702733248 0.5626385808 4294159299
-0.2625241280 -0.0695445463 0.5618012547 4293698748
-0.2625532746 -0.0689279959 0.5618636012 4293303990
-0.2625821531 -0.0683112368 0.5619254112 4292843439
-0.2630316317 -0.0678027645 0.5628873110 4292777646
-0.2630600631 -0.0671846196 0.5629481673 4293370297
-0.2630882263 -0.0665662661 0.5630084276 4294094020
-0.2631161511 -0.0659477264 0.5630682111 4293963717
-0.2631438076 -0.0653289855 0.5631273985 4293503166
-0.2627501488 -0.0646065101 0.5622849464 4292911799
-0.2627772689 -0.0639883727 0.5623429418 4292846006
-0.2628041208 -0.0633700490 0.5624004006 4292320945
-0.2628307045 -0.0627515316 0.5624573231 4292781496
-0.2628570497 -0.0621328242 0.5625137091 4293306557
-0.2628831267 -0.0615139380 0.5625695586 4293635522
-0.2629089653 -0.0608948655 0.5626248121 4294163149
-0.2629345357 -0.0602756105 0.5626795292 4294952665
-0.2740068436 -0.1472077221 0.5877712965 4290161844
-0.2740662992 -0.1465864629 0.5878988504 4289438121
-0.2741255462 -0.1459648013 0.5880259275 4288647833
-0.2741845250 -0.1453427523 0.5881524682 4287792524
-0.2742433250 -0.1447202861 0.5882785320 4287659141
-0.2747143507 -0.1443141103 0.5892889500 4287198590
-0.2747727633 -0.1436899006 0.5894142389 4287197050
-0.2744182646 -0.1428505033 0.5886538625 4286933878
-0.2744761407 -0.1422264427 0.5887779593 4286669164
-0.2745337784 -0.1416019946 0.5889015794 4286537578
-0.2745911777 -0.1409771591 0.5890247226 4286799723
-0.2746483386 -0.1403519213 0.5891473889 4286536551
-0.2742922008 -0.1395161897 0.5883833766 4286535007
-0.2743488252 -0.1388911158 0.5885048509 4286206042
-0.2744052112 -0.1382656693 0.5886258483 4286139222
-0.2744613886 -0.1376398206 0.5887463093 4286073429
-0.2745173275 -0.1370135993 0.5888662934 4286203475
-0.2745729983 -0.1363869905 0.5889858007 4286137682
-0.2746284902 -0.1357600093 0.5891047716 4286071376
-0.2746837139 -0.1351326406 0.5892232656 4285873997
-0.2747386992 -0.1345048994 0.5893412232 4285742411
-0.2747934759 -0.1338767856 0.5894587040 4285808204
-0.2748480141 -0.1332482845 0.5895756483 4286136142
-0.2744883001 -0.1324196905 0.5888040662 4286267728
-0.2745422721 -0.1317913979 0.5889198184 4286595410
-0.2745960057 -0.1311627328 0.5890350938 4286858582
-0.2742352784 -0.1303368211 0.5882613063 4287121497
-0.2742884457 -0.1297083795 0.5883753896 4287318876
-0.2747558057 -0.1292745471 0.5893779397 4287975525
-0.2743941247 -0.1284503937 0.5886020660 4288501869
-0.2744466066 -0.1278208494 0.5887145996 4289158516
-0.2744988501 -0.1271909475 0.5888266563 4289224309
-0.2741361260 -0.1263695210 0.5880485773 4289289845
-0.2737729847 -0.1255496293 0.5872696638 4289487224
-0.2738243639 -0.1249205619 0.5873798132 4289814906
-0.2734605074 -0.1241028234 0.5865993500 4289880699
-0.2735113204 -0.1234740093 0.5867083669 4290471809
-0.2731467783 -0.1226584315 0.5859264135 4290471809
-0.2731970549 -0.1220298782 0.5860341787 4290733698
-0.2728317976 -0.1212164760 0.5852506757 4290667905
-0.2724661529 -0.1204046384 0.5844663382 4290667648
-0.2721001208 -0.1195943728 0.5836811662 4290601855
-0.2721491754 -0.1189673096 0.5837864280 4290601085
-0.2717824578 -0.1181592420 0.5829997659 4290535292
-0.2714153230 -0.1173527464 0.5822122097 4290470015
-0.2710478008 -0.1165478379 0.5814238787 4290470015
-0.2706798911 -0.1157445163 0.5806346536 4290404222
-0.2707274556 -0.1151196212 0.5807366967 4290404222
-0.2703588605 -0.1143185198 0.5799459815 4290404222
-0.2699898481 -0.1135190129 0.5791544914 4290470015
-0.2696204782 -0.1127211004 0.5783621073 4290535808
-0.2692507207 -0.1119247898 0.5775689483 4290535808
-0.2692967951 -0.1113021150 0.5776677728 4290535808
-0.2689263523 -0.1105080545 0.5768731236 4290470015
-0.2689718604 -0.1098857075 0.5769707561 4290601085
-0.2686007023 -0.1090939045 0.5761746168 4290535292
-0.2686456740 -0.1084718928 0.5762710571 4290469499
-0.2682738304 -0.1076823547 0.5754734278 4290403706
-0.2679015994 -0.1068944409 0.5746749640 4290469499
-0.2679457068 -0.1062734276 0.5747695565 4290535292
-0.2675727904 -0.1054878011 0.5739696026 4290600826
-0.2676163316 -0.1048671454 0.5740630627 4290535033
-0.2672427297 -0.1040838137 0.5732616186 4290600826
-0.2672857344 -0.1034635231 0.5733538270 4290600826
-0.2669114470 -0.1026824862 0.5725509524 4290600572
-0.2669538856 -0.1020625681 0.5726419687 4290600572
-0.2669960856 -0.1014423594 0.5727325082 4290732158
-0.2666207850 -0.1006643176 0.5719274879 4290797951
-0.2666624486 -0.1000444889 0.5720168352 4290864257
-0.2667038441 -0.0994243771 0.5721056461 4290798464
-0.2667450011 -0.0988039672 0.5721939206 4290798464
-0.2663683891 -0.0980296284 0.5713860989 4290798464
-0.2664090097 -0.0974096209 0.5714731812 4290666878
-0.2660317421 -0.0966376290 0.5706639290 4290864257
-0.2656540871 -0.0958672985 0.5698538423 4290864257
-0.2656938136 -0.0952483937 0.5699390769 4290995843
-0.2661511302 -0.0947780013 0.5709200501 4291127431
-0.2657725811 -0.0940097645 0.5701079965 4291193224
-0.2653936446 -0.0932431966 0.5692951083 4291324810
-0.2650143206 -0.0924783051 0.5684814453 4291390603
-0.2650527060 -0.0918599889 0.5685638189 4291587982
-0.2650908530 -0.0912413970 0.5686455965 4291456396
-0.2647105753 -0.0904796049 0.5678298473 4291456396
-0.2647481561 -0.0898614675 0.5679104924 4291916947
-0.2647854984 -0.0892430618 0.5679906011 4291720082
-0.2644042373 -0.0884843916 0.5671727657 4292246426
-0.2644410133 -0.0878664404 0.5672516823 4292378266
-0.2644775510 -0.0872482434 0.5673300624 4292444059
-0.2645138502 -0.0866297856 0.5674079061 4292115094
-0.2641313076 -0.0858749747 0.5665872693 4292575645
-0.2641670406 -0.0852569938 0.5666639209 4293430954
-0.2637838125 -0.0845046192 0.5658419132 4291391371
-0.2634002566 -0.0837539658 0.5650191307 4288102232
-0.2638539374 -0.0832693726 0.5659922957 4288825955
-0.2634697556 -0.0825201869 0.5651682019 4290405501
-0.2635041475 -0.0819029287 0.5652419925 4292181912
-0.2631192803 -0.0811562017 0.5644164085 4292905121
-0.2631531060 -0.0805394500 0.5644890070 4292773535
-0.2631866932 -0.0799224600 0.5645610094 4290799745
-0.2632200420 -0.0793052316 0.5646325350 4289681264
-0.2628339231 -0.0785624757 0.5638042688 4291063944
-0.2628667057 -0.0779457688 0.5638746023 4292577183
-0.2628992200 -0.0773288310 0.5639443398 4292907690
-0.2625121474 -0.0765893161 0.5631140471 4293105069
-0.2625441253 -0.0759729072 0.5631826520 4292974510
-0.2629953027 -0.0754766539 0.5641504526 4292974510
-0.2630268335 -0.0748588145 0.5642181039 4292645545
-0.2626385391 -0.0741223469 0.5633851886 4292974510
-0.2626695037 -0.0735050514 0.5634516478 4293238195
-0.2627002299 -0.0728875399 0.5635175109 4293303988
-0.2623110116 -0.0721543655 0.5626825690 4293107638
-0.2623411715 -0.0715374127 0.5627472997 4293305017
-0.2623710930 -0.0709202439 0.5628114343 4293633469
-0.2624007463 -0.0703028664 0.5628750920 4293501883
-0.2620102763 -0.0695737898 0.5620374680 4293566649
-0.2620393634 -0.0689569861 0.5620999336 4293632442
-0.2616482377 -0.0682304576 0.5612608790 4292778160
-0.2620968223 -0.0677227601 0.5622231364 4292646574
-0.2621251941 -0.0671053529 0.5622839928 4292977335
-0.2621532679 -0.0664877370 0.5623442531 4293503679
-0.2621811032 -0.0658699274 0.5624039769 4293371580
-0.2622087002 -0.0652519241 0.5624631643 4292911029
-0.2618157864 -0.0645301417 0.5616202950 4293368243
-0.2618428171 -0.0639127418 0.5616782904 4293499829
-0.2618696094 -0.0632951483 0.5617357492 4293368757
-0.2618961334 -0.0626773685 0.5617926121 4293171378
-0.2619223893 -0.0620594025 0.5618489981 4293105071
-0.2619484067 -0.0614412501 0.5619047880 4293368243
-0.2619741857 -0.0608229153 0.5619600415 4293303477
-0.2619996965 -0.0602043979 0.5620147586 4293237684
-0.2620249391 -0.0595857017 0.5620689392 4293043385
-0.2616293132 -0.0588721745 0.5612202287 4293503936
-0.2616539896 -0.0582541190 0.5612732172 4292982212
-0.2616784275 -0.0576358885 0.5613256693 4293508556
-0.2727602720 -0.1455847025 0.5864946246 4290491580
-0.2728190422 -0.1449642777 0.5866209269 4289636271
-0.2732891440 -0.1445611715 0.5876317620 4289437864
-0.2733475268 -0.1439390182 0.5877573490 4288714141
-0.2738174498 -0.1435323060 0.5887677670 4288383381
-0.2734636366 -0.1426935196 0.5880069733 4287725451
-0.2735213339 -0.1420701742 0.5881310701 4287197566
-0.2735788226 -0.1414464414 0.5882546306 4286934394
-0.2732239664 -0.1406102329 0.5874916315 4287129976
-0.2732808888 -0.1399866492 0.5876140594 4286735218
-0.2733376026 -0.1393626779 0.5877360106 4286603882
-0.2733940780 -0.1387383193 0.5878574252 4286340710
-0.2734503150 -0.1381135732 0.5879783630 4286274147
-0.2735063434 -0.1374884546 0.5880988240 4286142561
-0.2735621333 -0.1368629336 0.5882187486 4286403936
-0.2736176848 -0.1362370402 0.5883381963 4286206557
-0.2736729980 -0.1356107742 0.5884571671 4286073945
-0.2737280726 -0.1349841207 0.5885756016 4285810773
-0.2737829387 -0.1343570799 0.5886935592 4285874769
-0.2738375366 -0.1337296814 0.5888109803 4285743183
-0.2738919258 -0.1331018955 0.5889279246 4285742413
-0.2739460766 -0.1324737370 0.5890443325 4285742413
-0.2735867202 -0.1316463500 0.5882716775 4285807436
-0.2736403346 -0.1310184002 0.5883868933 4285807436
-0.2741071284 -0.1305870414 0.5893906355 4285873229
-0.2741603255 -0.1299574077 0.5895050168 4286004815
-0.2742133141 -0.1293274164 0.5896189213 4286399573
-0.2738523483 -0.1285029352 0.5888428092 4286925917
-0.2739047706 -0.1278731674 0.5889555216 4287582820
-0.2739569545 -0.1272430271 0.5890677571 4287714406
-0.2735949755 -0.1264212728 0.5882894397 4288108138
-0.2736466229 -0.1257913709 0.5884004235 4288502896
-0.2732839286 -0.1249717623 0.5876205564 4289159029
-0.2733350098 -0.1243421063 0.5877304077 4289290615
-0.2729716003 -0.1235246584 0.5869490504 4289749626
-0.2730221152 -0.1228952482 0.5870576501 4289881212
-0.2730723917 -0.1222654954 0.5871657729 4290208637
-0.2727079988 -0.1214508265 0.5863821507 4290274430
-0.2727577090 -0.1208213344 0.5864890814 4290536319
-0.2723925710 -0.1200088412 0.5857039690 4290536319
-0.2720270753 -0.1191979200 0.5849180818 4290601855
-0.2716611624 -0.1183885708 0.5841313004 4290536062
-0.2712948918 -0.1175808087 0.5833436847 4290470528
-0.2713430822 -0.1169534549 0.5834473372 4290404735
-0.2705611289 -0.1159700304 0.5817659497 4290470526
-0.2706087232 -0.1153439358 0.5818682909 4290470526
-0.2702409625 -0.1145415604 0.5810775161 4290536062
-0.2698727846 -0.1137407720 0.5802859068 4290536062
-0.2695042491 -0.1129415929 0.5794934630 4290535808
-0.2691353261 -0.1121440083 0.5787001848 4290601601
-0.2691814303 -0.1115201265 0.5787993073 4290535808
-0.2688118219 -0.1107247919 0.5780045390 4290470015
-0.2692728937 -0.1102714092 0.5789959431 4290470269
-0.2684870362 -0.1093081608 0.5773062110 4290338683
-0.2689476907 -0.1088531837 0.5782967210 4290272890
-0.2685767710 -0.1080614105 0.5774991512 4290272890
-0.2682054341 -0.1072712541 0.5767006874 4290404222
-0.2678337395 -0.1064827219 0.5759015083 4290338429
-0.2674616575 -0.1056958139 0.5751014352 4290469499
-0.2675052285 -0.1050739437 0.5751951337 4290469499
-0.2671324611 -0.1042893305 0.5743935704 4290469499
-0.2671754956 -0.1036678329 0.5744860768 4290403706
-0.2668020129 -0.1028855219 0.5736830831 4290469499
-0.2668444812 -0.1022643894 0.5737743378 4290469499
-0.2668867111 -0.1016429663 0.5738651156 4290469499
-0.2665122449 -0.1008636504 0.5730599761 4290601085
-0.2665539086 -0.1002426073 0.5731495619 4290469499
-0.2661787868 -0.0994656160 0.5723429322 4290535292
-0.2662198842 -0.0988449678 0.5724313259 4290666878
-0.2662607729 -0.0982240289 0.5725191832 4290601085
-0.2663013935 -0.0976028070 0.5726065636 4290469499
-0.2659249306 -0.0968295336 0.5717971325 4290864257
-0.2659650147 -0.0962087139 0.5718832612 4290666878
-0.2651709616 -0.0952879712 0.5701758862 4290732671
-0.2656274140 -0.0948174000 0.5711573958 4290929539
-0.2652496099 -0.0940488502 0.5703450441 4290995332
-0.2648714483 -0.0932819769 0.5695319176 4290995332
-0.2649101019 -0.0926627070 0.5696150064 4291258504
-0.2645312548 -0.0918982178 0.5688004494 4291324297
-0.2645693719 -0.0912793800 0.5688823462 4291324297
-0.2641898692 -0.0905172825 0.5680662990 4291259015
-0.2642273903 -0.0898988917 0.5681470633 4291127429
-0.2642647028 -0.0892802477 0.5682272315 4291193992
-0.2638842165 -0.0885212645 0.5674090981 4291391371
-0.2639209628 -0.0879030749 0.5674881339 4291128199
-0.2635397911 -0.0871465132 0.5666685700 4291588750
-0.2635760009 -0.0865287855 0.5667463541 4291588750
-0.2636119425 -0.0859108046 0.5668236613 4291720336
-0.2636476457 -0.0852925703 0.5669004321 4292181144
-0.2636830807 -0.0846740901 0.5669766665 4291852179
-0.2633003592 -0.0839221478 0.5661537051 4291456392
-0.2633352578 -0.0833041519 0.5662287474 4291982736
-0.2629518509 -0.0825546607 0.5654043555 4292181398
-0.2629861832 -0.0819371566 0.5654781461 4292510363
-0.2626021206 -0.0811901242 0.5646523833 4292707742
-0.2626359165 -0.0805731192 0.5647250414 4291720847
-0.2626694739 -0.0799558833 0.5647971630 4288496990
-0.2627027631 -0.0793384090 0.5648687482 4287510095
-0.2623174191 -0.0785953477 0.5640401840 4290076536
-0.2623501718 -0.0779783875 0.5641105771 4291984533
-0.2623826563 -0.0773612037 0.5641804338 4292709282
-0.2619963884 -0.0766213909 0.5633498430 4293038247
-0.2620283067 -0.0760047287 0.5634185076 4292183454
-0.2624786198 -0.0755082741 0.5643867850 4291591317
-0.2625101209 -0.0748901814 0.5644544959 4291262352
-0.2621226311 -0.0741534159 0.5636213422 4292709798
-0.2621535659 -0.0735358670 0.5636878610 4292644005
-0.2621842623 -0.0729181021 0.5637538433 4293038763
-0.2617958188 -0.0721846297 0.5629186034 4292909232
-0.2618259490 -0.0715674236 0.5629833937 4292975025
-0.2618558109 -0.0709500015 0.5630476475 4292909746
-0.2618854344 -0.0703323781 0.5631113052 4292843953
-0.2614957690 -0.0696029961 0.5622734427 4293040303
-0.2615248263 -0.0689859390 0.5623359084 4293303475
-0.2611345053 -0.0682591125 0.5614966154 4293237682
-0.2615822256 -0.0677512139 0.5624593496 4293171889
-0.2616105378 -0.0671335459 0.5625202060 4293107125
-0.2616386116 -0.0665156841 0.5625805855 4293304504
-0.2616664171 -0.0658976138 0.5626403689 4293041332
-0.2612746060 -0.0651747435 0.5617978573 4292778160
-0.2613018453 -0.0645572767 0.5618564487 4293171378
-0.2613288462 -0.0639396235 0.5619145632 4293302964
-0.2613556087 -0.0633217767 0.5619720817 4292576674
-0.2609625459 -0.0626030937 0.5611268878 4291326607
-0.2609887421 -0.0619858652 0.5611832142 4291262354
-0.2610146999 -0.0613684505 0.5612390041 4293301937
-0.2614600658 -0.0608485229 0.5621966720 4293896127
-0.2610658109 -0.0601330735 0.5613489747 4293040818
-0.2606712282 -0.0594194308 0.5605005026 4292253099
-0.2606961131 -0.0588022880 0.5605540276 4292516271
-0.2607207596 -0.0581849702 0.5606070161 4292647857
-0.2607451379 -0.0575674772 0.5606594086 4292911029
-0.2607692480 -0.0569498092 0.5607112646 4293174201
-0.2607931197 -0.0563319735 0.5607625842 4293371580
-0.2608167231 -0.0557139702 0.5608133078 4293176254
-0.2612600923 -0.0551845208 0.5617666841 4293373633
-0.2612832487 -0.0545651875 0.5618164539 4293310407
-0.2617262304 -0.0540324226 0.5627689362 4293705165
-0.2724521756 -0.1431585401 0.5872345567 4290292920
-0.2720989287 -0.1423213184 0.5864731669 4289569197
-0.2721564174 -0.1416996270 0.5865970850 4288843934
-0.2722136378 -0.1410775334 0.5867204070 4288186004
-0.2722706497 -0.1404550523 0.5868433118 4287987083
-0.2719160616 -0.1396209598 0.5860790610 4287460739
-0.2719725370 -0.1389986426 0.5862007737 4286606194
-0.2720287740 -0.1383759379 0.5863219500 4286408815
-0.2720847726 -0.1377528459 0.5864427090 4286276716
-0.2721405625 -0.1371293813 0.5865629315 4286145130
-0.2721961141 -0.1365055293 0.5866826177 4286209896
-0.2722514272 -0.1358812898 0.5868018866 4286078310
-0.2723065317 -0.1352566630 0.5869206190 4286141793
-0.2723613679 -0.1346316785 0.5870388150 4285878621
-0.2724159956 -0.1340063065 0.5871565938 4286270556
-0.2724703848 -0.1333805472 0.5872737765 4286007384
-0.2729368508 -0.1329552680 0.5882791877 4286071124
-0.2729908526 -0.1323278248 0.5883955956 4285939538
-0.2730446160 -0.1317000091 0.5885114670 4285873745
-0.2730981410 -0.1310718358 0.5886268616 4285676366
-0.2731514573 -0.1304432750 0.5887417197 4285348427
-0.2732045054 -0.1298143566 0.5888561010 4285282634
-0.2732573450 -0.1291850656 0.5889700055 4285349195
-0.2733099461 -0.1285554171 0.5890833139 4285612367
-0.2733623087 -0.1279254109 0.5891962051 4285808463
-0.2734144032 -0.1272950321 0.5893085003 4285808463
-0.2734662890 -0.1266642958 0.5894203186 4286399060
-0.2731047571 -0.1258428246 0.5886411071 4287056990
-0.2727428377 -0.1250229031 0.5878610611 4287844966
-0.2727938592 -0.1243930086 0.5879709721 4288108138
-0.2728446424 -0.1237627640 0.5880804062 4288698478
-0.2724816799 -0.1229455993 0.5872981548 4288895857
-0.2725318968 -0.1223156080 0.5874063969 4289551734
-0.2725818753 -0.1216852665 0.5875141025 4289749113
-0.2722178996 -0.1208708882 0.5867295861 4290208124
-0.2722673416 -0.1202408150 0.5868361592 4290273917
-0.2719026506 -0.1194286197 0.5860501528 4290404733
-0.2715376019 -0.1186180040 0.5852632523 4290404733
-0.2715861499 -0.1179888248 0.5853679180 4290470528
-0.2712203860 -0.1171804070 0.5845795870 4290470528
-0.2708542049 -0.1163735762 0.5837903619 4290536319
-0.2704876661 -0.1155683398 0.5830003023 4290602112
-0.2701207399 -0.1147646904 0.5822094679 4290602112
-0.2701677978 -0.1141376868 0.5823108554 4290536319
-0.2698001564 -0.1133362651 0.5815184712 4290470528
-0.2694321573 -0.1125364453 0.5807253122 4290470528
-0.2690637708 -0.1117382273 0.5799312592 4290602114
-0.2686949670 -0.1109416187 0.5791363716 4290470528
-0.2691552639 -0.1104871035 0.5801284909 4290404733
-0.2687858641 -0.1096917838 0.5793322921 4290273147
-0.2688309252 -0.1090663895 0.5794294477 4290273147
-0.2684608400 -0.1082733348 0.5786316991 4290338940
-0.2680903375 -0.1074819043 0.5778331757 4290404735
-0.2677194774 -0.1066920906 0.5770338774 4290338942
-0.2677633762 -0.1060683578 0.5771284699 4290272636
-0.2673918307 -0.1052808315 0.5763276219 4290338429
-0.2674351633 -0.1046574563 0.5764210820 4290206843
-0.2670629323 -0.1038722321 0.5756187439 4290206843
-0.2666903138 -0.1030886397 0.5748156309 4290404222
-0.2667328119 -0.1024663001 0.5749071836 4290404222
-0.2667750418 -0.1018436551 0.5749981999 4290338429
-0.2664014101 -0.1010630578 0.5741929412 4290404222
-0.2664431036 -0.1004408002 0.5742827654 4290404222
-0.2660688162 -0.0996625349 0.5734760165 4290272636
-0.2661099434 -0.0990406647 0.5735647082 4290404476
-0.2661508322 -0.0984185115 0.5736528039 4290470269
-0.2657755315 -0.0976432636 0.5728439093 4290272890
-0.2653998733 -0.0968696848 0.5720342398 4290667648
-0.2654398978 -0.0962486193 0.5721204877 4290338683
-0.2650635540 -0.0954773948 0.5713093281 4290536062
-0.2651030123 -0.0948567539 0.5713944435 4290600572
-0.2651422322 -0.0942358300 0.5714789629 4290666365
-0.2647649348 -0.0934676751 0.5706657171 4290666365
-0.2643872201 -0.0927011967 0.5698516369 4290929537
-0.2644256055 -0.0920814127 0.5699343085 4290732671
-0.2640472353 -0.0913173184 0.5691187978 4290798464
-0.2636685073 -0.0905549154 0.5683025122 4291061636
-0.2637059987 -0.0899362788 0.5683833361 4290995843
-0.2637432516 -0.0893173814 0.5684636235 4290996613
-0.2637802660 -0.0886982232 0.5685433745 4290996613
-0.2634002566 -0.0879396647 0.5677243471 4290865284
-0.2634367049 -0.0873209611 0.5678029060 4291260042
-0.2634729147 -0.0867020115 0.5678809285 4291062663
-0.2635088861 -0.0860828012 0.5679584742 4291260042
-0.2631275952 -0.0853281096 0.5671366453 4291392398
-0.2631630003 -0.0847093835 0.5672129989 4291523984
-0.2627810538 -0.0839571357 0.5663897395 4292113298
-0.2628159225 -0.0833388865 0.5664648414 4292508056
-0.2624332905 -0.0825890973 0.5656401515 4292049301
-0.2624675930 -0.0819713399 0.5657141209 4292180887
-0.2620843351 -0.0812240094 0.5648880005 4292774051
-0.2621180713 -0.0806067586 0.5649607778 4292247707
-0.2617341280 -0.0798619017 0.5641332269 4289615987
-0.2617673576 -0.0792451575 0.5642048120 4290010745
-0.2618002892 -0.0786281824 0.5642758012 4291260812
-0.2614153922 -0.0778865591 0.5634462237 4292708258
-0.2614478171 -0.0772701055 0.5635160804 4292774564
-0.2618976533 -0.0767758712 0.5644856691 4292379806
-0.2619296014 -0.0761579797 0.5645545721 4290274430
-0.2615435123 -0.0754193813 0.5637223721 4288695398
-0.2615749240 -0.0748020262 0.5637900233 4288563299
-0.2616060674 -0.0741844475 0.5638571978 4291523984
-0.2612190247 -0.0734491348 0.5630229712 4292312471
-0.2612496316 -0.0728321001 0.5630888939 4292838815
-0.2612799704 -0.0722148567 0.5631543398 4292708258
-0.2613100708 -0.0715974048 0.5632191896 4292313500
-0.2609217763 -0.0708661601 0.5623822808 4292248477
-0.2609513104 -0.0702492669 0.5624459386 4292709028
-0.2609806061 -0.0696321726 0.5625091195 4292907690
-0.2605913579 -0.0689042583 0.5616701245 4293170862
-0.2610384524 -0.0683973432 0.5626337528 4292909230
-0.2610669732 -0.0677796304 0.5626952648 4292975023
-0.2606768310 -0.0670540780 0.5618543625 4292515501
-0.2607048154 -0.0664369538 0.5619146824 4292515501
-0.2607325613 -0.0658196285 0.5619744658 4292450478
-0.2607600391 -0.0652021021 0.5620337129 4292516271
-0.2607872784 -0.0645843893 0.5620923638 4292910257
-0.2603956163 -0.0638637990 0.5612481833 4292910257
-0.2604222894 -0.0632466972 0.5613057017 4292974512
-0.2604486942 -0.0626293942 0.5613626838 4292908719
-0.2604748905 -0.0620119125 0.5614190698 4293369270
-0.2605007887 -0.0613942444 0.5614749193 4293895614
-0.2605264485 -0.0607763939 0.5615302324 4293632955
-0.2601329684 -0.0600616410 0.5606821179 4293172404
-0.2601580918 -0.0594444200 0.5607362390 4293173431
-0.2601829469 -0.0588270240 0.5607898235 4293502396
-0.2597885132 -0.0581157133 0.5599397421 4293699775
-0.2598128319 -0.0574989617 0.5599921346 4293699775
-0.2602559626 -0.0569737777 0.5609472394 4293765055
-0.2598606944 -0.0562649369 0.5600952506 4293765055
-0.2598842382 -0.0556476749 0.5601459742 4293633982
-0.2607459128 -0.0552077591 0.5620032549 4293699775
-0.2607690394 -0.0545881689 0.5620530844 4293635522
-0.2612111568 -0.0540551841 0.5630059838 4293898694
-0.2612337768 -0.0534342714 0.5630548000 4293637832
-0.2616755068 -0.0528979711 0.5640068650 4293703625
-0.2707940936 -0.1413286477 0.5850613117 4290490812
-0.2708511055 -0.1407082081 0.5851845145 4289964468
-0.2709078491 -0.1400873959 0.5853071213 4289372331
-0.2709644139 -0.1394661814 0.5854293108 4288582815
-0.2710207105 -0.1388445646 0.5855509639 4288448400
-0.2710767984 -0.1382225752 0.5856721401 4287724677
-0.2711326778 -0.1376002133 0.5857928395 4287066234
-0.2711882889 -0.1369774491 0.5859130621 4286605683
-0.2712436914 -0.1363543123 0.5860327482 4286539120
-0.2712988555 -0.1357307881 0.5861518979 4286341741
-0.2709426582 -0.1349021792 0.5853823423 4286275689
-0.2714085281 -0.1344825923 0.5863888264 4286209896
-0.2718743086 -0.1340607554 0.5873951912 4286209126
