VERSION 0.7
FIELDS x y z rgba
SIZE 4 4 4 4
TYPE F F F U
COUNT 1 1 1 1
WIDTH 920
HEIGHT 1
VIEWPOINT 0.0 0.0 0.0 1.0 0.0 0.0 0.0
POINTS 920
DATA ascii
-0.2637203038 -0.1812032163 0.5577328801 4288624186
-0.2637918293 -0.1806325167 0.5578841567 4288886331
-0.2642735541 -0.1803413928 0.5589029193 4288886331
-0.2643448114 -0.1797688752 0.5590536594 4289410104
-0.2648264766 -0.1794741452 0.5600723028 4289541690
-0.2648974657 -0.1788998246 0.5602224469 4290130744
-0.2649682760 -0.1783250272 0.5603721738 4290130744
-0.2650389075 -0.1777497679 0.5605215430 4290327348
-0.2651093304 -0.1771740615 0.5606704950 4290327348
-0.2651795447 -0.1765978932 0.5608190298 4290262580
-0.2656608522 -0.1762941629 0.5618368983 4290328373
-0.2657307982 -0.1757161915 0.5619848371 4290329140
-0.2658005655 -0.1751377434 0.5621324182 4290394933
-0.2662817240 -0.1748290807 0.5631499290 4290394930
-0.2663511932 -0.1742488295 0.5632969141 4290460723
-0.2668322623 -0.1739365608 0.5643143058 4290525238
-0.2669014633 -0.1733545214 0.5644606352 4290656824
-0.2665584981 -0.1725053936 0.5637353063 4290656824
-0.2670392990 -0.1721890718 0.5647521019 4290656824
-0.2671079040 -0.1716056764 0.5648972392 4290525752
-0.2675886154 -0.1712857485 0.5659138560 4290394166
-0.2676569521 -0.1707005501 0.5660583973 4290197302
-0.2681376040 -0.1703770161 0.5670748949 4290263095
-0.2682056129 -0.1697900295 0.5672187209 4290132279
-0.2682734430 -0.1692025810 0.5673621893 4290066486
-0.2683410645 -0.1686147004 0.5675051808 4290066232
-0.2688214183 -0.1682848632 0.5685210824 4290132025
-0.2688887715 -0.1676951945 0.5686634779 4290197818
-0.2689558864 -0.1671050638 0.5688054562 4290329404
-0.2694360316 -0.1667702794 0.5698209405 4290395710
-0.2695028782 -0.1661783755 0.5699622631 4290461503
-0.2699829340 -0.1658399850 0.5709775090 4291050039
-0.2700494528 -0.1652462929 0.5711181760 4290984246
-0.2701157331 -0.1646521538 0.5712583661 4290263863
-0.2701818347 -0.1640575826 0.5713981986 4290198070
-0.2706615925 -0.1637129039 0.5724127889 4290001981
-0.2707273662 -0.1631165445 0.5725519061 4290067774
-0.2712070048 -0.1627682596 0.5735662580 4290330177
-0.2712724805 -0.1621701121 0.5737047195 4290330177
-0.2713377178 -0.1615715474 0.5738427043 4290395199
-0.2714027762 -0.1609725505 0.5739802718 4290460992
-0.2718820572 -0.1606179625 0.5749939084 4290592062
-0.2719467878 -0.1600171924 0.5751308203 4290526269
-0.2720113099 -0.1594159901 0.5752672553 4290460992
-0.2720755935 -0.1588143557 0.5754032135 4290460992
-0.2721396983 -0.1582122892 0.5755387545 4290460739
-0.2722035646 -0.1576098204 0.5756738186 4290526532
-0.2722672224 -0.1570069045 0.5758084655 4290329406
-0.2723306715 -0.1564035863 0.5759426355 4290263613
-0.2723938823 -0.1557998359 0.5760763884 4289085769
-0.2724569142 -0.1551956683 0.5762096047 4288296253
-0.2725197077 -0.1545910835 0.5763424635 4282400580
-0.2725822926 -0.1539860666 0.5764747858 4281940029
-0.2726446390 -0.1533806473 0.5766066909 4282006850
-0.2727068067 -0.1527748108 0.5767381191 4281875264
-0.2731845379 -0.1524005383 0.5777484775 4282136896
-0.2732463479 -0.1517929435 0.5778791904 4282136896
-0.2737239003 -0.1514150649 0.5788891912 4282529605
-0.2742014527 -0.1510349214 0.5798991323 4282661191
-0.2746789753 -0.1506525129 0.5809090137 4282138173
-0.2747401893 -0.1500405073 0.5810384750 4282006587
-0.2748011649 -0.1494280845 0.5811673999 4282334788
-0.2752783895 -0.1490407437 0.5821766853 4282926925
-0.2753390074 -0.1484265774 0.5823048949 4282861132
-0.2758160532 -0.1480356455 0.5833137631 4282597960
-0.2758763134 -0.1474197358 0.5834412575 4282663240
-0.2763531804 -0.1470251977 0.5844497681 4282663240
-0.2768300176 -0.1466283947 0.5854581594 4282531140
-0.2768897712 -0.1460094303 0.5855845809 4282596933
-0.2773664296 -0.1456090212 0.5865926147 4282860105
-0.2774258256 -0.1449883282 0.5867182612 4282794312
-0.2779022753 -0.1445843130 0.5877258778 4282795081
-0.2779613137 -0.1439618915 0.5878507495 4282926667
-0.2784375846 -0.1435542852 0.5888579488 4283057998
-0.2784962356 -0.1429301351 0.5889820457 4282860619
-0.2785546780 -0.1423055828 0.5891056061 4282728519
-0.2790305912 -0.1418930590 0.5901120901 4282662726
-0.2790886462 -0.1412667930 0.5902348757 4282662212
-0.2791464627 -0.1406401396 0.5903571844 4282596419
-0.2792040706 -0.1400130838 0.5904789567 4283120454
-0.2796794772 -0.1395943165 0.5914844275 4282923075
-0.2797366977 -0.1389655471 0.5916054249 4282531654
-0.2797936797 -0.1383364052 0.5917258859 4282860619
-0.2798503935 -0.1377068758 0.5918458700 4283254349
-0.2803252935 -0.1372818649 0.5928502679 4283254349
-0.2803816497 -0.1366506219 0.5929694176 4283189835
-0.2804377675 -0.1360190064 0.5930880904 4283321421
-0.2809122801 -0.1355890930 0.5940916538 4283845966
-0.2809680104 -0.1349557787 0.5942094922 4284109138
-0.2814423144 -0.1345222592 0.5952125788 4284370774
-0.2819165289 -0.1340864897 0.5962154865 4284304981
-0.2823906839 -0.1336484551 0.5972182155 4284437083
-0.2824456692 -0.1330108047 0.5973345637 4284634462
-0.2829195857 -0.1325691789 0.5983368158 4285879137
-0.2829741836 -0.1319298446 0.5984522700 4286273895
-0.2834478617 -0.1314846426 0.5994539857 4286736246
-0.2835020423 -0.1308436245 0.5995686054 4287196797
-0.2839754522 -0.1303948462 0.6005698442 4287592576
-0.2840292454 -0.1297521293 0.6006835699 4288776850
-0.2840828001 -0.1291090697 0.6007968187 4289174942
-0.2841360867 -0.1284656376 0.6009095311 4290293423
-0.2841891348 -0.1278218478 0.6010217071 4291477445
-0.2842419446 -0.1271776855 0.6011334062 4292595926
-0.2842944860 -0.1265331805 0.6012445688 4293448414
-0.2693438828 -0.2121471167 0.5709671378 4289832618
-0.2690209746 -0.2112591565 0.5702826381 4289162354
-0.2691023052 -0.2106892169 0.5704550743 4288833389
-0.2691834867 -0.2101187706 0.5706271529 4289746779
-0.2684546709 -0.2089175731 0.5690822005 4289088849
-0.2677251995 -0.2077193111 0.5675358176 4289348423
-0.2665899098 -0.2062105834 0.5651292205 4288427321
-0.2650484741 -0.2043939829 0.5618615746 4288624189
-0.2635058761 -0.2025837749 0.5585914850 4287966259
-0.2619621456 -0.2007799447 0.5553190708 4283381058
-0.2608229220 -0.1992924809 0.5529040694 4282459956
-0.2600885630 -0.1981187761 0.5513473153 4281804083
-0.2597594261 -0.1972562522 0.5506496429 4281738290
-0.2598358691 -0.1967023164 0.5508117080 4281279279
-0.2595060468 -0.1958414018 0.5501124859 4281279279
-0.2595820427 -0.1952873617 0.5502735972 4281345072
-0.2596578598 -0.1947328299 0.5504342914 4281345072
-0.2601399720 -0.1944816858 0.5514563322 4281739571
-0.2606221437 -0.1942283213 0.5524784327 4281739571
-0.2606976926 -0.1936706007 0.5526385903 4281608244
-0.2607730627 -0.1931123883 0.5527983308 4281608244
-0.2604413033 -0.1922533065 0.5520951152 4281477687
-0.2601091564 -0.1913954765 0.5513909459 4281346101
-0.2605909407 -0.1911362112 0.5524122715 4281609273
-0.2610727549 -0.1908747256 0.5534337163 4282530375
-0.2611472607 -0.1903140992 0.5535916090 4287706422
-0.2604065239 -0.1891609430 0.5520213842 4288430145
-0.2608880699 -0.1888962686 0.5530421734 4289741114
-0.2601464093 -0.1877465397 0.5514699221 4289609528
-0.2602198422 -0.1871866435 0.5516256094 4289870396
-0.2602930963 -0.1866262704 0.5517808795 4289738810
-0.2603661716 -0.1860654205 0.5519357920 4289673268
-0.2604390681 -0.1855041087 0.5520903468 4289541682
-0.2609201074 -0.1852321923 0.5531100631 4289935151
-0.2609927356 -0.1846690625 0.5532640815 4290000944
-0.2614737749 -0.1843935549 0.5542837381 4290000952
-0.2615461648 -0.1838286072 0.5544372201 4290066745
-0.2612096071 -0.1829768270 0.5537237525 4290394170
-0.2616904378 -0.1826972663 0.5547430515 4290394170
-0.2625802755 -0.1827000678 0.5566294193 4290000699
-0.2622430623 -0.1818477660 0.5559145212 4290000699
-0.2631331086 -0.1818452030 0.5578013062 4289935670
-0.2632047534 -0.1812747717 0.5579531789 4289935670
-0.2636856437 -0.1809849292 0.5589725971 4290001465
-0.2637570202 -0.1804126799 0.5591238737 4290067258
-0.2642378807 -0.1801192313 0.5601432323 4290066745
-0.2643089592 -0.1795451790 0.5602939129 4290066745
-0.2643798888 -0.1789706498 0.5604442954 4290263097
-0.2644506097 -0.1783956736 0.5605942011 4290197304
-0.2645211518 -0.1778202355 0.5607437491 4290262584
-0.2650017142 -0.1775191277 0.5617624521 4290394170
-0.2650719881 -0.1769418716 0.5619114041 4290459709
-0.2655524909 -0.1766371578 0.5629299879 4290459709
-0.2656224668 -0.1760580987 0.5630783439 4290328636
-0.2656922638 -0.1754785776 0.5632263422 4290262843
-0.2657618821 -0.1748985946 0.5633738637 4290328890
-0.2662421465 -0.1745875776 0.5643919706 4290526269
-0.2663114667 -0.1740057915 0.5645388961 4290263095
-0.2663805783 -0.1734235585 0.5646854639 4290526267
-0.2664495111 -0.1728408635 0.5648315549 4290526265
-0.2669295371 -0.1725235432 0.5658491254 4290526265
-0.2669981718 -0.1719390452 0.5659946203 4290263863
-0.2674781382 -0.1716181338 0.5670120716 4290132277
-0.2675464749 -0.1710318327 0.5671569705 4290198072
-0.2676146328 -0.1704450846 0.5673013926 4290263865
-0.2676825821 -0.1698578894 0.5674454570 4290394170
-0.2677503228 -0.1692702472 0.5675890446 4290525756
-0.2682299018 -0.1689416617 0.5686057210 4290656570
-0.2687094808 -0.1686108410 0.5696223378 4290524984
-0.2683646083 -0.1677623540 0.5688912272 4290459963
-0.2688439786 -0.1674288213 0.5699074268 4290459963
-0.2689109147 -0.1668371409 0.5700493455 4290263611
-0.2693901956 -0.1665000021 0.5710653663 4290329404
-0.2694568634 -0.1659065485 0.5712066293 4290197820
-0.2699360251 -0.1655658036 0.5722224116 4290526785
-0.2700023651 -0.1649705470 0.5723630190 4290066745
-0.2704814374 -0.1646261960 0.5733786225 4290066745
-0.2705474496 -0.1640291512 0.5735185146 4290395451
-0.2706132531 -0.1634316742 0.5736580491 4290198072
-0.2706788480 -0.1628337651 0.5737971067 4290263093
-0.2707442641 -0.1622354239 0.5739357471 4290263093
-0.2708094418 -0.1616366357 0.5740739107 4290393652
-0.2712879479 -0.1612832844 0.5750883222 4290196273
-0.2717664540 -0.1609276682 0.5761026740 4290262066
-0.2718312144 -0.1603257656 0.5762399435 4290262066
-0.2718957365 -0.1597234458 0.5763767362 4289671728
-0.2719600797 -0.1591206789 0.5765130520 4289605935
-0.2720241845 -0.1585174948 0.5766490102 4289345332
-0.2720880806 -0.1579138786 0.5767844319 4289542711
-0.2721517682 -0.1573098451 0.5769194365 4289212978
-0.2722152174 -0.1567053795 0.5770539641 4289081392
-0.2722784877 -0.1561004966 0.5771880746 4288886834
-0.2723415196 -0.1554951817 0.5773217082 4288755248
-0.2724043429 -0.1548894644 0.5774548650 4282466627
-0.2720522285 -0.1540484875 0.5767084360 4281413939
-0.2721145451 -0.1534428447 0.5768405199 4282069308
-0.2725915015 -0.1530697793 0.5778516531 4282332480
-0.2726534605 -0.1524623930 0.5779829621 4281807157
-0.2727152109 -0.1518545896 0.5781138539 4281938743
-0.2731918991 -0.1514765769 0.5791243911 4281546050
-0.2736685574 -0.1510962993 0.5801348090 4281480257
-0.2741452157 -0.1507137716 0.5811452270 4281939002
-0.2742063403 -0.1501015425 0.5812748075 4281939002
-0.2742672563 -0.1494888961 0.5814039707 4281939778
-0.2747435868 -0.1491014212 0.5824137330 4282268743
-0.2748041451 -0.1484870464 0.5825420618 4282333507
-0.2748644948 -0.1478722543 0.5826699734 4282136128
-0.2753405273 -0.1474798471 0.5836790800 4282135615
-0.2754004896 -0.1468633264 0.5838062167 4282267201
-0.2758763433 -0.1464673132 0.5848149657 4282333507
-0.2763521671 -0.1460690349 0.5858236551 4282530886
-0.2764116526 -0.1454494447 0.5859497190 4282531915
-0.2768872678 -0.1450475603 0.5869579315 4282663501
-0.2769463658 -0.1444262415 0.5870832801 4282466635
-0.2770052552 -0.1438045204 0.5872080922 4282598221
-0.2774805427 -0.1433977038 0.5882156491 4282861391
-0.2775390744 -0.1427742541 0.5883396864 4283124563
-0.2775973380 -0.1421504170 0.5884632468 4283191126
-0.2776553929 -0.1415261775 0.5885862708 4283585884
-0.2781302035 -0.1411131173 0.5895928144 4284178280
-0.2781878710 -0.1404871643 0.5897150636 4284573038
-0.2782453299 -0.1398608238 0.5898368359 4284967537
-0.2787197828 -0.1394428462 0.5908426046 4285296502
-0.2787768245 -0.1388147920 0.5909635425 4285822330
-0.2788336575 -0.1381863505 0.5910840034 4286414467
-0.2788902521 -0.1375575215 0.5912039876 4287137164
-0.2793641984 -0.1371333003 0.5922086835 4287597715
-0.2794204056 -0.1365027726 0.5923278332 4287926680
-0.2794763744 -0.1358718574 0.5924464464 4288124059
-0.2795321047 -0.1352405697 0.5925645828 4288715169
-0.2800055146 -0.1348101199 0.5935681462 4288978341
-0.2804788351 -0.1343773901 0.5945715308 4289306278
-0.2809520960 -0.1339424103 0.5955747962 4289437864
-0.2810071409 -0.1333067864 0.5956914425 4289765800
-0.2814801633 -0.1328682154 0.5966941714 4289963179
-0.2815347910 -0.1322309077 0.5968099833 4290226097
-0.2820075750 -0.1317887455 0.5978122354 4290423476
-0.2820617855 -0.1311497390 0.5979271531 4290751929
-0.2825343311 -0.1307040155 0.5989288688 4291146687
-0.2825881541 -0.1300633252 0.5990429521 4291345349
-0.2826417089 -0.1294222772 0.5991564989 4291608521
-0.2826950550 -0.1287808567 0.5992695689 4291740619
-0.2827481329 -0.1281390935 0.5993821025 4292069584
-0.2828009725 -0.1274969429 0.5994940996 4292464599
-0.2828535438 -0.1268544495 0.5996055603 4292990943
-0.2680058777 -0.2115914375 0.5694715977 4291280325
-0.2676834464 -0.2107048929 0.5687864423 4288968059
-0.2677644491 -0.2101365030 0.5689585805 4288310129
-0.2674412727 -0.2092515081 0.5682719350 4290073691
-0.2667135894 -0.2080524862 0.5667257309 4289086796
-0.2659852505 -0.2068563849 0.5651780963 4289479238
-0.2644475698 -0.2050361931 0.5619106889 4289216066
-0.2629087269 -0.2032223791 0.5586408973 4288952125
-0.2617733479 -0.2017267495 0.5562283993 4287965230
-0.2610417902 -0.2005467117 0.5546739697 4282988868
-0.2603095770 -0.1993696392 0.5531181097 4282067766
-0.2591717541 -0.1978863329 0.5507004857 4281739317
-0.2600584328 -0.1979493797 0.5525845289 4281805110
-0.2597298622 -0.1970860660 0.5518863201 4281542453
-0.2598061562 -0.1965306103 0.5520484447 4281542453
-0.2598823011 -0.1959746629 0.5522102118 4281476145
-0.2595527172 -0.1951133609 0.5515099168 4281410352
-0.2604397237 -0.1951652914 0.5533946753 4281674037
-0.2609212399 -0.1949101388 0.5544178486 4281674037
-0.2614028454 -0.1946527511 0.5554411411 4281477687
-0.2610724568 -0.1937903613 0.5547391176 4281411894
-0.2607416511 -0.1929292381 0.5540362000 4281412407
-0.2604104280 -0.1920693815 0.5533323884 4281346614
-0.2608915567 -0.1918083131 0.5543547273 4281543993
-0.2609662414 -0.1912471205 0.5545134544 4282201923
-0.2610407472 -0.1906854510 0.5546717644 4286329395
-0.2611151040 -0.1901232898 0.5548297167 4287118911
-0.2607824206 -0.1892654002 0.5541228652 4289411634
-0.2604493499 -0.1884087771 0.5534151196 4289477427
-0.2605229020 -0.1878469437 0.5535714626 4289542711
-0.2601891160 -0.1869920045 0.5528621674 4289476918
-0.2602622211 -0.1864300966 0.5530175567 4289935670
-0.2603351474 -0.1858677119 0.5531724691 4290067256
-0.2608154118 -0.1855948567 0.5541929603 4289738542
-0.2608880997 -0.1850306541 0.5543473959 4290001714
-0.2613683641 -0.1847542077 0.5553678870 4290001463
-0.2614407837 -0.1841881871 0.5555217862 4289869877
-0.2619209886 -0.1839081496 0.5565421581 4289934898
-0.2615850866 -0.1830547303 0.5558283925 4290000691
-0.2620651722 -0.1827719808 0.5568485260 4289738809
-0.2621369660 -0.1822031885 0.5570010543 4289738809
-0.2626170218 -0.1819168627 0.5580211282 4290065967
-0.2630971074 -0.1816282868 0.5590412021 4290197553
-0.2631685734 -0.1810563207 0.5591930747 4290197554
-0.2636486292 -0.1807641536 0.5602130890 4290197554
-0.2641287148 -0.1804697365 0.5612332225 4290263093
-0.2637908757 -0.1796161234 0.5605153441 4290131507
-0.2642707825 -0.1793189943 0.5615350604 4290065714
-0.2643415332 -0.1787429303 0.5616854429 4290197300
-0.2644121051 -0.1781664044 0.5618353486 4290000691
-0.2644824684 -0.1775894165 0.5619848967 4290132277
-0.2649621665 -0.1772859842 0.5630041957 4290264122
-0.2650322616 -0.1767071784 0.5631531477 4290329915
-0.2655119300 -0.1764001399 0.5641723275 4290198331
-0.2655817568 -0.1758195311 0.5643206835 4290132538
-0.2656513751 -0.1752384603 0.5644686222 4290328888
-0.2657208145 -0.1746569276 0.5646161437 4290460474
-0.2662002146 -0.1743435860 0.5656348467 4290656319
-0.2662693560 -0.1737602502 0.5657817721 4290590526
-0.2667486966 -0.1734433025 0.5668002963 4290524988
-0.2664070725 -0.1725922227 0.5660743713 4290656574
-0.2668862343 -0.1722725630 0.5670924783 4290591295
-0.2669546902 -0.1716865152 0.5672379732 4290328123
-0.2674337626 -0.1713632494 0.5682559609 4290000441
-0.2675019503 -0.1707753986 0.5684008002 4290066234
-0.2675699294 -0.1701871008 0.5685452223 4290132025
-0.2676376998 -0.1695983559 0.5686892271 4290263611
-0.2677052617 -0.1690091640 0.5688328147 4290460474
-0.2681839764 -0.1686782241 0.5698499680 4290328888
-0.2682512403 -0.1680872440 0.5699929595 4290262582
-0.2687298357 -0.1677526981 0.5710098743 4290262582
-0.2687968016 -0.1671599150 0.5711522102 4290394170
-0.2692753077 -0.1668217629 0.5721689463 4290459963
-0.2693419755 -0.1662271917 0.5723106265 4290458421
-0.2694084346 -0.1656321734 0.5724518299 4290721593
-0.2698867321 -0.1652890593 0.5734680891 4290524725
-0.2699528635 -0.1646922529 0.5736086965 4290393139
-0.2704310715 -0.1643455327 0.5746247172 4290590777
-0.2704969049 -0.1637469381 0.5747646093 4290656570
-0.2705625296 -0.1631478965 0.5749040842 4290196791
-0.2706279457 -0.1625484377 0.5750430822 4289999412
-0.2706931531 -0.1619485319 0.5751816034 4289933619
-0.2711708844 -0.1615941525 0.5761967301 4289867826
-0.2712357640 -0.1609924734 0.5763345957 4289868339
-0.2717133760 -0.1606344730 0.5773494840 4289868339
-0.2717779279 -0.1600310206 0.5774866343 4289409328
-0.2718422711 -0.1594271213 0.5776233673 4289211949
-0.2719064057 -0.1588228047 0.5777596235 4289081392
-0.2719703317 -0.1582180560 0.5778954625 4289278771
-0.2720340490 -0.1576128900 0.5780308247 4288881442
-0.2720975280 -0.1570072919 0.5781657696 4289736751
-0.2721608281 -0.1564012766 0.5783002377 4289148725
-0.2722238898 -0.1557948291 0.5784342289 4288227623
-0.2722867131 -0.1551879644 0.5785677433 4281939002
-0.2719354630 -0.1543457508 0.5778213143 4281478451
-0.2719977796 -0.1537389755 0.5779537559 4281938240
-0.2720598578 -0.1531317830 0.5780857205 4282201412
-0.2725359499 -0.1527563334 0.5790972710 4281807417
-0.2725977004 -0.1521473825 0.5792285204 4281873210
-0.2726592422 -0.1515380144 0.5793592930 4281611843
-0.2731350362 -0.1511576176 0.5803702474 4281875015
-0.2736107707 -0.1507749557 0.5813811421 4282465347
-0.2736718357 -0.1501625031 0.5815109015 4282399554
-0.2737326920 -0.1495496482 0.5816401839 4282334539
-0.2742081583 -0.1491620392 0.5826504827 4282597711
-0.2742686272 -0.1485474408 0.5827789903 4282467151
-0.2743289173 -0.1479324251 0.5829070807 4282664530
-0.2743889391 -0.1473170072 0.5830346346 4283058772
-0.2748639584 -0.1469231248 0.5840439796 4283453530
-0.2749236524 -0.1463059783 0.5841708183 4283914081
-0.2753984928 -0.1459084898 0.5851798058 4284506218
-0.2754578292 -0.1452896148 0.5853058100 4284967285
-0.2759324908 -0.1448885351 0.5863143802 4285427836
-0.2759914398 -0.1442679167 0.5864396691 4286019973
-0.2764658928 -0.1438632309 0.5874478221 4286283145
-0.2765244842 -0.1432408839 0.5875723362 4286809743
-0.2765828371 -0.1426181346 0.5876963735 4287336087
-0.2766409814 -0.1419949979 0.5878198743 4287730591
-0.2766988873 -0.1413714737 0.5879428983 4288322728
-0.2767565548 -0.1407475621 0.5880654454 4289046451
-0.2768139839 -0.1401232481 0.5881874561 4289507002
-0.2772875428 -0.1397083253 0.5891937017 4289835451
-0.2773445845 -0.1390822977 0.5893149376 4290032830
-0.2774014175 -0.1384558976 0.5894356966 4290295743
-0.2774580121 -0.1378290951 0.5895559192 4290558915
-0.2779310644 -0.1374079287 0.5905610919 4290887367
-0.2779872715 -0.1367794275 0.5906805396 4291018953
-0.2780432403 -0.1361505538 0.5907994509 4291215562
-0.2780989707 -0.1355212927 0.5909178853 4291281355
-0.2781544626 -0.1348916590 0.5910357833 4291609807
-0.2786268294 -0.1344629377 0.5920395255 4291741393
-0.2790991366 -0.1340319514 0.5930430889 4291937743
-0.2795713544 -0.1335987002 0.5940464735 4291871950
-0.2796261609 -0.1329647303 0.5941629410 4291937486
-0.2800981700 -0.1325278878 0.5951658487 4291937486
-0.2801525593 -0.1318922341 0.5952814221 4292069072
-0.2806243002 -0.1314518154 0.5962838531 4292134865
-0.2806783020 -0.1308144629 0.5963985920 4292069072
-0.2811498344 -0.1303704679 0.5974004865 4292266451
-0.2812034190 -0.1297314316 0.5975143313 4292266708
-0.2812567651 -0.1290920377 0.5976276994 4292398294
-0.2813098729 -0.1284522861 0.5977405310 4292530393
-0.2813627422 -0.1278121620 0.5978528857 4292793565
-0.2814153433 -0.1271716803 0.5979647040 4292991713
-0.2670733035 -0.2113539577 0.5688324571 4292137436
-0.2671543658 -0.2107859105 0.5690051317 4289302675
-0.2668322027 -0.2099002749 0.5683189631 4286868334
-0.2669128180 -0.2093320489 0.5684906840 4289811030
-0.2665899694 -0.2084479630 0.5678029656 4289350479
-0.2662666738 -0.2075650841 0.5671144724 4289086016
-0.2655394375 -0.2063697875 0.5655654669 4288822844
-0.2644078434 -0.2048646510 0.5631553531 4288362297
-0.2628715634 -0.2030522674 0.5598832965 4287506988
-0.2617380917 -0.2015573233 0.5574691296 4282596681
-0.2614117861 -0.2006874382 0.5567741394 4281741372
-0.2602767646 -0.1992001384 0.5543566942 4281543480
-0.2599493861 -0.1983344406 0.5536594391 4281543480
-0.2600260079 -0.1977775693 0.5538226366 4281608246
-0.2601024806 -0.1972201914 0.5539854765 4281608246
-0.2597741187 -0.1963564903 0.5532861352 4281607731
-0.2602548599 -0.1961039901 0.5543100238 4281673524
-0.2607356608 -0.1958492696 0.5553340912 4281608503
-0.2612165511 -0.1955923140 0.5563582778 4281608503
-0.2616974711 -0.1953331381 0.5573826432 4281347384
-0.2613680363 -0.1944687217 0.5566809177 4281347384
-0.2614434958 -0.1939061880 0.5568417311 4281347384
-0.2611133456 -0.1930434108 0.5561385155 4281347384
-0.2607828081 -0.1921819001 0.5554344654 4281543480
-0.2612631917 -0.1919176728 0.5564576983 4281806652
-0.2613378763 -0.1913540661 0.5566166639 4284493106
-0.2614123523 -0.1907899827 0.5567753315 4285216829
-0.2610806227 -0.1899300516 0.5560687780 4289146156
-0.2611546218 -0.1893658787 0.5562264323 4289606707
-0.2608221769 -0.1885076016 0.5555183887 4289607732
-0.2604893446 -0.1876506209 0.5548094511 4289541939
-0.2605625987 -0.1870867759 0.5549654961 4289868853
-0.2606356740 -0.1865224540 0.5551210642 4290000439
-0.2607085407 -0.1859576702 0.5552763343 4289803825
-0.2607812583 -0.1853923947 0.5554311872 4290066997
-0.2612607181 -0.1851150095 0.5564523935 4290132536
-0.2613331676 -0.1845479161 0.5566067100 4289935157
-0.2614054382 -0.1839803457 0.5567606688 4290000689
-0.2614775300 -0.1834123135 0.5569142103 4290066482
-0.2619568408 -0.1831286103 0.5579350591 4289935159
-0.2620286942 -0.1825587600 0.5580880642 4289803573
-0.2625079453 -0.1822714657 0.5591088533 4290524212
-0.2625795305 -0.1816997826 0.5592612624 4290590005
-0.2630587518 -0.1814088821 0.5602819920 4290393141
-0.2631300688 -0.1808353812 0.5604338646 4290393141
-0.2636092603 -0.1805408895 0.5614544749 4290524727
-0.2636803091 -0.1799655706 0.5616058111 4290458934
-0.2641594410 -0.1796674728 0.5626263022 4290196791
-0.2642302215 -0.1790903211 0.5627771020 4290459963
-0.2643008232 -0.1785127074 0.5629274249 4290132025
-0.2643712163 -0.1779346466 0.5630773902 4290197818
-0.2648501396 -0.1776302308 0.5640974045 4290264126
-0.2649202645 -0.1770503372 0.5642467737 4290264126
-0.2653991282 -0.1767423302 0.5652667284 4290328637
-0.2654689848 -0.1761606187 0.5654154420 4290262844
-0.2655386329 -0.1755784601 0.5655637980 4290524733
-0.2660173476 -0.1752654761 0.5665833950 4290458940
-0.2660867274 -0.1746815145 0.5667311549 4289935668
-0.2661558986 -0.1740970761 0.5668784976 4289738289
-0.2666344643 -0.1737791300 0.5678977966 4289803312
-0.2667033374 -0.1731928885 0.5680444837 4290263863
-0.2671818137 -0.1728713363 0.5690636039 4290525752
-0.2672504187 -0.1722832918 0.5692096949 4290065201
-0.2673188150 -0.1716947854 0.5693553686 4289998640
-0.2673870325 -0.1711058319 0.5695006251 4290130226
-0.2674550116 -0.1705164313 0.5696454644 4290525754
-0.2675228119 -0.1699265838 0.5697898865 4290525754
-0.2680008411 -0.1695960015 0.5708079934 4290394168
-0.2680683434 -0.1690043509 0.5709517598 4290130996
-0.2681356370 -0.1684122533 0.5710951090 4289802031
-0.2686134577 -0.1680767089 0.5721127987 4289736238
-0.2686804533 -0.1674828082 0.5722554922 4289998642
-0.2691581547 -0.1671436429 0.5732729435 4289998642
-0.2692248523 -0.1665479541 0.5734149814 4290063411
-0.2692913413 -0.1659518182 0.5735566020 4289997618
-0.2697688341 -0.1656076908 0.5745736361 4289998644
-0.2698350251 -0.1650097668 0.5747145414 4289735472
-0.2703124285 -0.1646620333 0.5757313967 4289671476
-0.2703782916 -0.1640623212 0.5758716464 4290000441
-0.2704439163 -0.1634621620 0.5760114789 4289277488
-0.2705093622 -0.1628615707 0.5761508346 4289145902
-0.2705745995 -0.1622605473 0.5762897730 4289408817
-0.2710515559 -0.1619051397 0.5773056149 4289145645
-0.2711164653 -0.1613023281 0.5774438977 4289211175
-0.2715932727 -0.1609433144 0.5784594417 4289605933
-0.2716578841 -0.1603387147 0.5785970092 4290065968
-0.2717222273 -0.1597336978 0.5787340999 4289802796
-0.2717863917 -0.1591282487 0.5788707733 4289276451
-0.2718503475 -0.1585223675 0.5790069699 4289013279
-0.2715014517 -0.1576764286 0.5782638788 4288881958
-0.2719776034 -0.1573093235 0.5792779922 4289276716
-0.2716280818 -0.1564643830 0.5785335898 4287506216
-0.2716910839 -0.1558577269 0.5786677003 4286058770
-0.2717538476 -0.1552506387 0.5788013935 4281215280
-0.2718164027 -0.1546431482 0.5789346695 4281610038
-0.2718787491 -0.1540352255 0.5790674090 4281676096
-0.2719408572 -0.1534268856 0.5791997313 4281939268
-0.2720027566 -0.1528181434 0.5793315768 4282137411
-0.2720644474 -0.1522089690 0.5794630051 4281940032
-0.2721259296 -0.1515993923 0.5795938969 4281743942
-0.2726008296 -0.1512188613 0.5806053877 4282072907
-0.2726619542 -0.1506075263 0.5807355642 4282795341
-0.2727228701 -0.1499957889 0.5808653235 4283321685
-0.2727835476 -0.1493836343 0.5809945464 4284045416
-0.2728440166 -0.1487710774 0.5811233521 4284703346
-0.2729042470 -0.1481581181 0.5812516212 4285231998
-0.2733784616 -0.1477686316 0.5822616816 4285758342
-0.2734383643 -0.1471539289 0.5823892355 4286547600
-0.2739124000 -0.1467608362 0.5833988786 4287205530
-0.2739719152 -0.1461443901 0.5835256577 4288060069
-0.2744458020 -0.1457477212 0.5845349431 4288652206
-0.2745049596 -0.1451295316 0.5846609473 4289244344
-0.2745639086 -0.1445109546 0.5847864747 4289704895
-0.2750374675 -0.1441093385 0.5857951045 4289901761
-0.2750960290 -0.1434890330 0.5859198570 4290033347
-0.2751543820 -0.1428683251 0.5860441327 4290427590
-0.2752124965 -0.1422472298 0.5861679316 4290427590
-0.2756855786 -0.1418393552 0.5871754885 4290427590
-0.2757433057 -0.1412165314 0.5872985125 4290559176
-0.2758008242 -0.1405933201 0.5874210000 4290756555
-0.2758581042 -0.1399697214 0.5875430107 4290953934
-0.2759151757 -0.1393457353 0.5876645446 4291019212
-0.2763876021 -0.1389302760 0.5886707902 4291085005
-0.2764442861 -0.1383045763 0.5887914896 4291085005
-0.2765007317 -0.1376784891 0.5889117122 4291150798
-0.2765569389 -0.1370520145 0.5890313983 4291282125
-0.2770288885 -0.1366303265 0.5900365710 4291347918
-0.2770847082 -0.1360021532 0.5901554823 4291478736
-0.2771402895 -0.1353735924 0.5902738571 4291478736
-0.2771956325 -0.1347446740 0.5903917551 4291609807
-0.2776670456 -0.1343167424 0.5913957953 4291675600
-0.2781383991 -0.1338865459 0.5923997164 4291872465
-0.2781932056 -0.1332546026 0.5925164819 4291872465
-0.2786643207 -0.1328208148 0.5935198665 4292069331
-0.2787187397 -0.1321871877 0.5936357379 4292135124
-0.2791896164 -0.1317498237 0.5946386456 4292266710
-0.2792436182 -0.1311144978 0.5947537422 4292332503
-0.2797142565 -0.1306735426 0.5957561135 4292267223
-0.2797678709 -0.1300365478 0.5958703160 4292267223
-0.2798212469 -0.1293991655 0.5959839821 4292398809
-0.2798743844 -0.1287614256 0.5960971713 4292530395
-0.2803444564 -0.1283142716 0.5970983505 4292662495
-0.2803971767 -0.1276748627 0.5972106457 4292925667
-0.2661363184 -0.2142683119 0.5681809187 4292402144
-0.2658165991 -0.2133803666 0.5674983263 4292204765
-0.2658981383 -0.2128150910 0.5676723719 4292269790
-0.2659794986 -0.2122492790 0.5678460598 4292203997
-0.2660606802 -0.2116829604 0.5680193901 4292203488
-0.2657396793 -0.2107972205 0.5673340559 4291874523
-0.2658204138 -0.2102307230 0.5675064325 4290950840
-0.2654986978 -0.2093465179 0.5668196082 4287069053
-0.2655789852 -0.2087798417 0.5669909716 4289480784
-0.2652565539 -0.2078971863 0.5663026571 4289086026
-0.2649337351 -0.2070157230 0.5656134486 4289019709
-0.2638050020 -0.2055079788 0.5632036924 4289019709
-0.2626753449 -0.2040048987 0.5607919693 4288493113
-0.2615448236 -0.2025064826 0.5583783984 4287308839
-0.2608165145 -0.2013238966 0.5568234921 4281939521
-0.2604908049 -0.2004545778 0.5561281443 4281347384
-0.2601646781 -0.1995864958 0.5554319024 4281478198
-0.2598381341 -0.1987196505 0.5547347665 4281543991
-0.2599147856 -0.1981617361 0.5548983812 4281674550
-0.2599912584 -0.1976033300 0.5550616980 4281674550
-0.2604714036 -0.1973503977 0.5560867190 4281674037
-0.2605476677 -0.1967901438 0.5562495589 4281674037
-0.2610278130 -0.1965336353 0.5572746396 4281543480
-0.2615080476 -0.1962748766 0.5582998395 4281543480
-0.2615840137 -0.1957114190 0.5584620237 4281543993
-0.2616598010 -0.1951474547 0.5586238503 4281412407
-0.2617354393 -0.1945829988 0.5587853193 4281477687
-0.2614062130 -0.1937181801 0.5580824614 4281477687
-0.2614813745 -0.1931536347 0.5582429171 4281542964
-0.2615563571 -0.1925885975 0.5584030151 4281608757
-0.2616311610 -0.1920230687 0.5585626960 4282527030
-0.2617057860 -0.1914570630 0.5587220192 4283053374
-0.2613749802 -0.1905950606 0.5580158234 4288553766
-0.2614491284 -0.1900289655 0.5581741333 4289474868
-0.2615231276 -0.1894623786 0.5583320260 4289674293
-0.2611913383 -0.1886024624 0.5576236844 4289542707
-0.2608591318 -0.1877438277 0.5569145083 4289999671
-0.2609323561 -0.1871775687 0.5570707917 4289933878
-0.2610053718 -0.1866108328 0.5572267175 4289868855
-0.2610782087 -0.1860436201 0.5573822260 4289934648
-0.2611508667 -0.1854759306 0.5575373769 4289934646
-0.2612233758 -0.1849077791 0.5576921105 4289934646
-0.2617020309 -0.1846258342 0.5587140322 4290000689
-0.2617742717 -0.1840558499 0.5588682294 4290000689
-0.2618463039 -0.1834853888 0.5590220094 4290065464
-0.2619181573 -0.1829144657 0.5591754317 4289933878
-0.2623966634 -0.1826262027 0.5601969957 4290131507
-0.2624682486 -0.1820534468 0.5603498220 4289999921
-0.2625396848 -0.1814802289 0.5605022907 4289737519
-0.2630180418 -0.1811870039 0.5615236163 4289737519
-0.2630892098 -0.1806119680 0.5616755486 4289934898
-0.2635675371 -0.1803151369 0.5626966953 4289934898
-0.2636384070 -0.1797382683 0.5628480315 4289934898
-0.2641167045 -0.1794378459 0.5638691783 4290000691
-0.2641873062 -0.1788591594 0.5640199184 4289934898
-0.2642577291 -0.1782799959 0.5641702414 4289934898
-0.2647358775 -0.1779746115 0.5651910901 4289869107
-0.2648060322 -0.1773936450 0.5653408170 4289803314
-0.2652841210 -0.1770846397 0.5663614869 4289868337
-0.2653540075 -0.1765018553 0.5665106773 4289868337
-0.2654236853 -0.1759185940 0.5666594505 4289868337
-0.2659015954 -0.1756046265 0.5676798224 4289736751
-0.2663795650 -0.1752884090 0.5687001944 4289408554
-0.2664488554 -0.1747019887 0.5688481331 4289474347
-0.2665179670 -0.1741151065 0.5689957142 4289802542
-0.2669957578 -0.1737939119 0.5700157285 4290065714
-0.2670645714 -0.1732052118 0.5701626539 4290065201
-0.2671332061 -0.1726160645 0.5703091621 4289538857
-0.2676108181 -0.1722899079 0.5713288188 4289539372
-0.2676791549 -0.1716989428 0.5714747310 4289802544
-0.2677472830 -0.1711075306 0.5716201663 4289934900
-0.2678152025 -0.1705156714 0.5717651844 4289737521
-0.2678829432 -0.1699233651 0.5719097853 4289211947
-0.2683601677 -0.1695895195 0.5729286075 4288817189
-0.2684275806 -0.1689953953 0.5730725527 4288751396
-0.2684948146 -0.1684008390 0.5732160807 4288751396
-0.2685618401 -0.1678058356 0.5733591914 4288751396
-0.2690387666 -0.1674656570 0.5743774176 4288685603
-0.2691054940 -0.1668688506 0.5745198131 4288685092
-0.2695823014 -0.1665250659 0.5755378008 4288685092
-0.2696487010 -0.1659264565 0.5756796002 4288619812
-0.2697149217 -0.1653274149 0.5758209229 4288554019
-0.2701915205 -0.1649786532 0.5768384337 4288882473
-0.2702574134 -0.1643778235 0.5769791007 4288948266
-0.2703230679 -0.1637765467 0.5771192908 4288749604
-0.2703885436 -0.1631748229 0.5772590637 4288618018
-0.2704537809 -0.1625726819 0.5773983598 4288551198
-0.2705188394 -0.1619700938 0.5775372386 4288682784
-0.2709949017 -0.1616123021 0.5785535574 4289011747
-0.2710596025 -0.1610079408 0.5786917210 4289406505
-0.2715355456 -0.1606465429 0.5797078013 4289079591
-0.2715999186 -0.1600403786 0.5798453093 4288619040
-0.2712525129 -0.1591922343 0.5791035295 4287962650
-0.2717280686 -0.1588267833 0.5801188946 4287831064
-0.2713800371 -0.1579796225 0.5793758035 4286522152
-0.2718553841 -0.1576114744 0.5803906322 4286258980
-0.2715066969 -0.1567652971 0.5796462297 4284487708
-0.2715696990 -0.1561575085 0.5797807574 4283829778
-0.2716324925 -0.1555492878 0.5799148083 4281282102
-0.2712827921 -0.1547055393 0.5791682601 4282005825
-0.2713450789 -0.1540974081 0.5793011785 4282203465
-0.2714071274 -0.1534888446 0.5794336200 4282795602
-0.2714689672 -0.1528798789 0.5795656443 4282664016
-0.2715305686 -0.1522704959 0.5796971917 4283256153
-0.2715919614 -0.1516606957 0.5798282623 4284047213
-0.2716531456 -0.1510504782 0.5799589157 4285165694
-0.2717141211 -0.1504398584 0.5800890326 4286414985
-0.2717748582 -0.1498288214 0.5802187324 4287336087
-0.2718353570 -0.1492173821 0.5803478956 4288191404
-0.2718956769 -0.1486055255 0.5804766417 4288783541
-0.2719557583 -0.1479932666 0.5806049109 4289507515
-0.2720156014 -0.1473806053 0.5807327032 4289836480
-0.2724887133 -0.1469905823 0.5817427635 4290231238
-0.2725482285 -0.1463761926 0.5818698406 4290494410
-0.2730211616 -0.1459825635 0.5828795433 4290625483
-0.2734940648 -0.1455866843 0.5838891268 4290691276
-0.2735530734 -0.1449692100 0.5840151310 4290757069
-0.2736118734 -0.1443513483 0.5841405988 4290822862
-0.2736704051 -0.1437330693 0.5842655897 4290953932
-0.2741428614 -0.1433309168 0.5852742195 4291085518
-0.2742010653 -0.1427109241 0.5853984952 4291216591
-0.2742590010 -0.1420905441 0.5855222344 4291150798
-0.2743167579 -0.1414697617 0.5856454968 4291150798
-0.2743742466 -0.1408485770 0.5857682228 4291216591
-0.2744315267 -0.1402270198 0.5858905315 4291216591
-0.2744885683 -0.1396050602 0.5860123038 4291216591
-0.2745454013 -0.1389827281 0.5861335993 4291150798
-0.2750167847 -0.1385690123 0.5871400237 4291150798
-0.2750732303 -0.1379449517 0.5872604847 4291151052
-0.2751294374 -0.1373205185 0.5873805285 4291216845
-0.2751854062 -0.1366956979 0.5875000358 4291282638
-0.2756563127 -0.1362757385 0.5885053277 4291414224
-0.2757118940 -0.1356492192 0.5886240005 4291479504
-0.2757672668 -0.1350223273 0.5887421966 4291545297
-0.2762377858 -0.1345974505 0.5897467136 4291545297
-0.2762927413 -0.1339688599 0.5898640752 4291611090
-0.2767630517 -0.1335404068 0.5908681750 4291807699
-0.2768176496 -0.1329101175 0.5909847021 4291873492
-0.2772877216 -0.1324780732 0.5919882655 4292005078
-0.2773419023 -0.1318460852 0.5921039581 4292136664
-0.2778117359 -0.1314104646 0.5931069851 4292268250
-0.2778655291 -0.1307767928 0.5932218432 4292399836
-0.2783351243 -0.1303375810 0.5942244530 4292268252
-0.2783885300 -0.1297022402 0.5943384171 4292399838
-0.2784416974 -0.1290665269 0.5944519043 4292597217
-0.2784945965 -0.1284304410 0.5945648551 4292860389
-0.2646303177 -0.2179666758 0.5663084984 4292534508
-0.2643131912 -0.2170770019 0.5656298399 4292337129
-0.2643956244 -0.2165160626 0.5658062696 4292205543
-0.2644779086 -0.2159546018 0.5659823418 4292139236
-0.2645600438 -0.2153926194 0.5661581159 4292007650
-0.2646420002 -0.2148301005 0.5663335323 4292007390
-0.2647238076 -0.2142670751 0.5665085316 4291941597
-0.2648054361 -0.2137035280 0.5666832328 4291678934
-0.2648868859 -0.2131394446 0.5668575764 4291481555
-0.2649681866 -0.2125748545 0.5670315623 4291611603
-0.2646483481 -0.2116889954 0.5663470626 4291611603
-0.2647292018 -0.2111242265 0.5665200949 4291479253
-0.2648098767 -0.2105589211 0.5666927695 4291216081
-0.2648903728 -0.2099931240 0.5668650270 4291872203
-0.2645692527 -0.2091094851 0.5661778450 4289635241
-0.2646493018 -0.2085434943 0.5663491488 4290469481
-0.2643274665 -0.2076614052 0.5656604171 4288166726
-0.2644070685 -0.2070952654 0.5658307672 4288230971
-0.2640845478 -0.2062147260 0.5651405454 4288559936
-0.2633595169 -0.2050223947 0.5635890365 4287901243
-0.2626338601 -0.2038330138 0.5620360970 4286651176
-0.2615052164 -0.2023352832 0.5596207976 4282069824
-0.2607781291 -0.2011526674 0.5580648184 4281609273
-0.2604529560 -0.2002825588 0.5573689342 4281609271
-0.2601273656 -0.1994136870 0.5566722155 4281609271
-0.2602041662 -0.1988538653 0.5568365455 4281543478
-0.2602807879 -0.1982935667 0.5570005178 4281543478
-0.2603572309 -0.1977327615 0.5571641326 4281215026
-0.2604335248 -0.1971714646 0.5573273897 4281149233
-0.2609128952 -0.1969140172 0.5583532453 4281346101
-0.2609889507 -0.1963508725 0.5585159659 4281280308
-0.2614683211 -0.1960898340 0.5595418811 4281476917
-0.2619477808 -0.1958265603 0.5605678558 4281476917
-0.2620235384 -0.1952601820 0.5607299805 4281542451
-0.2616952658 -0.1943933368 0.5600275397 4281739830
-0.2617705762 -0.1938268542 0.5601886511 4281805110
-0.2614415884 -0.1929616481 0.5594846606 4281870903
-0.2615164220 -0.1923950762 0.5596448183 4281216309
-0.2615910769 -0.1918280125 0.5598045588 4281742653
-0.2616655529 -0.1912604570 0.5599638820 4288029219
-0.2617398500 -0.1906924248 0.5601229072 4289081907
-0.2618139684 -0.1901239008 0.5602815151 4289477681
-0.2618878782 -0.1895548999 0.5604397058 4289411888
-0.2615567446 -0.1886933297 0.5597310662 4290000439
-0.2612252235 -0.1878330410 0.5590215921 4289934646
-0.2612983882 -0.1872643530 0.5591781735 4289671989
-0.2613713741 -0.1866952032 0.5593343377 4289408817
-0.2614441514 -0.1861255765 0.5594901443 4289473581
-0.2615167797 -0.1855554581 0.5596455336 4289605167
-0.2615892291 -0.1849848777 0.5598005652 4289540138
-0.2620671391 -0.1846997440 0.5608233213 4289540138
-0.2617335320 -0.1838423014 0.5601094365 4289735986
-0.2622113228 -0.1835544407 0.5611318946 4289801779
-0.2622831464 -0.1829810739 0.5612855554 4289474097
-0.2623547614 -0.1824072450 0.5614388585 4289276718
-0.2628324330 -0.1821144223 0.5624610782 4289276716
-0.2629038095 -0.1815387756 0.5626137853 4289342509
-0.2633814216 -0.1812423468 0.5636358857 4289342509
-0.2634525299 -0.1806648523 0.5637880564 4289342509
-0.2639301121 -0.1803648174 0.5648100972 4289538859
-0.2640009522 -0.1797855049 0.5649616718 4289407273
-0.2640715837 -0.1792057306 0.5651128292 4289734698
-0.2641420364 -0.1786254942 0.5652635694 4289668905
-0.2646194100 -0.1783191264 0.5662851334 4289799462
-0.2646895647 -0.1777370721 0.5664353371 4289733669
-0.2651668787 -0.1774270833 0.5674567223 4289734182
-0.2652367651 -0.1768432111 0.5676063299 4289734182
-0.2653064728 -0.1762588620 0.5677554607 4289340451
-0.2657836378 -0.1759439111 0.5687766075 4289208865
-0.2662608027 -0.1756266952 0.5697977543 4289733932
-0.2663301229 -0.1750391871 0.5699461102 4289931311
-0.2663992643 -0.1744512022 0.5700940490 4289931825
-0.2668762505 -0.1741290241 0.5711148381 4289931825
-0.2669450939 -0.1735392213 0.5712621808 4289340714
-0.2670137584 -0.1729489714 0.5714090466 4289011749
-0.2674905956 -0.1726218164 0.5724294782 4289144103
-0.2679674327 -0.1722923964 0.5734499097 4289407275
-0.2680356801 -0.1716989726 0.5735960007 4289538091
-0.2681037188 -0.1711051017 0.5737416148 4289406505
-0.2677627802 -0.1702508479 0.5730119944 4288748575
-0.2682392299 -0.1699160039 0.5740315914 4288353817
-0.2683066726 -0.1693207771 0.5741759539 4288617757
-0.2683739364 -0.1687251031 0.5743198395 4288749343
-0.2684409618 -0.1681289822 0.5744633079 4288486171
-0.2689171135 -0.1677877903 0.5754822493 4288288792
-0.2689838707 -0.1671898812 0.5756250620 4288418836
-0.2690503895 -0.1665915102 0.5757674575 4288418836
-0.2695263326 -0.1662453562 0.5767859817 4288221972
-0.2695925534 -0.1656451821 0.5769276619 4288550937
-0.2696585655 -0.1650445759 0.5770689249 4288748575
-0.2701342702 -0.1646934450 0.5780869722 4288353817
-0.2701999545 -0.1640910506 0.5782275796 4288090394
-0.2698553503 -0.1632401198 0.5774900317 4287958808
-0.2699205279 -0.1626377702 0.5776295066 4287566622
-0.2703957856 -0.1622812152 0.5786466002 4287566622
-0.2704606652 -0.1616770774 0.5787854195 4286585383
-0.2705253065 -0.1610724926 0.5789237618 4286651176
-0.2710003257 -0.1607109755 0.5799403191 4285014313
-0.2710646689 -0.1601046175 0.5800780058 4284685348
-0.2707179487 -0.1592561454 0.5793360472 4283638309
-0.2711926401 -0.1588905901 0.5803518891 4283835688
-0.2712563276 -0.1582829356 0.5804881454 4283506991
-0.2713198066 -0.1576748490 0.5806239843 4283572784
-0.2709718645 -0.1568283588 0.5798794031 4283246388
-0.2710348070 -0.1562203467 0.5800141096 4283509560
-0.2710975111 -0.1556119174 0.5801483393 4282401612
-0.2711600363 -0.1550030559 0.5802820921 4282796370
-0.2708107531 -0.1541595012 0.5795346498 4283453271
-0.2708727419 -0.1535507292 0.5796672702 4284505959
-0.2709344923 -0.1529415399 0.5797994137 4285756287
-0.2709960341 -0.1523319483 0.5799311399 4286874768
-0.2706454098 -0.1514913440 0.5791808367 4288125609
-0.2711184621 -0.1511114985 0.5801931620 4289112504
-0.2707672417 -0.1502719223 0.5794414878 4289770685
-0.2708278000 -0.1496616006 0.5795711279 4290297029
-0.2708881795 -0.1490508616 0.5797002912 4290691279
-0.2709483206 -0.1484397203 0.5798289776 4290822865
-0.2710082233 -0.1478281766 0.5799572468 4291019212
-0.2710679173 -0.1472162157 0.5800849795 4291085005
-0.2715400755 -0.1468269974 0.5810953379 4291150798
-0.2715994120 -0.1462133080 0.5812223554 4291085005
-0.2716585398 -0.1455992162 0.5813488960 4291085005
-0.2721303701 -0.1452050656 0.5823585987 4291150798
-0.2726021707 -0.1448086500 0.5833682418 4291282384
-0.2730739117 -0.1444099545 0.5843777657 4291282384
-0.2731324136 -0.1437914670 0.5845029354 4291216591
-0.2731906772 -0.1431725770 0.5846276283 4291216591
-0.2728353143 -0.1423376203 0.5838671923 4291151311
-0.2733065188 -0.1419336051 0.5848755240 4291151311
-0.2733640969 -0.1413135380 0.5849987864 4291217104
-0.2734214365 -0.1406930685 0.5851215124 4291282897
-0.2730648220 -0.1398603022 0.5843583345 4291282895
-0.2731216550 -0.1392400116 0.5844799280 4291282895
-0.2731782198 -0.1386193186 0.5846009851 4291479763
-0.2736485600 -0.1382073313 0.5856075287 4291479763
-0.2737047672 -0.1375849396 0.5857278109 4291480276
-0.2737607360 -0.1369621456 0.5858476162 4291546069
-0.2738164961 -0.1363389939 0.5859668851 4291677142
-0.2742863297 -0.1359207630 0.5869723558 4291677142
-0.2743417025 -0.1352958977 0.5870908499 4291742935
-0.2743968368 -0.1346706599 0.5872088075 4291677142
-0.2744517326 -0.1340450346 0.5873262882 4291808728
-0.2749210596 -0.1336205900 0.5883306265 4291808728
-0.2753902972 -0.1331938654 0.5893348455 4291940314
-0.2754446566 -0.1325652301 0.5894511938 4291940314
-0.2759136856 -0.1321349293 0.5904549360 4292006107
-0.2759676576 -0.1315046102 0.5905703902 4292071900
-0.2764364481 -0.1310707182 0.5915735960 4292203486
-0.2764900327 -0.1304387152 0.5916882753 4292335072
-0.2769585848 -0.1300012469 0.5926910043 4292335072
-0.2774270773 -0.1295615137 0.5936935544 4292532451
-0.2774800956 -0.1289265007 0.5938069820 4292861416
-0.2635371089 -0.2188396007 0.5653126836 4292533994
-0.2636199296 -0.2182800770 0.5654903650 4292402408
-0.2633036673 -0.2173906416 0.5648118854 4292139236
-0.2633860409 -0.2168309242 0.5649886131 4291941857
-0.2630690634 -0.2159429789 0.5643087029 4291744478
-0.2631509900 -0.2153830528 0.5644844174 4291547099
-0.2632327676 -0.2148226053 0.5646598339 4291415513
-0.2633143663 -0.2142616361 0.5648348927 4291480274
-0.2633958161 -0.2137001455 0.5650096536 4291348688
-0.2634771168 -0.2131381333 0.5651839972 4291152077
-0.2635582387 -0.2125755996 0.5653579831 4291020491
-0.2636391819 -0.2120125592 0.5655316710 4290953934
-0.2637199759 -0.2114489824 0.5657049417 4291151313
-0.2634002864 -0.2105648965 0.5650191903 4290888656
-0.2634806335 -0.2100011408 0.5651915669 4290757070
-0.2635608017 -0.2094368786 0.5653635263 4291216843
-0.2632401288 -0.2085546702 0.5646756291 4291348429
-0.2633198500 -0.2079902291 0.5648466349 4292256684
-0.2633993924 -0.2074252963 0.5650172830 4290151308
-0.2634787560 -0.2068598419 0.5651875138 4288770164
-0.2631568015 -0.2059798688 0.5644969344 4288046441
-0.2624331713 -0.2047879994 0.5629446507 4286992990
-0.2621102929 -0.2039113343 0.5622520447 4285413958
-0.2617869973 -0.2030358911 0.5615585446 4282004031
-0.2606600225 -0.2015405893 0.5591410995 4281280308
-0.2603356838 -0.2006693333 0.5584452748 4280753962
-0.2600108981 -0.1997992992 0.5577486753 4280490790
-0.2600877285 -0.1992384493 0.5579134226 4280492073
-0.2601643801 -0.1986771077 0.5580778718 4280886831
-0.2602408528 -0.1981152594 0.5582419038 4281018419
-0.2603171766 -0.1975529194 0.5584055781 4281018419
-0.2607957721 -0.1972945482 0.5594322681 4281346614
-0.2608718276 -0.1967303604 0.5595954061 4281149235
-0.2613504529 -0.1964683980 0.5606220961 4281476660
-0.2614262998 -0.1959023327 0.5607847571 4281476660
-0.2615019679 -0.1953357905 0.5609471202 4281607733
-0.2615774572 -0.1947687566 0.5611090660 4281607733
-0.2616527677 -0.1942012310 0.5612705946 4281476660
-0.2617279291 -0.1936331987 0.5614318252 4281476660
-0.2618028820 -0.1930647045 0.5615926385 4281281073
-0.2614741623 -0.1921990961 0.5608874559 4282004796
-0.2611450255 -0.1913347691 0.5601814389 4288292391
-0.2616229653 -0.1910614073 0.5612066984 4289081907
-0.2616971135 -0.1904918253 0.5613657236 4289474600
-0.2617710829 -0.1899217665 0.5615243912 4289211428
-0.2618448436 -0.1893512309 0.5616826415 4289407784
-0.2615142465 -0.1884888709 0.5609734654 4289407784
-0.2607789338 -0.1873373687 0.5593961477 4289275687
-0.2616606653 -0.1873471439 0.5612875819 4289012515
-0.2617336214 -0.1867755651 0.5614440441 4289143072
-0.2618063688 -0.1862035096 0.5616000891 4289340451
-0.2618789375 -0.1856309772 0.5617557764 4289340704
-0.2619513273 -0.1850579679 0.5619110465 4289143325
-0.2620235384 -0.1844844818 0.5620659590 4289208356
-0.2625006735 -0.1841947734 0.5630894303 4289339942
-0.2629778087 -0.1839028150 0.5641129613 4288947237
-0.2626443803 -0.1830436736 0.5633977056 4288815651
-0.2627159357 -0.1824674010 0.5635512471 4288947235
-0.2631928623 -0.1821713597 0.5645742416 4288947235
-0.2632641792 -0.1815932691 0.5647272468 4288749343
-0.2637410462 -0.1812936217 0.5657501817 4288749343
-0.2638120949 -0.1807136983 0.5659025908 4288945952
-0.2642889321 -0.1804104298 0.5669254065 4288814366
-0.2643597126 -0.1798286885 0.5670772195 4289010459
-0.2644302845 -0.1792464554 0.5672286153 4289142045
-0.2645006776 -0.1786637753 0.5673796535 4289207323
-0.2645708621 -0.1780806333 0.5675302148 4289273116
-0.2650474012 -0.1777696609 0.5685523748 4289142813
-0.2651173174 -0.1771846861 0.5687023997 4289077020
-0.2655937672 -0.1768701226 0.5697244406 4288683032
-0.2656634152 -0.1762833148 0.5698738098 4288485653
-0.2661397755 -0.1759651154 0.5708956718 4288685593
-0.2662091255 -0.1753765047 0.5710444450 4288751386
-0.2666854560 -0.1750546843 0.5720661879 4288751388
-0.2667545080 -0.1744642556 0.5722143650 4288488216
-0.2672307491 -0.1741388142 0.5732359290 4288223764
-0.2672995329 -0.1735465527 0.5733834505 4288092178
-0.2673681080 -0.1729538441 0.5735305548 4288419862
-0.2678441405 -0.1726234257 0.5745517015 4288419862
-0.2675046325 -0.1717670560 0.5738234520 4288288540
-0.2679805160 -0.1714339256 0.5748441815 4288354333
-0.2680483758 -0.1708384901 0.5749897957 4287304728
-0.2685241401 -0.1705017239 0.5760103464 4287173142
-0.2685917318 -0.1699044853 0.5761553049 4287045154
-0.2686590850 -0.1693067849 0.5762998462 4287176740
-0.2687262595 -0.1687086523 0.5764439106 4286258461
