VERSION 0.7
FIELDS x y z rgba
SIZE 4 4 4 4
TYPE F F F U
COUNT 1 1 1 1
WIDTH 920
HEIGHT 1
VIEWPOINT 0.0 0.0 0.0 1.0 0.0 0.0 0.0
POINTS 920
DATA ascii
-0.2997416556 -0.1157862693 0.6151296496 4294704383
-0.3002227247 -0.1152875572 0.6161169410 4294770175
-0.3002716601 -0.1146216765 0.6162173152 4294574077
-0.3003202975 -0.1139554754 0.6163171530 4294508284
-0.2999365032 -0.1131259501 0.6155295372 4294573566
-0.2999845445 -0.1124600619 0.6156281233 4294507773
-0.3000323176 -0.1117938608 0.6157261729 4294507773
-0.3000798225 -0.1111273393 0.6158236861 4294441980
-0.3009919822 -0.1107788309 0.6176956296 4294310394
-0.3014716208 -0.1102679595 0.6186799407 4294244601
-0.3019511104 -0.1097548455 0.6196639538 4294113015
-0.3024304807 -0.1092395037 0.6206476688 4293981429
-0.3024769723 -0.1085666046 0.6207430959 4293915636
-0.3025231957 -0.1078933999 0.6208379269 4293849843
-0.3025691211 -0.1072198898 0.6209322214 4293849843
-0.3030477166 -0.1066984907 0.6219143867 4293915636
-0.3030931950 -0.1060234010 0.6220076680 4294047222
-0.3035714328 -0.1054985076 0.6229891181 4294244601
-0.3036164045 -0.1048218533 0.6230814457 4294441980
-0.3040942848 -0.1042934582 0.6240621209 4294573566
-0.3041387498 -0.1036152318 0.6241534352 4294376187
-0.3041829765 -0.1029367149 0.6242441535 4294310394
-0.3046602607 -0.1024035662 0.6252236366 4294310394
-0.3047039807 -0.1017234921 0.6253134012 4294310394
-0.3047474325 -0.1010431275 0.6254025102 4294376187
-0.3047905862 -0.1003624722 0.6254910827 4294441980
-0.3048334420 -0.0996815264 0.6255790591 4294573566
-0.3053097129 -0.0991411209 0.6265564561 4294639359
-0.3053520918 -0.0984586328 0.6266434193 4294639359
-0.3062617779 -0.0980536416 0.6285102963 4294639359
-0.3063037097 -0.0973686501 0.6285963655 4294639359
-0.3063453734 -0.0966833755 0.6286818385 4294639359
-0.3063867390 -0.0959978253 0.6287667155 4294639359
-0.3064278066 -0.0953119993 0.6288510561 4294639359
-0.3064686060 -0.0946258977 0.6289347410 4294639359
-0.3069432974 -0.0940725803 0.6299088597 4294639359
-0.3069835603 -0.0933849663 0.6299915314 4294639357
-0.3070235848 -0.0926970765 0.6300736070 4294639357
-0.3070632815 -0.0920089185 0.6301551461 4294639357
-0.3071027100 -0.0913204998 0.6302360296 4294639357
-0.3071418703 -0.0906318128 0.6303163767 4294639357
-0.3071807325 -0.0899428651 0.6303961277 4294639357
-0.3072192967 -0.0892536566 0.6304752827 4294639357
-0.2952477038 -0.1601934731 0.6072914004 4292336351
-0.2953138351 -0.1595544666 0.6074274778 4288125599
-0.2953797579 -0.1589150280 0.6075630188 4285032813
-0.2954454124 -0.1582751572 0.6076980829 4283914332
-0.2955108583 -0.1576348692 0.6078326702 4284374624
-0.2960019708 -0.1572203785 0.6088428497 4285295726
-0.2960670292 -0.1565783173 0.6089766622 4287072137
-0.2961318493 -0.1559358239 0.6091099381 4286743172
-0.2966226041 -0.1555163711 0.6101194024 4287926163
-0.2971132994 -0.1550946236 0.6111287475 4285886580
-0.2971775830 -0.1544490308 0.6112609506 4283915100
-0.2972416282 -0.1538030207 0.6113926768 4285559925
-0.2977319956 -0.1533763260 0.6124013066 4288784295
-0.2982223034 -0.1529473513 0.6134098172 4292534496
-0.2960341275 -0.1430300921 0.6089090109 4294566634
-0.2956659496 -0.1421765089 0.6081516743 4293842911
-0.2957253158 -0.1415292174 0.6082738042 4293837773
-0.2953563929 -0.1406776607 0.6075149179 4292653499
-0.2945588827 -0.1396246403 0.6058745980 4292125094
-0.2946172655 -0.1389790028 0.6059946418 4291072406
-0.2946753800 -0.1383329779 0.6061142087 4290935421
-0.2943048477 -0.1374864578 0.6053520441 4290211698
-0.2943623960 -0.1368406117 0.6054704189 4290601316
-0.2939911187 -0.1359961480 0.6047067642 4290074972
-0.2936194539 -0.1351531893 0.6039422750 4290006352
-0.2936760783 -0.1345081031 0.6040587425 4289480008
-0.2941612601 -0.1340580583 0.6050567031 4289804864
-0.2942174673 -0.1334112883 0.6051722765 4289936450
-0.2938444316 -0.1325706095 0.6044050455 4290003272
-0.2939000726 -0.1319240481 0.6045194864 4290069065
-0.2939554453 -0.1312771142 0.6046333909 4289809490
-0.2940105796 -0.1306298077 0.6047467589 4290533213
-0.2940654457 -0.1299821436 0.6048595905 4290933624
-0.2941200435 -0.1293341219 0.6049719453 4293302172
-0.2941744328 -0.1286857426 0.6050837636 4294293695
-0.2942285240 -0.1280369908 0.6051951051 4294622660
-0.2938527763 -0.1272019297 0.6044222116 4293770182
-0.2943359911 -0.1267384291 0.6054161191 4293704389
-0.2943893373 -0.1260886192 0.6055258512 4292786884
-0.2944424450 -0.1254384667 0.6056350470 4291997368
-0.2944952846 -0.1247879490 0.6057437658 4291474874
-0.2949778736 -0.1243183091 0.6067363620 4292724941
-0.2946001887 -0.1234858707 0.6059595346 4293319899
-0.2942221165 -0.1226549968 0.6051818728 4294043622
-0.2947040796 -0.1221824139 0.6061732173 4293389803
-0.2947556376 -0.1215301678 0.6062792540 4293784561
-0.2943765521 -0.1207011193 0.6054995060 4294309365
-0.2939970493 -0.1198736355 0.6047189832 4294704123
-0.2940476835 -0.1192222759 0.6048231125 4294967293
-0.2940980792 -0.1185705811 0.6049267054 4294967036
-0.2941481769 -0.1179185510 0.6050298214 4294769916
-0.2941980362 -0.1172661930 0.6051323414 4294835709
-0.2951092720 -0.1169549748 0.6070066094 4294638843
-0.2951587439 -0.1163000464 0.6071084142 4294704636
-0.2956389189 -0.1158136129 0.6080960631 4294835198
-0.2952569127 -0.1149891987 0.6073103547 4294769405
-0.2953056097 -0.1143332869 0.6074104905 4294704123
-0.2957851887 -0.1138430014 0.6083970070 4294769916
-0.2958334386 -0.1131854802 0.6084961891 4294508284
-0.2958814204 -0.1125276461 0.6085948944 4294508284
-0.2959291339 -0.1118694842 0.6086930037 4294507775
-0.2959765792 -0.1112110093 0.6087905765 4294310396
-0.2964552641 -0.1107133776 0.6097752452 4294178810
-0.2965022624 -0.1100533083 0.6098718643 4294047224
-0.2974122763 -0.1097114012 0.6117436886 4294113017
-0.2978906035 -0.1092070565 0.6127275229 4294178810
-0.2988005579 -0.1088577881 0.6145992279 4294244603
-0.2992786765 -0.1083480120 0.6155826449 4294310396
-0.2993247211 -0.1076806188 0.6156773567 4294507775
-0.2993704975 -0.1070129201 0.6157715321 4294507775
-0.2994159758 -0.1063449159 0.6158651114 4294441982
-0.2994612157 -0.1056766137 0.6159581542 4294441982
-0.2999383807 -0.1051595286 0.6169396043 4294441982
-0.2999831140 -0.1044896543 0.6170316339 4294441982
-0.3004599214 -0.1039690748 0.6180123687 4294441982
-0.3005042076 -0.1032976359 0.6181033850 4294441982
-0.3005481958 -0.1026258990 0.6181939244 4294638589
-0.3014569283 -0.1022472680 0.6200630665 4294638589
-0.3019330800 -0.1017187387 0.6210424304 4294638589
-0.3019764125 -0.1010432243 0.6211316586 4294638589
-0.3020195067 -0.1003674194 0.6212202311 4294638589
-0.3024950624 -0.0998341516 0.6221984029 4294704382
-0.3029704690 -0.0992986560 0.6231762767 4294770175
-0.3030128479 -0.0986200571 0.6232634187 4294770175
-0.3039208055 -0.0982210040 0.6251310110 4294770429
-0.3039627373 -0.0975398943 0.6252172589 4294770429
-0.3044374585 -0.0969964787 0.6261937022 4294770429
-0.3044788837 -0.0963138342 0.6262788773 4294770429
-0.3045200408 -0.0956309214 0.6263635159 4294770429
-0.3045608997 -0.0949477255 0.6264476180 4294770429
-0.3050347567 -0.0943983421 0.6274222732 4294770429
-0.3050751388 -0.0937136337 0.6275053024 4294770429
-0.3051151931 -0.0930286497 0.6275877357 4294770429
-0.3051550090 -0.0923433900 0.6276695728 4294770429
-0.3051944971 -0.0916578770 0.6277508736 4294770429
-0.3052337468 -0.0909720883 0.6278315187 4294770429
-0.3057062924 -0.0904142857 0.6288035512 4294770429
-0.3057450056 -0.0897269994 0.6288831830 4294770429
-0.3057834208 -0.0890394524 0.6289622188 4294770429
-0.3058215678 -0.0883516520 0.6290406585 4294770429
-0.3058594167 -0.0876635909 0.6291185021 4294770429
-0.3058969975 -0.0869752765 0.6291958094 4294770429
-0.3059342504 -0.0862867087 0.6292724609 4294770429
-0.3059712648 -0.0855978876 0.6293485165 4294770429
-0.2938456833 -0.1597978324 0.6057915092 4291810262
-0.2939115465 -0.1591604352 0.6059273481 4289441714
-0.2935523689 -0.1582935303 0.6051868796 4288190875
-0.2936176956 -0.1576561928 0.6053215265 4285690741
-0.2936827838 -0.1570184380 0.6054556966 4284177243
-0.2941727340 -0.1566065550 0.6064658165 4283519313
-0.2942374647 -0.1559670419 0.6065992117 4284571999
-0.2943019271 -0.1553270817 0.6067321301 4286348410
-0.2943661511 -0.1546867192 0.6068645716 4285361258
-0.2944301665 -0.1540459245 0.6069964767 4283979605
-0.2940683365 -0.1531830430 0.6062505841 4284046170
-0.2945574224 -0.1527631134 0.6072588563 4284111963
-0.2950464785 -0.1523409039 0.6082670689 4284178785
-0.2955354452 -0.1519164294 0.6092751622 4287731607
-0.2960243523 -0.1514896750 0.6102830768 4291218636
-0.2965131998 -0.1510606557 0.6112909317 4293521391
-0.2968856394 -0.1471701562 0.6120586991 4293782772
-0.2960935533 -0.1460992843 0.6104257703 4293186272
-0.2957276106 -0.1452413201 0.6096713543 4292265170
-0.2953612506 -0.1443848461 0.6089160442 4292000442
-0.2949944735 -0.1435298324 0.6081598997 4290881961
-0.2942002714 -0.1424695253 0.6065225601 4291201424
-0.2938325703 -0.1416184157 0.6057645082 4289885564
-0.2934644520 -0.1407687813 0.6050055623 4290010982
-0.2926686406 -0.1397166848 0.6033650041 4289287259
-0.2922995985 -0.1388709694 0.6026041508 4290531157
-0.2919301689 -0.1380267441 0.6018425226 4290202192
-0.2919878066 -0.1373851746 0.6019613147 4291578191
-0.2916176021 -0.1365430206 0.6011981368 4291380812
-0.2912469804 -0.1357023567 0.6004340649 4291709260
-0.2913037241 -0.1350615472 0.6005510092 4291840846
-0.2909323573 -0.1342229545 0.5997854471 4291578190
-0.2914164364 -0.1337787807 0.6007834077 4291183432
-0.2914724350 -0.1331368387 0.6008988619 4290330177
-0.2911000848 -0.1322999746 0.6001312137 4290330177
-0.2911554873 -0.1316582412 0.6002454162 4290459969
-0.2912106514 -0.1310161352 0.6003591418 4290525762
-0.2908372283 -0.1301819533 0.5995893478 4290722882
-0.2908918262 -0.1295400709 0.5997018814 4290525503
-0.2909461558 -0.1288978308 0.5998138785 4290393917
-0.2910002470 -0.1282552332 0.5999253988 4290920261
-0.2910540700 -0.1276122779 0.6000363827 4291381843
-0.2911076546 -0.1269689649 0.6001468301 4291447636
-0.2911609709 -0.1263252944 0.6002568007 4290464599
-0.2912140787 -0.1256812811 0.6003662348 4290793564
-0.2912668884 -0.1250369102 0.6004751325 4289617254
-0.2913194597 -0.1243921891 0.6005834937 4289880426
-0.2909426689 -0.1235648692 0.5998067260 4290613397
-0.2909946740 -0.1229204014 0.5999138951 4294297805
-0.2906171381 -0.1220952421 0.5991355777 4294766058
-0.2906685472 -0.1214510426 0.5992415547 4294897644
-0.2907196879 -0.1208065003 0.5993469954 4294834169
-0.2907705903 -0.1201616153 0.5994519591 4294966269
-0.2903916538 -0.1193398610 0.5986707807 4294508286
-0.2900123298 -0.1185196713 0.5978887081 4294376700
-0.2896325886 -0.1177010536 0.5971058607 4294180861
-0.2901120484 -0.1172313690 0.5980942845 4294180861
-0.2901615202 -0.1165867224 0.5981963277 4294442493
-0.2897807956 -0.1157699823 0.5974113941 4294508286
-0.2902597189 -0.1152964458 0.5983987451 4294901503
-0.2903084159 -0.1146508157 0.5984991193 4294638332
-0.2903568745 -0.1140048653 0.5985990167 4294507257
-0.2904050648 -0.1133585945 0.5986983776 4294638843
-0.2904529870 -0.1127119958 0.5987972021 4294573566
-0.2909310460 -0.1122311056 0.5997827053 4294507773
-0.2909785211 -0.1115829125 0.5998806357 4294376189
-0.2914562523 -0.1110985056 0.6008655429 4294376189
-0.2915032804 -0.1104487255 0.6009624600 4294441212
-0.2915500700 -0.1097986251 0.6010589004 4294507005
-0.2920272946 -0.1093094423 0.6020427942 4294572798
-0.2929351926 -0.1089782864 0.6039144993 4294638591
-0.2938430905 -0.1086429730 0.6057862043 4294704383
-0.2943200767 -0.1081451625 0.6067695618 4294704383
-0.2947969437 -0.1076451242 0.6077526808 4294638591
-0.2952736616 -0.1071428508 0.6087354422 4294638591
-0.2957502604 -0.1066383421 0.6097180247 4294441212
-0.2953643203 -0.1058226377 0.6089224219 4294507005
-0.2949780226 -0.1050085574 0.6081259251 4294704383
-0.2954539359 -0.1045012176 0.6091071367 4294770175
-0.2959297001 -0.1039916500 0.6100879908 4294835967
-0.2959738970 -0.1033292264 0.6101790667 4294770175
-0.2960178256 -0.1026665047 0.6102696657 4294704383
-0.2964930534 -0.1021521837 0.6112493873 4294638591
-0.2973997891 -0.1017833650 0.6131186485 4294836222
-0.2987381816 -0.1015571430 0.6158779263 4294836222
-0.2992131710 -0.1010332406 0.6168571711 4294770429
-0.2988243699 -0.1002174690 0.6160555482 4294704636
-0.2992989123 -0.0996910557 0.6170338988 4294704636
-0.3002052605 -0.0993053019 0.6189024448 4294770429
-0.3002475798 -0.0986315534 0.6189896464 4294770429
-0.3011537492 -0.0982394144 0.6208578348 4294836222
-0.3016277552 -0.0977031365 0.6218350530 4294770429
-0.3016693890 -0.0970256254 0.6219208837 4294770429
-0.3021430075 -0.0964858755 0.6228973269 4294770429
-0.3026164770 -0.0959439054 0.6238734126 4294770429
-0.3026574254 -0.0952636153 0.6239578128 4294770429
-0.3026980758 -0.0945830569 0.6240416169 4294770429
-0.3031709194 -0.0940363705 0.6250164509 4294770429
-0.3032110631 -0.0933542922 0.6250991821 4294770429
-0.3032509387 -0.0926719457 0.6251813769 4294835709
-0.3032905161 -0.0919893309 0.6252629757 4294835709
-0.3033298254 -0.0913064480 0.6253440380 4294835709
-0.3038015962 -0.0907525793 0.6263166666 4294835709
-0.3038403988 -0.0900681987 0.6263965964 4294835709
-0.3043117821 -0.0895108804 0.6273684502 4294835709
-0.3043500483 -0.0888250023 0.6274473667 4294835709
-0.3043880463 -0.0881388634 0.6275256872 4294835709
-0.3044257462 -0.0874524713 0.6276034117 4294835709
-0.3044631779 -0.0867658183 0.6276805401 4294835709
-0.3045003116 -0.0860789195 0.6277571321 4294770429
-0.3045371473 -0.0853917673 0.6278330684 4294770429
-0.3045737147 -0.0847043693 0.6279084682 4294770429
-0.3041766882 -0.0838972107 0.6270899177 4294770429
-0.2923142016 -0.1606720388 0.6040173173 4293586931
-0.2923803031 -0.1600371003 0.6041538715 4292665829
-0.2924461365 -0.1594017446 0.6042899489 4289639093
-0.2925117612 -0.1587659419 0.6044255495 4287533717
-0.2921531498 -0.1579005569 0.6036844850 4288717219
-0.2922182083 -0.1572648287 0.6038189530 4288651426
-0.2918588221 -0.1564013660 0.6030763388 4286151544
-0.2923476100 -0.1559921205 0.6040863395 4283717203
-0.2924119830 -0.1553551257 0.6042193174 4283322186
-0.2920516133 -0.1544931680 0.6034746766 4283585358
-0.2916908264 -0.1536326408 0.6027292013 4285624430
-0.2917542756 -0.1529962420 0.6028603315 4286084981
-0.2913927436 -0.1521376669 0.6021132469 4284440413
-0.2918805182 -0.1517222077 0.6031211615 4283914069
-0.2923682332 -0.1513044983 0.6041289568 4283520340
-0.2928558886 -0.1508845240 0.6051365733 4283388754
-0.2933434844 -0.1504622698 0.6061441302 4286546304
-0.2942562401 -0.1502548754 0.6080302000 4290493884
-0.2951691449 -0.1500433683 0.6099165082 4292927714
-0.2956567407 -0.1496124417 0.6109240651 4293980402
-0.2954164445 -0.1474561691 0.6104275584 4294110194
-0.2954776585 -0.1468083560 0.6105540395 4291478474
-0.2946869433 -0.1457389295 0.6089201570 4288839824
-0.2938956320 -0.1446728408 0.6072850227 4287063413
-0.2935297489 -0.1438188404 0.6065289974 4289351512
-0.2931634486 -0.1429663002 0.6057720780 4288956754
-0.2923705280 -0.1419083923 0.6041336656 4290331473
-0.2915770113 -0.1408538222 0.6024940014 4290265680
-0.2916356623 -0.1402126104 0.6026151776 4290266702
-0.2908411324 -0.1391628981 0.6009734869 4290200909
-0.2900460362 -0.1381165534 0.5993305445 4290792273
-0.2901036143 -0.1374779344 0.5994495153 4290594894
-0.2893075347 -0.1364364773 0.5978045464 4291184716
-0.2889376581 -0.1355986893 0.5970402360 4291053130
-0.2894211113 -0.1351611167 0.5980392098 4290856261
-0.2890505791 -0.1343244612 0.5972735882 4290856261
-0.2886796296 -0.1334893107 0.5965070724 4291052613
-0.2883082628 -0.1326556802 0.5957397223 4290986820
-0.2883636951 -0.1320191473 0.5958542824 4290463045
-0.2884188890 -0.1313822567 0.5959683061 4290726217
-0.2884738445 -0.1307449937 0.5960818529 4290724422
-0.2885285616 -0.1301073730 0.5961948633 4290658629
-0.2881554663 -0.1292775869 0.5954239964 4290526783
-0.2882095873 -0.1286401898 0.5955358148 4290329404
-0.2882634699 -0.1280024201 0.5956471562 4290328373
-0.2883171141 -0.1273643076 0.5957579613 4290262580
-0.2883704901 -0.1267258376 0.5958682895 4290393652
-0.2884236276 -0.1260870099 0.5959780812 4290459445
-0.2880485058 -0.1252617091 0.5952029824 4290328377
-0.2881010473 -0.1246231347 0.5953115821 4290723135
-0.2881533802 -0.1239842102 0.5954196453 4290397001
-0.2882054150 -0.1233449355 0.5955272317 4290002243
-0.2878289223 -0.1225229874 0.5947492123 4289743958
-0.2878803909 -0.1218839735 0.5948556066 4291980920
-0.2875031531 -0.1210641935 0.5940760970 4293564321
-0.2875540555 -0.1204254478 0.5941812396 4294946231
-0.2876046896 -0.1197863668 0.5942859054 4294231760
-0.2876551151 -0.1191469505 0.5943900347 4294955997
-0.2872764766 -0.1183305830 0.5936077237 4294896364
-0.2868974507 -0.1175157875 0.5928245187 4294963956
-0.2869469523 -0.1168772727 0.5929268003 4294835709
-0.2869961858 -0.1162384376 0.5930284858 4294769916
-0.2866160870 -0.1154264733 0.5922431350 4294572796
-0.2866647542 -0.1147879288 0.5923436880 4294770175
-0.2862839401 -0.1139781848 0.5915568471 4294638843
-0.2863320410 -0.1133399531 0.5916561484 4294441464
-0.2863798440 -0.1127014011 0.5917549729 4294245112
-0.2864274383 -0.1120625362 0.5918532610 4294508284
-0.2864747345 -0.1114233434 0.5919510722 4294639615
-0.2865217924 -0.1107838377 0.5920482874 4294508031
-0.2869982421 -0.1103091538 0.5930327773 4294769663
-0.2874745727 -0.1098322421 0.5940170288 4294769663
-0.2875210047 -0.1091898754 0.5941129923 4294704382
-0.2879970372 -0.1087094545 0.5950965881 4294770175
-0.2880430222 -0.1080655158 0.5951915979 4294704382
-0.2889487147 -0.1077419221 0.5970630646 4294638589
-0.2898544073 -0.1074141786 0.5989345908 4294704382
-0.2898998857 -0.1067654714 0.5990285277 4294638589
-0.2903752923 -0.1062738970 0.6000108719 4294638589
-0.2904203236 -0.1056236178 0.6001039147 4294770175
-0.2904650867 -0.1049730331 0.6001963615 4294770429
-0.2900791764 -0.1041676030 0.5993990302 4294770429
-0.2901233435 -0.1035173833 0.5994902849 4294704636
-0.2910282910 -0.1031721160 0.6013601422 4294704636
-0.2910720408 -0.1025193781 0.6014506221 4294638843
-0.2911155522 -0.1018663421 0.6015405059 4294704636
-0.2915894985 -0.1013627425 0.6025198102 4294770429
-0.2920633256 -0.1008569226 0.6034988761 4294770429
-0.2929678261 -0.1004966646 0.6053678989 4294770429
-0.2943032086 -0.1002790704 0.6081272364 4294770429
-0.2952077389 -0.0999095216 0.6099963188 4294770429
-0.2952502072 -0.0992460474 0.6100840569 4294704636
-0.2961545587 -0.0988701209 0.6119527817 4294770429
-0.2966277599 -0.0983470827 0.6129305363 4294770429
-0.2975319922 -0.0979638025 0.6147989631 4294704636
-0.2980049551 -0.0974353477 0.6157762408 4294770429
-0.2989090681 -0.0970447138 0.6176444888 4294770429
-0.2989503741 -0.0963717848 0.6177298427 4294770429
-0.2994228601 -0.0958366692 0.6187061071 4294770427
-0.2998951972 -0.0952993333 0.6196821332 4294770427
-0.2999357879 -0.0946236327 0.6197659969 4294770427
-0.3004077375 -0.0940828323 0.6207411885 4294770427
-0.3008795083 -0.0935398117 0.6217160225 4294770427
-0.3013511300 -0.0929945782 0.6226905584 4294770427
-0.3009589911 -0.0921826139 0.6218802333 4294835709
-0.3014301360 -0.0916348919 0.6228538156 4294835709
-0.3014692366 -0.0909546539 0.6229346395 4294835709
-0.3019400239 -0.0904034823 0.6239073873 4294835709
-0.3024106026 -0.0898500979 0.6248798370 4294835709
-0.3024489880 -0.0891671181 0.6249590516 4294835709
-0.3024870455 -0.0884838849 0.6250377297 4294835709
-0.3029570282 -0.0879258215 0.6260088682 4294835709
-0.3029945791 -0.0872410983 0.6260864735 4294769916
-0.3030318618 -0.0865561143 0.6261634827 4294835709
-0.3030688465 -0.0858708844 0.6262399554 4294704636
-0.3031055629 -0.0851854011 0.6263157725 4294704636
-0.3031419814 -0.0844996721 0.6263910532 4294770429
-0.3031781018 -0.0838136971 0.6264657378 4294770429
-0.2909177244 -0.1602722704 0.6025144458 4292467937
-0.2909835279 -0.1596389413 0.6026508212 4289967803
-0.2910491228 -0.1590051949 0.6027866602 4285822327
-0.2911145091 -0.1583710164 0.6029220223 4284177502
-0.2911796272 -0.1577364057 0.6030569077 4285230444
-0.2908211946 -0.1568730325 0.6023145914 4287335820
-0.2904623747 -0.1560110748 0.6015713811 4287467404
-0.2905265987 -0.1553770453 0.6017044783 4285690993
-0.2905906141 -0.1547425985 0.6018370390 4284111701
-0.2898070216 -0.1536584347 0.6002141237 4283585357
-0.2890228033 -0.1525775641 0.5985899568 4282795588
-0.2886618674 -0.1517227739 0.5978423953 4284111448
-0.2887244821 -0.1510912925 0.5979720950 4286019447
-0.2892109156 -0.1506803334 0.5989795327 4285098345
-0.2888489962 -0.1498271078 0.5982299447 4283848791
-0.2901836336 -0.1498516351 0.6009941101 4283585619
-0.2906699181 -0.1494338959 0.6020012498 4283716692
-0.2920050025 -0.1494483203 0.6047663093 4285361517
-0.2929158509 -0.1492404640 0.6066527963 4288979619
-0.2934022248 -0.1488131136 0.6076601148 4291611339
-0.2934638560 -0.1481690705 0.6077877283 4292664799
-0.2939499915 -0.1477381140 0.6087945700 4292927971
-0.2940112352 -0.1470923275 0.6089214087 4292924380
-0.2936472297 -0.1462345123 0.6081675291 4288845214
-0.2932828367 -0.1453781724 0.6074128151 4286467937
-0.2924928963 -0.1443135291 0.6057767868 4286138972
-0.2921275795 -0.1434610635 0.6050201654 4288561481
-0.2913365066 -0.1424021870 0.6033818722 4288627274
-0.2905448675 -0.1413466632 0.6017423272 4290331725
-0.2901781499 -0.1405005157 0.6009827256 4290068553
-0.2898109853 -0.1396558434 0.6002223492 4290396490
-0.2894434035 -0.1388126761 0.5994610786 4290330697
-0.2890754342 -0.1379709989 0.5986989141 4290463310
-0.2878553867 -0.1367263049 0.5961720943 4290134345
-0.2870604992 -0.1356881857 0.5945258737 4290658631
-0.2871170044 -0.1350542158 0.5946428776 4290658631
-0.2871732712 -0.1344198585 0.5947594643 4290789187
-0.2868031561 -0.1335866451 0.5939928889 4290854980
-0.2860063910 -0.1325573921 0.5923427343 4290724164
-0.2856353521 -0.1317281425 0.5915743113 4290592578
-0.2856903374 -0.1310960948 0.5916881561 4290395970
-0.2857450545 -0.1304636747 0.5918014646 4290264384
-0.2857995331 -0.1298308820 0.5919142962 4290395200
-0.2854271233 -0.1290049106 0.5911430120 4290460993
-0.2854810357 -0.1283723563 0.5912547112 4290592578
-0.2855347097 -0.1277394295 0.5913658738 4290987336
-0.2855881453 -0.1271061599 0.5914765000 4291578955
-0.2856413126 -0.1264725327 0.5915866494 4291513162
-0.2856942415 -0.1258385479 0.5916962624 4290986818
-0.2857469320 -0.1252042204 0.5918053389 4290723646
-0.2857993841 -0.1245695353 0.5919139981 4290657340
-0.2858515680 -0.1239345074 0.5920220613 4290262582
-0.2859035134 -0.1232991293 0.5921296477 4289934132
-0.2855277658 -0.1224800497 0.5913514495 4289934132
-0.2851516306 -0.1216625348 0.5905724168 4289541177
-0.2847750783 -0.1208465770 0.5897925496 4289606970
-0.2848258018 -0.1202126816 0.5898975730 4289872199
-0.2848762572 -0.1195784435 0.5900021195 4290530129
-0.2849264741 -0.1189438775 0.5901061296 4290863209
-0.2849764526 -0.1183089688 0.5902096033 4291784311
-0.2845982015 -0.1174970493 0.5894262791 4292183691
-0.2842195630 -0.1166866943 0.5886420608 4293433758
-0.2842686176 -0.1160527095 0.5887436867 4293439665
-0.2843174636 -0.1154183894 0.5888447762 4294031802
-0.2839377522 -0.1146108806 0.5880584121 4293971150
-0.2835576832 -0.1138049588 0.5872712135 4294958559
-0.2840340137 -0.1133425310 0.5882577300 4294963697
-0.2836532593 -0.1125378832 0.5874692202 4294964725
-0.2832721174 -0.1117348224 0.5866798162 4294966780
-0.2833192348 -0.1111014485 0.5867773890 4294966780
-0.2829373777 -0.1103006378 0.5859865546 4294901247
-0.2829838991 -0.1096675918 0.5860828757 4294901247
-0.2830301523 -0.1090342328 0.5861787200 4294966783
-0.2835050821 -0.1085648164 0.5871623158 4294966783
-0.2839798927 -0.1080931649 0.5881456137 4294836222
-0.2840255201 -0.1074569598 0.5882401466 4294836222
-0.2845000327 -0.1069818065 0.5892229080 4294901759
-0.2845452130 -0.1063440368 0.5893165469 4294901759
-0.2850194275 -0.1058653891 0.5902985930 4294836222
-0.2854934931 -0.1053845212 0.5912804604 4294770429
-0.2855380476 -0.1047439128 0.5913727283 4294704636
-0.2851529121 -0.1039464623 0.5905750990 4294704636
-0.2851969004 -0.1033062264 0.5906661749 4294704636
-0.2852406204 -0.1026656926 0.5907567739 4294770429
-0.2852841020 -0.1020248607 0.5908467770 4294836222
-0.2857570052 -0.1015364304 0.5918262005 4294901759
-0.2858000100 -0.1008940488 0.5919153094 4294901757
-0.2858427763 -0.1002513841 0.5920038819 4294836220
-0.2863151729 -0.0997582227 0.5929822326 4294836220
-0.2872174084 -0.0994116515 0.5948508382 4294770427
-0.2881196141 -0.0990609303 0.5967193842 4294769916
-0.2894519269 -0.0988529325 0.5994786620 4294835709
-0.2903541625 -0.0984929353 0.6013473272 4294769916
-0.2916866243 -0.0982737169 0.6041069627 4294769916
-0.2925888896 -0.0979044214 0.6059756279 4294769916
-0.2934911549 -0.0975309759 0.6078442931 4294769916
-0.2943933904 -0.0971533582 0.6097128391 4294769916
-0.2952955663 -0.0967715830 0.6115813851 4294835709
-0.2957672179 -0.0962455496 0.6125581861 4294835707
-0.2962387204 -0.0957173035 0.6135346889 4294835707
-0.2967100441 -0.0951868296 0.6145108938 4294835707
-0.2971812189 -0.0946541354 0.6154867411 4294835707
-0.2976522446 -0.0941192284 0.6164622307 4294835707
-0.2976922989 -0.0934468657 0.6165452003 4294835707
-0.2981629372 -0.0929084942 0.6175199151 4294835707
-0.2986334264 -0.0923679024 0.6184943318 4294835707
-0.2991037369 -0.0918250978 0.6194683909 4294835707
-0.2991428375 -0.0911487415 0.6195493937 4294835707
-0.2996127903 -0.0906024873 0.6205226779 4294835707
-0.3005136847 -0.0901833996 0.6223885417 4294835707
-0.3009833395 -0.0896317437 0.6233611703 4294835707
-0.3010215461 -0.0889504328 0.6234403253 4294835707
-0.3010594845 -0.0882688686 0.6235188842 4294770427
-0.3015284836 -0.0877125263 0.6244902611 4294770427
-0.3015659153 -0.0870294720 0.6245677471 4294770427
-0.3016030490 -0.0863461643 0.6246446371 4294770427
-0.3016398847 -0.0856626034 0.6247209907 4294704634
-0.3016764522 -0.0849787891 0.6247966886 4294770427
-0.3017127216 -0.0842947364 0.6248718500 4294770427
-0.3017487228 -0.0836104304 0.6249464154 4294770427
-0.3017844558 -0.0829258859 0.6250203848 4294704634
-0.2895237505 -0.1598720551 0.6010099053 4291546320
-0.2895893157 -0.1592403352 0.6011460423 4287664533
-0.2896546423 -0.1586081982 0.6012816429 4284572514
-0.2897197306 -0.1579756290 0.6014168262 4283980377
-0.2897846103 -0.1573426425 0.6015514731 4284046168
-0.2894267440 -0.1564807892 0.6008085608 4284506719
-0.2890684307 -0.1556203514 0.6000647545 4285296233
-0.2887097299 -0.1547613442 0.5993201137 4285296233
-0.2883505821 -0.1539037675 0.5985746384 4283980115
-0.2875681221 -0.1528228968 0.5969503522 4283914322
-0.2867850661 -0.1517453045 0.5953248739 4283388754
-0.2860014141 -0.1506710202 0.5936980844 4282467652
-0.2860635221 -0.1500439346 0.5938270092 4283716692
-0.2861253619 -0.1494164616 0.5939553976 4285098345
-0.2866103351 -0.1490086615 0.5949621201 4285362546
-0.2870952487 -0.1485986114 0.5959687829 4284573030
-0.2884272039 -0.1486227810 0.5987336636 4284177243
-0.2897594571 -0.1486409605 0.6014992595 4283387727
-0.2906682789 -0.1484367698 0.6033858657 4283978837
-0.2911534309 -0.1480129957 0.6043929458 4286347385
-0.2916385233 -0.1475869566 0.6053999066 4287927703
-0.2916995585 -0.1469450742 0.6055266261 4288585633
-0.2917603850 -0.1463027745 0.6056528687 4289371042
-0.2913967669 -0.1454483718 0.6048980951 4288844698
-0.2910327613 -0.1445954293 0.6041424274 4288900738
-0.2902440131 -0.1435341239 0.6025050879 4286926948
-0.2898790538 -0.1426850706 0.6017475128 4287183170
-0.2895137072 -0.1418374926 0.6009891033 4287577928
-0.2887233794 -0.1407843679 0.5993484855 4289413964
-0.2879324257 -0.1397345960 0.5977065563 4288887620
-0.2875656784 -0.1388933659 0.5969452262 4289934910
-0.2867736518 -0.1378493905 0.5953010917 4290132289
-0.2868309021 -0.1372153610 0.5954200029 4290396999
-0.2860378921 -0.1361762732 0.5937738419 4290265413
-0.2856694162 -0.1353419721 0.5930088758 4290790215
-0.2848753333 -0.1343087107 0.5913605094 4290658629
-0.2849312127 -0.1336778849 0.5914765000 4290787905
-0.2849868536 -0.1330466866 0.5915920138 4290787905
-0.2841913700 -0.1320198476 0.5899406672 4290199107
-0.2838208377 -0.1311931163 0.5891715288 4290199107
-0.2838755250 -0.1305636466 0.5892850161 4290329925
-0.2839299440 -0.1299338192 0.5893979669 4290066753
-0.2835583687 -0.1291097701 0.5886266232 4290066494
-0.2836122215 -0.1284801513 0.5887384415 4290263873
-0.2836658359 -0.1278501898 0.5888497233 4290067007
-0.2837192118 -0.1272198707 0.5889605284 4290132800
-0.2833462358 -0.1263991147 0.5881863236 4290396486
-0.2833990455 -0.1257690340 0.5882959366 4290462279
-0.2834516168 -0.1251385957 0.5884050727 4290199620
-0.2835039198 -0.1245078146 0.5885136724 4290396999
-0.2835559845 -0.1238766834 0.5886217356 4290461250
-0.2836078107 -0.1232452020 0.5887293220 4290592836
-0.2836593986 -0.1226133779 0.5888363719 4290657342
-0.2832840979 -0.1217977777 0.5880573392 4290459963
-0.2829084098 -0.1209837422 0.5872774124 4290590779
-0.2825323045 -0.1201712638 0.5864967108 4290590779
-0.2825826705 -0.1195409298 0.5866012573 4290393916
-0.2826327682 -0.1189102530 0.5867052674 4290196537
-0.2826826274 -0.1182792485 0.5868088007 4290656061
-0.2827322483 -0.1176479086 0.5869117975 4290590268
-0.2823544741 -0.1168394759 0.5861275196 4290459195
-0.2819762826 -0.1160326228 0.5853424668 4290919746
-0.2824523151 -0.1155770570 0.5863306522 4290726734
-0.2825008631 -0.1149453521 0.5864314437 4291055699
-0.2821217179 -0.1141403839 0.5856443644 4290538094
-0.2821696699 -0.1135089919 0.5857439637 4292248712
-0.2822174132 -0.1128772795 0.5858430266 4292323755
-0.2818372250 -0.1120751798 0.5850538015 4293836994
-0.2814566195 -0.1112746745 0.5842637420 4294303713
-0.2815034389 -0.1106439233 0.5843609571 4294962414
-0.2815500200 -0.1100128591 0.5844576359 4294964986
-0.2815963626 -0.1093814820 0.5845538378 4294965757
-0.2816424370 -0.1087497920 0.5846495032 4294900991
-0.2821163535 -0.1082821041 0.5856332779 4294966783
-0.2821620107 -0.1076488346 0.5857280493 4294835709
-0.2822073996 -0.1070152670 0.5858222842 4294769916
-0.2826808393 -0.1065428108 0.5868050456 4294835709
-0.2831541598 -0.1060681343 0.5877876282 4294901502
-0.2823420465 -0.1051127240 0.5861017704 4294835709
-0.2828149199 -0.1046364754 0.5870833993 4294835709
-0.2828591168 -0.1040004343 0.5871751308 4294901502
-0.2829030454 -0.1033640876 0.5872663260 4294901502
-0.2825180292 -0.1025718004 0.5864670277 4294835709
-0.2825613618 -0.1019358337 0.5865570307 4294835709
-0.2830333114 -0.1014532968 0.5875366926 4294835709
-0.2835051119 -0.1009685323 0.5885161161 4294769916
-0.2831188440 -0.1001779735 0.5877143145 4294769916
-0.2835902572 -0.0996906981 0.5886929035 4294769916
-0.2840615511 -0.0992012024 0.5896711946 4294769916
-0.2845327258 -0.0987094939 0.5906493068 4294769916
-0.2854329646 -0.0983634740 0.5925180316 4294901502
-0.2859039009 -0.0978663489 0.5934956670 4294901502
-0.2872334123 -0.0976589695 0.5962555408 4294769916
-0.2885630429 -0.0974454880 0.5990156531 4294704123
-0.2894632816 -0.0970818698 0.6008844376 4294769914
-0.2903635204 -0.0967140868 0.6027532220 4294769914
-0.2912637293 -0.0963421538 0.6046218872 4294835707
-0.2917342484 -0.0958249271 0.6055986285 4294901500
-0.2926343381 -0.0954456329 0.6074671149 4294769914
-0.2935343981 -0.0950621814 0.6093354821 4294769914
-0.2940045893 -0.0945363566 0.6103115678 4294769914
-0.2944746315 -0.0940083116 0.6112872958 4294769914
-0.2949445248 -0.0934780538 0.6122626662 4294769914
-0.2949842215 -0.0928102806 0.6123450994 4294769914
-0.2954537272 -0.0922765583 0.6133197546 4294769914
-0.2959230840 -0.0917406157 0.6142940521 4294769914
-0.2963922620 -0.0912024677 0.6152679920 4294704634
-0.2968612909 -0.0906620994 0.6162416339 4294704634
-0.2977604270 -0.0902499408 0.6181081533 4294704634
-0.2982291877 -0.0897041708 0.6190811992 4294704634
-0.2982673645 -0.0890277252 0.6191604137 4294704634
-0.2987357080 -0.0884785056 0.6201326847 4294704634
-0.2987733781 -0.0878005624 0.6202108860 4294704634
-0.2988107800 -0.0871223658 0.6202884912 4294704634
-0.2992784977 -0.0865684748 0.6212594509 4294704634
-0.2988847196 -0.0857652128 0.6204419732 4294770427
-0.2989212573 -0.0850862637 0.6205178499 4294704634
-0.2993883193 -0.0845286846 0.6214873791 4294770427
-0.2994243503 -0.0838482603 0.6215621829 4294836220
-0.2994601130 -0.0831675902 0.6216363907 4294770427
-0.2999264896 -0.0826053619 0.6226045489 4294704634
-0.2995307446 -0.0818055272 0.6217830777 4294836220
-0.2876456082 -0.1598669887 0.5984910727 4293390068
-0.2877110541 -0.1592382342 0.5986272097 4291349711
-0.2877762616 -0.1586090624 0.5987628698 4289507507
-0.2878412306 -0.1579794586 0.5988981128 4288190618
-0.2879059911 -0.1573494226 0.5990328193 4285953656
-0.2879704833 -0.1567189693 0.5991670489 4285098858
-0.2880347967 -0.1560880840 0.5993008018 4284901479
-0.2876770198 -0.1552291811 0.5985564590 4284638307
-0.2873188555 -0.1543717086 0.5978112221 4284046170
-0.2865382731 -0.1532898992 0.5961870551 4284177495
-0.2853349745 -0.1519865394 0.5936834216 4284440667
-0.2845530808 -0.1509122550 0.5920566320 4284243547
-0.2833483219 -0.1496182680 0.5895498991 4283914582
-0.2834098935 -0.1489956081 0.5896779895 4283650897
-0.2834712267 -0.1483725309 0.5898056030 4283979862
-0.2839548588 -0.1479692459 0.5908119082 4285098343
-0.2840158343 -0.1473444402 0.5909387469 4285822066
-0.2857674956 -0.1475925595 0.5945833921 4285361517
-0.2870968282 -0.1476154327 0.5973492265 4284572001
-0.2884264588 -0.1476323009 0.6001157165 4283650899
-0.2893333733 -0.1474276483 0.6020027399 4284243036
-0.2893942297 -0.1467896551 0.6021293402 4284110423
-0.2890316844 -0.1459375918 0.6013750434 4284834146
-0.2890919745 -0.1452997178 0.6015004516 4288449940
-0.2891520262 -0.1446614563 0.6016254425 4292660692
-0.2887884080 -0.1438119262 0.6008688807 4294434280
-0.2884243727 -0.1429638714 0.6001114249 4291670974
-0.2876363099 -0.1419083029 0.5984717011 4290407031
-0.2872713506 -0.1410641521 0.5977123976 4288827999
-0.2869059741 -0.1402214766 0.5969521403 4288820285
-0.2865402102 -0.1393803060 0.5961911082 4287899183
-0.2857500613 -0.1383353770 0.5945470929 4289738042
-0.2849593163 -0.1372938156 0.5929018259 4289869628
-0.2845921516 -0.1364589930 0.5921378732 4289870144
-0.2842245698 -0.1356256753 0.5913730264 4290001730
-0.2834322453 -0.1345923841 0.5897245407 4290462279
-0.2830637693 -0.1337630302 0.5889578462 4290593865
-0.2826948762 -0.1329351813 0.5881903172 4290593602
-0.2823255658 -0.1321088672 0.5874219537 4290330430
-0.2823804915 -0.1314817667 0.5875362158 4290263871
-0.2820104659 -0.1306575388 0.5867663026 4290329664
-0.2820648253 -0.1300306618 0.5868794322 4290328902
-0.2821189761 -0.1294034123 0.5869920254 4290526281
-0.2817478776 -0.1285818815 0.5862199664 4290921292
-0.2818014324 -0.1279548705 0.5863313675 4290789706
-0.2818547785 -0.1273275018 0.5864423513 4290527558
-0.2819078267 -0.1266997755 0.5865527391 4290593351
-0.2815353870 -0.1258815378 0.5857778192 4290527045
-0.2815878987 -0.1252540499 0.5858870745 4290461252
-0.2816401720 -0.1246262193 0.5859958529 4290855497
-0.2812666893 -0.1238107309 0.5852187276 4290921290
-0.2813183963 -0.1231831536 0.5853263140 4290921290
-0.2813698351 -0.1225552261 0.5854333639 4290987083
-0.2818467915 -0.1221114099 0.5864257812 4290921801
-0.2810462117 -0.1211148351 0.5847599506 4291382352
-0.2806709409 -0.1203042790 0.5839791894 4291447885
-0.2807212770 -0.1196768880 0.5840839148 4291447885
-0.2807713449 -0.1190491691 0.5841881037 4291183682
-0.2808211744 -0.1184211075 0.5842918158 4291117889
-0.2804445624 -0.1176139712 0.5835081935 4290658371
-0.2804938257 -0.1169862002 0.5836107135 4290526785
-0.2801164985 -0.1161812618 0.5828256011 4290395969
-0.2801651955 -0.1155537888 0.5829269290 4290395969
-0.2806401551 -0.1151009127 0.5839151144 4290330176
-0.2802618444 -0.1142978594 0.5831280351 4290330176
-0.2798831463 -0.1134963930 0.5823401213 4290658629
-0.2803575099 -0.1130406335 0.5833270550 4290921801
-0.2804049850 -0.1124115437 0.5834258199 4291119441
-0.2800253332 -0.1116119921 0.5826358795 4291645785
-0.2800722122 -0.1109832227 0.5827334523 4292111477
-0.2801188529 -0.1103541404 0.5828304887 4293558923
-0.2801652551 -0.1097247452 0.5829270482 4292780708
-0.2802113891 -0.1090950370 0.5830230117 4294425533
-0.2802572846 -0.1084650159 0.5831184983 4294763746
-0.2807302177 -0.1079990715 0.5841025114 4294964980
-0.2803483009 -0.1072040498 0.5833079219 4294901757
-0.2803934515 -0.1065731123 0.5834017992 4294770427
-0.2808658183 -0.1061033607 0.5843846798 4294966783
-0.2809105217 -0.1054708511 0.5844777226 4294966783
-0.2805273533 -0.1046784744 0.5836803913 4294966527
-0.2805714607 -0.1040463224 0.5837722421 4294966783
-0.2806153297 -0.1034138799 0.5838634968 4294966527
-0.2802311182 -0.1026244611 0.5830640793 4294966527
-0.2802744210 -0.1019923910 0.5831542015 4294967039
-0.2803174555 -0.1013600305 0.5832437277 4294966782
-0.2807882726 -0.1008811593 0.5842233300 4294901759
-0.2808308899 -0.1002472490 0.5843119621 4294901759
-0.2813013792 -0.0997649059 0.5852909684 4294901757
-0.2817717791 -0.0992803425 0.5862696171 4294901757
-0.2822420001 -0.0987935513 0.5872480273 4294967293
-0.2822837830 -0.0981556028 0.5873349309 4294967293
-0.2827537060 -0.0976653397 0.5883126855 4294901500
-0.2836519480 -0.0973198786 0.5901816487 4294901500
-0.2845502198 -0.0969702527 0.5920506120 4294967293
-0.2858770490 -0.0967615396 0.5948113203 4294967293
-0.2872039974 -0.0965467319 0.5975722671 4294901500
-0.2881023288 -0.0961826891 0.5994413495 4294835707
-0.2894294262 -0.0959566459 0.6022025943 4294835709
-0.2894700766 -0.0953009427 0.6022871733 4294835709
-0.2899393737 -0.0947851762 0.6032635570 4294901759
-0.2908374667 -0.0944064334 0.6051322222 4294901759
-0.2913064957 -0.0938852578 0.6061081290 4294836222
-0.2917754054 -0.0933618620 0.6070837379 4294901759
-0.2922441363 -0.0928362533 0.6080590487 4294901759
-0.2922835350 -0.0921730772 0.6081410050 4294901759
-0.2927519083 -0.0916440114 0.6091154814 4294901759
-0.2936494350 -0.0912461281 0.6109829545 4294836222
-0.2941175401 -0.0907116532 0.6119568944 4294967293
-0.2945854962 -0.0901749730 0.6129305363 4294967293
-0.2950532734 -0.0896360725 0.6139038801 4294967293
-0.2955209017 -0.0890949592 0.6148768067 4294901500
-0.2959883511 -0.0885516405 0.6158494353 4294901757
-0.2960259914 -0.0878785625 0.6159277558 4294901757
-0.2964930534 -0.0873317942 0.6168995500 4294901500
-0.2965301871 -0.0866572261 0.6169767976 4294901500
-0.2965670526 -0.0859824046 0.6170535088 4294770427
-0.2966036201 -0.0853073373 0.6171296239 4294836220
-0.2966399193 -0.0846320167 0.6172051430 4294705148
-0.2971059084 -0.0840781331 0.6181746721 4294573818
-0.2971417010 -0.0834013373 0.6182491779 4294770685
-0.2976072729 -0.0828440189 0.6192178726 4294770685
-0.2976425588 -0.0821657702 0.6192913055 4294770685
-0.2976775765 -0.0814872682 0.6193640828 4294639611
-0.2977122962 -0.0808085352 0.6194363236 4294441978
-0.2862577438 -0.1594641507 0.5969830155 4292995310
-0.2863229215 -0.1588370204 0.5971189141 4291283918
-0.2863878608 -0.1582094580 0.5972543359 4290625988
-0.2864525914 -0.1575814635 0.5973893404 4290296251
-0.2869378030 -0.1571835279 0.5984012485 4288783012
-0.2865813375 -0.1563242078 0.5976577997 4287204234
-0.2866453826 -0.1556949466 0.5977913737 4285690995
-0.2858671546 -0.1546098590 0.5961683989 4284704098
-0.2855094373 -0.1537548453 0.5954223871 4284309340
-0.2847300768 -0.1526753902 0.5937970877 4284571740
-0.2831075788 -0.1511493921 0.5904133916 4284637533
-0.2823268473 -0.1500783861 0.5887852311 4284440926
-0.2815455496 -0.1490106881 0.5871558189 4284111961
-0.2803420424 -0.1477241516 0.5846459866 4283980375
-0.2808244228 -0.1473276317 0.5856519341 4283651410
-0.2830545604 -0.1471858770 0.5903028250 4284243547
-0.2843809128 -0.1472166330 0.5930688977 4285493101
-0.2862508595 -0.1461948156 0.5969685912 4284834660
-0.2867334187 -0.1457768828 0.5979749560 4284898656
-0.2838369012 -0.1436465830 0.5919343233 4284964449
-0.2864309251 -0.1442957222 0.5973441601 4289174431
-0.2864905000 -0.1436618865 0.5974683762 4294635250
-0.2861271799 -0.1428167075 0.5967106819 4294965247
-0.2857634425 -0.1419730037 0.5959520936 4294699762
-0.2853992879 -0.1411307901 0.5951926708 4293839047
-0.2846118212 -0.1400819123 0.5935504436 4293378496
-0.2846697569 -0.1394508183 0.5936712623 4290939280
-0.2843043804 -0.1386130601 0.5929092765 4286136391
-0.2839385867 -0.1377768070 0.5921464562 4287048763
-0.2835724056 -0.1369420439 0.5913827419 4287575107
-0.2832057774 -0.1361087859 0.5906181931 4288621364
-0.2828387916 -0.1352770329 0.5898528099 4289542466
-0.2824713588 -0.1344467849 0.5890865922 4290199360
-0.2821035385 -0.1336180419 0.5883194804 4290396739
-0.2817353010 -0.1327908188 0.5875515342 4290332227
-0.2813666761 -0.1319651157 0.5867827535 4290266434
-0.2809976339 -0.1311409324 0.5860131383 4290067521
-0.2810520828 -0.1305151135 0.5861267447 4290264900
-0.2802583277 -0.1294971257 0.5844713449 4290330697
-0.2803121507 -0.1288724691 0.5845835805 4290330697
-0.2799415886 -0.1280534565 0.5838108063 4290265413
-0.2799948454 -0.1274290383 0.5839218497 4290396999
-0.2796235383 -0.1266121417 0.5831475258 4290593865
-0.2796762288 -0.1259879619 0.5832574368 4290725451
-0.2797287107 -0.1253634244 0.5833668113 4290921544
-0.2797809243 -0.1247385442 0.5834757090 4290855751
-0.2798328996 -0.1241133139 0.5835841298 4291117640
-0.2794599235 -0.1233003512 0.5828062892 4290986054
-0.2795113325 -0.1226753742 0.5829135180 4290722881
-0.2795625031 -0.1220500544 0.5830202103 4291051846
-0.2796134353 -0.1214243919 0.5831264257 4290987336
-0.2792390883 -0.1206148043 0.5823457837 4291316301
-0.2792894542 -0.1199894175 0.5824508071 4291316301
-0.2793395817 -0.1193636879 0.5825553536 4291513680
-0.2793894410 -0.1187376231 0.5826593637 4291315785
-0.2794390917 -0.1181112304 0.5827628374 4291249992
-0.2794884741 -0.1174844950 0.5828658342 4290724934
-0.2791121304 -0.1166795641 0.5820810199 4290724934
-0.2787353992 -0.1158762202 0.5812953711 4290856520
-0.2792095244 -0.1154263616 0.5822840929 4290856520
-0.2792578638 -0.1147992685 0.5823848844 4290790470
-0.2793059349 -0.1141718552 0.5824851990 4290658884
-0.2789279222 -0.1133710295 0.5816968679 4290724165
-0.2789754570 -0.1127439216 0.5817959309 4290724165
-0.2790227234 -0.1121165007 0.5818945169 4290591555
-0.2786436677 -0.1113185436 0.5811040401 4290525762
-0.2786903679 -0.1106914431 0.5812014341 4290199111
-0.2787368298 -0.1100640297 0.5812982917 4290396490
-0.2787830234 -0.1094363034 0.5813946128 4289744980
-0.2788289785 -0.1088082641 0.5814904571 4291060840
-0.2793010771 -0.1083453298 0.5824750662 4292119179
-0.2793466151 -0.1077157110 0.5825700164 4293632418
-0.2789653242 -0.1069222987 0.5817748308 4293902020
-0.2785836458 -0.1061304957 0.5809788704 4294954708
-0.2790549695 -0.1056634560 0.5819618106 4294960618
-0.2790994346 -0.1050335839 0.5820544958 4294963445
-0.2787168026 -0.1042437702 0.5812565684 4294966271
-0.2787606716 -0.1036142632 0.5813480616 4294966271
-0.2788043022 -0.1029844582 0.5814390182 4294901759
-0.2788476944 -0.1023543552 0.5815294981 4294901759
-0.2788908184 -0.1017239615 0.5816194415 4294639359
-0.2789336741 -0.1010932773 0.5817088485 4294573567
-0.2789762914 -0.1004623026 0.5817977190 4294639615
-0.2790186405 -0.0998310447 0.5818860531 4294705151
-0.2794881165 -0.0993514061 0.5828650594 4294901759
-0.2799574435 -0.0988695547 0.5838438272 4294901759
-0.2804266512 -0.0983854756 0.5848223567 4294967293
-0.2808957100 -0.0978991762 0.5858005881 4294967293
-0.2813646495 -0.0974106640 0.5867785811 4294835709
-0.2822611332 -0.0970670059 0.5886481404 4294835709
-0.2831575871 -0.0967191830 0.5905176997 4294901502
-0.2844818532 -0.0965123326 0.5932794213 4294967295
-0.2858062088 -0.0962993875 0.5960413218 4294967295
-0.2862748206 -0.0957939550 0.5970185995 4294901502
-0.2875992656 -0.0955707431 0.5997806787 4294901502
-0.2884957790 -0.0952001810 0.6016503572 4294835709
-0.2885360420 -0.0945449024 0.6017343402 4294967295
-0.2890042067 -0.0940286517 0.6027106643 4294901502
-0.2899004519 -0.0936485156 0.6045797467 4294901502
-0.2899401188 -0.0929894969 0.6046624780 4294967295
-0.2904078364 -0.0924666002 0.6056378484 4294967295
-0.2904469967 -0.0918060690 0.6057195663 4294967295
-0.2909143567 -0.0912797153 0.6066942215 4294836222
-0.2913815379 -0.0907511413 0.6076685190 4294704636
-0.2914200127 -0.0900878683 0.6077487469 4294835707
-0.2914582193 -0.0894243419 0.6078284383 4294967293
-0.2923534811 -0.0890216082 0.6096954942 4294967293
-0.2928199768 -0.0884851590 0.6106683612 4294967293
-0.2932863235 -0.0879464969 0.6116408706 4294967293
-0.2933236361 -0.0872780308 0.6117187142 4294967293
-0.2937895656 -0.0867359266 0.6126904488 4294967293
-0.2938264012 -0.0860659704 0.6127672195 4294967293
-0.2942919731 -0.0855204314 0.6137381196 4294901757
-0.2943283021 -0.0848490000 0.6138138771 4294836220
-0.2943643332 -0.0841773152 0.6138890982 4294836220
-0.2948292792 -0.0836271197 0.6148586869 4294704634
-0.2948648334 -0.0829539672 0.6149328351 4294442232
-0.2949000895 -0.0822805762 0.6150063872 4294179060
-0.2953643799 -0.0817257240 0.6159746647 4293783532
-0.2953991592 -0.0810508728 0.6160471439 4293520360
-0.2954336405 -0.0803757831 0.6161190867 4293849327
-0.2852919698 -0.1592951268 0.5963501930 4292534245
-0.2853569686 -0.1586686820 0.5964860916 4291020746
-0.2854217589 -0.1580418199 0.5966215134 4290560195
-0.2854863107 -0.1574145257 0.5967563987 4291019974
-0.2859705687 -0.1570173651 0.5977686644 4290296251
-0.2851947248 -0.1559290141 0.5961468816 4288454301
-0.2852584720 -0.1553013772 0.5962802172 4286875269
-0.2840614021 -0.1539899260 0.5937778950 4285756273
-0.2837041318 -0.1531373411 0.5930311084 4285164136
-0.2829260528 -0.1520602703 0.5914046764 4284966498
-0.2813064158 -0.1505364478 0.5880191326 4284637533
-0.2805269659 -0.1494678110 0.5863897800 4284572253
-0.2801675797 -0.1486256421 0.5856385827 4284374874
-0.2785454988 -0.1471182257 0.5822479129 4283980375
-0.2781850100 -0.1462817490 0.5814943910 4283651410
-0.2759552002 -0.1419047117 0.5768334270 4285294184
-0.2789633572 -0.1428036988 0.5831213593 4285162598
-0.2798650861 -0.1426153332 0.5850062966 4285358694
-0.2837179601 -0.1439197659 0.5930600166 4284963936
-0.2833555937 -0.1430778503 0.5923025608 4288450965
-0.2834145725 -0.1424493939 0.5924258232 4294240749
-0.2830514610 -0.1416095197 0.5916668177 4294966527
-0.2805783153 -0.1397205740 0.5864971876 4294966527
-0.2823240161 -0.1399341822 0.5901462436 4294503145
-0.2819596827 -0.1390987635 0.5893846750 4293253078
-0.2820171118 -0.1384721100 0.5895047188 4291541182
-0.2820743322 -0.1378450841 0.5896242857 4289567392
-0.2821312845 -0.1372176707 0.5897433758 4291465634
-0.2817655802 -0.1363854110 0.5889789462 4289689223
-0.2818219960 -0.1357581913 0.5890968442 4287377210
-0.2814555466 -0.1349279881 0.5883308649 4287114038
-0.2810887098 -0.1340993047 0.5875640512 4289017656
-0.2807214558 -0.1332721263 0.5867964029 4289675586
-0.2803538144 -0.1324464679 0.5860278606 4290133051
-0.2799857557 -0.1316223145 0.5852585435 4290462016
-0.2796172798 -0.1307996958 0.5844883323 4291118153
-0.2796715498 -0.1301755309 0.5846017003 4291052360
-0.2793023586 -0.1293550134 0.5838299990 4290592840
-0.2789327800 -0.1285360307 0.5830574632 4290658633
-0.2785627842 -0.1277185827 0.5822840929 4290921290
-0.2781924009 -0.1269026697 0.5815098286 4290855497
-0.2782451212 -0.1262804866 0.5816200376 4290921290
-0.2778740227 -0.1254667044 0.5808443427 4290789704
-0.2779261768 -0.1248447821 0.5809533596 4290657602
-0.2779780924 -0.1242225021 0.5810618997 4290723395
-0.2780297995 -0.1235998794 0.5811699629 4290789187
-0.2776573300 -0.1227894425 0.5803914070 4290657601
-0.2777084410 -0.1221670806 0.5804982781 4290658882
-0.2777593434 -0.1215443686 0.5806046128 4290922054
-0.2778099775 -0.1209213138 0.5807104707 4290790727
-0.2774361670 -0.1201142669 0.5799290538 4290659141
-0.2774862349 -0.1194914877 0.5800337791 4290461763
-0.2775360942 -0.1188683733 0.5801379681 4290659142
-0.2775856853 -0.1182449237 0.5802416205 4290724424
