VERSION 0.7
FIELDS x y z rgba
SIZE 4 4 4 4
TYPE F F F U
COUNT 1 1 1 1
WIDTH 920
HEIGHT 1
VIEWPOINT 0.0 0.0 0.0 1.0 0.0 0.0 0.0
POINTS 920
DATA ascii
-0.2583933175 -0.1670732051 0.5623170137 4289834679
-0.2576524317 -0.1659711897 0.5607047081 4286808201
-0.2573142648 -0.1651311815 0.5599688292 4286476150
-0.2569756806 -0.1642925590 0.5592319965 4285949806
-0.2574437559 -0.1639693379 0.5602506399 4286340193
-0.2575082183 -0.1633877456 0.5603908896 4285090126
-0.2587836385 -0.1635712832 0.5631664395 4283640628
-0.2584441900 -0.1627318263 0.5624277592 4284101179
-0.2593160868 -0.1626538187 0.5643251538 4286082411
-0.2593801320 -0.1620668322 0.5644645691 4285358688
-0.2598481178 -0.1617309600 0.5654830337 4285488475
-0.2599118948 -0.1611422002 0.5656217933 4285291096
-0.2595711350 -0.1603033096 0.5648802519 4285291096
-0.2596344054 -0.1597145945 0.5650178790 4285027924
-0.2596974671 -0.1591254622 0.5651551485 4284897108
-0.2597603202 -0.1585358977 0.5652919412 4285226073
-0.2602276802 -0.1581919193 0.5663089752 4286144350
-0.2598854005 -0.1573554873 0.5655641556 4284302146
-0.2603525519 -0.1570088267 0.5665807724 4282525219
-0.2604146898 -0.1564166248 0.5667160153 4282262047
-0.2604766190 -0.1558240205 0.5668507814 4282721057
-0.2605383694 -0.1552309841 0.5669851303 4285023812
-0.2605998814 -0.1546375304 0.5671190023 4285355088
-0.2606611848 -0.1540436596 0.5672523975 4285355088
-0.2607222795 -0.1534493566 0.5673853755 4285289041
-0.2607831955 -0.1528546512 0.5675179362 4285486420
-0.2608438730 -0.1522595137 0.5676499605 4286077789
-0.2609043717 -0.1516639739 0.5677816272 4286472547
-0.2609646320 -0.1510680169 0.5679127574 4285748565
-0.2610246837 -0.1504716575 0.5680434704 4283051052
-0.2606784999 -0.1496417820 0.5672900677 4281998362
-0.2607380450 -0.1490455270 0.5674197078 4282327327
-0.2612036169 -0.1486800909 0.5684328675 4283774773
-0.2608565092 -0.1478517801 0.5676774979 4285485391
-0.2609154284 -0.1472543031 0.5678057075 4286274907
-0.2609741390 -0.1466564238 0.5679334402 4286077528
-0.2614392042 -0.1462856382 0.5689455867 4285682772
-0.2614975870 -0.1456860155 0.5690726042 4286077530
-0.2615557313 -0.1450859904 0.5691991448 4286998119
-0.2620205283 -0.1447102726 0.5702106357 4284497985
-0.2624852955 -0.1443322897 0.5712220669 4283182638
-0.2625429928 -0.1437292099 0.5713475943 4283314224
-0.2626004815 -0.1431257129 0.5714727044 4284169533
-0.2630649507 -0.1427427977 0.5724834800 4285353807
-0.2631220818 -0.1421375871 0.5726078153 4286011226
-0.2631789744 -0.1415319890 0.5727316141 4286208605
-0.2632356584 -0.1409259886 0.5728549957 4286077532
-0.2632921338 -0.1403196007 0.5729779005 4286472290
-0.2633483708 -0.1397128254 0.5731003284 4285025871
-0.2634044290 -0.1391056627 0.5732222199 4284433734
-0.2634602189 -0.1384981126 0.5733436942 4284433734
-0.2635158002 -0.1378901750 0.5734646320 4284960078
-0.2635711730 -0.1372818500 0.5735851526 4285945946
-0.2636263371 -0.1366731375 0.5737051368 4285748567
-0.2640894353 -0.1362746805 0.5747129321 4286277221
-0.2641442120 -0.1356642693 0.5748322010 4286408807
-0.2641987801 -0.1350534856 0.5749509335 4285750107
-0.2642531097 -0.1344423145 0.5750691891 4286210658
-0.2643072307 -0.1338307709 0.5751869082 4286012766
-0.2639525235 -0.1330129504 0.5744150281 4285223250
-0.2640061080 -0.1324016154 0.5745316148 4286473319
-0.2644682229 -0.1319939047 0.5755372643 4287328628
-0.2645214200 -0.1313808709 0.5756530762 4287065201
-0.2649833262 -0.1309695840 0.5766583085 4287328373
-0.2646271884 -0.1301537007 0.5758832097 4287197302
-0.2646797001 -0.1295395643 0.5759975314 4285355098
-0.2647320032 -0.1289250553 0.5761113763 4284567124
-0.2647840977 -0.1283101887 0.5762246847 4286277742
-0.2652452588 -0.1278923303 0.5772283077 4288582294
-0.2652969658 -0.1272757798 0.5773407817 4289700775
-0.2657579184 -0.1268543452 0.5783439279 4288254618
-0.2658092380 -0.1262361407 0.5784556270 4284899175
-0.2662699521 -0.1258111298 0.5794582367 4289176233
-0.2667306066 -0.1253838539 0.5804607272 4293518571
-0.2572703958 -0.1686208844 0.5612298250 4292731113
-0.2565321624 -0.1675152630 0.5596194267 4292467173
-0.2557933331 -0.1664128155 0.5580076575 4291282899
-0.2546516061 -0.1650528163 0.5555170178 4289637302
-0.2555210292 -0.1649970114 0.5574136376 4286676617
-0.2547806799 -0.1639014333 0.5557986498 4286148214
-0.2544423640 -0.1630670577 0.5550605655 4285490284
-0.2549090087 -0.1627482921 0.5560785532 4285750883
-0.2557784915 -0.1626834571 0.5579752922 4285290332
-0.2566481829 -0.1626145542 0.5598725080 4284630092
-0.2575180531 -0.1625415534 0.5617701411 4284432713
-0.2579850554 -0.1622110009 0.5627888441 4286213742
-0.2580488324 -0.1616256535 0.5629280210 4285555812
-0.2581124306 -0.1610398740 0.5630667210 4285423198
-0.2581758201 -0.1604536623 0.5632050037 4285225819
-0.2582390010 -0.1598670185 0.5633428693 4285226073
-0.2578983903 -0.1590310782 0.5625997782 4284765522
-0.2579610646 -0.1584444940 0.5627365708 4284568143
-0.2580235600 -0.1578574777 0.5628728867 4284897108
-0.2584897280 -0.1575161517 0.5638898015 4285487705
-0.2585518956 -0.1569273770 0.5640254617 4284040259
-0.2590179741 -0.1565824449 0.5650421381 4282065697
-0.2590798438 -0.1559918970 0.5651771426 4281802525
-0.2595457733 -0.1556433588 0.5661935806 4282590499
-0.2600117028 -0.1552925408 0.5672099590 4284827461
-0.2600731552 -0.1546988785 0.5673440099 4285355347
-0.2593252659 -0.1536254734 0.5657125115 4285289554
-0.2593860924 -0.1530328244 0.5658451915 4285157457
-0.2594467402 -0.1524397582 0.5659775138 4285420629
-0.2595071495 -0.1518462598 0.5661092997 4285749594
-0.2595673800 -0.1512523741 0.5662406683 4285946973
-0.2596273720 -0.1506580561 0.5663715601 4285684314
-0.2596871853 -0.1500633359 0.5665020347 4284171075
-0.2593415678 -0.1492350250 0.5657480359 4283578423
-0.2598061562 -0.1488726586 0.5667615533 4283578423
-0.2598653436 -0.1482767165 0.5668906569 4284433216
-0.2599242926 -0.1476803571 0.5670192838 4285814869
-0.2599830329 -0.1470835954 0.5671474338 4286340702
-0.2600415945 -0.1464864314 0.5672751665 4286143323
-0.2605056763 -0.1461164504 0.5682875514 4285748567
-0.2605638802 -0.1455175579 0.5684145689 4285880153
-0.2606218755 -0.1449182481 0.5685410500 4286603363
-0.2610856891 -0.1445433497 0.5695528984 4286142812
-0.2611433566 -0.1439423114 0.5696786642 4285486935
-0.2612007856 -0.1433408707 0.5698039532 4285618521
-0.2616643310 -0.1429610401 0.5708151460 4285289556
-0.2621278167 -0.1425789297 0.5718262196 4285486935
-0.2621847987 -0.1419744343 0.5719504952 4285945946
-0.2622415423 -0.1413695514 0.5720742941 4286143325
-0.2622980773 -0.1407642812 0.5721976161 4286143325
-0.2627611458 -0.1403759122 0.5732077956 4286011739
-0.2624104917 -0.1395525485 0.5724428296 4285947232
-0.2628732920 -0.1391615272 0.5734524727 4286144611
-0.2629290223 -0.1385537535 0.5735740662 4285882209
-0.2629845440 -0.1379455924 0.5736951828 4285487451
-0.2626326680 -0.1371244490 0.5729275346 4285748826
-0.2626876533 -0.1365164667 0.5730475187 4285617240
-0.2627424300 -0.1359081119 0.5731669664 4286014049
-0.2627969682 -0.1352993697 0.5732859969 4287066737
-0.2628512979 -0.1346902400 0.5734044909 4287527545
-0.2629054189 -0.1340807378 0.5735225081 4287593338
-0.2629593015 -0.1334708631 0.5736400485 4286672238
-0.2626051903 -0.1326546222 0.5728675723 4284961620
-0.2630663812 -0.1322499961 0.5738736987 4285356379
-0.2631196082 -0.1316389889 0.5739897490 4287264376
-0.2635805905 -0.1312307715 0.5749954581 4288711568
-0.2636334300 -0.1306180954 0.5751107335 4289040533
-0.2636860609 -0.1300050467 0.5752254725 4288844183
-0.2633301616 -0.1291913390 0.5744491220 4286673014
-0.2633822560 -0.1285784990 0.5745627284 4283845455
-0.2638425231 -0.1281637102 0.5755668283 4285161315
-0.2638942301 -0.1275492013 0.5756796002 4288912029
-0.2643542886 -0.1271308213 0.5766832232 4290491061
-0.2644056082 -0.1265146434 0.5767952204 4290227125
-0.2648654580 -0.1260927022 0.5777983665 4286016373
-0.2649164200 -0.1254748553 0.5779094696 4287795094
-0.2653760314 -0.1250493377 0.5789121389 4293190120
-0.2559451461 -0.1681597233 0.5596948862 4292862958
-0.2540044487 -0.1662675142 0.5554510355 4292795883
-0.2532666326 -0.1651692092 0.5538376570 4291874781
-0.2529297173 -0.1643349528 0.5531008840 4290624197
-0.2525924146 -0.1635020673 0.5523632169 4288321442
-0.2530580461 -0.1631886363 0.5533815026 4287661710
-0.2531219125 -0.1626148224 0.5535212159 4286543229
-0.2535874844 -0.1622977853 0.5545392632 4285884781
-0.2540530562 -0.1619784981 0.5555573702 4285292644
-0.2549207211 -0.1619123220 0.5574547648 4285553504
-0.2557885945 -0.1618420631 0.5593526363 4284961367
-0.2558521032 -0.1612606198 0.5594914556 4286344814
-0.2559154034 -0.1606787294 0.5596299171 4285752677
-0.2563810050 -0.1603481323 0.5606480837 4285489504
-0.2560414374 -0.1595136672 0.5599055290 4285226332
-0.2557014823 -0.1586805880 0.5591620803 4285029723
-0.2557638884 -0.1580979079 0.5592985749 4284503379
-0.2558261156 -0.1575147957 0.5594345927 4284371023
-0.2558881044 -0.1569312513 0.5595702529 4284568402
-0.2563530207 -0.1565935165 0.5605868697 4284896338
-0.2568178773 -0.1562535018 0.5616034269 4284764752
-0.2572827637 -0.1559112221 0.5626199841 4284106563
-0.2577476203 -0.1555666924 0.5636365414 4283777598
-0.2582124770 -0.1552198827 0.5646530986 4283907901
-0.2586773038 -0.1548708230 0.5656695962 4284829003
-0.2587384880 -0.1542787999 0.5658033490 4285355349
-0.2587994635 -0.1536863595 0.5659366846 4285421142
-0.2588602304 -0.1530935019 0.5660696030 4285354836
-0.2589207888 -0.1525002271 0.5662019849 4285618008
-0.2589811385 -0.1519065350 0.5663340092 4285750107
-0.2586371601 -0.1510763615 0.5655817986 4285881693
-0.2586970031 -0.1504827738 0.5657126307 4286079842
-0.2587566376 -0.1498887688 0.5658430457 4286277221
-0.2588160634 -0.1492943615 0.5659729838 4286145635
-0.2588752806 -0.1486995369 0.5661025047 4285421912
-0.2593388855 -0.1483357251 0.5671162605 4285289041
-0.2593977749 -0.1477391571 0.5672450662 4285749592
-0.2590516806 -0.1469126344 0.5664882064 4286143582
-0.2591100633 -0.1463161856 0.5666158795 4286011996
-0.2595731616 -0.1459470242 0.5676286221 4285880410
-0.2596312165 -0.1453488469 0.5677555203 4285880410
-0.2596890330 -0.1447502673 0.5678820014 4286143071
-0.2601518631 -0.1443761587 0.5688941479 4286998380
-0.2602093816 -0.1437758505 0.5690198541 4286935410
-0.2602666616 -0.1431751400 0.5691450834 4287066996
-0.2603237033 -0.1425740272 0.5692698956 4286146407
-0.2607861459 -0.1421936750 0.5702810884 4285685856
-0.2608428597 -0.1415908337 0.5704051256 4285946975
-0.2608993649 -0.1409876049 0.5705286860 4286210147
-0.2613614798 -0.1406023204 0.5715392828 4286143584
-0.2614176571 -0.1399973780 0.5716620684 4285880412
-0.2614735961 -0.1393920332 0.5717844367 4286276967
-0.2615292966 -0.1387863159 0.5719062686 4286605932
-0.2615848184 -0.1381801963 0.5720276237 4286738032
-0.2616401017 -0.1375737041 0.5721485019 4286343274
-0.2612887919 -0.1367541403 0.5713803172 4285881439
-0.2613435686 -0.1361478269 0.5715000629 4285684060
-0.2613980770 -0.1355411261 0.5716193318 4285750623
-0.2618590295 -0.1351438910 0.5726272464 4286934897
-0.2615064979 -0.1343265921 0.5718563795 4288185735
-0.2615603805 -0.1337187588 0.5719741583 4288514700
-0.2612071633 -0.1329035312 0.5712018013 4287594368
-0.2612605095 -0.1322959065 0.5713184476 4285554785
-0.2617206573 -0.1318930238 0.5723246932 4284961878
-0.2621807456 -0.1314878613 0.5733308196 4286935668
-0.2622335851 -0.1308772266 0.5734463334 4289239195
-0.2626934648 -0.1304684877 0.5744520426 4289765539
-0.2627459466 -0.1298561692 0.5745667219 4289240481
-0.2623907328 -0.1290431023 0.5737900138 4288056207
-0.2624426782 -0.1284309924 0.5739035606 4284174933
-0.2629019916 -0.1280169934 0.5749080181 4284569691
-0.2629535496 -0.1274032146 0.5750207305 4288582551
-0.2634126246 -0.1269856393 0.5760246515 4291016892
-0.2634638250 -0.1263701916 0.5761365891 4290818234
-0.2635147870 -0.1257543862 0.5762480497 4287396998
-0.2639735043 -0.1253319234 0.5772511363 4286413953
-0.2640240788 -0.1247144490 0.5773617625 4292269530
-0.2518200874 -0.1658523232 0.5520150661 4292994544
-0.2511480749 -0.1641863436 0.5505419970 4292665069
-0.2508114874 -0.1633554399 0.5498041511 4292203488
-0.2508752644 -0.1627859473 0.5499439240 4290690249
-0.2513397038 -0.1624751538 0.5509620309 4289834163
-0.2518041730 -0.1621620953 0.5519801974 4288518303
-0.2526696920 -0.1621041000 0.5538774729 4287004804
-0.2523319423 -0.1612728387 0.5531371236 4285754737
-0.2535988390 -0.1614648998 0.5559142828 4285490021
-0.2540634274 -0.1611419022 0.5569327474 4285292642
-0.2541265488 -0.1605629921 0.5570710897 4286213742
-0.2541894913 -0.1599836498 0.5572090745 4285687398
-0.2542522252 -0.1594038904 0.5573465824 4285424739
-0.2539130151 -0.1585727930 0.5566029549 4285227360
-0.2535733879 -0.1577430964 0.5558584929 4284898908
-0.2536353171 -0.1571638733 0.5559942722 4284438357
-0.2536970675 -0.1565842330 0.5561296344 4284240465
-0.2537586391 -0.1560041755 0.5562645793 4284043086
-0.2542222142 -0.1556700021 0.5572808385 4283911240
-0.2550881803 -0.1555789709 0.5591790676 4284963928
-0.2555518448 -0.1552393585 0.5601955056 4285949796
-0.2560155392 -0.1548974812 0.5612119436 4285686624
-0.2564792037 -0.1545533389 0.5622283220 4285291098
-0.2569428384 -0.1542069316 0.5632447004 4284764754
-0.2570036650 -0.1536174715 0.5633780360 4285224280
-0.2570642829 -0.1530275941 0.5635108948 4285355866
-0.2571246922 -0.1524373144 0.5636432767 4285224279
-0.2571848929 -0.1518466026 0.5637752414 4285487451
-0.2572448850 -0.1512554884 0.5639067888 4285356378
-0.2569013536 -0.1504278034 0.5631537437 4285422171
-0.2569608688 -0.1498367935 0.5632841587 4285554784
-0.2570201457 -0.1492453665 0.5634140968 4286804851
-0.2570792139 -0.1486535221 0.5635436177 4286673265
-0.2575417459 -0.1482937187 0.5645575523 4285949542
-0.2576004863 -0.1477001458 0.5646863580 4285684830
-0.2576590478 -0.1471061558 0.5648146868 4285816416
-0.2577173710 -0.1465117782 0.5649425387 4286276451
-0.2577754855 -0.1459169835 0.5650699139 4286079072
-0.2578333914 -0.1453217864 0.5651968718 4285815646
-0.2582953274 -0.1449530423 0.5662094355 4285552474
-0.2579485774 -0.1441302001 0.5654494166 4286078818
-0.2580058575 -0.1435338110 0.5655749440 4287065713
-0.2580629289 -0.1429370195 0.5657000542 4287462782
-0.2581197917 -0.1423398405 0.5658246875 4287725954
-0.2585811019 -0.1419644356 0.5668358803 4286608500
-0.2586376071 -0.1413655281 0.5669597387 4285687398
-0.2586939037 -0.1407662332 0.5670831800 4285751394
-0.2591549158 -0.1403858960 0.5680937767 4286080359
-0.2592108846 -0.1397848725 0.5682164431 4285749854
-0.2600768209 -0.1396184117 0.5701146722 4285881440
-0.2597273290 -0.1387982070 0.5693485737 4286343274
-0.2601879835 -0.1384106874 0.5703583956 4286935411
-0.2602432668 -0.1378062367 0.5704795122 4287199612
-0.2598928511 -0.1369877011 0.5697113872 4287002233
-0.2599475980 -0.1363834292 0.5698313713 4285882980
-0.2595964968 -0.1355669498 0.5690617561 4285356636
-0.2596507072 -0.1349628568 0.5691806078 4285685090
-0.2601104975 -0.1345683336 0.5701884627 4286606192
-0.2601643503 -0.1339625418 0.5703065395 4287857799
-0.2598120272 -0.1331483275 0.5695342422 4288647315
-0.2598653734 -0.1325427443 0.5696511269 4288253327
-0.2599184811 -0.1319367737 0.5697675347 4286213744
-0.2603775561 -0.1315356493 0.5707739592 4285028443
-0.2608366013 -0.1311322600 0.5717802048 4286475889
-0.2608892024 -0.1305232793 0.5718955398 4288844694
-0.2609415948 -0.1299139559 0.5720103383 4290160554
-0.2609937489 -0.1293042451 0.5721247196 4289175201
-0.2614523172 -0.1288946420 0.5731298923 4289175201
-0.2615040839 -0.1282832623 0.5732434392 4285096035
-0.2615556717 -0.1276715100 0.5733564496 4284635484
-0.2620138526 -0.1272570044 0.5743608475 4288121743
-0.2620650530 -0.1266435981 0.5744730830 4291345600
-0.2625230253 -0.1262255162 0.5754770041 4291082176
-0.2625738382 -0.1256104261 0.5755884051 4288911007
-0.2626244128 -0.1249949858 0.5756992698 4285625720
-0.2626747787 -0.1243791878 0.5758096576 4290625988
-0.2505058944 -0.1653894484 0.5504744649 4293060337
-0.2498349547 -0.1637265235 0.5490000844 4292796655
-0.2494988889 -0.1628971249 0.5482616425 4292532453
-0.2499623150 -0.1625894159 0.5492799878 4291413972
-0.2500257194 -0.1620202065 0.5494193435 4290426300
-0.2504890859 -0.1617088914 0.5504375100 4289373612
-0.2513526678 -0.1616527289 0.5523352623 4287662993
-0.2518161535 -0.1613359898 0.5533537269 4286018168
-0.2522796392 -0.1610169858 0.5543721914 4285556584
-0.2527431250 -0.1606957316 0.5553906560 4285819756
-0.2528059781 -0.1601184607 0.5555287600 4286411123
-0.2524678707 -0.1592879146 0.5547858477 4285753193
-0.2521294057 -0.1584587693 0.5540420413 4285228389
-0.2517905235 -0.1576310396 0.5532974005 4285031010
-0.2514512539 -0.1568047255 0.5525518656 4284636252
-0.2515127361 -0.1562289894 0.5526869297 4284373080
-0.2515740097 -0.1556528211 0.5528215766 4284175185
-0.2520364225 -0.1553235799 0.5538377166 4284043599
-0.2529002428 -0.1552384794 0.5557360053 4283911499
-0.2533627748 -0.1549037844 0.5567523241 4285358945
-0.2542268932 -0.1548113972 0.5586511493 4286477169
-0.2546894550 -0.1544712633 0.5596676469 4286016618
-0.2551520467 -0.1541288495 0.5606841445 4285424226
-0.2552126944 -0.1535423845 0.5608174801 4284437331
-0.2552731633 -0.1529555023 0.5609502792 4285027673
-0.2549313009 -0.1521282494 0.5601990819 4285225052
-0.2549912632 -0.1515414566 0.5603308678 4285093207
-0.2550509870 -0.1509542465 0.5604621172 4285356379
-0.2551105320 -0.1503666341 0.5605929494 4284962647
-0.2547674179 -0.1495423615 0.5598389506 4285094233
-0.2548264563 -0.1489548534 0.5599687099 4284964188
-0.2552879453 -0.1486013234 0.5609828234 4286609013
-0.2557494342 -0.1482455283 0.5619968772 4287661701
-0.2554051876 -0.1474224031 0.5612404346 4286740599
-0.2558664382 -0.1470639408 0.5622540116 4286146922
-0.2559246123 -0.1464725435 0.5623818636 4285686371
-0.2559826076 -0.1458807439 0.5625092983 4286080101
-0.2560403943 -0.1452885419 0.5626362562 4285882722
-0.2560979426 -0.1446959376 0.5627627373 4285685343
-0.2561553121 -0.1441029310 0.5628888011 4285487964
-0.2562124729 -0.1435095370 0.5630143881 4286211688
-0.2558658123 -0.1426906735 0.5622526407 4287198583
-0.2559224665 -0.1420974135 0.5623770952 4287990155
-0.2559788823 -0.1415037662 0.5625011325 4288516499
-0.2564389408 -0.1411319822 0.5635120273 4287464581
-0.2564950287 -0.1405366063 0.5636352897 4286082928
-0.2565509081 -0.1399408430 0.5637580752 4285686884
-0.2570106685 -0.1395641416 0.5647684336 4285950056
-0.2570662200 -0.1389666647 0.5648904443 4285290586
-0.2579301000 -0.1388039291 0.5667887926 4285882723
-0.2579853833 -0.1382037997 0.5669102669 4286211947
-0.2588493526 -0.1380346417 0.5688087940 4287133049
-0.2589043677 -0.1374318600 0.5689297318 4287792006
-0.2585545480 -0.1366149038 0.5681610107 4287660420
-0.2582043409 -0.1357994378 0.5673914552 4286016365
-0.2578537464 -0.1349854916 0.5666210055 4285358435
-0.2583125234 -0.1345949769 0.5676291585 4285488224
-0.2583662570 -0.1339921802 0.5677472949 4286343533
-0.2584198117 -0.1333890110 0.5678648949 4287595399
-0.2580679953 -0.1325773448 0.5670918226 4288845466
-0.2581210136 -0.1319743693 0.5672083497 4288911259
-0.2585791051 -0.1315772533 0.5682150126 4286805883
-0.2590371370 -0.1311778873 0.5692214966 4285160286
-0.2590896785 -0.1305719018 0.5693368912 4286015595
-0.2595475018 -0.1301689595 0.5703430176 4287990155
-0.2595996559 -0.1295612901 0.5704576373 4290358703
-0.2596516013 -0.1289532632 0.5705717206 4289110178
-0.2601090968 -0.1285454184 0.5715770721 4289702315
-0.2601606548 -0.1279357076 0.5716903806 4285819758
-0.2606179416 -0.1275242716 0.5726952553 4284832863
-0.2606691420 -0.1269128919 0.5728077292 4287660420
-0.2607201338 -0.1263011545 0.5729197264 4291015863
-0.2607708573 -0.1256890595 0.5730312467 4290623419
-0.2612276375 -0.1252714247 0.5740349889 4289439145
-0.2612780035 -0.1246576682 0.5741456747 4285231989
-0.2613281608 -0.1240435466 0.5742558837 4289179569
-0.2488596290 -0.1640954465 0.5481948256 4293125617
-0.2485244870 -0.1632661968 0.5474566221 4292928238
-0.2485879958 -0.1626994908 0.5475964546 4292664550
-0.2490504086 -0.1623926014 0.5486150980 4291546069
-0.2491136342 -0.1618241221 0.5487543941 4290493633
-0.2499753088 -0.1617720425 0.5506525040 4289111980
-0.2504377663 -0.1614583880 0.5516712070 4287532948
-0.2509002388 -0.1611424536 0.5526899695 4285756537
-0.2513627112 -0.1608242840 0.5537087321 4285360490
-0.2514254749 -0.1602490693 0.5538469553 4285557869
-0.2514880598 -0.1596734375 0.5539848208 4286346872
-0.2511504889 -0.1588444263 0.5532412529 4285359977
-0.2504125535 -0.1577648073 0.5516156554 4285228389
-0.2500741184 -0.1569395363 0.5508701205 4284833631
-0.2501355112 -0.1563658714 0.5510053635 4284570972
-0.2497964054 -0.1555425078 0.5502583981 4283847249
-0.2506581247 -0.1554656029 0.5521566272 4283386185
-0.2503185272 -0.1546423137 0.5514085293 4283649357
-0.2511803508 -0.1545599699 0.5533069968 4283517001
-0.2520423830 -0.1544735283 0.5552058816 4284569689
-0.2525037825 -0.1541383117 0.5562222600 4287069823
-0.2533660829 -0.1540445834 0.5581217408 4286938237
-0.2534265816 -0.1534610987 0.5582550168 4286018159
-0.2534868717 -0.1528771967 0.5583878160 4284768092
-0.2531457841 -0.1520519108 0.5576364994 4284699989
-0.2532055676 -0.1514681131 0.5577681661 4284831575
-0.2532651722 -0.1508838832 0.5578994751 4284305231
-0.2529230714 -0.1500610709 0.5571459532 4284568403
-0.2529821694 -0.1494769603 0.5572761297 4284634196
-0.2530410588 -0.1488924325 0.5574058294 4284436817
-0.2535015047 -0.1485429108 0.5584200621 4284963161
-0.2539619207 -0.1481911242 0.5594342947 4286739572
-0.2540203929 -0.1476035267 0.5595631003 4289173913
-0.2544806600 -0.1472481489 0.5605769753 4287858053
-0.2545388043 -0.1466588080 0.5607050657 4286805365
-0.2541945279 -0.1458383054 0.5599467158 4285752677
-0.2542521656 -0.1452490836 0.5600736737 4285621091
-0.2543095946 -0.1446594745 0.5602002144 4285555298
-0.2543668151 -0.1440694630 0.5603262782 4285028954
-0.2544238567 -0.1434790492 0.5604518652 4285028954
-0.2544806600 -0.1428882480 0.5605769753 4285622118
-0.2541345060 -0.1420718879 0.5598144531 4286082669
-0.2541908026 -0.1414812356 0.5599384904 4288583062
-0.2542468905 -0.1408901811 0.5600620508 4288517269
-0.2547057867 -0.1405210793 0.5610728860 4288188304
-0.2551646233 -0.1401497275 0.5620836616 4286411893
-0.2552202642 -0.1395556331 0.5622062087 4285227360
-0.2552756965 -0.1389611512 0.5623282790 4285556325
-0.2557342649 -0.1385848671 0.5633384585 4284635736
-0.2557893395 -0.1379886717 0.5634598136 4284833115
-0.2562477589 -0.1376087964 0.5644695759 4285426281
-0.2571097314 -0.1374424249 0.5663684011 4285821039
-0.2571644187 -0.1368422508 0.5664888620 4287268485
-0.2568151057 -0.1360278130 0.5657193661 4287465864
-0.2564654052 -0.1352148801 0.5649490356 4286017389
-0.2561153173 -0.1344034672 0.5641778708 4284833115
-0.2565729320 -0.1340156496 0.5651859045 4284832604
-0.2566263676 -0.1334154755 0.5653036237 4285424741
-0.2566795945 -0.1328149289 0.5654208660 4286477940
-0.2567326128 -0.1322139949 0.5655376315 4288649109
-0.2563810050 -0.1314054281 0.5647631288 4288517523
-0.2568379641 -0.1310110241 0.5657697320 4287135870
-0.2572948635 -0.1306143552 0.5667762160 4284569689
-0.2577517033 -0.1302154213 0.5677825212 4285030240
-0.2582084835 -0.1298142225 0.5687887669 4286740860
-0.2582603991 -0.1292082369 0.5689031482 4290227889
-0.2583121061 -0.1286018938 0.5690170527 4288847004
-0.2583636045 -0.1279951781 0.5691304803 4289570727
-0.2588199079 -0.1275877804 0.5701355934 4286610044
-0.2592761517 -0.1271781027 0.5711406469 4284767840
-0.2593271136 -0.1265684068 0.5712528825 4285753967
-0.2593778670 -0.1259583384 0.5713647008 4290227891
-0.2594283819 -0.1253479272 0.5714759827 4290361533
-0.2598841190 -0.1249320582 0.5724799037 4290295740
-0.2599342763 -0.1243199781 0.5725903511 4285822329
-0.2599841952 -0.1237075403 0.5727003217 4287532947
-0.2600338757 -0.1230947524 0.5728098154 4292927973
-0.2480763197 -0.1627628356 0.5478096604 4292994285
-0.2481395453 -0.1621955037 0.5479492545 4292073183
-0.2486009896 -0.1618871838 0.5489681959 4291348942
-0.2490624338 -0.1615765989 0.5499871969 4290033082
-0.2499224991 -0.1615213603 0.5518863797 4288256671
-0.2499853671 -0.1609486490 0.5520251989 4286217088
-0.2504468262 -0.1606312990 0.5530442595 4285624176
-0.2505094111 -0.1600568146 0.5531824827 4285821555
-0.2501728237 -0.1592279375 0.5524391532 4286544764
-0.2498358190 -0.1584004760 0.5516949892 4285360490
-0.2490992248 -0.1573223025 0.5500684381 4285163111
-0.2487613410 -0.1564985663 0.5493223071 4285031525
-0.2488224655 -0.1559265405 0.5494572520 4284703328
-0.2488833964 -0.1553540826 0.5495918393 4283716433
-0.2489441186 -0.1547812074 0.5497259498 4283715663
-0.2494043559 -0.1544554383 0.5507422090 4283584077
-0.2502643466 -0.1543740183 0.5526413321 4283320392
-0.2507246733 -0.1540428102 0.5536577702 4284570459
-0.2511849701 -0.1537093371 0.5546742678 4287662730
-0.2516452968 -0.1533735991 0.5556907058 4287860109
-0.2517054081 -0.1527926922 0.5558235049 4287005313
-0.2517653406 -0.1522113681 0.5559558272 4285623660
-0.2514247298 -0.1513885558 0.5552036762 4284503637
-0.2514841557 -0.1508073211 0.5553349257 4284635223
-0.2515434027 -0.1502256840 0.5554656982 4284437844
-0.2512017787 -0.1494053453 0.5547113419 4284701016
-0.2512605190 -0.1488238126 0.5548411012 4284635223
-0.2513190508 -0.1482418776 0.5549703240 4284437844
-0.2517783046 -0.1478950232 0.5559844971 4284766809
-0.2522375584 -0.1475459188 0.5569985509 4286148462
-0.2526967824 -0.1471945494 0.5580126643 4289043354
-0.2527547777 -0.1466082036 0.5581406951 4288319631
-0.2528125644 -0.1460214406 0.5582683682 4287201150
-0.2528701425 -0.1454342902 0.5583955050 4285687911
-0.2529275417 -0.1448467374 0.5585222244 4285161567
-0.2529847026 -0.1442587823 0.5586484671 4285227360
-0.2530416846 -0.1436704248 0.5587742925 4284964188
-0.2526966929 -0.1428545713 0.5580124855 4285095774
-0.2527531683 -0.1422663629 0.5581371784 4285490534
-0.2528094351 -0.1416777521 0.5582613945 4286082671
-0.2528654635 -0.1410887539 0.5583851933 4288451476
-0.2529213130 -0.1404993683 0.5585085154 4288648855
-0.2533791363 -0.1401320249 0.5595194697 4288648855
-0.2534346581 -0.1395409256 0.5596420169 4287201409
-0.2538923025 -0.1391699910 0.5606526732 4285227362
-0.2539474964 -0.1385771781 0.5607745051 4285687913
-0.2540024519 -0.1379839629 0.5608958602 4284832861
-0.2540571988 -0.1373903900 0.5610167980 4284832861
-0.2545144558 -0.1370132118 0.5620265007 4285491561
-0.2553744614 -0.1368496120 0.5639255643 4286083698
-0.2554288208 -0.1362520605 0.5640456676 4287202179
-0.2550800145 -0.1354401410 0.5632753968 4287531144
-0.2547308207 -0.1346297562 0.5625042915 4286280307
-0.2547843754 -0.1340329349 0.5626225471 4284964447
-0.2548376918 -0.1334357560 0.5627403259 4284898654
-0.2552941144 -0.1330483854 0.5637481809 4285161826
-0.2553471029 -0.1324495077 0.5638651848 4285820526
-0.2549964190 -0.1316419542 0.5630908012 4288254867
-0.2550488710 -0.1310432851 0.5632066727 4288583832
-0.2551011443 -0.1304442436 0.5633220077 4287399558
-0.2555568814 -0.1300502717 0.5643284321 4284701277
-0.2560125887 -0.1296540499 0.5653347373 4284964449
-0.2568721175 -0.1294591129 0.5672327876 4285952114
-0.2569238245 -0.1288548112 0.5673469901 4290162866
-0.2569753230 -0.1282501370 0.5674606562 4289373863
-0.2570265830 -0.1276451051 0.5675738454 4289373863
-0.2574818134 -0.1272394657 0.5685791373 4287729038
-0.2579370141 -0.1268315464 0.5695843101 4284768353
-0.2583921254 -0.1264213771 0.5705893040 4284570463
-0.2584427297 -0.1258120388 0.5707010627 4289636524
-0.2584931254 -0.1252023578 0.5708122849 4290229947
-0.2585432827 -0.1245923117 0.5709230304 4290756291
-0.2585932016 -0.1239819154 0.5710332990 4286809224
-0.2586429119 -0.1233711615 0.5711430907 4286809224
-0.2590972185 -0.1229521707 0.5721462965 4291875285
-0.2476272136 -0.1622585654 0.5481623411 4292665320
-0.2476901710 -0.1616906226 0.5483016968 4292006618
-0.2481506020 -0.1613808572 0.5493209362 4290888137
-0.2490088344 -0.1613265574 0.5512207747 4288980394
-0.2490715235 -0.1607545614 0.5513595343 4286677639
-0.2491340190 -0.1601821482 0.5514978766 4285953654
-0.2491963208 -0.1596093029 0.5516358018 4285822068
-0.2492584437 -0.1590360254 0.5517733097 4286348412
-0.2489220798 -0.1582091898 0.5510287285 4285295724
-0.2485853434 -0.1573837548 0.5502832532 4285098345
-0.2478497326 -0.1563084275 0.5486549139 4285032552
-0.2479106784 -0.1557371169 0.5487897992 4284769380
-0.2479714304 -0.1551653892 0.5489242673 4283585106
-0.2484307438 -0.1548417807 0.5499410629 4282992710
-0.2488900721 -0.1545159221 0.5509578586 4283584847
-0.2493494004 -0.1541877836 0.5519746542 4283453261
-0.2498087138 -0.1538573951 0.5529913902 4284045398
-0.2502680123 -0.1535247564 0.5540081859 4287664013
-0.2503280938 -0.1529459059 0.5541411638 4288058771
-0.2507872880 -0.1526096463 0.5551576614 4287335048
-0.2504476011 -0.1517869681 0.5544057488 4286150774
-0.2501075566 -0.1509657055 0.5536529422 4284175955
-0.2501667142 -0.1503861398 0.5537838936 4284768092
-0.2502256930 -0.1498061419 0.5539144278 4284373334
-0.2498846352 -0.1489873677 0.5531594753 4284110162
-0.2499431223 -0.1484074891 0.5532889366 4284570713
-0.2504014075 -0.1480637342 0.5543034077 4284373334
-0.2508596480 -0.1477176994 0.5553178191 4284241748
-0.2513178885 -0.1473694146 0.5563322306 4285820780
-0.2513758540 -0.1467851251 0.5564604998 4289110176
-0.2514335811 -0.1462004334 0.5565883517 4288320660
-0.2514911294 -0.1456153393 0.5567157269 4287004800
-0.2515484691 -0.1450298429 0.5568426251 4285688940
-0.2516056001 -0.1444439441 0.5569691062 4285294182
-0.2516625226 -0.1438576579 0.5570951104 4285294182
-0.2517192364 -0.1432709694 0.5572206378 4284702045
-0.2517757416 -0.1426838785 0.5573457479 4284438873
-0.2518320382 -0.1420964003 0.5574703813 4285424741
-0.2514870465 -0.1412831843 0.5567066669 4285556327
-0.2515428364 -0.1406958550 0.5568302274 4288122513
-0.2519997060 -0.1403315961 0.5578415394 4288977822
-0.2524565458 -0.1399650723 0.5588527918 4288452248
-0.2525118887 -0.1393746883 0.5589753389 4287531146
-0.2525670230 -0.1387839317 0.5590974092 4285556584
-0.2526219785 -0.1381927878 0.5592190027 4285490791
-0.2530784011 -0.1378200054 0.5602293611 4285424998
-0.2531329989 -0.1372271478 0.5603502393 4285096033
-0.2535892725 -0.1368507892 0.5613602400 4285557356
-0.2540454865 -0.1364721656 0.5623701811 4285886321
-0.2536975741 -0.1356612742 0.5616000295 4287004802
-0.2541535199 -0.1352799982 0.5626093745 4288123283
-0.2534027696 -0.1342571378 0.5609474778 4287004800
-0.2534560859 -0.1336620003 0.5610654950 4284702045
-0.2539115846 -0.1332777143 0.5620738268 4284636252
-0.2539645731 -0.1326808780 0.5621910691 4284833631
-0.2540173233 -0.1320836842 0.5623078346 4285491561
-0.2536672056 -0.1312777251 0.5615327954 4287991695
-0.2537194490 -0.1306807250 0.5616484284 4288912799
-0.2541742921 -0.1302898526 0.5626553297 4288189076
-0.2546290755 -0.1298967004 0.5636620522 4285031012
-0.2550837994 -0.1295012832 0.5646686554 4285096805
-0.2555384636 -0.1291036159 0.5656751394 4285360236
-0.2555899322 -0.1285009831 0.5657891035 4289176230
-0.2556411922 -0.1278979927 0.5659025311 4289702574
-0.2560955286 -0.1274954230 0.5669082999 4289110437
-0.2561464310 -0.1268907636 0.5670209527 4288386714
-0.2566005588 -0.1264846176 0.5680262446 4284636513
-0.2566510737 -0.1258782744 0.5681380630 4283978585
-0.2567013800 -0.1252715886 0.5682494640 4288781474
-0.2571551502 -0.1248605475 0.5692539811 4290296253
-0.2572050989 -0.1242521852 0.5693644881 4291019976
-0.2572548091 -0.1236434728 0.5694745183 4288322463
-0.2573043108 -0.1230344102 0.5695840716 4286282880
-0.2573535442 -0.1224249974 0.5696931481 4290756804
-0.2467176169 -0.1620610058 0.5474948883 4292796906
-0.2471771389 -0.1617534161 0.5485146046 4292007386
-0.2476366907 -0.1614435762 0.5495343804 4290954698
-0.2480962276 -0.1611314565 0.5505541563 4289046701
-0.2481587380 -0.1605602056 0.5506929159 4286546567
-0.2482210547 -0.1599885076 0.5508311987 4285954167
-0.2482831776 -0.1594163775 0.5509690642 4285625202
-0.2483451068 -0.1588438302 0.5511064529 4286283132
-0.2480093986 -0.1580176055 0.5503615141 4285625202
-0.2472757548 -0.1569404900 0.5487334132 4285295724
-0.2469391674 -0.1561180055 0.5479865074 4285098345
-0.2469999343 -0.1555474252 0.5481213927 4284769378
-0.2474583536 -0.1552259922 0.5491386652 4283716690
-0.2475188375 -0.1546536386 0.5492728353 4283190346
-0.2479771525 -0.1543285996 0.5502899289 4283453518
-0.2484354824 -0.1540012956 0.5513070226 4283519311
-0.2488937974 -0.1536717266 0.5523240566 4284243034
-0.2493521124 -0.1533398926 0.5533411503 4288124564
-0.2494120002 -0.1527617723 0.5534740090 4288453529
-0.2494716942 -0.1521832347 0.5536065102 4287729806
-0.2491325736 -0.1513621062 0.5528539419 4286677118
-0.2487930655 -0.1505424082 0.5521005392 4284570713
-0.2488519698 -0.1499644965 0.5522312522 4284833885
-0.2489106804 -0.1493861526 0.5523615479 4284636506
-0.2489691824 -0.1488074064 0.5524913669 4284570713
-0.2490274906 -0.1482282579 0.5526207685 4285031264
-0.2498839498 -0.1481219381 0.5545213223 4284965471
-0.2495427728 -0.1473044306 0.5537642241 4284636506
-0.2499999255 -0.1469578892 0.5547786951 4285623401
-0.2500576079 -0.1463752538 0.5549067259 4289307555
-0.2501150966 -0.1457922310 0.5550342798 4288715418
-0.2501723766 -0.1452087909 0.5551614165 4287465351
-0.2502294481 -0.1446249485 0.5552880764 4286215284
-0.2502863407 -0.1440407187 0.5554142594 4285425768
-0.2503429949 -0.1434560865 0.5555400252 4285162596
-0.2503994703 -0.1428710669 0.5556653142 4284767838
-0.2504557371 -0.1422856450 0.5557901859 4284504666
-0.2505117953 -0.1416998208 0.5559145808 4285227619
-0.2505676150 -0.1411136091 0.5560384989 4285096033
-0.2510236204 -0.1407514960 0.5570504069 4287333765
-0.2506786883 -0.1399400234 0.5562849641 4289307555
-0.2515349984 -0.1397978663 0.5581851602 4288386966
-0.2515901923 -0.1392082125 0.5583076477 4287663243
-0.2516451776 -0.1386181861 0.5584296584 4285952625
-0.2516999543 -0.1380277574 0.5585512519 4285623660
-0.2521553934 -0.1376558095 0.5595619082 4285623147
-0.2522098124 -0.1370636821 0.5596827269 4284767838
-0.2526651025 -0.1366881281 0.5606930256 4285228389
-0.2531203628 -0.1363103241 0.5617032647 4286017905
-0.2527731061 -0.1355000883 0.5609326959 4287268485
-0.2524254620 -0.1346913576 0.5601612329 4288123794
-0.2524788380 -0.1340973228 0.5602797270 4286874497
-0.2525320053 -0.1335029155 0.5603976846 4284440156
-0.2521833777 -0.1326968372 0.5596240759 4284636254
-0.2526376843 -0.1323129833 0.5606322289 4285162598
-0.2526902258 -0.1317174584 0.5607487559 4285163109
-0.2527425289 -0.1311215609 0.5608648062 4287268485
-0.2523927093 -0.1303177774 0.5600885749 4288715933
-0.2528464794 -0.1299286634 0.5610955358 4288650140
-0.2533001900 -0.1295372844 0.5621023774 4285557869
-0.2537538707 -0.1291436255 0.5631091595 4285228904
-0.2542074919 -0.1287477165 0.5641157627 4285360236
-0.2542587221 -0.1281467676 0.5642294884 4288913058
-0.2543097734 -0.1275454611 0.5643427372 4290032309
-0.2547630370 -0.1271446496 0.5653485656 4288913828
-0.2548137009 -0.1265416741 0.5654610395 4289177000
-0.2552667856 -0.1261372864 0.5664664507 4285032041
-0.2553170919 -0.1255326420 0.5665780902 4284045148
-0.2553671598 -0.1249276325 0.5666892529 4287466384
-0.2554170191 -0.1243222728 0.5667998791 4290296253
-0.2558696270 -0.1239116862 0.5678042173 4290691011
-0.2559190989 -0.1233046651 0.5679140687 4289440944
-0.2559683919 -0.1226972863 0.5680233836 4286546052
-0.2560174167 -0.1220895648 0.5681322217 4290033081
-0.2462049127 -0.1621238142 0.5477070212 4292731370
-0.2466635257 -0.1618161350 0.5487272739 4292007386
-0.2471221536 -0.1615061909 0.5497475863 4290954698
-0.2471846789 -0.1609360874 0.5498866439 4289112749
-0.2472469956 -0.1603655517 0.5500252843 4286546822
-0.2477054596 -0.1600506604 0.5510451794 4285954165
-0.2473710775 -0.1592231840 0.5503013134 4285756786
-0.2474328279 -0.1586513519 0.5504387021 4286283130
-0.2470977604 -0.1578257680 0.5496932864 4285427821
-0.2467623055 -0.1570015848 0.5489470363 4284704098
-0.2464264631 -0.1561788172 0.5481999516 4284901477
-0.2464871556 -0.1556080431 0.5483349562 4285295722
-0.2465476543 -0.1550368369 0.5484695435 4284769378
-0.2470050752 -0.1547139585 0.5494871140 4283979862
-0.2470652908 -0.1541410089 0.5496210456 4283058760
-0.2475226074 -0.1538145244 0.5506383777 4283124807
-0.2479799241 -0.1534857899 0.5516557693 4284374874
-0.2484372407 -0.1531547755 0.5526731014 4287993489
-0.2484969497 -0.1525773853 0.5528059602 4288256661
-0.2485564798 -0.1519995779 0.5529383421 4287861390
-0.2482180148 -0.1511790752 0.5521854162 4286940288
-0.2478791624 -0.1503600180 0.5514315963 4285031776
-0.2479378879 -0.1497828215 0.5515622497 4284571225
-0.2479964346 -0.1492052078 0.5516924858 4284637018
-0.2480547726 -0.1486271918 0.5518222451 4284900190
-0.2481129020 -0.1480487734 0.5519515872 4285097314
-0.2485691905 -0.1477066576 0.5529666543 4284505177
-0.2490254641 -0.1473622620 0.5539816618 4284307798
-0.2490831912 -0.1467807740 0.5541100502 4285294693
-0.2495393306 -0.1464327872 0.5551248193 4289242273
-0.2495967448 -0.1458495557 0.5552525520 4288847515
-0.2492551506 -0.1450338662 0.5544925928 4287597450
-0.2493120581 -0.1444507539 0.5546191931 4286281590
-0.2493687719 -0.1438672543 0.5547453761 4285163109
-0.2494252771 -0.1432833523 0.5548710823 4285097316
-0.2498807460 -0.1429273635 0.5558843017 4284965730
-0.2499369383 -0.1423417330 0.5560092926 4284570972
-0.2499929219 -0.1417557150 0.5561338663 4284965217
-0.2500486970 -0.1411692947 0.5562579036 4285820526
-0.2501042485 -0.1405824870 0.5563815236 4287268485
-0.2501596212 -0.1399952918 0.5565047264 4289242275
-0.2506144941 -0.1396304071 0.5575165749 4288585115
-0.2510693073 -0.1392632425 0.5585283637 4288256150
-0.2511242032 -0.1386730075 0.5586505532 4286413946
-0.2511789203 -0.1380823702 0.5587722063 4285163879
-0.2512334287 -0.1374913603 0.5588934422 4285492074
-0.2516878247 -0.1371179521 0.5599043369 4284768351
-0.2517420053 -0.1365252435 0.5600248575 4284702558
-0.2521962523 -0.1361482441 0.5610353947 4285163109
-0.2522500753 -0.1355538070 0.5611551404 4286677118
-0.2519032061 -0.1347447783 0.5603834391 4288058771
-0.2515559494 -0.1339372694 0.5596109629 4287532684
-0.2516089678 -0.1333435923 0.5597288609 4285493101
-0.2516617477 -0.1327495426 0.5598463416 4286544762
-0.2517143488 -0.1321551204 0.5599633455 4287334278
-0.2517667115 -0.1315603256 0.5600798130 4287005315
-0.2518188655 -0.1309651583 0.5601958632 4287860624
-0.2518708110 -0.1303696334 0.5603113770 4288847519
-0.2519225180 -0.1297737360 0.5604264736 4288781726
-0.2523752749 -0.1293831617 0.5614336133 4285887348
-0.2528279722 -0.1289903224 0.5624406934 4285295211
-0.2528792024 -0.1283914298 0.5625546575 4285492592
-0.2529302239 -0.1277921647 0.5626681447 4288584863
-0.2529810071 -0.1271925420 0.5627811551 4290558653
-0.2530316114 -0.1265925616 0.5628936887 4289440172
-0.2534836829 -0.1261922121 0.5638993979 4289440174
-0.2539356947 -0.1257895827 0.5649049878 4286611075
-0.2539857924 -0.1251866221 0.5650163889 4286874247
-0.2540356517 -0.1245833039 0.5651273131 4288913830
-0.2540853024 -0.1239796281 0.5652377605 4290427839
-0.2545368373 -0.1235708147 0.5662422180 4290362046
-0.2545861006 -0.1229654774 0.5663518310 4290296253
-0.2546351552 -0.1223597899 0.5664609671 4287335568
-0.2546839714 -0.1217537597 0.5665695667 4289178542
-0.2551349998 -0.1213387623 0.5675729513 4293126122
-0.2456915975 -0.1621865332 0.5479189157 4292797417
-0.2457542121 -0.1616189331 0.5480585694 4292007899
-0.2462118268 -0.1613098234 0.5490791202 4291021004
-0.2466694713 -0.1609984487 0.5500996709 4289310126
-0.2467317134 -0.1604277194 0.5502384901 4286744199
-0.2467937618 -0.1598565578 0.5503768921 4285953652
-0.2468556315 -0.1592849642 0.5505148768 4285953652
-0.2461258918 -0.1582042575 0.5488874912 4286217337
-0.2465829849 -0.1578870714 0.5499067903 4285296235
-0.2458523810 -0.1568100899 0.5482774973 4285164136
-0.2455171794 -0.1559879482 0.5475299954 4286414203
-0.2455776930 -0.1554179043 0.5476649404 4287795856
-0.2460342050 -0.1550971866 0.5486829877 4287993235
-0.2460944355 -0.1545253694 0.5488173366 4287795597
-0.2465508580 -0.1542010605 0.5498351455 4286282358
-0.2470072657 -0.1538744718 0.5508530140 4284177495
-0.2474636883 -0.1535456330 0.5518708825 4283519565
-0.2475234270 -0.1529693902 0.5520040989 4287598218
-0.2475829571 -0.1523927152 0.5521368980 4288979871
-0.2476423085 -0.1518156379 0.5522692204 4288321941
-0.2473044991 -0.1509957761 0.5515158772 4287532425
-0.2469663024 -0.1501773447 0.5507616401 4285295463
-0.2470248640 -0.1496008784 0.5508922935 4284374361
-0.2470832318 -0.1490239948 0.5510224104 4284571740
-0.2471414059 -0.1484467089 0.5511521697 4286084979
-0.2475968003 -0.1481067538 0.5521677136 4287400839
-0.2480521798 -0.1477645189 0.5531833172 4286348151
-0.2477123290 -0.1469482929 0.5524253845 4284769119
-0.2481674999 -0.1466033906 0.5534404516 4284440154
-0.2486226410 -0.1462562382 0.5544555187 4288716699
-0.2486798912 -0.1456737220 0.5545831323 4288979871
-0.2487369329 -0.1450908184 0.5547103882 4287927183
-0.2483957112 -0.1442762911 0.5539494157 4286611323
-0.2484522462 -0.1436935216 0.5540754795 4285229672
-0.2485085875 -0.1431103498 0.5542011261 4285229672
-0.2489630729 -0.1427551955 0.5552147031 4285098086
-0.2490191013 -0.1421702951 0.5553396344 4284440156
-0.2490749210 -0.1415850073 0.5554640889 4284505949
-0.2491305321 -0.1409993172 0.5555881262 4285032293
-0.2491859347 -0.1404132396 0.5557116866 4286084981
-0.2496399283 -0.1400505006 0.5567241311 4288848287
-0.2496950030 -0.1394627094 0.5568469763 4288716701
-0.2501488328 -0.1390963644 0.5578590631 4288519322
-0.2502036095 -0.1385068595 0.5579811931 4286677375
-0.2502581477 -0.1379169524 0.5581028461 4284900964
-0.2503124774 -0.1373266727 0.5582240224 4285887859
-0.2507659197 -0.1369540840 0.5592352152 4287072133
-0.2508199215 -0.1363620907 0.5593556762 4287598220
-0.2512731850 -0.1359859109 0.5603665113 4286940290
-0.2509272993 -0.1351769716 0.5595951080 4286874754
-0.2509806752 -0.1345838457 0.5597141385 4287598477
-0.2506340742 -0.1337769628 0.5589411855 4288256920
-0.2506869435 -0.1331840307 0.5590590835 4287927955
-0.2507395744 -0.1325907111 0.5591765046 4289440170
-0.2507920265 -0.1319970191 0.5592934489 4290427065
-0.2508442402 -0.1314029694 0.5594099164 4290098100
-0.2508962452 -0.1308085322 0.5595258474 4289505963
-0.2509480417 -0.1302137375 0.5596413612 4288979619
-0.2513999343 -0.1298252940 0.5606491566 4288716447
-0.2514513731 -0.1292288154 0.5607638955 4288190103
-0.2519030869 -0.1288367957 0.5617712140 4288716447
-0.2519541681 -0.1282386333 0.5618851781 4289111720
-0.2520050406 -0.1276400983 0.5619986057 4289967029
-0.2520557046 -0.1270412207 0.5621116161 4290756291
-0.2521061599 -0.1264419705 0.5622240901 4289374638
-0.2521563768 -0.1258423626 0.5623360872 4289374638
-0.2526073456 -0.1254415065 0.5633417964 4289177259
-0.2526572049 -0.1248402297 0.5634529591 4290427326
-0.2527068257 -0.1242385954 0.5635637045 4290690498
-0.2531574667 -0.1238328591 0.5645686388 4290625218
-0.2536080182 -0.1234248579 0.5655733943 4290362046
-0.2536571622 -0.1228202581 0.5656830072 4290756804
-0.2541075051 -0.1224086806 0.5666872859 4288519842
-0.2541562617 -0.1218024269 0.5667960644 4289046956
-0.2542048097 -0.1211958155 0.5669043064 4292533985
-0.2447835207 -0.1619883180 0.5472493172 4292928749
-0.2452402264 -0.1616813838 0.5482703447 4292139485
-0.2456969321 -0.1613721848 0.5492913723 4291218383
-0.2461536676 -0.1610607207 0.5503124595 4289507764
-0.2462158203 -0.1604897976 0.5504514575 4287007630
-0.2462777942 -0.1599184573 0.5505899787 4286151031
-0.2463395745 -0.1593466699 0.5507280827 4286085238
-0.2460062951 -0.1585200131 0.5499830246 4286546302
-0.2456726283 -0.1576947570 0.5492370129 4286743681
-0.2453385741 -0.1568709165 0.5484902263 4287795856
-0.2450041175 -0.1560484916 0.5477424860 4289243302
-0.2450645566 -0.1554782540 0.5478776097 4290295990
-0.2455201596 -0.1551574469 0.5488961935 4290756541
-0.2455803156 -0.1545854360 0.5490306616 4290361526
-0.2460358143 -0.1542610228 0.5500490069 4289966768
-0.2460956722 -0.1536872685 0.5501828194 4287796110
-0.2465510815 -0.1533592492 0.5512009859 4285493355
-0.2466106564 -0.1527837217 0.5513341427 4287729804
-0.2470659614 -0.1524520963 0.5523520112 4288979871
-0.2471252233 -0.1518748254 0.5524845123 4288453527
-0.2463920414 -0.1508122087 0.5508453846 4287795597
-0.2464507222 -0.1502359509 0.5509765744 4285822320
-0.2465092093 -0.1496592760 0.5511073470 4285822320
-0.2465675026 -0.1490822136 0.5512376428 4287664524
-0.2466256022 -0.1485047191 0.5513675213 4289638314
-0.2466834933 -0.1479268372 0.5514969826 4290493623
-0.2471378744 -0.1475854218 0.5525128245 4289638314
-0.2475922406 -0.1472417563 0.5535286069 4288059282
-0.2476497293 -0.1466607898 0.5536571145 4286151285
-0.2477070093 -0.1460794210 0.5537852049 4288256407
-0.2481611520 -0.1457308084 0.5548005104 4288980130
-0.2482181191 -0.1451476961 0.5549278259 4288256407
-0.2478776425 -0.1443328857 0.5541666746 4287006340
-0.2479341179 -0.1437499076 0.5542929173 4284966757
-0.2479903847 -0.1431665421 0.5544187427 4284769378
-0.2480464429 -0.1425827593 0.5545440316 4285624687
-0.2481023073 -0.1419986039 0.5546689630 4286085238
-0.2481579632 -0.1414140314 0.5547933578 4286019447
-0.2482134253 -0.1408290863 0.5549173355 4284506208
-0.2486665398 -0.1404684931 0.5559303761 4284966500
-0.2487216592 -0.1398818195 0.5560535789 4288716701
-0.2491746247 -0.1395176202 0.5570662618 4288848287
-0.2492294312 -0.1389292330 0.5571888089 4288256150
-0.2492840290 -0.1383404583 0.5573108792 4287137928
-0.2493384182 -0.1377512962 0.5574324727 4286874756
-0.2493925989 -0.1371617466 0.5575535893 4288322715
-0.2498450428 -0.1367899776 0.5585650802 4289638575
-0.2498988956 -0.1361987144 0.5586854815 4290493369
-0.2499525249 -0.1356070787 0.5588054061 4290361783
-0.2500059605 -0.1350150555 0.5589247942 4289506474
-0.2500591576 -0.1344226599 0.5590437651 4287861649
-0.2497132719 -0.1336164325 0.5582704544 4287993750
-0.2497659773 -0.1330242306 0.5583882928 4289178024
-0.2498184741 -0.1324316412 0.5585056543 4290295992
-0.2498707473 -0.1318386942 0.5586225390 4290361785
-0.2503220737 -0.1314550191 0.5596315265 4290229688
-0.2499746829 -0.1306516677 0.5588548779 4289966516
-0.2500263155 -0.1300576031 0.5589703321 4289374379
-0.2500777543 -0.1294631809 0.5590853095 4289111207
-0.2505285144 -0.1290742308 0.5600931048 4289769650
-0.2505795956 -0.1284781247 0.5602073073 4290295994
-0.2506304681 -0.1278816462 0.5603210330 4290230458
-0.2506811321 -0.1272848099 0.5604342818 4290954181
-0.2507315576 -0.1266876012 0.5605469942 4291282635
-0.2507817745 -0.1260900497 0.5606592894 4289572017
-0.2508317530 -0.1254921257 0.5607710481 4289637811
-0.2512816787 -0.1250930429 0.5617768764 4290690499
-0.2513312995 -0.1244934574 0.5618878603 4291019976
-0.2517810166 -0.1240907982 0.5628932118 4291217355
-0.2518303096 -0.1234895438 0.5630034208 4291019976
-0.2522797883 -0.1230833158 0.5640083551 4290296253
-0.2527292371 -0.1226748154 0.5650131106 4290756804
-0.2527779937 -0.1220706031 0.5651221275 4290559425
-0.2528265417 -0.1214660332 0.5652306676 4290757574
-0.2528748810 -0.1208611205 0.5653387308 4293191915
-0.2446631938 -0.1623117328 0.5483418703 4293060335
-0.2447256446 -0.1617437452 0.5484818220 4292271073
-0.2451814413 -0.1614344567 0.5495033860 4291284178
-0.2452436090 -0.1608646959 0.5496427417 4289573557
-0.2453055978 -0.1602945030 0.5497816205 4287073423
-0.2453673780 -0.1597238928 0.5499200821 4286479998
-0.2454289794 -0.1591528356 0.5500581861 4286216826
-0.2454904020 -0.1585813463 0.5501958132 4287072648
-0.2447633296 -0.1575021744 0.5485662818 4288585887
-0.2448241562 -0.1569316834 0.5487026572 4290295990
-0.2444904596 -0.1561089605 0.5479547381 4290624955
-0.2445508242 -0.1555385292 0.5480900407 4290230197
-0.2450055182 -0.1552176327 0.5491091013 4290164404
-0.2450655848 -0.1546454281 0.5492436886 4290361526
-0.2451254576 -0.1540728211 0.5493779182 4290361526
