VERSION 0.7
FIELDS x y z rgba
SIZE 4 4 4 4
TYPE F F F U
COUNT 1 1 1 1
WIDTH 920
HEIGHT 1
VIEWPOINT 0.0 0.0 0.0 1.0 0.0 0.0 0.0
POINTS 920
DATA ascii
-0.3048263192 -0.1624221206 0.6157401800 4287602365
-0.3048941493 -0.1617739797 0.6158772111 4287733951
-0.3049617410 -0.1611254066 0.6160137653 4288456894
-0.3054611683 -0.1607037187 0.6170225143 4289509582
-0.3055283725 -0.1600533724 0.6171582937 4291022813
-0.3060275614 -0.1596280485 0.6181666851 4292470259
-0.3039316237 -0.1780336648 0.6153134108 4292600814
-0.3035763204 -0.1771426797 0.6145941019 4292205543
-0.3036494851 -0.1765023321 0.6147421598 4291744992
-0.3032934070 -0.1756131351 0.6140213013 4290954961
-0.3033659756 -0.1749727726 0.6141682267 4289968066
-0.3034383357 -0.1743319631 0.6143146753 4289310137
-0.3035104573 -0.1736906767 0.6144607067 4289244344
-0.3027235568 -0.1725594252 0.6128675938 4289902790
-0.3032245040 -0.1721629053 0.6138817668 4288915895
-0.3028662205 -0.1712782234 0.6131564379 4285560713
-0.3025074899 -0.1703949124 0.6124302149 4285429127
-0.3025781512 -0.1697541028 0.6125732660 4284245885
-0.3022186756 -0.1688726097 0.6118454933 4283785334
-0.3018587530 -0.1679925025 0.6111168265 4283851386
-0.3019285202 -0.1673521698 0.6112580895 4284048765
-0.3015678227 -0.1664739251 0.6105278730 4283983748
-0.3016370237 -0.1658336222 0.6106679440 4284246920
-0.3017059565 -0.1651928723 0.6108075380 4284116366
-0.3017746806 -0.1645516902 0.6109466553 4284445331
-0.3022737503 -0.1641438901 0.6119570136 4284840096
-0.3023420870 -0.1635009199 0.6120953560 4285037475
-0.3024101853 -0.1628575176 0.6122332215 4285498028
-0.3024780452 -0.1622136682 0.6123706102 4285826993
-0.3029766381 -0.1617995501 0.6133800149 4286155697
-0.3030441403 -0.1611539274 0.6135166287 4286682041
-0.3031113744 -0.1605078727 0.6136527658 4287207866
-0.3036096394 -0.1600887924 0.6146615148 4287273659
-0.3036764860 -0.1594409496 0.6147968769 4287471031
-0.3037430942 -0.1587926894 0.6149317026 4288260547
-0.3042410016 -0.1583686471 0.6159397364 4289839319
-0.3043072224 -0.1577186137 0.6160737872 4291089386
-0.3043732047 -0.1570681632 0.6162073612 4292535533
-0.3022357523 -0.1760765016 0.6132590175 4292666862
-0.3023083806 -0.1754372716 0.6134064198 4291876833
-0.3019524813 -0.1745499969 0.6126842499 4290626766
-0.3020245433 -0.1739107668 0.6128305197 4289375929
-0.3020963967 -0.1732710749 0.6129762530 4288520620
-0.3021680117 -0.1726309210 0.6131215692 4288323758
-0.3018106818 -0.1717463583 0.6123965383 4288586930
-0.3018817306 -0.1711062193 0.6125406623 4287205538
-0.3015236259 -0.1702234745 0.6118140817 4285889678
-0.3011651039 -0.1693421155 0.6110866070 4284180090
-0.3012352586 -0.1687024385 0.6112289429 4284048504
-0.3008759618 -0.1678229123 0.6104999185 4284048763
-0.3009455502 -0.1671832651 0.6106410623 4284443521
-0.3005854785 -0.1663055867 0.6099104881 4284444299
-0.3006545007 -0.1656659544 0.6100505590 4283720576
-0.3007232845 -0.1650258899 0.6101900935 4282800505
-0.3007918298 -0.1643853933 0.6103292108 4283129470
-0.3008601367 -0.1637444496 0.6104677916 4283985041
-0.3013581038 -0.1633360684 0.6114782095 4284445592
-0.3009960651 -0.1624612659 0.6107435822 4284511901
-0.3010636568 -0.1618190110 0.6108807325 4284906659
-0.3015612066 -0.1614065915 0.6118903160 4285037475
-0.3016284108 -0.1607625633 0.6120266914 4284971682
-0.3016954064 -0.1601181030 0.6121625900 4285234854
-0.3017621636 -0.1594732255 0.6122980714 4285761198
-0.3022592068 -0.1590544879 0.6133066416 4286353074
-0.3018949032 -0.1581821740 0.6125674248 4286550453
-0.3023916781 -0.1577607393 0.6135754585 4287142074
-0.3024575710 -0.1571132392 0.6137090921 4287668418
-0.3025231957 -0.1564653069 0.6138422489 4288851393
-0.3025885820 -0.1558169574 0.6139749289 4290035667
-0.3026537299 -0.1551681757 0.6141071320 4291483366
-0.3027186394 -0.1545189917 0.6142387986 4292601847
-0.3009689748 -0.1743744314 0.6120679975 4292205798
-0.3006132543 -0.1734890938 0.6113445759 4291152340
-0.3006848097 -0.1728509814 0.6114901304 4289902273
-0.3007561564 -0.1722124219 0.6116352081 4289179065
-0.3008272648 -0.1715734005 0.6117798090 4288257963
-0.3004701138 -0.1706907898 0.6110534668 4287073950
-0.3005406559 -0.1700517833 0.6111969352 4285692297
-0.3001827300 -0.1691709906 0.6104691029 4284705662
-0.3002527058 -0.1685319990 0.6106113791 4284442490
-0.2998940349 -0.1676530540 0.6098819971 4283785845
-0.2995349467 -0.1667754799 0.6091516614 4284575361
-0.2996040285 -0.1661369801 0.6092921495 4284838546
-0.2996728718 -0.1654980332 0.6094321609 4284706960
-0.2993126810 -0.1646227986 0.6086996198 4284378767
-0.2993809581 -0.1639838964 0.6088384986 4284378767
-0.2994489968 -0.1633445472 0.6089769006 4284445331
-0.2999459207 -0.1629378647 0.6099874377 4284050573
-0.2995843887 -0.1620645523 0.6092522144 4283458695
-0.2996517122 -0.1614239067 0.6093891859 4283590281
-0.3001482189 -0.1610131711 0.6103988886 4283525004
-0.3002151847 -0.1603707522 0.6105350852 4284182934
-0.3002819121 -0.1597279012 0.6106707454 4284840866
-0.3003484011 -0.1590846032 0.6108059883 4284972452
-0.3008444309 -0.1586675644 0.6118147373 4285103268
-0.3004806638 -0.1577967703 0.6110749245 4285300647
-0.3005464077 -0.1571522057 0.6112086773 4285957548
-0.3006119430 -0.1565072238 0.6113419533 4286220720
-0.3006772399 -0.1558618248 0.6114746928 4286747058
-0.3007422686 -0.1552159935 0.6116069555 4287141816
-0.3008070588 -0.1545697600 0.6117387414 4287931069
-0.3008716404 -0.1539230943 0.6118700504 4289049550
-0.3009359539 -0.1532760262 0.6120008230 4290562524
-0.3014306426 -0.1528468877 0.6130068302 4291878384
-0.2996312380 -0.1733138263 0.6107269526 4292731370
-0.2992756963 -0.1724304259 0.6100022793 4291810268
-0.2993467748 -0.1717934459 0.6101471186 4291547098
-0.2994175851 -0.1711560190 0.6102914810 4290428617
-0.2990609705 -0.1702748835 0.6095646024 4288652723
-0.2991312444 -0.1696374714 0.6097078323 4286876312
-0.2992012799 -0.1689995974 0.6098505855 4285955984
-0.2988435626 -0.1681207567 0.6091214418 4285034882
-0.2989130318 -0.1674829125 0.6092630625 4283916918
-0.2985545397 -0.1666059345 0.6085323691 4284443262
-0.2986234426 -0.1659681052 0.6086728573 4285167514
-0.2986921370 -0.1653298438 0.6088128090 4285364893
-0.2987605631 -0.1646911353 0.6089523435 4285101978
-0.2988287807 -0.1640519947 0.6090913415 4284970392
-0.2984685600 -0.1631782949 0.6083571315 4285365662
-0.2985361814 -0.1625391990 0.6084949970 4285168283
-0.2986035943 -0.1618996710 0.6086323857 4283787400
-0.2986707687 -0.1612597108 0.6087692976 4283195263
-0.2987377346 -0.1606193185 0.6089057326 4282933121
-0.2988044322 -0.1599784791 0.6090416908 4283064707
-0.2988708913 -0.1593372375 0.6091771722 4283459726
-0.2989371121 -0.1586955488 0.6093121767 4283986070
-0.2990030944 -0.1580534428 0.6094467044 4284576924
-0.2990688682 -0.1574109197 0.6095806956 4284840096
-0.2987051904 -0.1565430462 0.6088394523 4285431206
-0.2987703681 -0.1559005827 0.6089723110 4285694378
-0.2988353074 -0.1552577168 0.6091046929 4285826993
-0.2989000082 -0.1546144187 0.6092365384 4285958579
-0.2989644706 -0.1539707184 0.6093679070 4286418351
-0.2990286946 -0.1533265859 0.6094987988 4286747316
-0.2990926504 -0.1526820511 0.6096292138 4287339445
-0.2995862067 -0.1522555351 0.6106352210 4288063168
-0.2996498048 -0.1516092569 0.6107648015 4289444811
-0.3001431227 -0.1511791348 0.6117703319 4290826464
-0.3002063334 -0.1505310982 0.6118991375 4292339182
-0.2978690565 -0.1720093787 0.6085127592 4292864241
-0.2979398370 -0.1713739783 0.6086573601 4292140778
-0.2980104089 -0.1707381457 0.6088014841 4291811813
-0.2976543009 -0.1698585004 0.6080740094 4291153116
-0.2981508374 -0.1694651246 0.6090883613 4290100428
-0.2982206941 -0.1688279361 0.6092311144 4288981949
-0.2978636026 -0.1679496765 0.6085016131 4287731882
-0.2979328930 -0.1673125029 0.6086431742 4286284694
-0.2975750268 -0.1664361060 0.6079121232 4285232006
-0.2976437807 -0.1657989621 0.6080525517 4285102233
-0.2977122962 -0.1651613861 0.6081925035 4285431198
-0.2977805734 -0.1645233631 0.6083319783 4285299870
-0.2978486121 -0.1638849080 0.6084709764 4285299870
-0.2979164124 -0.1632460058 0.6086094975 4285695398
-0.2975564897 -0.1623733789 0.6078742146 4285892777
-0.2976237237 -0.1617345363 0.6080115438 4285431455
-0.2976907194 -0.1610952467 0.6081484556 4284773525
-0.2977575064 -0.1604555398 0.6082848907 4284576917
-0.2978240550 -0.1598153859 0.6084207892 4284182159
-0.2978903651 -0.1591748148 0.6085562706 4283721867
-0.2975283265 -0.1583060473 0.6078166366 4283195523
-0.2975940406 -0.1576655507 0.6079509258 4282866558
-0.2976595461 -0.1570246220 0.6080847383 4283590281
-0.2972964346 -0.1561582536 0.6073429585 4284182416
-0.2973613441 -0.1555174142 0.6074755788 4284642967
-0.2974260449 -0.1548761427 0.6076077223 4285037468
-0.2974904776 -0.1542344689 0.6077393889 4285366433
-0.2975547016 -0.1535923630 0.6078705192 4285629351
-0.2976186574 -0.1529498547 0.6080012321 4285629351
-0.2976823747 -0.1523069143 0.6081314087 4286220459
-0.2977458537 -0.1516635865 0.6082611084 4286417838
-0.2982382178 -0.1512374431 0.6092669368 4286812590
-0.2983013093 -0.1505923420 0.6093958020 4287799485
-0.2983641624 -0.1499468535 0.6095241904 4288983242
-0.2988561690 -0.1495157629 0.6105293036 4290496481
-0.2993480861 -0.1490824223 0.6115342379 4292140273
-0.2966757417 -0.1696851104 0.6074532866 4292600816
-0.2967455685 -0.1690499634 0.6075962186 4291942886
-0.2968151569 -0.1684143692 0.6077387333 4291284702
-0.2968845367 -0.1677783281 0.6078807712 4290560979
-0.2969536781 -0.1671418399 0.6080223322 4289574599
-0.2970225811 -0.1665049046 0.6081634164 4288850876
-0.2966650128 -0.1656295657 0.6074312329 4287009969
-0.2967333496 -0.1649926603 0.6075711846 4286549418
-0.2968014479 -0.1643553227 0.6077106595 4285760161
-0.2968693376 -0.1637175381 0.6078495979 4285365403
-0.2969369888 -0.1630793363 0.6079881191 4285628834
-0.2970044017 -0.1624406874 0.6081261635 4286089385
-0.2970715761 -0.1618015915 0.6082636714 4285892260
-0.2967115939 -0.1609305292 0.6075266004 4285365916
-0.2967782021 -0.1602914929 0.6076630354 4285497248
-0.2968445718 -0.1596520394 0.6077989340 4285694627
-0.2964834869 -0.1587833613 0.6070595980 4285300899
-0.2965493202 -0.1581439674 0.6071943641 4284248211
-0.2961874902 -0.1572771966 0.6064535379 4282866560
-0.2962527275 -0.1566378772 0.6065871119 4283129732
-0.2963177264 -0.1559981406 0.6067202091 4283656074
-0.2963824868 -0.1553579718 0.6068527699 4283919246
-0.2964470088 -0.1547174007 0.6069849133 4284379797
-0.2960834503 -0.1538540721 0.6062405109 4284577176
-0.2961474061 -0.1532135755 0.6063714623 4284906143
-0.2962111235 -0.1525726765 0.6065018773 4285103522
-0.2962746024 -0.1519313604 0.6066318750 4285497767
-0.2963378429 -0.1512896419 0.6067613363 4285695146
-0.2964008152 -0.1506475061 0.6068903208 4285892007
-0.2968919873 -0.1502217203 0.6078960299 4286286765
-0.2969546020 -0.1495778412 0.6080241799 4287141814
-0.2970169485 -0.1489335448 0.6081519127 4287404986
-0.2975077629 -0.1485028416 0.6091568470 4288062655
-0.2971409559 -0.1476437598 0.6084057689 4289246929
-0.2976314425 -0.1472103745 0.6094100475 4290891235
-0.2976929247 -0.1465635449 0.6095359325 4292009716
-0.2958371937 -0.1682420522 0.6071169376 4292666609
-0.2954812348 -0.1673658788 0.6063864231 4292206058
-0.2955500782 -0.1667309999 0.6065277457 4291745507
-0.2956187129 -0.1660956591 0.6066685915 4291219163
-0.2952616811 -0.1652218103 0.6059358716 4290430684
-0.2953297496 -0.1645865142 0.6060755849 4289246410
-0.2953976095 -0.1639507711 0.6062148213 4287930554
-0.2954652011 -0.1633145958 0.6063535810 4286746280
-0.2955325842 -0.1626779884 0.6064918637 4285891486
-0.2955997288 -0.1620409340 0.6066296697 4286023072
-0.2956666648 -0.1614034623 0.6067669392 4286023331
-0.2957333326 -0.1607655436 0.6069037914 4285628573
-0.2953735590 -0.1598964781 0.6061654687 4285892260
-0.2954396605 -0.1592586190 0.6063011289 4286352811
-0.2955055535 -0.1586203426 0.6064363718 4286353074
-0.2955712080 -0.1579816341 0.6065710783 4285826730
-0.2952100039 -0.1571154594 0.6058298349 4284642458
-0.2952750921 -0.1564768255 0.6059634089 4284510872
-0.2949131429 -0.1556125730 0.6052206159 4284510872
-0.2949776351 -0.1549740136 0.6053529978 4283984528
-0.2950419188 -0.1543350518 0.6054849029 4283261832
-0.2951059639 -0.1536956578 0.6056163311 4282932867
-0.2947425842 -0.1528343707 0.6048706174 4283327627
-0.2948060632 -0.1521950811 0.6050008535 4283919764
-0.2948693037 -0.1515553743 0.6051306129 4284576926
-0.2949322760 -0.1509152651 0.6052598953 4285037477
-0.2954225540 -0.1504925340 0.6062660217 4285234854
-0.2954851687 -0.1498506665 0.6063945293 4285300647
-0.2955475152 -0.1492084116 0.6065225005 4285760939
-0.2956096232 -0.1485657394 0.6066499352 4285958318
-0.2956715226 -0.1479226649 0.6067769527 4286221488
-0.2957331538 -0.1472791731 0.6069034338 4286945211
-0.2957945168 -0.1466352940 0.6070293784 4287668417
-0.2958556712 -0.1459910125 0.6071548462 4288194761
-0.2963448167 -0.1455566734 0.6081587076 4289576666
-0.2964055538 -0.1449106634 0.6082833409 4291024112
-0.2964660525 -0.1442642659 0.6084074974 4292732661
-0.2941490114 -0.1663196832 0.6050314903 4292864241
-0.2942173779 -0.1656859517 0.6051720977 4292601069
-0.2942855060 -0.1650517732 0.6053122878 4292074733
-0.2939286530 -0.1641799062 0.6045782566 4291416803
-0.2944210768 -0.1637821048 0.6055911779 4290825181
-0.2944885492 -0.1631466150 0.6057298779 4289904079
-0.2945557535 -0.1625106931 0.6058681011 4288325308
-0.2946227193 -0.1618743241 0.6060059071 4287469999
-0.2946894765 -0.1612375379 0.6061431766 4286812587
-0.2947559953 -0.1606003046 0.6062800288 4286088864
-0.2943968475 -0.1597318202 0.6055412889 4285957538
-0.2944628000 -0.1590946615 0.6056769490 4286352296
-0.2945285141 -0.1584570557 0.6058121324 4286484144
-0.2941682935 -0.1575909704 0.6050711274 4286484144
-0.2942334414 -0.1569534540 0.6052051783 4285497767
-0.2938724458 -0.1560892910 0.6044626832 4285366181
-0.2939370275 -0.1554518491 0.6045955420 4285695146
-0.2935753167 -0.1545896232 0.6038514376 4285629353
-0.2936393321 -0.1539522707 0.6039831638 4283985039
-0.2937031090 -0.1533144861 0.6041143537 4283392902
-0.2937666476 -0.1526762992 0.6042450666 4283590283
-0.2934035063 -0.1518170387 0.6034981012 4283919248
-0.2934664786 -0.1511789560 0.6036276221 4283853201
-0.2939558625 -0.1507592648 0.6046342850 4283984787
-0.2940184772 -0.1501194388 0.6047630310 4284379547
-0.2940808237 -0.1494791955 0.6048912406 4284971684
-0.2941429317 -0.1488385499 0.6050190330 4285366442
-0.2942048013 -0.1481974870 0.6051462889 4285432235
-0.2942664325 -0.1475560367 0.6052730680 4285300647
-0.2943278253 -0.1469141841 0.6053993106 4285432233
-0.2943889797 -0.1462719142 0.6055250764 4285827245
-0.2944498956 -0.1456292570 0.6056503654 4286287796
-0.2945105433 -0.1449861974 0.6057751775 4287011517
-0.2945709527 -0.1443427503 0.6058994532 4287735240
-0.2946311533 -0.1436989009 0.6060231924 4288917449
-0.2946910560 -0.1430546492 0.6061464548 4290101723
-0.2951785326 -0.1426167190 0.6071491838 4291549419
-0.2952380776 -0.1419707537 0.6072716117 4292667900
-0.2929540277 -0.1640101820 0.6039533019 4292535534
-0.2930214405 -0.1633767337 0.6040922999 4292206571
-0.2930886149 -0.1627428532 0.6042307615 4292009192
-0.2931555510 -0.1621085256 0.6043688059 4291285987
-0.2932222784 -0.1614737660 0.6045063138 4290496471
-0.2932887673 -0.1608385742 0.6046434045 4289312203
-0.2933550179 -0.1602029651 0.6047800183 4287930550
-0.2934210300 -0.1595669091 0.6049160957 4286944174
-0.2930620909 -0.1587004364 0.6041761041 4286549416
-0.2931275666 -0.1580644399 0.6043110490 4286023333
-0.2931927741 -0.1574280411 0.6044455171 4286220712
-0.2932577729 -0.1567911953 0.6045795083 4285826214
-0.2928974330 -0.1559276283 0.6038365960 4285760421
-0.2929618657 -0.1552908719 0.6039694548 4286221488
-0.2930260599 -0.1546536982 0.6041017771 4286879418
-0.2930900156 -0.1540161073 0.6042336226 4286155948
-0.2931537330 -0.1533780992 0.6043649912 4285103260
-0.2932172120 -0.1527396739 0.6044958830 4284708503
-0.2928547859 -0.1518800855 0.6037487388 4284708503
-0.2929176986 -0.1512417644 0.6038784385 4284313493
-0.2929803729 -0.1506030262 0.6040076613 4283523977
-0.2930428088 -0.1499638855 0.6041363478 4282997894
-0.2926789820 -0.1491072923 0.6033862829 4283392652
-0.2927408516 -0.1484682709 0.6035138369 4284116376
-0.2928024828 -0.1478288323 0.6036409140 4284642720
-0.2928638756 -0.1471889913 0.6037674546 4284840868
-0.2929250300 -0.1465487629 0.6038935184 4285038247
-0.2929859459 -0.1459081173 0.6040191054 4285235626
-0.2930465937 -0.1452670842 0.6041441560 4285301419
-0.2931070328 -0.1446256489 0.6042687297 4285696175
-0.2927404642 -0.1437742412 0.6035130620 4286090933
-0.2928003073 -0.1431329548 0.6036364436 4286944437
-0.2932868302 -0.1426989883 0.6046394110 4287207609
-0.2933462858 -0.1420559734 0.6047619581 4287930817
-0.2934054732 -0.1414125711 0.6048840284 4289049298
-0.2938916087 -0.1409736872 0.6058862209 4290496479
-0.2939504087 -0.1403285861 0.6060074568 4291878132
-0.2921813428 -0.1619406044 0.6037427783 4292732913
-0.2918243408 -0.1610727608 0.6030050516 4292206569
-0.2918905616 -0.1604391783 0.6031419039 4291483111
-0.2919565439 -0.1598051637 0.6032782793 4290759388
-0.2920223176 -0.1591707170 0.6034141779 4289970133
-0.2920878530 -0.1585358530 0.6035495400 4288785859
-0.2921531498 -0.1579005569 0.6036844850 4287338931
-0.2922182083 -0.1572648287 0.6038189530 4287009966
-0.2918588221 -0.1564013660 0.6030763388 4286549675
-0.2919233143 -0.1557657123 0.6032096148 4286286503
-0.2919875681 -0.1551296562 0.6033424139 4286352300
-0.2920516133 -0.1544931680 0.6034746766 4287010230
-0.2921154201 -0.1538562626 0.6036065221 4286419118
-0.2921789587 -0.1532189399 0.6037378907 4285958567
-0.2922422886 -0.1525812149 0.6038687229 4285892776
-0.2923053801 -0.1519430578 0.6039990783 4286090155
-0.2919432819 -0.1510845870 0.6032508612 4285695146
-0.2920058072 -0.1504465342 0.6033800244 4284313493
-0.2920680642 -0.1498080790 0.6035087109 4283129480
-0.2917048931 -0.1489520967 0.6027582884 4283458445
-0.2917666137 -0.1483137608 0.6028857827 4283721618
-0.2918280959 -0.1476750225 0.6030128002 4283721618
-0.2914638221 -0.1468215287 0.6022601128 4283656339
-0.2915247381 -0.1461829245 0.6023859978 4284116890
-0.2915853858 -0.1455439031 0.6025113463 4284643489
-0.2916458249 -0.1449044943 0.6026362181 4284709282
-0.2917059958 -0.1442646980 0.6027605534 4284972454
-0.2913400233 -0.1434148252 0.6020042896 4285367212
-0.2913996279 -0.1427751631 0.6021274924 4285234593
-0.2914589942 -0.1421350986 0.6022501588 4285563558
-0.2919443250 -0.1417015195 0.6032530069 4286220974
-0.2920033038 -0.1410597563 0.6033748388 4286747318
-0.2920620143 -0.1404175907 0.6034961939 4287141816
-0.2921205163 -0.1397750527 0.6036170721 4287931332
-0.2921787500 -0.1391321272 0.6037374139 4289312721
-0.2922367454 -0.1384888142 0.6038572192 4290496995
-0.2922944725 -0.1378451139 0.6039765477 4292207087
-0.2904948592 -0.1600393206 0.6016387343 4292733429
-0.2905606031 -0.1594069153 0.6017748713 4292207085
-0.2906261086 -0.1587740779 0.6019105315 4291812076
-0.2906913757 -0.1581408232 0.6020457149 4291154146
-0.2907564044 -0.1575071365 0.6021803617 4290233046
-0.2908211946 -0.1568730325 0.6023145914 4289443530
-0.2908857763 -0.1562384963 0.6024483442 4288193724
-0.2909501195 -0.1556035429 0.6025815606 4287206829
-0.2910142243 -0.1549681723 0.6027143598 4286286244
-0.2910780907 -0.1543323696 0.6028466225 4286220451
-0.2911417186 -0.1536961645 0.6029784083 4286418604
-0.2912051380 -0.1530595422 0.6031097174 4286155432
-0.2912682891 -0.1524224877 0.6032405496 4286220971
-0.2913312316 -0.1517850310 0.6033709049 4286681522
-0.2909697592 -0.1509271562 0.6026222706 4287142076
-0.2910321355 -0.1502898037 0.6027514338 4286352560
-0.2910942435 -0.1496520340 0.6028801203 4285037218
-0.2911561430 -0.1490138769 0.6030082703 4285103011
-0.2907932699 -0.1481590122 0.6022567153 4284708512
-0.2908546031 -0.1475209594 0.6023837328 4283918996
-0.2904909849 -0.1466680765 0.6016306877 4282932101
-0.2905517220 -0.1460301578 0.6017565131 4282997894
-0.2906122506 -0.1453918368 0.6018818021 4283655822
-0.2906725109 -0.1447531283 0.6020066738 4284050580
-0.2903075218 -0.1439033151 0.6012507081 4284380315
-0.2899420857 -0.1430549771 0.6004938483 4284972452
-0.2900014520 -0.1424169540 0.6006168127 4284906657
-0.2900605798 -0.1417785287 0.6007393003 4284840864
-0.2905448675 -0.1413466632 0.6017423272 4284971936
-0.2906036079 -0.1407065243 0.6018639207 4285300901
-0.2906621099 -0.1400659978 0.6019850969 4285826732
-0.2902947068 -0.1392209530 0.6012241840 4286353076
-0.2903526425 -0.1385805905 0.6013441086 4287141561
-0.2908361256 -0.1381421089 0.6023455262 4287733698
-0.2908936441 -0.1375000477 0.6024646163 4288720585
-0.2905249298 -0.1366572231 0.6017009616 4289970652
-0.2905818820 -0.1360153556 0.6018189192 4291483111
-0.2906385660 -0.1353730857 0.6019363403 4292470006
-0.2892974019 -0.1577453464 0.6005401015 4292733431
-0.2893621922 -0.1571132839 0.6006745696 4292337905
-0.2894267440 -0.1564807892 0.6008085608 4291679975
-0.2894910574 -0.1558478624 0.6009420753 4290759388
-0.2895551324 -0.1552145332 0.6010751128 4290167251
-0.2896189988 -0.1545807719 0.6012076139 4288785602
-0.2896825969 -0.1539465934 0.6013396978 4287798707
-0.2897459865 -0.1533119977 0.6014713049 4286549675
-0.2898091376 -0.1526769847 0.6016023755 4286418089
-0.2898720503 -0.1520415694 0.6017329693 4286154919
-0.2899347246 -0.1514057219 0.6018630862 4286286505
-0.2899971604 -0.1507694721 0.6019927263 4286944182
-0.2900593877 -0.1501328200 0.6021218300 4286746803
-0.2901213467 -0.1494957507 0.6022504568 4285957548
-0.2901830673 -0.1488582790 0.6023786068 4286154927
-0.2898208499 -0.1480040103 0.6016266942 4286286515
-0.2898820341 -0.1473666579 0.6017536521 4285760171
-0.2895190716 -0.1465143859 0.6010001898 4284576665
-0.2891556621 -0.1456635743 0.6002458930 4283984528
-0.2892159522 -0.1450268775 0.6003710032 4283918735
-0.2892759740 -0.1443897933 0.6004956365 4283655563
-0.2893357873 -0.1437523067 0.6006197333 4283523977
-0.2889710069 -0.1429045796 0.5998625159 4283787149
-0.2886058092 -0.1420583427 0.5991044044 4283591310
-0.2886646986 -0.1414215416 0.5992267132 4284051861
-0.2895725369 -0.1411984414 0.6011112332 4284512414
-0.2896311283 -0.1405589879 0.6012328863 4284709793
-0.2888399661 -0.1395088434 0.5995904803 4285103268
-0.2888979018 -0.1388704926 0.5997107625 4285169061
-0.2889555693 -0.1382317692 0.5998305082 4285563308
-0.2890130281 -0.1375926733 0.5999497771 4286023859
-0.2890702486 -0.1369531900 0.6000685096 4287075772
-0.2891272008 -0.1363133192 0.6001867652 4287602116
-0.2891839147 -0.1356730759 0.6003044844 4288193473
-0.2892403901 -0.1350324601 0.6004217267 4288785610
-0.2892965972 -0.1343914717 0.6005384326 4290167506
-0.2897781134 -0.1339467913 0.6015379429 4291680745
-0.2880347967 -0.1560880840 0.5993008018 4292600816
-0.2880988419 -0.1554567963 0.5994340777 4292140265
-0.2881626785 -0.1548250765 0.5995668769 4291745507
-0.2882262766 -0.1541929245 0.5996991992 4291087577
-0.2887117267 -0.1537851989 0.6007093191 4290429647
-0.2887749374 -0.1531513035 0.6008408070 4288785861
-0.2888379395 -0.1525169909 0.6009718776 4287601587
-0.2889007032 -0.1518822610 0.6011024714 4286418083
-0.2885407507 -0.1510259956 0.6003535390 4286154911
-0.2890254855 -0.1506115496 0.6013621688 4286220963
-0.2886649072 -0.1497563273 0.6006118655 4286286756
-0.2887266278 -0.1491208822 0.6007403135 4286220710
-0.2887881100 -0.1484850347 0.6008682251 4286089124
-0.2888493538 -0.1478487700 0.6009956598 4286747569
-0.2884873748 -0.1469965726 0.6002424955 4286944948
-0.2885480523 -0.1463604420 0.6003687382 4286813879
-0.2881853282 -0.1455102414 0.5996140242 4285695398
-0.2882454395 -0.1448742449 0.5997391343 4284906141
-0.2883053422 -0.1442378461 0.5998637080 4285037727
-0.2879415154 -0.1433901936 0.5991067886 4284839835
-0.2880008519 -0.1427539438 0.5992301702 4283458182
-0.2876363099 -0.1419083029 0.5984717011 4282865279
-0.2876950502 -0.1412722170 0.5985939503 4283260037
-0.2881773412 -0.1408428550 0.5995974541 4284049555
-0.2882357240 -0.1402050406 0.5997188687 4284575899
-0.2878698707 -0.1393615901 0.5989576578 4285102243
-0.2875036001 -0.1385196447 0.5981956124 4285299622
-0.2875610590 -0.1378825605 0.5983151793 4284839837
-0.2876182795 -0.1372450888 0.5984342098 4284839837
-0.2876752615 -0.1366072446 0.5985527635 4285432226
-0.2877319753 -0.1359690130 0.5986707807 4286024363
-0.2877884805 -0.1353304237 0.5987883210 4286682292
-0.2878447175 -0.1346914321 0.5989053845 4287142843
-0.2879007161 -0.1340520829 0.5990218520 4286748598
-0.2879564762 -0.1334123611 0.5991379023 4287143356
-0.2884368002 -0.1329680979 0.6001372337 4288919765
-0.2884921432 -0.1323266923 0.6002523899 4289906660
-0.2885472178 -0.1316849142 0.6003670096 4292009968
-0.2871938348 -0.1546619534 0.5989351869 4292798193
-0.2872572839 -0.1540305018 0.5990675092 4292337642
-0.2873204947 -0.1533986330 0.5991992950 4291877091
-0.2873834670 -0.1527663618 0.5993306041 4291285734
-0.2878676653 -0.1523567289 0.6003404260 4290562011
-0.2879302502 -0.1517226994 0.6004709601 4289509836
-0.2879926264 -0.1510882378 0.6006010175 4288457148
-0.2876330018 -0.1502331048 0.5998510718 4287207599
-0.2876948118 -0.1495987624 0.5999799371 4286483876
-0.2877563536 -0.1489640027 0.6001083255 4286286243
-0.2878176868 -0.1483288556 0.6002362370 4286286243
-0.2878787816 -0.1476932913 0.6003636122 4286944433
-0.2875174582 -0.1468417048 0.5996100903 4286681261
-0.2875779867 -0.1462062597 0.5997362733 4286615729
-0.2872158885 -0.1453566700 0.5989812016 4286089385
-0.2872758806 -0.1447213739 0.5991062522 4286024363
-0.2877581418 -0.1442975551 0.6001120210 4286616500
-0.2873950899 -0.1434495747 0.5993548632 4286616246
-0.2874543369 -0.1428130865 0.5994784832 4285431972
-0.2870905399 -0.1419671178 0.5987197757 4283918737
-0.2871492207 -0.1413307935 0.5988421440 4283984530
-0.2872076929 -0.1406940669 0.5989640355 4284116375
-0.2868428230 -0.1398506761 0.5982031226 4284050582
-0.2869006991 -0.1392141283 0.5983238220 4283918996
-0.2865350842 -0.1383727789 0.5975613594 4284050582
-0.2865923941 -0.1377363950 0.5976809263 4284379545
-0.2866494954 -0.1370996237 0.5977999568 4284840096
-0.2862828076 -0.1362609118 0.5970352888 4285367210
-0.2863393128 -0.1356243193 0.5971531272 4285038245
-0.2868192494 -0.1351870447 0.5981540084 4285104038
-0.2868753374 -0.1345487684 0.5982709527 4284972452
-0.2865073681 -0.1337123215 0.5975036025 4283920023
-0.2865629196 -0.1330742389 0.5976194143 4284117402
-0.2870422006 -0.1326316893 0.5986189246 4286223032
-0.2870973051 -0.1319919229 0.5987339020 4287538892
-0.2871522009 -0.1313517988 0.5988483429 4288786888
-0.2872068286 -0.1307113022 0.5989622474 4289905369
-0.2876855135 -0.1302625537 0.5999605656 4291220452
-0.2873153389 -0.1294292063 0.5991885662 4292207347
-0.2864150703 -0.1526050568 0.5986978412 4292469489
-0.2864776552 -0.1519730687 0.5988286138 4292140524
-0.2865400016 -0.1513406485 0.5989589691 4291483364
-0.2866021097 -0.1507078260 0.5990887880 4290759641
-0.2866639793 -0.1500745863 0.5992181301 4289772493
-0.2871466577 -0.1496603936 0.6002271175 4288654012
-0.2872081697 -0.1490253955 0.6003556252 4287601585
-0.2872694135 -0.1483900100 0.6004837155 4287009448
-0.2869091630 -0.1475375593 0.5997306108 4286417829
-0.2869698405 -0.1469022930 0.5998575091 4286417829
-0.2870303094 -0.1462666243 0.5999838710 4286812847
-0.2870905399 -0.1456305534 0.6001098156 4286615468
-0.2867288888 -0.1447811574 0.5993537903 4286418350
-0.2867885530 -0.1441452205 0.5994784832 4286944694
-0.2864261270 -0.1432978511 0.5987209678 4287536832
-0.2860633135 -0.1424519569 0.5979625583 4287142074
-0.2861220837 -0.1418167055 0.5980854034 4285893038
-0.2861806452 -0.1411810666 0.5982077718 4285432487
-0.2862389386 -0.1405450404 0.5983296633 4285432487
-0.2858747244 -0.1397022754 0.5975683331 4285300901
-0.2859324515 -0.1390664130 0.5976890326 4283853971
-0.2855675220 -0.1382256895 0.5969261527 4282603904
-0.2856246829 -0.1375900060 0.5970456600 4282538113
-0.2856816053 -0.1369539350 0.5971646905 4283261836
-0.2853156030 -0.1361158341 0.5963996053 4283656854
-0.2853719592 -0.1354799420 0.5965173841 4284775335
-0.2854280770 -0.1348436922 0.5966347456 4284709803
-0.2859069109 -0.1344058812 0.5976355672 4283722908
-0.2855395973 -0.1335700452 0.5968677998 4283394713
-0.2855949998 -0.1329326630 0.5969836116 4284447401
-0.2856501341 -0.1322949082 0.5970988870 4285763261
-0.2857050300 -0.1316567808 0.5972136259 4286158019
-0.2857596874 -0.1310182959 0.5973278880 4287011258
-0.2858141065 -0.1303794533 0.5974416137 4287734981
-0.2858682871 -0.1297402382 0.5975548625 4288392392
-0.2859221995 -0.1291006505 0.5976675749 4289116115
-0.2859758735 -0.1284607053 0.5977797508 4290563040
-0.2860293090 -0.1278204173 0.5978914499 4291813107
-0.2851522863 -0.1509581804 0.5974452496 4292732913
-0.2852141261 -0.1503269672 0.5975748301 4292272362
-0.2856959105 -0.1499158293 0.5985842347 4291943399
-0.2857573926 -0.1492828876 0.5987130404 4291417055
-0.2858186364 -0.1486495286 0.5988414288 4290364630
-0.2858796716 -0.1480157673 0.5989692211 4289575114
-0.2859404385 -0.1473815888 0.5990965962 4288456894
-0.2855803967 -0.1465312093 0.5983422399 4287404206
-0.2856406271 -0.1458971798 0.5984684229 4286681515
-0.2857006192 -0.1452627331 0.5985941291 4286286757
-0.2853395045 -0.1444148868 0.5978375077 4286352298
-0.2853989303 -0.1437805891 0.5979620218 4286812849
-0.2854581177 -0.1431458890 0.5980860591 4287339452
-0.2850959599 -0.1423006058 0.5973272324 4287076280
-0.2851545811 -0.1416660547 0.5974500775 4286550707
-0.2852129638 -0.1410311162 0.5975723863 4286419121
-0.2848497331 -0.1401884109 0.5968114138 4286682293
-0.2849075794 -0.1395536363 0.5969325304 4286945465
-0.2849651575 -0.1389184743 0.5970531702 4286090415
-0.2846008837 -0.1380783767 0.5962899327 4284577176
-0.2846578956 -0.1374433786 0.5964094400 4283722385
-0.2847146690 -0.1368080080 0.5965284109 4283722385
-0.2847712040 -0.1361722648 0.5966468453 4283854231
-0.2844055593 -0.1353353411 0.5958807468 4283920024
-0.2844615281 -0.1346997768 0.5959979892 4283262355
-0.2845172584 -0.1340638399 0.5961147547 4282670218
-0.2845727503 -0.1334275305 0.5962310433 4283197334
-0.2846280038 -0.1327908635 0.5963467956 4284710573
-0.2846829891 -0.1321538091 0.5964620113 4285236917
-0.2847377658 -0.1315163970 0.5965767503 4284842159
-0.2847922742 -0.1308786124 0.5966910124 4285235883
-0.2844239473 -0.1300472170 0.5959192514 4286222778
-0.2844778895 -0.1294096559 0.5960322618 4287012035
-0.2841088176 -0.1285803765 0.5952590108 4287341000
-0.2841621935 -0.1279430389 0.5953708291 4287866567
-0.2846382558 -0.1274947822 0.5963683128 4288392911
-0.2846912146 -0.1268557757 0.5964792967 4289444820
-0.2843208611 -0.1260288656 0.5957032442 4290365922
-0.2843732536 -0.1253901124 0.5958130360 4291943917
-0.2843094170 -0.1495362669 0.5970687270 4292864241
-0.2843706608 -0.1489049494 0.5971973538 4292535276
-0.2844316661 -0.1482732147 0.5973254442 4291812329
-0.2844924331 -0.1476410925 0.5974530578 4291417571
-0.2845529616 -0.1470085531 0.5975801945 4291154659
-0.2841934860 -0.1461597085 0.5968252420 4290036178
-0.2842534781 -0.1455273032 0.5969512463 4288852424
-0.2843132317 -0.1448944956 0.5970767140 4287668150
-0.2839526832 -0.1440481991 0.5963195562 4286878380
-0.2840118706 -0.1434155405 0.5964438319 4286549415
-0.2840708196 -0.1427824795 0.5965676308 4286878894
-0.2841295302 -0.1421490163 0.5966909528 4286944687
-0.2837676108 -0.1413058341 0.5959308743 4286813108
-0.2838257551 -0.1406725347 0.5960530043 4287207866
-0.2838836610 -0.1400388479 0.5961745977 4287471038
-0.2839413583 -0.1394047588 0.5962957740 4287734210
-0.2835780382 -0.1385647207 0.5955327749 4287734980
-0.2836351693 -0.1379308105 0.5956527591 4287340222
-0.2836920321 -0.1372965276 0.5957722068 4286485173
-0.2837486863 -0.1366618574 0.5958911180 4285761450
-0.2833839953 -0.1358249933 0.5951252580 4285433003
-0.2838612199 -0.1353913844 0.5961275101 4284577694
-0.2839171290 -0.1347555816 0.5962449312 4283196301
-0.2835514843 -0.1339204162 0.5954769850 4282735750
-0.2836068273 -0.1332848072 0.5955932736 4283394193
-0.2836619318 -0.1326488405 0.5957089663 4284117916
-0.2837167978 -0.1320124865 0.5958241820 4284710053
-0.2837714255 -0.1313757747 0.5959389210 4285236397
-0.2838258147 -0.1307386905 0.5960531235 4285171122
-0.2834581435 -0.1299079210 0.5952809453 4285302708
-0.2830900550 -0.1290787011 0.5945079327 4285565108
-0.2831435502 -0.1284424216 0.5946202874 4285762487
-0.2831967771 -0.1278057843 0.5947321057 4286551486
-0.2832497656 -0.1271687895 0.5948433876 4287275209
-0.2833025157 -0.1265314370 0.5949541926 4288261324
-0.2829327583 -0.1257061064 0.5941776037 4288787668
-0.2829849422 -0.1250689924 0.5942872167 4289115596
-0.2830368578 -0.1244315282 0.5943962932 4289839319
-0.2830885649 -0.1237937137 0.5945048332 4290825434
-0.2831400037 -0.1231555566 0.5946128368 4292075501
-0.2831077576 -0.1472659856 0.5959351659 4292667120
-0.2827491760 -0.1464181691 0.5951803327 4292207087
-0.2828091383 -0.1457877904 0.5953065753 4291746536
-0.2828688622 -0.1451570243 0.5954323411 4291352038
-0.2829283774 -0.1445258409 0.5955575705 4290496729
-0.2829876542 -0.1438942701 0.5956823230 4289443789
-0.2826273441 -0.1430500746 0.5949239135 4288193722
-0.2826860547 -0.1424186379 0.5950474739 4287404978
-0.2827445269 -0.1417868286 0.5951705575 4286812841
-0.2823831737 -0.1409451962 0.5944099426 4286813360
-0.2824411094 -0.1403135359 0.5945318341 4287142325
-0.2824987769 -0.1396814883 0.5946532488 4287602876
-0.2825562358 -0.1390490532 0.5947741866 4287800255
-0.2826134264 -0.1384162307 0.5948945880 4287668671
-0.2822503746 -0.1375782937 0.5941303968 4287142327
-0.2827271223 -0.1371494383 0.5951339602 4286879671
-0.2827836275 -0.1365154833 0.5952528715 4287208636
-0.2824195921 -0.1356792301 0.5944865942 4287406275
-0.2824755311 -0.1350454539 0.5946043134 4286945724
-0.2829516530 -0.1346113086 0.5956065655 4285104290
-0.2830071747 -0.1339758337 0.5957234502 4283788430
-0.2826418579 -0.1331418604 0.5949544907 4283985555
-0.2826968431 -0.1325065941 0.5950701833 4284117141
-0.2827515602 -0.1318709403 0.5951853395 4284051861
-0.2828060389 -0.1312349290 0.5953000188 4284315033
-0.2828602791 -0.1305985600 0.5954142213 4284249248
-0.2824932635 -0.1297684163 0.5946416855 4284644006
-0.2825469375 -0.1291322559 0.5947546363 4285170352
-0.2821792066 -0.1283042282 0.5939805508 4285499317
-0.2822323143 -0.1276683062 0.5940923691 4285762228
-0.2818638384 -0.1268424094 0.5933167338 4286091193
-0.2819163799 -0.1262067109 0.5934273601 4286813625
-0.2815471888 -0.1253829598 0.5926502347 4287076797
-0.2815991640 -0.1247475073 0.5927596092 4288260293
-0.2816509008 -0.1241117045 0.5928685069 4288655051
-0.2817023695 -0.1234755442 0.5929768682 4289181389
-0.2817535996 -0.1228390485 0.5930846930 4289905112
-0.2818045914 -0.1222021952 0.5931920409 4290825693
-0.2818553448 -0.1215649992 0.5932988524 4291352037
-0.2823278606 -0.1211084947 0.5942934752 4292009190
-0.2828002572 -0.1206497326 0.5952878594 4292074983
-0.2828504145 -0.1200096011 0.5953934193 4292666862
-0.2814273536 -0.1454154551 0.5937861800 4292864499
-0.2814868391 -0.1447863132 0.5939117074 4292535536
-0.2815460861 -0.1441567838 0.5940366983 4292009192
-0.2811866999 -0.1433135867 0.5932784081 4291351780
-0.2812454104 -0.1426841915 0.5934022665 4290628057
-0.2813038826 -0.1420544088 0.5935256481 4289970384
-0.2813621163 -0.1414242238 0.5936484933 4289115075
-0.2814201117 -0.1407936513 0.5937708616 4288063165
-0.2810589969 -0.1399541199 0.5930089951 4287142063
-0.2811164558 -0.1393237263 0.5931302309 4286878891
-0.2811736763 -0.1386929303 0.5932509303 4287339442
-0.2816497684 -0.1382675022 0.5942554474 4287668409
-0.2812873721 -0.1374301910 0.5934908390 4287471030
-0.2813438773 -0.1367982626 0.5936100483 4287273911
-0.2818194926 -0.1363688707 0.5946135521 4287734462
-0.2814561427 -0.1355332434 0.5938469172 4288260808
-0.2815119326 -0.1349001676 0.5939646363 4288326601
-0.2819871008 -0.1344668120 0.5949671865 4287734980
-0.2820424736 -0.1338320374 0.5950840712 4287077050
-0.2816778421 -0.1329986900 0.5943146944 4286353328
-0.2817326784 -0.1323641241 0.5944303274 4285958570
-0.2817872465 -0.1317291856 0.5945455432 4285761450
-0.2818415761 -0.1310938746 0.5946601629 4285103520
-0.2818956971 -0.1304581910 0.5947743058 4283788437
-0.2815293372 -0.1296286881 0.5940013528 4284051609
-0.2815828919 -0.1289932281 0.5941143036 4284512161
-0.2812158167 -0.1281658411 0.5933398604 4284841126
-0.2812687755 -0.1275306046 0.5934516191 4285301419
-0.2809009850 -0.1267053485 0.5926756263 4285630384
-0.2809534073 -0.1260703504 0.5927861929 4286089904
-0.2805849016 -0.1252472252 0.5920086503 4286221490
-0.2806367278 -0.1246124804 0.5921180248 4286220714
-0.2806883156 -0.1239773855 0.5922268629 4287141816
-0.2807396650 -0.1233419403 0.5923352242 4288326086
-0.2812117338 -0.1228901073 0.5933312774 4289576153
-0.2812626660 -0.1222530156 0.5934387445 4290628833
-0.2813133597 -0.1216155738 0.5935456753 4291023591
-0.2813637853 -0.1209777892 0.5936520696 4291220194
-0.2814140022 -0.1203396618 0.5937579870 4291285987
-0.2814639211 -0.1197011918 0.5938633680 4292337644
-0.2798075378 -0.1429456472 0.5917552710 4292798708
-0.2798660100 -0.1423178911 0.5918788910 4292469743
-0.2799242437 -0.1416897476 0.5920020342 4291878120
-0.2799822390 -0.1410612166 0.5921247005 4291022811
-0.2800399959 -0.1404322833 0.5922468901 4290168534
-0.2796794772 -0.1395943165 0.5914844275 4289247432
-0.2797366977 -0.1389655471 0.5916054249 4288392123
-0.2797936797 -0.1383364052 0.5917258859 4287536814
-0.2802687287 -0.1379127204 0.5927305818 4287404976
-0.2803252935 -0.1372818649 0.5928502679 4287865527
-0.2803816497 -0.1366506219 0.5929694176 4287931581
-0.2804377675 -0.1360190064 0.5930880904 4288063167
-0.2804936469 -0.1353870183 0.5932062864 4287931582
-0.2805492878 -0.1347546428 0.5933239460 4288128961
-0.2810235023 -0.1343220770 0.5943267941 4287799742
-0.2806598544 -0.1334887892 0.5935577750 4287733949
-0.2807147503 -0.1328552961 0.5936738849 4287799746
-0.2807694376 -0.1322214305 0.5937895179 4287931332
-0.2808238864 -0.1315871924 0.5939046741 4287931079
-0.2808780968 -0.1309525967 0.5940192938 4287141563
-0.2809320390 -0.1303176284 0.5941334367 4285629864
-0.2805663645 -0.1294887364 0.5933600664 4285235106
-0.2806197703 -0.1288539916 0.5934730172 4284446108
-0.2802533805 -0.1280272156 0.5926981568 4284182936
-0.2803062201 -0.1273926944 0.5928098559 4284446108
-0.2803587914 -0.1267578155 0.5929210782 4284972452
-0.2799913585 -0.1259337813 0.5921440125 4285694630
-0.2800433934 -0.1252991408 0.5922540426 4285892009
-0.2796752453 -0.1244772449 0.5914754272 4286878389
-0.2797266841 -0.1238428578 0.5915842652 4288128456
-0.2797779143 -0.1232081205 0.5916925669 4289510621
-0.2802490294 -0.1227570772 0.5926889181 4290365930
-0.2802998424 -0.1221206859 0.5927963853 4290826473
-0.2799300849 -0.1213018149 0.5920143723 4290826473
-0.2799803019 -0.1206656992 0.5921205878 4291088866
-0.2804507613 -0.1202094555 0.5931155682 4291549417
-0.2805005610 -0.1195717007 0.5932208896 4292206319
-0.2785471976 -0.1413246840 0.5904767513 4292798444
-0.2786049545 -0.1406977922 0.5905991793 4292535272
-0.2786624730 -0.1400705129 0.5907211304 4291550186
-0.2783025205 -0.1392340958 0.5899581313 4290892256
-0.2787768245 -0.1388147920 0.5909635425 4290234327
-0.2788336575 -0.1381863505 0.5910840034 4289576397
-0.2788902521 -0.1375575215 0.5912039876 4288589248
-0.2789466083 -0.1369283199 0.5913234353 4287799732
-0.2790027261 -0.1362987310 0.5914424062 4287273390
-0.2790586054 -0.1356687546 0.5915609002 4286747046
-0.2791142464 -0.1350384206 0.5916788578 4286944684
-0.2795875967 -0.1346089095 0.5926822424 4287471028
-0.2796428502 -0.1339768618 0.5927993655 4288063168
-0.2796978652 -0.1333444566 0.5929160118 4288194754
-0.2797526419 -0.1327116638 0.5930321217 4288128707
-0.2798071802 -0.1320785135 0.5931476951 4288457672
-0.2798614800 -0.1314449757 0.5932627916 4288720844
-0.2799155414 -0.1308110803 0.5933774114 4288589258
-0.2799693346 -0.1301768273 0.5934914947 4288064454
-0.2796043456 -0.1293485612 0.5927177668 4287867075
-0.2792389691 -0.1285218298 0.5919432044 4287077050
-0.2792918980 -0.1278883815 0.5920553803 4286353327
-0.2793445885 -0.1272545755 0.5921670794 4285760421
-0.2793970406 -0.1266203970 0.5922783017 4285234077
-0.2794492543 -0.1259858757 0.5923889875 4286023592
-0.2790821791 -0.1251630634 0.5916107893 4287800003
-0.2791337967 -0.1245287806 0.5917202830 4289445598
-0.2787660062 -0.1237081140 0.5909405947 4289708770
-0.2792363763 -0.1232591644 0.5919377208 4289840357
-0.2792872787 -0.1226238310 0.5920456052 4289774564
-0.2793379426 -0.1219881475 0.5921530128 4290629356
-0.2793883681 -0.1213521287 0.5922598839 4287405499
-0.2794385552 -0.1207157597 0.5923662782 4285431445
-0.2794884741 -0.1200790480 0.5924721360 4286352547
-0.2795381546 -0.1194420010 0.5925774574 4288786891
-0.2795875967 -0.1188046113 0.5926822424 4290760681
-0.2796367705 -0.1181668863 0.5927864909 4292536311
-0.2769281566 -0.1388734728 0.5884300470 4292207085
-0.2774014175 -0.1384558976 0.5894356966 4291747049
-0.2774580121 -0.1378290951 0.5895559192 4291286498
-0.2775143683 -0.1372019202 0.5896756649 4290430935
-0.2775704861 -0.1365743726 0.5897949338 4289707212
-0.2776263654 -0.1359464228 0.5899136662 4289115076
-0.2776820362 -0.1353181154 0.5900319219 4288391353
-0.2777374387 -0.1346894205 0.5901497006 4287141802
-0.2782097459 -0.1342616379 0.5911532640 4287141802
-0.2782647610 -0.1336312592 0.5912701488 4287339444
-0.2783195674 -0.1330004930 0.5913865566 4287602616
-0.2783741057 -0.1323693693 0.5915024877 4287799996
-0.2784284353 -0.1317378581 0.5916178823 4288326340
-0.2784824967 -0.1311059892 0.5917328000 4288852684
-0.2785363197 -0.1304737478 0.5918471813 4289050063
-0.2785899341 -0.1298411489 0.5919610858 4288984529
-0.2786432803 -0.1292081773 0.5920744538 4289379287
-0.2786963880 -0.1285748482 0.5921873450 4289181910
-0.2783313692 -0.1277493387 0.5914116502 4288655566
-0.2783839107 -0.1271162331 0.5915233493 4288194762
-0.2780181468 -0.1262928545 0.5907461643 4288128969
-0.2780701518 -0.1256599873 0.5908566117 4289115863
-0.2785401344 -0.1252147853 0.5918552876 4290300137
-0.2785917222 -0.1245802566 0.5919649005 4290564077
-0.2786430418 -0.1239453778 0.5920739770 4290169319
-0.2786941528 -0.1233101487 0.5921825767 4289445598
-0.2783264816 -0.1224903762 0.5914012790 4290235114
-0.2783769965 -0.1218554080 0.5915086865 4288853210
-0.2784273028 -0.1212200969 0.5916154981 4283523977
-0.2788960934 -0.1207657680 0.5926116705 4282207351
-0.2789459825 -0.1201288104 0.5927176476 4282733695
-0.2789956033 -0.1194915175 0.5928230882 4283391639
-0.2790449858 -0.1188538820 0.5929280519 4285431222
-0.2786750793 -0.1180384085 0.5921419859 4287865799
-0.2787238955 -0.1174010560 0.5922456980 4290036968
-0.2787724435 -0.1167633682 0.5923489332 4292273140
-0.2770069242 -0.1114460602 0.5885974169 4292666852
-0.2766333520 -0.1106426865 0.5878036618 4291351249
-0.2766792774 -0.1100078449 0.5879012346 4290890698
-0.2767249346 -0.1093726903 0.5879982114 4291220178
-0.2767703235 -0.1087372154 0.5880947113 4292536038
-0.2760849297 -0.1374714524 0.5880261064 4292667119
-0.2765569389 -0.1370520145 0.5890313983 4291943913
-0.2766129076 -0.1364251673 0.5891506076 4291614948
-0.2766686678 -0.1357979476 0.5892693400 4291154399
-0.2767241597 -0.1351703405 0.5893875957 4290430676
-0.2767794430 -0.1345423460 0.5895053148 4289312455
-0.2772507668 -0.1341153681 0.5905091763 4288588732
-0.2773056626 -0.1334856898 0.5906260610 4287931320
-0.2773602903 -0.1328556389 0.5907424688 4287733941
-0.2774147093 -0.1322252154 0.5908583403 4287536564
-0.2774688601 -0.1315944195 0.5909737349 4287668150
-0.2775228024 -0.1309632510 0.5910885930 4288194751
-0.2775765061 -0.1303317249 0.5912029743 4288655302
-0.2776299715 -0.1296998262 0.5913168192 4289246929
-0.2776831686 -0.1290675700 0.5914301276 4289707480
-0.2777361572 -0.1284349412 0.5915429592 4289642200
-0.2773717940 -0.1276100576 0.5907669067 4289576407
-0.2774242163 -0.1269776672 0.5908785462 4289707741
-0.2774763703 -0.1263449192 0.5909897089 4290036706
-0.2771109641 -0.1255227774 0.5902114511 4290234596
-0.2775799930 -0.1250783503 0.5912104249 4290168803
-0.2776314616 -0.1244445369 0.5913199782 4289905629
-0.2776826620 -0.1238103658 0.5914290547 4289774043
-0.2773159742 -0.1229906231 0.5906480551 4289445080
-0.2773666382 -0.1223567128 0.5907559395 4290103010
-0.2774170339 -0.1217224598 0.5908632874 4286418618
-0.2774671912 -0.1210878566 0.5909700990 4281220971
-0.2775171101 -0.1204529107 0.5910764337 4282009733
-0.2779847980 -0.1199980676 0.5920725465 4283128214
-0.2780342996 -0.1193614826 0.5921779871 4282866592
-0.2776653767 -0.1185460240 0.5913922191 4282603420
-0.2777143121 -0.1179097220 0.5914964676 4283063961
-0.2777630091 -0.1172730848 0.5916001797 4284116649
-0.2773930430 -0.1164604574 0.5908122063 4286090166
-0.2770226896 -0.1156494096 0.5900233984 4288392921
-0.2766519785 -0.1148399562 0.5892338157 4290431726
-0.2762808502 -0.1140320972 0.5884433389 4291747583
-0.2759093344 -0.1132258400 0.5876520872 4292602367
-0.2759561539 -0.1125920266 0.5877518654 4292602367
-0.2760027647 -0.1119578928 0.5878511071 4290431213
-0.2756302357 -0.1111545116 0.5870576501 4287141563
-0.2752572894 -0.1103527397 0.5862633586 4285365405
-0.2753030062 -0.1097195819 0.5863606930 4284575889
-0.2757675648 -0.1092521399 0.5873501897 4285299862
-0.2758128643 -0.1086173877 0.5874466300 4288063168
-0.2750194371 -0.1076541021 0.5857567191 4292534518
-0.2756563127 -0.1362757385 0.5885053277 4292798446
-0.2752966583 -0.1354449391 0.5877375603 4292403948
-0.2753519416 -0.1348189861 0.5878555775 4291877604
-0.2758223712 -0.1343950480 0.5888599157 4291614950
-0.2758772671 -0.1337673962 0.5889770985 4290759641
-0.2763474882 -0.1333398819 0.5899809599 4289970385
-0.2764019966 -0.1327105463 0.5900973082 4289246662
-0.2764562666 -0.1320808381 0.5902131796 4288326076
-0.2760944963 -0.1312530786 0.5894408226 4287799732
-0.2761482000 -0.1306235790 0.5895555019 4287865527
-0.2766176462 -0.1301894784 0.5905576944 4288062906
-0.2766709328 -0.1295582950 0.5906715393 4288785348
-0.2763079107 -0.1287328601 0.5898964405 4289509071
-0.2763606608 -0.1281019002 0.5900090337 4289904340
-0.2764131725 -0.1274705827 0.5901212096 4290101719
-0.2768818140 -0.1270299107 0.5911216736 4290562788
-0.2769339383 -0.1263969243 0.5912329555 4290694374
-0.2765692770 -0.1255744547 0.5904544592 4290365922
-0.2766208351 -0.1249417067 0.5905645490 4289971164
-0.2766721547 -0.1243086085 0.5906741023 4290036955
-0.2767232358 -0.1236751527 0.5907831192 4289642197
-0.2763572335 -0.1228560433 0.5900017619 4290102750
-0.2764077485 -0.1222228408 0.5901095867 4290694887
-0.2764580250 -0.1215892956 0.5902169347 4286483894
-0.2765080333 -0.1209554076 0.5903237462 4281615212
-0.2765578330 -0.1203211769 0.5904300213 4281351803
-0.2770245671 -0.1198671237 0.5914264917 4281943940
-0.2770739198 -0.1192312464 0.5915318727 4282341531
-0.2767057121 -0.1184164286 0.5907456875 4282736289
-0.2767544985 -0.1177808419 0.5908499360 4282867621
-0.2763855755 -0.1169682220 0.5900622606 4282275484
-0.2760162354 -0.1161571965 0.5892737508 4282275225
-0.2760641575 -0.1155225188 0.5893760324 4282998948
-0.2756941020 -0.1147137135 0.5885860324 4284380084
-0.2753236890 -0.1139064953 0.5877951980 4286024909
-0.2749528587 -0.1131008789 0.5870035291 4288327153
-0.2749995589 -0.1124677807 0.5871032476 4287537637
-0.2746280432 -0.1116643995 0.5863100886 4284510906
-0.2746742070 -0.1110316291 0.5864086151 4282931874
-0.2743019760 -0.1102304980 0.5856139064 4283392678
-0.2739293575 -0.1094309837 0.5848184228 4283129506
-0.2743929029 -0.1089653000 0.5858080983 4283129756
-0.2744379938 -0.1083322242 0.5859043598 4284116651
-0.2744828463 -0.1076988429 0.5860000849 4289639890
-0.2739823163 -0.1344672292 0.5863217711 4292864752
-0.2740371525 -0.1338425577 0.5864390731 4292602097
-0.2745063901 -0.1334190518 0.5874432921 4292141546
-0.2745608091 -0.1327926815 0.5875597596 4291681256
