VERSION 0.7
FIELDS x y z rgba
SIZE 4 4 4 4
TYPE F F F U
COUNT 1 1 1 1
WIDTH 920
HEIGHT 1
VIEWPOINT 0.0 0.0 0.0 1.0 0.0 0.0 0.0
POINTS 920
DATA ascii
-0.3134211302 -0.1449762434 0.6260783672 4281420416
-0.3126059473 -0.1439053714 0.6244499683 4280763536
-0.3122286797 -0.1430387199 0.6236963868 4280697743
-0.3114123940 -0.1419735998 0.6220657825 4280829329
-0.3110341728 -0.1411108524 0.6213102937 4280631950
-0.3110943139 -0.1404476911 0.6214303970 4280367236
-0.3111542165 -0.1397841424 0.6215500236 4281880475
-0.3116527796 -0.1393164247 0.6225459576 4287208395
-0.3125903010 -0.1390417367 0.6244186759 4291813887
-0.3130887449 -0.1385685802 0.6254144311 4293721076
-0.3140263259 -0.1382865757 0.6272872686 4293721076
-0.3139844537 -0.1476550102 0.6285982728 4290103261
-0.3136097491 -0.1467812210 0.6278480887 4284050305
-0.3127971292 -0.1457051039 0.6262211800 4281419902
-0.3119838834 -0.1446323097 0.6245930791 4282143625
-0.3111700416 -0.1435628682 0.6229637861 4280697222
-0.3103556037 -0.1424967796 0.6213333011 4280170878
-0.3099783957 -0.1416340768 0.6205781102 4280368768
-0.3096007407 -0.1407728493 0.6198220849 4280500354
-0.3096606731 -0.1401112974 0.6199420094 4280761994
-0.3101584017 -0.1396466047 0.6209384799 4280761994
-0.3102178872 -0.1389833391 0.6210575700 4284181157
-0.3107153475 -0.1385150701 0.6220535040 4289905148
-0.3128570914 -0.1488476396 0.6277370453 4292733429
-0.3124836981 -0.1479733735 0.6269878745 4292536050
-0.3121098876 -0.1471005678 0.6262378693 4289313747
-0.3112990260 -0.1460244060 0.6246109009 4284379272
-0.3109242618 -0.1451554596 0.6238589287 4282670486
-0.3105490804 -0.1442879885 0.6231061220 4282144142
-0.3097365797 -0.1432199776 0.6214758754 4280696454
-0.3089234829 -0.1421553195 0.6198444366 4281222798
-0.3085468411 -0.1412941515 0.6190887094 4281091212
-0.3081697524 -0.1404344589 0.6183320880 4281025419
-0.3086666465 -0.1399727762 0.6193290949 4280763790
-0.3087261617 -0.1393115073 0.6194484830 4281224341
-0.3092227876 -0.1388462633 0.6204450130 4282209945
-0.3097193241 -0.1383787394 0.6214412451 4287802350
-0.3108443320 -0.1544710547 0.6250916123 4293127663
-0.3109094501 -0.1538087279 0.6252225041 4293324788
-0.3109742999 -0.1531459987 0.6253529191 4293324788
-0.3110389113 -0.1524828672 0.6254828572 4293127413
-0.3111032546 -0.1518193036 0.6256122589 4292864241
-0.3111673295 -0.1511553377 0.6257411242 4292797682
-0.3112311661 -0.1504909694 0.6258695126 4292666096
-0.3108593822 -0.1496166289 0.6251218319 4292600051
-0.3109226227 -0.1489523798 0.6252490282 4292271086
-0.3109855950 -0.1482877135 0.6253756285 4291549933
-0.3106126785 -0.1474158913 0.6246257424 4291023589
-0.3102393448 -0.1465455294 0.6238749623 4289248471
-0.3098655641 -0.1456766427 0.6231232882 4287406267
-0.3094913363 -0.1448092163 0.6223707795 4286223305
-0.3091166914 -0.1439432502 0.6216174364 4284052136
-0.3087416291 -0.1430787742 0.6208631396 4282012565
-0.3079299629 -0.1420146227 0.6192309856 4282604702
-0.3075539768 -0.1411540359 0.6184748411 4282077846
-0.3071775138 -0.1402949393 0.6177178025 4280893572
-0.3072370589 -0.1396356821 0.6178375483 4280829580
-0.3077328503 -0.1391734481 0.6188345551 4281684889
-0.3082285821 -0.1387089491 0.6198313832 4282143638
-0.3082875013 -0.1380466670 0.6199499369 4287078113
-0.3087829351 -0.1375785917 0.6209462285 4293325552
-0.3093478978 -0.1547642499 0.6234748363 4293324788
-0.3094130158 -0.1541039497 0.6236060858 4292864237
-0.3094778657 -0.1534432471 0.6237367988 4292995827
-0.3095424771 -0.1527821124 0.6238670349 4292930034
-0.3091726005 -0.1519072205 0.6231215596 4292666609
-0.3092366159 -0.1512462050 0.6232506037 4292666609
-0.3093003929 -0.1505847722 0.6233791113 4292666870
-0.3093639016 -0.1499229223 0.6235070825 4292469491
-0.3089925647 -0.1490510404 0.6227586865 4292140271
-0.3090554774 -0.1483893245 0.6228854656 4291613927
-0.3091181219 -0.1477271914 0.6230117679 4290826220
-0.3087456822 -0.1468578130 0.6222611070 4289707739
-0.3088077307 -0.1461958289 0.6223861575 4288787668
-0.3079994917 -0.1451234818 0.6207572222 4288392910
-0.3080608547 -0.1444625556 0.6208809018 4288394211
-0.3076867759 -0.1435981244 0.6201269627 4288788969
-0.3073122501 -0.1427351683 0.6193721294 4287473374
-0.3069373369 -0.1418737024 0.6186164618 4284775861
-0.3065619469 -0.1410137117 0.6178599596 4281551237
-0.3061861694 -0.1401552111 0.6171025634 4280630135
-0.3062455654 -0.1394966245 0.6172222495 4280894852
-0.3063047230 -0.1388376504 0.6173415184 4281552782
-0.3072352111 -0.1385714114 0.6192168593 4282603925
-0.3072940111 -0.1379098147 0.6193353534 4287867365
-0.3077885211 -0.1374424994 0.6203320026 4293522420
-0.3074861765 -0.1541779786 0.6211130023 4293258997
-0.3075509667 -0.1535202116 0.6212438941 4292930032
-0.3076154888 -0.1528620273 0.6213741899 4292996085
-0.3076797724 -0.1522034258 0.6215040684 4292798706
-0.3073103428 -0.1513309777 0.6207578182 4292601075
-0.3073740304 -0.1506724954 0.6208864450 4292666868
-0.3074374497 -0.1500135958 0.6210145950 4292601592
-0.3075006306 -0.1493542939 0.6211422086 4292272627
-0.3071297705 -0.1484848559 0.6203930378 4291548908
-0.3071923554 -0.1478256732 0.6205194592 4290825185
-0.3072546721 -0.1471660882 0.6206454039 4289577185
-0.3068827093 -0.1462991685 0.6198939681 4288392911
-0.3069444299 -0.1456397176 0.6200187206 4287932360
-0.3065716624 -0.1447747946 0.6192657351 4288063946
-0.3061985075 -0.1439113617 0.6185119152 4287736020
-0.3062593043 -0.1432525814 0.6186347604 4288130778
-0.3063198328 -0.1425934136 0.6187570095 4288920553
-0.3059455454 -0.1417325437 0.6180009842 4289052139
-0.3055708408 -0.1408731490 0.6172440648 4287932635
-0.3051956892 -0.1400152445 0.6164862514 4285827259
-0.3052549362 -0.1393573284 0.6166059971 4283591067
-0.3057488799 -0.1388966292 0.6176037192 4282669965
-0.3058077097 -0.1382370144 0.6177225709 4284839594
-0.3063013852 -0.1377727389 0.6187197566 4290037241
-0.3056929410 -0.1529358625 0.6188791990 4293061620
-0.3057571352 -0.1522802114 0.6190091372 4293193464
-0.3058210611 -0.1516241431 0.6191385984 4293259257
-0.3058847487 -0.1509676725 0.6192675233 4292996605
-0.3055154681 -0.1500981897 0.6185199022 4292799226
-0.3055785596 -0.1494418234 0.6186476350 4292338681
-0.3056414127 -0.1487850547 0.6187748909 4291614958
-0.3052709997 -0.1479180753 0.6180249453 4290628581
-0.3053332567 -0.1472614259 0.6181510091 4289904858
-0.3053952754 -0.1466043890 0.6182765365 4289314270
-0.3054570258 -0.1459469497 0.6184015870 4288919512
-0.3050851524 -0.1450830102 0.6176487207 4289115864
-0.3051463366 -0.1444257200 0.6177725792 4288786899
-0.3052072227 -0.1437680125 0.6178958416 4287604174
-0.3052679002 -0.1431099176 0.6180186868 4287406795
-0.3048945665 -0.1422490925 0.6172628999 4287998932
-0.3045208454 -0.1413897425 0.6165062785 4289051620
-0.3045805693 -0.1407323629 0.6166271567 4289905900
-0.3046400249 -0.1400745809 0.6167475581 4290498037
-0.3046992421 -0.1394164264 0.6168674231 4289840616
-0.3047581911 -0.1387578845 0.6169868112 4288261584
-0.3052510917 -0.1382956803 0.6179847121 4288918235
-0.3053096235 -0.1376354396 0.6181031466 4292010495
-0.3038389683 -0.1523508877 0.6165120602 4293061877
-0.3043344915 -0.1519132555 0.6175175309 4292799222
-0.3043981791 -0.1512587965 0.6176467538 4293128187
-0.3044616282 -0.1506039351 0.6177754998 4293062655
-0.3045248389 -0.1499486566 0.6179037094 4292470521
-0.3045877814 -0.1492929757 0.6180314422 4291220718
-0.3042183518 -0.1484260559 0.6172818542 4290036444
-0.3042806983 -0.1477705091 0.6174083948 4289115856
-0.3043428063 -0.1471145451 0.6175343990 4288523719
-0.3039722741 -0.1462501436 0.6167826056 4287866824
-0.3040338159 -0.1455943137 0.6169074178 4287669445
-0.3040950596 -0.1449380815 0.6170316935 4289181657
-0.3037234247 -0.1440762281 0.6162776351 4289379036
-0.3037841022 -0.1434201449 0.6164007187 4287471559
-0.3038445413 -0.1427636594 0.6165233254 4287471559
-0.3039047122 -0.1421068013 0.6166454554 4288458963
-0.3035316169 -0.1412480474 0.6158884168 4288853721
-0.3035911918 -0.1405913383 0.6160092950 4289641695
-0.3036504984 -0.1399342418 0.6161296964 4290233832
-0.3037095666 -0.1392767727 0.6162495017 4291221744
-0.3037683964 -0.1386189163 0.6163688302 4291945467
-0.3042603731 -0.1381574720 0.6173670888 4292404735
-0.3047522604 -0.1376937777 0.6183651686 4293194239
-0.3024198115 -0.1519818157 0.6150185466 4293061878
-0.3029143214 -0.1515458822 0.6160241365 4293062398
-0.3029777706 -0.1508930326 0.6161531806 4293062398
-0.3030409813 -0.1502397805 0.6162817478 4292339451
-0.3026727736 -0.1493733376 0.6155329347 4291155177
-0.3027353883 -0.1487201899 0.6156603098 4289839579
-0.3027977645 -0.1480666548 0.6157871485 4288655305
-0.3028598726 -0.1474127024 0.6159134507 4287865537
-0.3024902344 -0.1465492994 0.6151617169 4287339193
-0.3025517762 -0.1458954811 0.6152868867 4287011515
-0.3026130497 -0.1452412605 0.6154115200 4286682550
-0.3026740849 -0.1445866525 0.6155356169 4288062918
-0.3027348518 -0.1439316422 0.6156592369 4289444571
-0.3027953804 -0.1432762444 0.6157823205 4288523727
-0.3028556705 -0.1426204592 0.6159049273 4288392141
-0.3029156923 -0.1419642717 0.6160269976 4288919255
-0.3025432527 -0.1411061138 0.6152695417 4288919255
-0.3026026785 -0.1404500902 0.6153904200 4289773024
-0.3026618659 -0.1397936791 0.6155107617 4289773024
-0.3027207851 -0.1391368955 0.6156306267 4290431967
-0.3032120168 -0.1386775374 0.6166295409 4291550448
-0.3032704890 -0.1380190402 0.6167485118 4292207613
-0.3037614524 -0.1375561208 0.6177469492 4292931327
-0.3010031581 -0.1516123116 0.6135233045 4293061880
-0.3014965951 -0.1511780769 0.6145290732 4292865277
-0.3015598059 -0.1505268514 0.6146579385 4292338933
-0.3011924922 -0.1496614069 0.6139092445 4290760421
-0.3012551367 -0.1490102857 0.6140368581 4289312975
-0.3013175130 -0.1483587474 0.6141639948 4288326086
-0.3013796210 -0.1477068216 0.6142906547 4287668156
-0.3014415205 -0.1470544934 0.6144167781 4287076023
-0.3010724187 -0.1461926103 0.6136645079 4286681265
-0.3011337221 -0.1455404162 0.6137894392 4286880699
-0.3007638752 -0.1446805298 0.6130355597 4286946492
-0.3012555838 -0.1442348212 0.6140378118 4287931332
-0.3013161123 -0.1435814351 0.6141611934 4289905122
-0.3018075526 -0.1431321204 0.6151629090 4289839329
-0.3018676937 -0.1424770206 0.6152854562 4289247192
-0.3019275665 -0.1418215185 0.6154075265 4289773793
-0.3019872010 -0.1411656290 0.6155290604 4290234344
-0.3020465672 -0.1405093521 0.6156500578 4290364907
-0.3021056950 -0.1398526877 0.6157705784 4290825458
-0.3021645546 -0.1391956359 0.6158905625 4291287276
-0.3022231758 -0.1385382116 0.6160100102 4292010999
-0.3027133644 -0.1380773634 0.6170091033 4292273660
-0.3027715385 -0.1374182254 0.6171277165 4292536831
-0.3000181615 -0.1514590681 0.6129031181 4293061373
-0.3000813723 -0.1508098543 0.6130322814 4291943672
-0.3001443446 -0.1501602381 0.6131609082 4290364640
-0.2997775674 -0.1492963135 0.6124116182 4289181138
-0.2998399436 -0.1486468017 0.6125390530 4288194243
-0.2999020815 -0.1479968876 0.6126660109 4287471292
-0.2999639809 -0.1473465860 0.6127924323 4286813362
-0.3000256419 -0.1466958672 0.6129183769 4286748086
-0.3000870347 -0.1460447460 0.6130437851 4286748086
-0.2997181714 -0.1451849341 0.6122902632 4286944695
-0.2997789681 -0.1445339471 0.6124144793 4286944695
-0.2998395264 -0.1438825727 0.6125382185 4288589520
-0.3003301024 -0.1434362978 0.6135404110 4290497517
-0.3003902733 -0.1427832097 0.6136633158 4290628843
-0.3004501760 -0.1421297193 0.6137856841 4290234085
-0.3009403348 -0.1416785270 0.6147870421 4290628582
-0.3009998202 -0.1410233229 0.6149085760 4290825961
-0.3006283641 -0.1401669234 0.6141496897 4291154411
-0.3011180162 -0.1397117525 0.6151500344 4291483376
-0.3011767566 -0.1390553862 0.6152700186 4291878132
-0.3012352288 -0.1383986473 0.6153894663 4292272890
-0.3012934327 -0.1377415210 0.6155083776 4292075760
-0.3017825186 -0.1372801214 0.6165074706 4292338932
-0.2986056507 -0.1510888040 0.6114047766 4292272629
-0.2986686230 -0.1504411995 0.6115337014 4289641687
-0.2987313569 -0.1497931927 0.6116621494 4288194241
-0.2987938225 -0.1491447836 0.6117900610 4287602365
-0.2988560498 -0.1484959573 0.6119174957 4286878642
-0.2984891832 -0.1476346105 0.6111662984 4286549936
-0.2985508144 -0.1469859183 0.6112925410 4286549936
-0.2986122370 -0.1463368237 0.6114182472 4286550966
-0.2986733913 -0.1456873268 0.6115434766 4286748345
-0.2987342775 -0.1450374275 0.6116681695 4287273400
-0.2987949550 -0.1443871260 0.6117923856 4288655053
-0.2988553643 -0.1437364370 0.6119160652 4290563050
-0.2993450165 -0.1432909369 0.6129186749 4291747324
-0.2994050086 -0.1426385343 0.6130415201 4291681783
-0.2994647622 -0.1419857293 0.6131638288 4291352818
-0.2995242774 -0.1413325369 0.6132856607 4291746546
-0.2995835245 -0.1406789571 0.6134070158 4291943925
-0.2996425033 -0.1400249898 0.6135277748 4291943923
-0.2997012734 -0.1393706352 0.6136481166 4292075509
-0.2997597456 -0.1387158930 0.6137678623 4292338681
-0.3002481461 -0.1382588595 0.6147678494 4292601853
-0.3003062308 -0.1376024187 0.6148867607 4292470257
-0.3003640473 -0.1369455904 0.6150051355 4292799222
-0.2973695993 -0.1535185128 0.6102617383 4293258995
-0.2974969149 -0.1522275656 0.6105230451 4292995833
-0.2971326709 -0.1513636857 0.6097755432 4291746546
-0.2971956432 -0.1507181078 0.6099047661 4289706963
-0.2972583473 -0.1500721276 0.6100334525 4287997123
-0.2973208427 -0.1494257450 0.6101616621 4287536572
-0.2973830700 -0.1487789452 0.6102893949 4286747315
-0.2970170677 -0.1479185969 0.6095383167 4285168283
-0.2970787287 -0.1472719163 0.6096648574 4285498019
-0.2967119813 -0.1464135647 0.6089121699 4286484914
-0.2967730761 -0.1457670182 0.6090375185 4286484660
-0.2972622216 -0.1453294903 0.6100413799 4286813625
-0.2973228991 -0.1446812153 0.6101658940 4288457415
-0.2973833382 -0.1440325379 0.6102899313 4290431205
-0.2978720963 -0.1435900778 0.6112929583 4291812856
-0.2979321182 -0.1429396868 0.6114161611 4292141821
-0.2979918718 -0.1422888935 0.6115388274 4292404476
-0.2984802425 -0.1418415159 0.6125410199 4292404476
-0.2985396087 -0.1411890090 0.6126628518 4292404474
-0.2985987067 -0.1405361146 0.6127841473 4292601853
-0.2986575663 -0.1398828328 0.6129049063 4292798973
-0.2987161875 -0.1392291635 0.6130251884 4292667387
-0.2987745404 -0.1385751069 0.6131449342 4292798971
-0.2988326252 -0.1379206777 0.6132642031 4292798971
-0.2988904715 -0.1372658610 0.6133828759 4292602097
-0.2960257828 -0.1524973810 0.6088918447 4292864764
-0.2960890830 -0.1518533081 0.6090220213 4291285732
-0.2957254052 -0.1509909630 0.6082739830 4289246929
-0.2957881093 -0.1503469944 0.6084029675 4287865276
-0.2958505750 -0.1497026384 0.6085314751 4287405245
-0.2959128320 -0.1490578502 0.6086594462 4286813108
-0.2959748209 -0.1484126747 0.6087870002 4286023593
-0.2956093848 -0.1475538611 0.6080353260 4285168284
-0.2956707776 -0.1469088048 0.6081616282 4285168284
-0.2953045964 -0.1460519880 0.6074084640 4285628835
-0.2957928777 -0.1456174850 0.6084128022 4286944697
-0.2958535552 -0.1449712366 0.6085376143 4288852694
-0.2959139943 -0.1443245858 0.6086618900 4291285742
-0.2964018881 -0.1438851655 0.6096654534 4292075258
-0.2968897223 -0.1434434801 0.6106688380 4292009718
-0.2969495952 -0.1427937746 0.6107919812 4291812339
-0.2970092297 -0.1421436667 0.6109146476 4292272888
-0.2970685959 -0.1414931715 0.6110367775 4292667646
-0.2975558639 -0.1410452425 0.6120390296 4292798973
-0.2976148129 -0.1403930336 0.6121602654 4292864766
-0.2976735234 -0.1397404373 0.6122810245 4292667387
-0.2977319956 -0.1390874684 0.6124013066 4292601594
-0.2977901995 -0.1384340972 0.6125209928 4292799226
-0.2978481650 -0.1377803534 0.6126402020 4292799226
-0.2979058623 -0.1371262372 0.6127589345 4292930291
-0.2944301665 -0.1540459245 0.6069964767 4293390068
-0.2945574224 -0.1527631134 0.6072588563 4292864501
-0.2946207225 -0.1521210670 0.6073893309 4291022823
-0.2946837544 -0.1514786184 0.6075193286 4288851654
-0.2943206131 -0.1506177932 0.6067706943 4287799744
-0.2943830788 -0.1499754488 0.6068994403 4287273400
-0.2944453061 -0.1493327022 0.6070277691 4286747316
-0.2945072949 -0.1486895531 0.6071555614 4286023593
-0.2941427529 -0.1478317380 0.6064040065 4285957800
-0.2942041755 -0.1471887082 0.6065306067 4285957800
-0.2942653596 -0.1465452760 0.6066567302 4284970647
-0.2943262756 -0.1459014416 0.6067823172 4285825956
-0.2943869531 -0.1452572048 0.6069074273 4289246677
-0.2948741317 -0.1448221654 0.6079118252 4291681018
-0.2949344218 -0.1441762000 0.6080361009 4292272890
-0.2949944735 -0.1435298324 0.6081598997 4291812339
-0.2954812646 -0.1430898607 0.6091634631 4291219941
-0.2955408990 -0.1424417794 0.6092864275 4291285734
-0.2956002951 -0.1417933106 0.6094088554 4291878124
-0.2956594229 -0.1411444396 0.6095307469 4292141296
-0.2961456478 -0.1406982243 0.6105331779 4292206834
-0.2962043881 -0.1400476396 0.6106542349 4292272627
-0.2962628603 -0.1393966824 0.6107748151 4292666615
-0.2967486978 -0.1389455348 0.6117764115 4292732408
-0.2968067527 -0.1382928640 0.6118960977 4292995833
-0.2935166061 -0.1532465369 0.6065018773 4292733178
-0.2935799658 -0.1526056081 0.6066327691 4290825181
-0.2932181358 -0.1517443359 0.6058851480 4288260547
-0.2932809293 -0.1511035115 0.6060148478 4287076273
-0.2933434844 -0.1504622698 0.6061441302 4287010487
-0.2929805815 -0.1496034861 0.6053942442 4286615729
-0.2930425406 -0.1489623636 0.6055223346 4285826730
-0.2931042910 -0.1483208239 0.6056498885 4286221488
-0.2927403152 -0.1474645436 0.6048977971 4286023593
-0.2923758924 -0.1466097385 0.6041448116 4285826214
-0.2928624153 -0.1461813301 0.6051501036 4286022820
-0.2929230928 -0.1455391198 0.6052755117 4288522954
-0.2934094071 -0.1451071203 0.6062803268 4291943414
-0.2934696972 -0.1444631666 0.6064049006 4292535551
-0.2935297489 -0.1438188404 0.6065289974 4292009455
-0.2935895324 -0.1431740969 0.6066525578 4291746283
-0.2940753102 -0.1427358389 0.6076563001 4292009706
-0.2941347063 -0.1420893818 0.6077790856 4292799222
-0.2946792245 -0.1409993619 0.6089041829 4293127671
-0.2952814400 -0.1392537504 0.6101485491 4292930040
-0.2957662940 -0.1388033777 0.6111505032 4292995833
-0.2958242297 -0.1381514072 0.6112701893 4293192951
-0.2921162248 -0.1528662294 0.6049967408 4290891239
-0.2921793461 -0.1522269100 0.6051273942 4288588484
-0.2922422290 -0.1515871882 0.6052576303 4287076280
-0.2918806076 -0.1507279724 0.6045086980 4286615729
-0.2919429243 -0.1500883400 0.6046377420 4285893036
-0.2911561430 -0.1490138769 0.6030082703 4285695657
-0.2912177742 -0.1483753026 0.6031359434 4285629866
-0.2912791967 -0.1477363110 0.6032631397 4285761452
-0.2913403809 -0.1470969319 0.6033897996 4285628837
-0.2909765244 -0.1462436616 0.6026362777 4286813111
-0.2910371125 -0.1456044018 0.6027617455 4289114573
-0.2915224433 -0.1451763809 0.6037669182 4291285742
-0.2915826440 -0.1445353925 0.6038916111 4292535031
-0.2920677662 -0.1441037804 0.6048963070 4292206066
-0.2925527990 -0.1436698884 0.6059008241 4291614948
-0.2926124334 -0.1430258453 0.6060243845 4292207085
-0.2926718593 -0.1423814148 0.6061474681 4293127924
-0.2905919552 -0.1537596285 0.6032273769 4292733182
-0.2906552851 -0.1531227678 0.6033588648 4290298841
-0.2907183766 -0.1524854749 0.6034898758 4287799742
-0.2907812595 -0.1518477947 0.6036203504 4287339191
-0.2908438742 -0.1512096822 0.6037503481 4286484660
-0.2904828191 -0.1503519863 0.6030008197 4285958316
-0.2901213467 -0.1494957507 0.6022504568 4285235622
-0.2897594571 -0.1486409605 0.6014992595 4284906657
-0.2898208499 -0.1480040103 0.6016266942 4286221749
-0.2898820341 -0.1473666579 0.6017536521 4285300647
-0.2899429500 -0.1467289031 0.6018801332 4286023595
-0.2895796597 -0.1458771527 0.6011260152 4289181659
-0.2896400094 -0.1452395320 0.6012513041 4291812086
-0.2901242971 -0.1448132247 0.6022565961 4292470015
-0.2906085253 -0.1443846524 0.6032617688 4292271599
-0.2906683385 -0.1437439620 0.6033859253 4292008427
-0.2911523283 -0.1433117986 0.6043906212 4292733429
-0.2912117541 -0.1426693797 0.6045140028 4293588735
-0.2891338170 -0.1540100425 0.6015875340 4292601067
-0.2891971469 -0.1533752084 0.6017192602 4289641948
-0.2892602086 -0.1527399570 0.6018505096 4287339193
-0.2893230617 -0.1521043032 0.6019812822 4286353074
-0.2893856764 -0.1514682323 0.6021115184 4286418867
-0.2894480526 -0.1508317441 0.6022413373 4285629614
-0.2890875340 -0.1499755830 0.6014912128 4285761200
-0.2887266278 -0.1491208822 0.6007403135 4285629355
-0.2883652747 -0.1482676268 0.5999884605 4286155699
-0.2880035341 -0.1474158317 0.5992357731 4285628835
-0.2880643606 -0.1467810422 0.5993623734 4286220972
-0.2881249785 -0.1461458355 0.5994884372 4288325829
-0.2881853282 -0.1455102414 0.5996140242 4291286514
-0.2882454395 -0.1448742449 0.5997391343 4292403447
-0.2887286842 -0.1444496512 0.6007446051 4292008689
-0.2892118692 -0.1440227926 0.6017498970 4291942375
-0.2892714441 -0.1433837414 0.6018738747 4293521407
-0.2876784801 -0.1542563587 0.5999459028 4292075501
-0.2877417803 -0.1536235660 0.6000778675 4289772746
-0.2882262170 -0.1532143503 0.6010881662 4287273659
-0.2882891297 -0.1525797993 0.6012194157 4287010487
-0.2883518338 -0.1519448310 0.6013501287 4286155695
-0.2879926264 -0.1510882378 0.6006010175 4285826730
-0.2880547345 -0.1504533887 0.6007305980 4285103268
-0.2872729599 -0.1493794024 0.5991001725 4285563819
-0.2869125009 -0.1485271603 0.5983484983 4286089902
-0.2865516245 -0.1476763785 0.5975958705 4286287281
-0.2861903608 -0.1468270570 0.5968424678 4287273402
-0.2862508595 -0.1461948156 0.5969685912 4289576157
-0.2867334187 -0.1457768828 0.5979749560 4291285997
-0.2867935300 -0.1451429129 0.5981003642 4292009720
-0.2868534029 -0.1445085406 0.5982252359 4291679720
-0.2877581418 -0.1442975551 0.6001120210 4292403443
-0.2878177166 -0.1436605304 0.6002362967 4293455610
-0.2853220403 -0.1546733081 0.5964130163 4293588735
-0.2858056426 -0.1542716920 0.5974239707 4291812331
-0.2862892151 -0.1538678110 0.5984347463 4288852170
-0.2863522768 -0.1532366425 0.5985665321 4287141552
-0.2868356407 -0.1528291553 0.5995770097 4286287794
-0.2868983150 -0.1521962285 0.5997079611 4286616759
-0.2869607508 -0.1515628844 0.5998384953 4285761452
-0.2866021097 -0.1507078260 0.5990887880 4285629866
-0.2866639793 -0.1500745863 0.5992181301 4285629866
-0.2858835459 -0.1490020603 0.5975868106 4285695659
-0.2855236530 -0.1481513530 0.5968344808 4285826214
-0.2847421169 -0.1470845193 0.5952008367 4286023593
-0.2848026156 -0.1464543194 0.5953273177 4289049809
-0.2848628759 -0.1458237171 0.5954532623 4291484150
-0.2849228978 -0.1451927125 0.5955787301 4291680751
-0.2858258188 -0.1449889988 0.5974661112 4291417579
-0.2858855724 -0.1443553418 0.5975909829 4292074472
-0.2863667905 -0.1439332515 0.5985969305 4293456125
-0.2842934728 -0.1551361531 0.5956458449 4293456636
-0.2843568325 -0.1545087993 0.5957786441 4291285995
-0.2844199836 -0.1538810134 0.5959109664 4288654275
-0.2844829261 -0.1532528102 0.5960428119 4286813108
-0.2849653065 -0.1528493017 0.5970534682 4286549936
-0.2850278616 -0.1522193402 0.5971845388 4285959347
-0.2850901783 -0.1515889615 0.5973151326 4285367210
-0.2851522863 -0.1509581804 0.5974452496 4285367208
-0.2852141261 -0.1503269672 0.5975748301 4285827759
-0.2848556340 -0.1494749039 0.5968236923 4285498278
-0.2844966948 -0.1486242861 0.5960716605 4285761450
-0.2841373682 -0.1477751136 0.5953187943 4286944948
-0.2837775946 -0.1469274163 0.5945650339 4288852945
-0.2842584252 -0.1465146393 0.5955724716 4290891753
-0.2843186259 -0.1458837986 0.5956985950 4291483890
-0.2843785882 -0.1452525556 0.5958242416 4291022815
-0.2848590612 -0.1448348612 0.5968309641 4291812331
-0.2849186361 -0.1442018896 0.5969557762 4293456889
-0.2828475237 -0.1553671062 0.5939986110 4293259775
-0.2829108536 -0.1547417790 0.5941316485 4291154399
-0.2833925784 -0.1543440223 0.5951433182 4288062914
-0.2834555805 -0.1537169367 0.5952755809 4286681261
-0.2835183442 -0.1530894339 0.5954074264 4286549685
-0.2839997411 -0.1526867151 0.5964183807 4286286513
-0.2840621471 -0.1520574540 0.5965494514 4285696434
-0.2837052643 -0.1512044221 0.5957999229 4285170090
-0.2837671041 -0.1505752653 0.5959298015 4285696173
-0.2834094465 -0.1497242004 0.5951787233 4285827759
-0.2834707499 -0.1490951627 0.5953074694 4285563811
-0.2826929688 -0.1480264515 0.5936740637 4287932359
-0.2827535868 -0.1473984569 0.5938013792 4290563048
-0.2823944092 -0.1465522796 0.5930470824 4291549943
-0.2828741968 -0.1461412460 0.5940546393 4291483372
-0.2829341292 -0.1455120295 0.5941805243 4291154407
-0.2834137380 -0.1450973898 0.5951877236 4291943913
-0.2834732831 -0.1444664448 0.5953128338 4293457151
-0.2809868753 -0.1553630829 0.5914707780 4293324792
-0.2814677358 -0.1549706608 0.5924829245 4290628317
-0.2815308273 -0.1543469578 0.5926157236 4287865011
-0.2820114791 -0.1539509147 0.5936275125 4286747315
-0.2820742130 -0.1533254534 0.5937595963 4286549936
-0.2821367383 -0.1526995748 0.5938911438 4285826732
-0.2821989954 -0.1520732790 0.5940222740 4285366181
-0.2826792300 -0.1516709328 0.5950331092 4285565102
-0.2823228836 -0.1508194506 0.5942829847 4285762481
-0.2819661200 -0.1499694139 0.5935320258 4285366692
-0.2820273936 -0.1493424028 0.5936610103 4285564071
-0.2816699147 -0.1484943330 0.5929085016 4286944948
-0.2813120186 -0.1476477236 0.5921551585 4290103012
-0.2813723981 -0.1470213532 0.5922822952 4292010234
-0.2814325690 -0.1463945955 0.5924088955 4291286511
-0.2814925015 -0.1457674205 0.5925350785 4290956767
-0.2819711864 -0.1453558356 0.5935426950 4291877869
-0.2820307314 -0.1447269171 0.5936680436 4293588221
-0.2799006402 -0.1564374715 0.5905649662 4293653242
-0.2795475423 -0.1555847824 0.5898199081 4292798456
-0.2796107233 -0.1549644768 0.5899532437 4290364115
-0.2796736956 -0.1543437541 0.5900861025 4287536311
-0.2801533341 -0.1539516896 0.5910981297 4286681002
-0.2802159488 -0.1533292085 0.5912302136 4286418867
-0.2802783251 -0.1527062953 0.5913618803 4285892523
-0.2803404927 -0.1520829648 0.5914930105 4285234595
-0.2804024220 -0.1514592320 0.5916236639 4285103009
-0.2808814943 -0.1510595381 0.5926344395 4285696173
-0.2805256248 -0.1502105147 0.5918835998 4285301415
-0.2805868685 -0.1495855451 0.5920128226 4285563811
-0.2802302539 -0.1487385035 0.5912603736 4287998152
-0.2802909613 -0.1481136382 0.5913884640 4290496996
-0.2803514302 -0.1474883854 0.5915160775 4291681270
-0.2804116607 -0.1468627155 0.5916431546 4291680494
-0.2804716825 -0.1462366432 0.5917698145 4291483115
-0.2805314660 -0.1456101835 0.5918959379 4292205804
-0.2805910110 -0.1449833065 0.5920215845 4293653247
-0.2784632742 -0.1566540152 0.5889123082 4293784575
-0.2785267532 -0.1560352594 0.5890465379 4292797680
-0.2781741917 -0.1551841050 0.5883009434 4289772495
-0.2782371342 -0.1545654237 0.5884340405 4287732912
-0.2782998383 -0.1539463252 0.5885666609 4286681265
-0.2783623338 -0.1533267945 0.5886988044 4286747058
-0.2784245908 -0.1527068615 0.5888304710 4285826732
-0.2784866393 -0.1520865113 0.5889617205 4285300388
-0.2785484493 -0.1514657438 0.5890924335 4285432485
-0.2786100209 -0.1508445591 0.5892226696 4285300899
-0.2786713839 -0.1502229720 0.5893524289 4285169311
-0.2787325382 -0.1496009678 0.5894817710 4285037725
-0.2787934542 -0.1489785612 0.5896105766 4288062916
-0.2784372866 -0.1481339931 0.5888573527 4291220980
-0.2789145708 -0.1477325261 0.5898667574 4291746035
-0.2789748013 -0.1471088976 0.5899940729 4291614449
-0.2790347934 -0.1464848667 0.5901209712 4291679722
-0.2790945470 -0.1458604336 0.5902473927 4292995582
-0.2791540921 -0.1452355981 0.5903732777 4293784575
-0.2775070369 -0.1564836353 0.5882717967 4292076792
-0.2771554589 -0.1556326002 0.5875265002 4289313486
-0.2772184312 -0.1550150365 0.5876600146 4286878901
-0.2768661082 -0.1541659236 0.5869131088 4286352557
-0.2769285738 -0.1535484493 0.5870455503 4286286764
-0.2769908011 -0.1529305577 0.5871774554 4285826213
-0.2770527899 -0.1523122489 0.5873088837 4285628837
-0.2771145999 -0.1516935229 0.5874398351 4285957802
-0.2771761417 -0.1510743946 0.5875703692 4285891506
-0.2772374749 -0.1504548341 0.5877003670 4285694127
-0.2768828571 -0.1496102363 0.5869486332 4285825451
-0.2769436538 -0.1489908099 0.5870774984 4287272897
-0.2774201334 -0.1485937387 0.5880875587 4290234087
-0.2770645618 -0.1477507055 0.5873337984 4291418361
-0.2775407732 -0.1473509669 0.5883432627 4290628831
-0.2776007354 -0.1467289776 0.5884703994 4291023589
-0.2776604891 -0.1461065859 0.5885970592 4292865520
-0.2764883935 -0.1569299400 0.5874956846 4291614948
-0.2765517533 -0.1563130021 0.5876302719 4288852684
-0.2762008011 -0.1554625630 0.5868845582 4287076273
-0.2762636244 -0.1548456997 0.5870180726 4286681525
-0.2759119570 -0.1539971977 0.5862708092 4285957802
-0.2755598724 -0.1531501263 0.5855226517 4285563044
-0.2752073705 -0.1523044854 0.5847736597 4285760423
-0.2756835818 -0.1519171894 0.5857855678 4285891755
-0.2753304541 -0.1510725766 0.5850352049 4285825962
-0.2753916681 -0.1504560113 0.5851652622 4285694125
-0.2754526734 -0.1498390287 0.5852949023 4286549434
-0.2755134404 -0.1492216289 0.5854240060 4288917974
-0.2755739689 -0.1486038268 0.5855526328 4290628592
-0.2756342888 -0.1479856223 0.5856807828 4291220719
-0.2761095762 -0.1475889385 0.5866907239 4290760168
-0.2761695385 -0.1469689906 0.5868180990 4291681256
-0.2762292624 -0.1463486403 0.5869450569 4293128702
-0.2746448517 -0.1569022536 0.5849589109 4291746287
-0.2751211524 -0.1565233022 0.5859733820 4288654016
-0.2751842439 -0.1559080034 0.5861077905 4287010230
-0.2748338580 -0.1550590992 0.5853614807 4286878644
-0.2748964131 -0.1544438601 0.5854946971 4285957550
-0.2745452821 -0.1535968930 0.5847468376 4285957550
-0.2741937637 -0.1527513564 0.5839981437 4285628585
-0.2738417983 -0.1519072652 0.5832485557 4285694378
-0.2739032209 -0.1512931585 0.5833793283 4285628585
-0.2739644051 -0.1506786197 0.5835096240 4285233827
-0.2740253508 -0.1500636786 0.5836394429 4285891755
-0.2740860879 -0.1494483352 0.5837687850 4288852440
-0.2741465867 -0.1488325745 0.5838977098 4291417332
-0.2742068768 -0.1482164115 0.5840260983 4291219953
-0.2742669582 -0.1475998461 0.5841540098 4291022821
-0.2747411728 -0.1472049057 0.5851640701 4291680751
-0.2752153575 -0.1468076855 0.5861740112 4293128438
-0.2731546760 -0.1577168405 0.5831645727 4293390591
-0.2732180953 -0.1571053565 0.5832999349 4291022043
-0.2732812464 -0.1564934403 0.5834348202 4288522438
-0.2733442187 -0.1558811069 0.5835692286 4287074992
-0.2738193274 -0.1555025429 0.5845835209 4286878391
-0.2738819718 -0.1548884362 0.5847172141 4286549426
-0.2735317945 -0.1540415734 0.5839696527 4285431206
-0.2731812000 -0.1531961560 0.5832211971 4285957550
-0.2728302181 -0.1523521543 0.5824718475 4286089138
-0.2720659971 -0.1512800455 0.5808402896 4285562794
-0.2721270621 -0.1506684870 0.5809706450 4285168286
-0.2721878886 -0.1500565261 0.5811005235 4286615732
-0.2722484767 -0.1494441479 0.5812299252 4288655564
-0.2723088861 -0.1488313675 0.5813588500 4291089905
-0.2727823555 -0.1484431028 0.5823696852 4291548656
-0.2728424072 -0.1478285640 0.5824978352 4291022312
-0.2733156979 -0.1474366933 0.5835083127 4291812329
-0.2733753920 -0.1468204260 0.5836357474 4293457151
-0.2717308998 -0.1579137594 0.5815036893 4293062129
-0.2717942297 -0.1573043168 0.5816392899 4290430425
-0.2718573511 -0.1566944718 0.5817743540 4288259256
-0.2719202638 -0.1560841799 0.5819090009 4287536062
-0.2723944485 -0.1557086855 0.5829237103 4286943925
-0.2724570036 -0.1550966352 0.5830576420 4286351795
-0.2725193799 -0.1544841677 0.5831910968 4285562279
-0.2721697688 -0.1536388397 0.5824428797 4285891759
-0.2718197405 -0.1527949572 0.5816938281 4286023345
-0.2714692950 -0.1519525051 0.5809439421 4285628587
-0.2707064450 -0.1508818418 0.5793113708 4285431208
-0.2707672417 -0.1502719223 0.5794414878 4287009975
-0.2708278000 -0.1496616006 0.5795711279 4290102246
-0.2708881795 -0.1490508616 0.5797002912 4291352815
-0.2709483206 -0.1484397203 0.5798289776 4291550194
-0.2714207172 -0.1480531842 0.5808399320 4291482084
-0.2714805007 -0.1474402994 0.5809679031 4292534772
-0.2715400755 -0.1468269974 0.5810953379 4293587964
-0.2698998153 -0.1578666121 0.5789613128 4292865017
-0.2703732848 -0.1574991494 0.5799769759 4290101711
-0.2704363763 -0.1568913460 0.5801122785 4288062140
-0.2709096968 -0.1565202773 0.5811276436 4287930554
-0.2709724605 -0.1559107006 0.5812622309 4287536323
-0.2710349858 -0.1553007066 0.5813963413 4286088877
-0.2710973024 -0.1546902955 0.5815300345 4285496746
-0.2711593807 -0.1540794522 0.5816632509 4285496746
-0.2708103359 -0.1532356739 0.5809144378 4285628332
-0.2700498104 -0.1521617174 0.5792831182 4285167781
-0.2696998417 -0.1513217390 0.5785323977 4285036448
-0.2693494856 -0.1504831910 0.5777807832 4286483894
-0.2694100142 -0.1498749256 0.5779106617 4289707741
-0.2694703341 -0.1492662281 0.5780400634 4291418359
-0.2699419558 -0.1488841027 0.5790516734 4291155175
-0.2700019181 -0.1482736617 0.5791803598 4291155175
-0.2700616717 -0.1476628333 0.5793085098 4292402924
-0.2705329955 -0.1472757459 0.5803195238 4293718783
-0.2680734992 -0.1578132808 0.5764170289 4292535272
-0.2685459256 -0.1574498266 0.5774328113 4289970135
-0.2690183222 -0.1570840925 0.5784485340 4288259517
-0.2690811157 -0.1564779133 0.5785835981 4287536570
-0.2691437304 -0.1558713317 0.5787182450 4287339191
-0.2696158588 -0.1555006355 0.5797334313 4286154927
-0.2696781158 -0.1548922658 0.5798673034 4285168032
-0.2701501250 -0.1545179635 0.5808821917 4285365415
-0.2693919837 -0.1534407437 0.5792520046 4285365415
-0.2690433860 -0.1525994241 0.5785024166 4285431208
-0.2682841420 -0.1515278518 0.5768699646 4285562794
-0.2679346502 -0.1506903470 0.5761184096 4287602627
-0.2675847411 -0.1498542726 0.5753660798 4289642210
-0.2680554390 -0.1494774818 0.5763781667 4291352304
-0.2681154907 -0.1488704383 0.5765073299 4291483890
-0.2685860395 -0.1484900266 0.5775190592 4291944175
-0.2686457634 -0.1478812397 0.5776474476 4292602105
-0.2691161335 -0.1474972367 0.5786588788 4293719035
-0.2662519515 -0.1577537805 0.5738707781 4292337895
-0.2667233050 -0.1573943049 0.5748866796 4289837761
-0.2676031888 -0.1572726816 0.5767831802 4288128450
-0.2676659524 -0.1566685736 0.5769184232 4287799485
-0.2677284777 -0.1560640335 0.5770532489 4287404984
-0.2681996524 -0.1556964219 0.5780688524 4286418089
-0.2682618797 -0.1550901085 0.5782029033 4285563042
-0.2683238983 -0.1544833779 0.5783365369 4285365663
-0.2683856785 -0.1538762301 0.5784697533 4285496999
-0.2680380344 -0.1530350298 0.5777204037 4285233827
-0.2676899731 -0.1521952599 0.5769702792 4285233827
-0.2669321299 -0.1511251330 0.5753368139 4287536582
-0.2665831745 -0.1502891779 0.5745847225 4291023601
-0.2662338316 -0.1494546533 0.5738317370 4291418359
-0.2667034566 -0.1490795910 0.5748439431 4291220970
-0.2667632699 -0.1484741867 0.5749728680 4291286763
-0.2672327161 -0.1480955184 0.5759847164 4293062398
-0.2652500570 -0.1581740230 0.5730832219 4292074218
-0.2653129995 -0.1575746685 0.5732191801 4288981698
-0.2657833397 -0.1572159976 0.5742354393 4288257975
-0.2658459544 -0.1566148698 0.5743706822 4287733175
-0.2663162053 -0.1562525928 0.5753866434 4287206831
-0.2663784623 -0.1556496918 0.5755212307 4286154409
-0.2668485641 -0.1552838087 0.5765368938 4285825444
-0.2669105232 -0.1546791345 0.5766707063 4285694378
-0.2669722736 -0.1540740430 0.5768041015 4286352308
-0.2670337856 -0.1534685344 0.5769370794 4285563560
-0.2666867077 -0.1526288688 0.5761871338 4285695146
-0.2659307122 -0.1515578330 0.5745537877 4286878902
-0.2655827105 -0.1507219821 0.5738019943 4290036966
-0.2656430304 -0.1501185149 0.5739322305 4291352053
-0.2652943134 -0.1492846161 0.5731788874 4290759916
-0.2653540969 -0.1486812681 0.5733079910 4291614952
-0.2658226192 -0.1483056694 0.5743202567 4293128191
-0.2637796998 -0.1589450389 0.5712773204 4293456376
-0.2638427615 -0.1583481580 0.5714139342 4291547876
-0.2643122673 -0.1579939276 0.5724307299 4288587191
-0.2643750310 -0.1573952883 0.5725666285 4287402666
-0.2644375861 -0.1567962021 0.5727021098 4287731631
-0.2649068534 -0.1564370096 0.5737184286 4287009452
-0.2649690807 -0.1558361650 0.5738531947 4286285729
-0.2650310993 -0.1552349031 0.5739874840 4285957029
-0.2650928795 -0.1546332091 0.5741213560 4285957029
-0.2651544809 -0.1540310979 0.5742547512 4285694117
-0.2652158737 -0.1534285694 0.5743876696 4285430945
-0.2648695409 -0.1525908709 0.5736376643 4286549939
-0.2645228207 -0.1517546028 0.5728867650 4288589522
-0.2645833790 -0.1511526853 0.5730178952 4290234085
-0.2642359436 -0.1503183842 0.5722654462 4291220980
-0.2638881207 -0.1494855136 0.5715121627 4291220202
-0.2639478445 -0.1488842219 0.5716415048 4291549167
-0.2644154131 -0.1485116929 0.5726541281 4293522431
-0.2627809644 -0.1593588889 0.5704865456 4293587709
-0.2628440559 -0.1587631553 0.5706235766 4291087575
-0.2633126974 -0.1584110707 0.5716409087 4287929262
-0.2629696727 -0.1575704068 0.5708962679 4285823886
-0.2630321681 -0.1569733918 0.5710319281 4285823634
-0.2630944252 -0.1563759446 0.5711671114 4286349978
-0.2635626197 -0.1560184807 0.5721834898 4286154660
-0.2636245787 -0.1554192752 0.5723180175 4286023074
-0.2632800341 -0.1545810997 0.5715700388 4286351785
-0.2633414865 -0.1539819688 0.5717034340 4285891234
-0.2629962265 -0.1531457305 0.5709539056 4285693857
-0.2630571723 -0.1525466889 0.5710861683 4285759650
-0.2627111971 -0.1517123878 0.5703351498 4288720335
-0.2627716064 -0.1511134505 0.5704662800 4291417848
-0.2628318369 -0.1505140960 0.5705969930 4291351535
-0.2628918290 -0.1499143243 0.5707272291 4291022570
-0.2625445426 -0.1490830183 0.5699733496 4291812329
-0.2626040280 -0.1484833658 0.5701024532 4293325567
-0.2613787651 -0.1595236659 0.5688139796 4292930032
-0.2618465126 -0.1591760069 0.5698319077 4290560979
-0.2619094551 -0.1585809886 0.5699688792 4287402915
-0.2619721591 -0.1579855531 0.5701053739 4286284696
-0.2616297007 -0.1571464092 0.5693600774 4285297801
-0.2616919279 -0.1565510333 0.5694954991 4284639873
-0.2617539465 -0.1559552401 0.5696304440 4285100424
-0.2618157268 -0.1553590149 0.5697649717 4285299099
-0.2618773282 -0.1547623575 0.5698990226 4285628064
-0.2619387209 -0.1541652977 0.5700325966 4286154660
-0.2615943253 -0.1533300877 0.5692831278 4286220453
-0.2612495422 -0.1524963230 0.5685328245 4286549418
-0.2613101304 -0.1518998444 0.5686646104 4288128450
-0.2613704801 -0.1513029635 0.5687959790 4290956779
-0.2614306509 -0.1507056653 0.5689269304 4291483123
-0.2614905834 -0.1501079649 0.5690573454 4291022564
-0.2615503073 -0.1495098472 0.5691873431 4291943666
-0.2616098523 -0.1489113122 0.5693168640 4293522682
-0.2599163651 -0.1602754444 0.5670019984 4293587447
-0.2599795461 -0.1596842706 0.5671398044 4292469228
-0.2604463100 -0.1593397111 0.5681580305 4290363852
-0.2605091929 -0.1587467492 0.5682951808 4288258739
-0.2605718374 -0.1581533700 0.5684319139 4287008672
-0.2606343031 -0.1575595587 0.5685681701 4286153110
-0.2606965601 -0.1569653153 0.5687039495 4285626766
-0.2607586086 -0.1563706547 0.5688393116 4285495952
-0.2608204484 -0.1557755768 0.5689741969 4284114299
-0.2608820796 -0.1551800668 0.5691086650 4284049545
-0.2605389357 -0.1543444693 0.5683601499 4284904854
-0.2610047162 -0.1539877802 0.5693762302 4285759902
-0.2602562308 -0.1529153883 0.5677434206 4287865278
-0.2603168488 -0.1523200423 0.5678756237 4289706965
-0.2603772581 -0.1517242938 0.5680074096 4291088618
-0.2604374588 -0.1511281282 0.5681387186 4291614447
-0.2604974508 -0.1505315453 0.5682696104 4291417068
-0.2605572343 -0.1499345601 0.5684000254 4292403698
-0.2606167793 -0.1493371576 0.5685299635 4293719551
-0.2585202157 -0.1604298353 0.5653260946 4293587962
-0.2585833371 -0.1598407179 0.5654640794 4291877344
-0.2586462200 -0.1592511833 0.5656016469 4290166475
-0.2587089241 -0.1586612016 0.5657387376 4289311166
-0.2591744959 -0.1583170295 0.5667568445 4288587704
-0.2592369020 -0.1577252746 0.5668932796 4288258739
-0.2592990696 -0.1571331024 0.5670292377 4287534763
-0.2593610585 -0.1565404981 0.5671647787 4286284696
-0.2594228387 -0.1559474766 0.5672999024 4285035399
-0.2598879635 -0.1555956453 0.5683169961 4284706434
-0.2595457733 -0.1547601670 0.5675687194 4283194234
-0.2596069574 -0.1541658789 0.5677024722 4284181129
-0.2592640519 -0.1533323377 0.5669527054 4286286243
-0.2589207888 -0.1525002271 0.5662019849 4289904858
-0.2589811385 -0.1519065350 0.5663340092 4291417322
-0.2590412796 -0.1513124257 0.5664654970 4291417322
-0.2591012120 -0.1507178992 0.5665965676 4291482596
-0.2591609359 -0.1501229703 0.5667271614 4292732663
-0.2571901083 -0.1599929929 0.5637867451 4292535021
-0.2572529614 -0.1594055146 0.5639244914 4290166473
-0.2573155761 -0.1588176042 0.5640617609 4289574084
-0.2573780119 -0.1582292765 0.5641986132 4288916154
-0.2578424811 -0.1578868330 0.5652167797 4288521398
-0.2579045892 -0.1572967172 0.5653529763 4288521398
-0.2579665184 -0.1567061841 0.5654886961 4288455863
-0.2580282390 -0.1561152190 0.5656239390 4287534761
-0.2580897510 -0.1555238366 0.5657588243 4284903043
-0.2581510544 -0.1549320370 0.5658931732 4284705664
-0.2582121491 -0.1543398052 0.5660271049 4284970384
-0.2578701079 -0.1535073072 0.5652773976 4285825693
-0.2583337426 -0.1531541049 0.5662936568 4289114826
-0.2579911053 -0.1523226202 0.5655425787 4291614960
-0.2576480806 -0.1514925659 0.5647906661 4291548389
-0.2577079535 -0.1509001106 0.5649219155 4291811561
-0.2581710219 -0.1505424529 0.5659369826 4293258486
-0.2557999194 -0.1601410955 0.5621078610 4293784830
-0.2558626831 -0.1595556885 0.5622457266 4291613408
-0.2563263774 -0.1592190117 0.5632646680 4289376446
-0.2563888133 -0.1586318314 0.5634019375 4289113533
-0.2560497224 -0.1577968746 0.5626568198 4289245119
-0.2561116815 -0.1572097540 0.5627929568 4288850363
-0.2561734319 -0.1566222161 0.5629286170 4288850363
-0.2562350035 -0.1560342312 0.5630639195 4288060848
-0.2562963367 -0.1554458439 0.5631986856 4287534504
-0.2567592859 -0.1550997496 0.5642160177 4286086804
-0.2568203509 -0.1545095891 0.5643501878 4285560460
-0.2568811774 -0.1539189965 0.5644838214 4287076013
-0.2565397024 -0.1530880481 0.5637334585 4288918217
-0.2566000223 -0.1524975598 0.5638660192 4291548906
-0.2566601634 -0.1519066393 0.5639981627 4291351527
-0.2567200661 -0.1513153166 0.5641298294 4291877093
-0.2567797899 -0.1507235765 0.5642610788 4293258746
-0.2544754148 -0.1597016752 0.5605654716 4293061618
-0.2545379102 -0.1591179073 0.5607030988 4290561233
-0.2550005019 -0.1587829739 0.5617220998 4288982201
-0.2550626695 -0.1581974179 0.5618590713 4288916156
-0.2551246583 -0.1576114446 0.5619955659 4288587191
-0.2547858059 -0.1567785293 0.5612491965 4288455605
-0.2548472881 -0.1561926305 0.5613846183 4287600296
-0.2549085915 -0.1556062996 0.5615196228 4287139745
-0.2549696565 -0.1550195366 0.5616541505 4287468710
-0.2554315329 -0.1546751857 0.5626716018 4287534503
-0.2550912201 -0.1538447738 0.5619219542 4287731882
-0.2555528581 -0.1534977257 0.5629388690 4289771473
-0.2552119493 -0.1526683271 0.5621879101 4290363610
-0.2552720010 -0.1520794779 0.5623202324 4290890204
-0.2553318739 -0.1514902264 0.5624520779 4291811306
-0.2553915381 -0.1509005427 0.5625835061 4293259256
-0.2534903884 -0.1600956172 0.5597651601 4293456376
-0.2535528839 -0.1595129967 0.5599031448 4291614172
-0.2536152005 -0.1589299440 0.5600407124 4289705924
-0.2536772788 -0.1583464593 0.5601778626 4289113787
-0.2537392080 -0.1577625424 0.5603145361 4288718777
-0.2538008988 -0.1571782082 0.5604507923 4287534503
-0.2538624108 -0.1565934569 0.5605866313 4286218643
-0.2539237142 -0.1560082585 0.5607219934 4286416022
-0.2539848089 -0.1554226577 0.5608569384 4287073952
-0.2540457249 -0.1548366249 0.5609914064 4287468710
-0.2541064322 -0.1542501748 0.5611254573 4288587191
-0.2541669309 -0.1536632925 0.5612590909 4289508293
-0.2542272210 -0.1530760080 0.5613922477 4290100688
-0.2542873323 -0.1524883062 0.5615249276 4291021790
-0.2543472350 -0.1519001722 0.5616571903 4292206571
-0.2544068992 -0.1513116360 0.5617890358 4293325052
-0.2521082759 -0.1602342576 0.5580818653 4293456115
-0.2521707118 -0.1596537083 0.5582200289 4292534763
-0.2522329092 -0.1590727270 0.5583577752 4290889938
-0.2522949576 -0.1584913135 0.5584951043 4290298061
-0.2523567677 -0.1579094678 0.5586319566 4289771717
-0.2524183989 -0.1573272049 0.5587683916 4288324019
-0.2524798214 -0.1567445099 0.5589043498 4286547608
-0.2525410652 -0.1561613977 0.5590398908 4286481815
-0.2526021004 -0.1555778533 0.5591750145 4288389812
-0.2526629269 -0.1549938917 0.5593097210 4288784570
-0.2527235746 -0.1544094980 0.5594439507 4288389812
-0.2527840137 -0.1538247019 0.5595777035 4289245121
-0.2528442442 -0.1532394737 0.5597110391 4290100430
-0.2529042661 -0.1526538283 0.5598439574 4290627024
-0.2529641092 -0.1520677656 0.5599763989 4291942884
-0.2530237436 -0.1514813006 0.5601083636 4293456376
-0.2503318787 -0.1601145715 0.5555153489 4293587447
-0.2507915497 -0.1597902477 0.5565354228 4292337380
-0.2508536875 -0.1592113376 0.5566732883 4291547868
-0.2509156466 -0.1586319953 0.5568107963 4291021524
-0.2509773970 -0.1580522209 0.5569477677 4291613410
-0.2514367700 -0.1577215791 0.5579672456 4290363343
-0.2514982224 -0.1571400315 0.5581036210 4288060847
-0.2511614561 -0.1563103497 0.5573562384 4287797675
-0.2512224019 -0.1557288766 0.5574915409 4289442500
-0.2512831688 -0.1551469713 0.5576263666 4290363602
-0.2513437271 -0.1545646638 0.5577607751 4289508293
-0.2514041066 -0.1539819241 0.5578947663 4288850363
-0.2514642775 -0.1533987671 0.5580282807 4289113533
-0.2515242398 -0.1528151780 0.5581613183 4290100428
-0.2515840232 -0.1522311866 0.5582939386 4291548379
-0.2516435683 -0.1516467780 0.5584261417 4292995825
-0.2494154572 -0.1599225998 0.5548492670 4293324277
-0.2494775206 -0.1593457609 0.5549873114 4291547866
-0.2495393753 -0.1587684751 0.5551249385 4291021269
-0.2496010512 -0.1581907868 0.5552620888 4290494925
-0.2496625185 -0.1576126516 0.5553988218 4291481824
-0.2501208186 -0.1572837532 0.5564183593 4290889687
-0.2501820028 -0.1567038596 0.5565544367 4289968331
-0.2498457581 -0.1558757126 0.5558065176 4290889433
-0.2499064505 -0.1552958935 0.5559415221 4291218911
-0.2499669492 -0.1547156423 0.5560760498 4289705672
-0.2500272393 -0.1541349739 0.5562102199 4288587189
-0.2500873506 -0.1535538733 0.5563439131 4288916154
-0.2501472235 -0.1529723704 0.5564771295 4290100682
-0.2502069473 -0.1523904502 0.5566099286 4291877093
-0.2502664328 -0.1518080980 0.5567423105 4293061870
-0.2481044084 -0.1594759822 0.5532997251 4292929519
-0.2485619783 -0.1591542214 0.5543202162 4291153108
-0.2486236542 -0.1585776657 0.5544577241 4290889683
-0.2486851513 -0.1580006927 0.5545948744 4289771202
-0.2487464398 -0.1574232876 0.5547315478 4290626513
-0.2488075495 -0.1568454653 0.5548678041 4291942373
-0.2488684505 -0.1562672108 0.5550036430 4292139754
-0.2489291579 -0.1556885242 0.5551390648 4291744996
-0.2489896715 -0.1551094204 0.5552740097 4290494927
-0.2490499914 -0.1545298994 0.5554085374 4289705411
-0.2487134337 -0.1537048221 0.5546579361 4289705922
-0.2487732619 -0.1531253755 0.5547913909 4290561231
-0.2492297590 -0.1527888179 0.5558094382 4292337897
-0.2471291274 -0.1598573923 0.5524932742 4293455861
-0.2471909225 -0.1592833549 0.5526313782 4292271589
-0.2476474792 -0.1589623988 0.5536521077 4290758350
-0.2473139167 -0.1581339687 0.5529063940 4290692304
-0.2473751307 -0.1575586349 0.5530432463 4289836995
-0.2474361509 -0.1569828838 0.5531796217 4290560718
-0.2474969774 -0.1564067006 0.5533156395 4292205543
-0.2475576103 -0.1558300853 0.5534511805 4292008164
-0.2476180494 -0.1552530676 0.5535863042 4290889683
-0.2476782799 -0.1546756029 0.5537209511 4290626511
-0.2477383316 -0.1540977359 0.5538552403 4291679199
-0.2477981746 -0.1535194367 0.5539890528 4292403175
-0.2478578389 -0.1529407352 0.5541223884 4293061105
-0.2457612306 -0.1599802673 0.5508028269 4293785080
-0.2458229363 -0.1594082862 0.5509411097 4292863978
-0.2458844483 -0.1588358879 0.5510789156 4291811038
-0.2463399023 -0.1585166901 0.5520997047 4290363592
-0.2464011312 -0.1579425037 0.5522369742 4290297801
-0.2460678220 -0.1571161151 0.5514899492 4290429387
-0.2461285591 -0.1565420032 0.5516260862 4290824145
-0.2461891174 -0.1559674740 0.5517618060 4291218903
-0.2462494671 -0.1553925127 0.5518970490 4291218903
