VERSION 0.7
FIELDS x y z rgba
SIZE 4 4 4 4
TYPE F F F U
COUNT 1 1 1 1
WIDTH 920
HEIGHT 1
VIEWPOINT 0.0 0.0 0.0 1.0 0.0 0.0 0.0
POINTS 920
DATA ascii
-0.3462727070 -0.1613099128 0.6708638668 4288980140
-0.3311583698 -0.2131807953 0.6429650784 4291613661
-0.3312469721 -0.2125232518 0.6431370974 4289573308
-0.3317747712 -0.2121461779 0.6441618800 4287270553
-0.3323025703 -0.2117668241 0.6451866627 4285428349
-0.3328303993 -0.2113852054 0.6462114453 4283849317
-0.3329184353 -0.2107229382 0.6463823915 4282401610
-0.3334461451 -0.2103376389 0.6474069357 4281151543
-0.3335338235 -0.2096734494 0.6475772262 4280033062
-0.3340614140 -0.2092844695 0.6486015320 4279375132
-0.3345890045 -0.2088932246 0.6496258974 4278980374
-0.3351165950 -0.2084996849 0.6506502628 4278717202
-0.3352037072 -0.2078307718 0.6508193612 4279176983
-0.3352905810 -0.2071613371 0.6509880424 4279637534
-0.3349364996 -0.2062200457 0.6503005624 4279637534
-0.3350227773 -0.2055504471 0.6504681110 4280032292
-0.3355497718 -0.2051499188 0.6514912844 4280493097
-0.3360767365 -0.2047471106 0.6525143981 4280493097
-0.3366037011 -0.2043420225 0.6535375118 4280098339
-0.3366893530 -0.2036677152 0.6537038684 4279835167
-0.3372161686 -0.2032589465 0.6547266841 4280032546
-0.3377429843 -0.2028478980 0.6557494998 4280295718
-0.3387113512 -0.2026988268 0.6576296687 4280097828
-0.3387964964 -0.2020189315 0.6577950120 4280097828
-0.3379977643 -0.2008135170 0.6562442183 4280032035
-0.3380821943 -0.2001343668 0.6564081311 4279900449
-0.3381664157 -0.1994547099 0.6565716267 4279900706
-0.3382503688 -0.1987745464 0.6567346454 4279900706
-0.3383340538 -0.1980938911 0.6568971276 4279900706
-0.3384175301 -0.1974127144 0.6570591927 4279834913
-0.3472564518 -0.1643643379 0.6742205024 4280295464
-0.3464321494 -0.1632268578 0.6726200581 4280032292
-0.3465025425 -0.1625125408 0.6727567911 4279571741
-0.3456771374 -0.1613797098 0.6711541414 4281084980
-0.3461946547 -0.1608745009 0.6721589565 4285362295
-0.3449202776 -0.1595382392 0.6696846485 4289573047
-0.3290893137 -0.2137295902 0.6403287053 4291020754
-0.3291779459 -0.2130755037 0.6405011415 4287467673
-0.3292663395 -0.2124208808 0.6406731009 4283191128
-0.3293544948 -0.2117657363 0.6408447027 4280625201
-0.3294424415 -0.2111100554 0.6410157681 4279638306
-0.3304077089 -0.2110143304 0.6428940296 4279242776
-0.3309343457 -0.2106352150 0.6439186931 4278650639
-0.3310219347 -0.2099753469 0.6440891623 4279374362
-0.3315484524 -0.2095925510 0.6451135874 4279769120
-0.3320749700 -0.2092074901 0.6461380720 4280163878
-0.3321621418 -0.2085442990 0.6463076472 4280361257
-0.3326885402 -0.2081555724 0.6473318934 4280361257
-0.3332149386 -0.2077645510 0.6483561397 4280229671
-0.3337413073 -0.2073712647 0.6493803859 4280032292
-0.3338278830 -0.2067033499 0.6495488286 4279834913
-0.3339142203 -0.2060349286 0.6497167945 4280098085
-0.3335602582 -0.2050953954 0.6490280628 4280098085
-0.3336459994 -0.2044268250 0.6491948962 4279966499
-0.3346120715 -0.2042953372 0.6510746479 4279834913
-0.3351379335 -0.2038918883 0.6520978808 4279900706
-0.3352233171 -0.2032191157 0.6522639990 4279900706
-0.3357490599 -0.2028119862 0.6532869935 4279834913
-0.3362748027 -0.2024025768 0.6543099284 4279900706
-0.3372413516 -0.2022552639 0.6561905742 4279966242
-0.3382080793 -0.2021038979 0.6580716372 4279900449
-0.3374108076 -0.2008980066 0.6565203071 4279769120
-0.3366128206 -0.1996951699 0.6549676657 4279769120
-0.3366967440 -0.1990170479 0.6551309228 4279769120
-0.3363389969 -0.1980784833 0.6544348598 4279769120
-0.3364223242 -0.1974002421 0.6545969844 4279769120
-0.3476216197 -0.1641412526 0.6763880849 4280229671
-0.3463515937 -0.1627928019 0.6739169359 4280558636
-0.3446337581 -0.1612403244 0.6705744863 4279769120
-0.3442561924 -0.1603194326 0.6698397994 4279769120
-0.3438781500 -0.1593999565 0.6691042185 4282269254
-0.3430523872 -0.1582755446 0.6674975157 4286349703
-0.3422259986 -0.1571544260 0.6658895016 4290823627
-0.3262389898 -0.2130441219 0.6361574531 4290560201
-0.3267645836 -0.2126794010 0.6371823549 4284507245
-0.3264150918 -0.2117447257 0.6365008950 4280822578
-0.3265028298 -0.2110942453 0.6366719007 4279835683
-0.3261525333 -0.2101611346 0.6359888315 4280492843
-0.3266775906 -0.2097917050 0.6370127201 4280624429
-0.3272026479 -0.2094199955 0.6380366087 4279966242
-0.3272896111 -0.2087665498 0.6382061243 4279834656
-0.3273763061 -0.2081125826 0.6383752227 4280163878
-0.3283395469 -0.2080135345 0.6402534842 4280229671
-0.3288645148 -0.2076336145 0.6412771940 4280163878
-0.3289509118 -0.2069754601 0.6414455771 4279900706
-0.3294757605 -0.2065918744 0.6424691081 4279834913
-0.3300006390 -0.2062060237 0.6434925795 4279900706
-0.3305254877 -0.2058178782 0.6445159912 4279966499
-0.3310503364 -0.2054274678 0.6455394626 4279966499
-0.3306968510 -0.2044916451 0.6448501945 4279900706
-0.3307822049 -0.2038277537 0.6450165510 4279900706
-0.3313066959 -0.2034331560 0.6460393667 4279834913
-0.3318311870 -0.2030362785 0.6470620632 4279769120
-0.3327952921 -0.2029051632 0.6489420533 4279834913
-0.3333198726 -0.2025028318 0.6499649882 4279769120
-0.3338444233 -0.2020982355 0.6509878635 4279637534
-0.3448599577 -0.1624427438 0.6724678278 4279900706
-0.3432142437 -0.1601803601 0.6692587137 4280427050
-0.3428368270 -0.1592614353 0.6685227752 4279966499
-0.3420806229 -0.1574278772 0.6670482159 4282730575
-0.3417018354 -0.1565132439 0.6663095951 4287336085
-0.3413226008 -0.1556000412 0.6655700803 4291283665
-0.3239209950 -0.2119895220 0.6330084205 4286941588
-0.3240086138 -0.2113433480 0.6331796050 4281809734
-0.3232224286 -0.2101287395 0.6316432357 4281283131
-0.3233093619 -0.2094832659 0.6318131089 4281480510
-0.3229590654 -0.2085550576 0.6311285496 4280558636
-0.3230454326 -0.2079094201 0.6312973499 4280229671
-0.3235688210 -0.2075437307 0.6323201656 4280032292
-0.3232175112 -0.2066165954 0.6316336393 4279900706
-0.3237406909 -0.2062481195 0.6326560378 4280163878
-0.3247015178 -0.2061552107 0.6345336437 4280163878
-0.3256625533 -0.2060582787 0.6364117265 4280098085
-0.3257481456 -0.2054051608 0.6365790367 4279900706
-0.3258335292 -0.2047515363 0.6367458701 4279769120
-0.3263567686 -0.2043717057 0.6377683282 4279834913
-0.3273181617 -0.2042630613 0.6396471262 4279834913
-0.3269648850 -0.2033326924 0.6389567852 4279703327
-0.3279263973 -0.2032186091 0.6408357620 4279637534
-0.3275725842 -0.2022880912 0.6401442885 4279769120
-0.3280955553 -0.2018986791 0.6411663294 4279900706
-0.3290572464 -0.2017760128 0.6430457234 4279769120
-0.3300191760 -0.2016492933 0.6449254751 4279571741
-0.3314203024 -0.2017858028 0.6476635337 4279571741
-0.3405955136 -0.1570846289 0.6655938029 4279440155
-0.3406631649 -0.1563761532 0.6657260060 4280033062
-0.3398385644 -0.1552597582 0.6641145945 4283388505
-0.3390133381 -0.1541466564 0.6625019312 4288059808
-0.3395259380 -0.1536425352 0.6635036469 4291875802
-0.3228281736 -0.2124363482 0.6322450042 4290890196
-0.3220442235 -0.2112197131 0.6307097077 4285429119
-0.3216955066 -0.2102909833 0.6300267577 4281349953
-0.3209103048 -0.2090794146 0.6284889579 4281217597
-0.3192521334 -0.2073043883 0.6252415180 4281414976
-0.3193378150 -0.2066651583 0.6254093647 4280493615
-0.3189869225 -0.2057439685 0.6247221231 4280230443
-0.3190720677 -0.2051045895 0.6248888969 4279967271
-0.3187204003 -0.2041849792 0.6242001057 4279704099
-0.3188049793 -0.2035454661 0.6243658066 4279769120
-0.3197630048 -0.2034613341 0.6262420416 4279834913
-0.3202843368 -0.2030961066 0.6272630692 4279834913
-0.3203685880 -0.2024524212 0.6274280548 4279769120
-0.3208898008 -0.2020835429 0.6284488440 4279769120
-0.3209737539 -0.2014379650 0.6286132336 4279769120
-0.3214948475 -0.2010654509 0.6296338439 4279769120
-0.3220159709 -0.2006906569 0.6306543946 4279637534
-0.3216618299 -0.1997700036 0.6299608350 4279769120
-0.3217449784 -0.1991215199 0.6301236153 4279571741
-0.3391801417 -0.1560340673 0.6642696857 4279966499
-0.3379782438 -0.1540102959 0.6619158387 4280427820
-0.3375991583 -0.1531029493 0.6611734033 4284441193
-0.3376651108 -0.1523980945 0.6613025665 4288520359
-0.3377307951 -0.1516928375 0.6614311934 4291875802
-0.3205192983 -0.2113767862 0.6290916204 4290627024
-0.3193013072 -0.2098772377 0.6267010570 4287336861
-0.3185175657 -0.2086674720 0.6251627207 4284310383
-0.3177331090 -0.2074606717 0.6236230731 4282138699
-0.3165125847 -0.2059735209 0.6212275624 4280888632
-0.3157266676 -0.2047735602 0.6196849942 4280757046
-0.3158112466 -0.2041397095 0.6198509932 4280625460
-0.3145884573 -0.2026632726 0.6174509525 4280033323
-0.3155439198 -0.2025906891 0.6193262935 4279243807
-0.3151917756 -0.2016772479 0.6186351180 4280163878
-0.3152752519 -0.2010431290 0.6187989712 4279769120
-0.3153584898 -0.2004085034 0.6189624071 4279637534
-0.3158778250 -0.2000496984 0.6199817061 4279769120
-0.3155243695 -0.1991377622 0.6192879081 4279768863
-0.3164800107 -0.1990507394 0.6211636066 4279439898
-0.3165626228 -0.1984123588 0.6213257313 4279439898
-0.3166449964 -0.1977734864 0.6214874387 4279834656
-0.3171640038 -0.1974060088 0.6225060821 4279637277
-0.3150611818 -0.1954101175 0.6183788180 4279703070
-0.3369439542 -0.1538736820 0.6613287330 4279440925
-0.3361209035 -0.1527648419 0.6597133279 4279309339
-0.3361866176 -0.1520615667 0.6598422527 4281217336
-0.3362520635 -0.1513578892 0.6599707007 4285296502
-0.3363172114 -0.1506538093 0.6600986123 4289902525
-0.3186500072 -0.2106031179 0.6267890334 4291021782
-0.3174338937 -0.2091056257 0.6243969798 4289113272
-0.3162168562 -0.2076128274 0.6220030785 4287994791
-0.3154334128 -0.2064090669 0.6204620004 4285363071
-0.3146492541 -0.2052082866 0.6189195514 4282533972
-0.3134297132 -0.2037279159 0.6165207028 4280822839
-0.3130789101 -0.2028156668 0.6158306599 4280099116
-0.3127276599 -0.2019046694 0.6151397228 4280559667
-0.3123759627 -0.2009949088 0.6144479513 4280164909
-0.3120238185 -0.2000863999 0.6137552857 4279966501
-0.3121065497 -0.1994573325 0.6139180064 4280032294
-0.3121890426 -0.1988277584 0.6140802503 4279703070
-0.3122712970 -0.1981976926 0.6142420769 4279308312
-0.3123533428 -0.1975671202 0.6144034863 4279374105
-0.3133066893 -0.1974853873 0.6162787080 4279571484
-0.3138244152 -0.1971258521 0.6172970533 4279505691
-0.3143421113 -0.1967640668 0.6183153987 4279505691
-0.3148598373 -0.1964000165 0.6193337440 4279703070
-0.3097068667 -0.1925088912 0.6091977954 4279768863
-0.3097868264 -0.1918815374 0.6093550920 4279702555
-0.3347104788 -0.1517246366 0.6583802104 4280033062
-0.3352196813 -0.1512228400 0.6593818665 4279506718
-0.3352846801 -0.1505194157 0.6595097184 4282006852
-0.3353494406 -0.1498155594 0.6596370935 4286480776
-0.3354138732 -0.1491113156 0.6597638726 4290428869
-0.3180846870 -0.2106897980 0.6270470023 4291481820
-0.3173042834 -0.2094779015 0.6255086064 4290099653
-0.3160896301 -0.2079836726 0.6231140494 4289310137
-0.3148740232 -0.2064941525 0.6207177639 4289046964
-0.3140913248 -0.2052929252 0.6191748381 4287467932
-0.3133079708 -0.2040946782 0.6176305413 4284704626
-0.3120898604 -0.2026176006 0.6152292490 4281612355
-0.3113050163 -0.2014262229 0.6136820912 4281282877
-0.3109537661 -0.2005178779 0.6129896641 4281414463
-0.3106020987 -0.1996107996 0.6122964025 4280821810
-0.3102499545 -0.1987049580 0.6116022468 4280427052
-0.3098973930 -0.1978003830 0.6109071970 4280032294
-0.3095443845 -0.1968970746 0.6102113128 4279374364
-0.3096257746 -0.1962706894 0.6103717685 4279242776
-0.3101419508 -0.1959185898 0.6113892794 4279045397
-0.3110932112 -0.1958381385 0.6132645607 4279176983
-0.3107391000 -0.1949346066 0.6125664711 4279176983
-0.3116905093 -0.1948487610 0.6144419909 4279703327
-0.3122067153 -0.1944876313 0.6154596210 4279703327
-0.3092385232 -0.1919613034 0.6096084118 4279768861
-0.3119321465 -0.1929501593 0.6149183512 4279703068
-0.3340023458 -0.1480773538 0.6584258080 4287401878
-0.3336223662 -0.1471781582 0.6576767564 4291415251
-0.3157883584 -0.2096277326 0.6238861680 4291152855
-0.3150089383 -0.2084188759 0.6223463416 4290033860
-0.3124975562 -0.2060713172 0.6173847318 4289836481
-0.3134480715 -0.2060100734 0.6192625761 4289705664
-0.3122335672 -0.2045264691 0.6168631315 4289047734
-0.3114512861 -0.2033303976 0.6153177023 4288125862
-0.3102350831 -0.2018553913 0.6129148602 4285362556
-0.3098847568 -0.2009472251 0.6122227311 4283059288
-0.3095339835 -0.2000403106 0.6115297079 4281282877
-0.3091827631 -0.1991346478 0.6108358502 4280362029
-0.3088310957 -0.1982302368 0.6101410985 4280690994
-0.3084789813 -0.1973270923 0.6094454527 4280559408
-0.3081264198 -0.1964252144 0.6087489128 4279769892
-0.3073393404 -0.1952488124 0.6071938872 4279571743
-0.3074199855 -0.1946252435 0.6073532701 4279111192
-0.3075004220 -0.1940011829 0.6075121760 4279045399
-0.3080150783 -0.1936497539 0.6085289717 4279045399
-0.3085297644 -0.1932960749 0.6095457673 4279637534
-0.3051324785 -0.1904978752 0.6028339267 4279703327
-0.3052113652 -0.1898771524 0.6029897928 4279703070
-0.3052900434 -0.1892559677 0.6031452417 4279703070
-0.3325289786 -0.1477476358 0.6569597721 4280361511
-0.3325924277 -0.1470457613 0.6570851207 4284177251
-0.3322126567 -0.1461486220 0.6563347578 4288585382
-0.3322754502 -0.1454468668 0.6564588547 4291678423
-0.3151386082 -0.2103497535 0.6239716411 4291613406
-0.3143610954 -0.2091392130 0.6224322319 4290429132
-0.3135829270 -0.2079316527 0.6208914518 4290100167
-0.3119399548 -0.2061559856 0.6176384091 4290034374
-0.3124566674 -0.2058100998 0.6186614633 4290297801
-0.3116765618 -0.2046105862 0.6171168685 4289837250
-0.3113281727 -0.2036969811 0.6164270639 4289508285
-0.3105468154 -0.2025025785 0.6148799658 4288587183
-0.3097647727 -0.2013111711 0.6133315563 4287073174
-0.3094148338 -0.2004030496 0.6126386523 4284441454
-0.3086315393 -0.1992167681 0.6110877395 4281546049
-0.3078475893 -0.1980335116 0.6095355749 4280953912
-0.3074960709 -0.1971309185 0.6088395119 4281085498
-0.3067108989 -0.1959528178 0.6072849035 4280953912
-0.3059250414 -0.1947777420 0.6057289243 4280164396
-0.3060053885 -0.1941557080 0.6058880091 4279374880
-0.3056519926 -0.1932590604 0.6051882505 4279505950
-0.3061654568 -0.1929101795 0.6062049270 4279308571
-0.3062451482 -0.1922867000 0.6063627005 4279703327
-0.3063246310 -0.1916627139 0.6065201163 4279769120
-0.3064039052 -0.1910382509 0.6066770554 4279768863
-0.3064829707 -0.1904132962 0.6068335772 4279637277
-0.3039564490 -0.1881749481 0.6018310785 4279637275
-0.3036000729 -0.1872864068 0.6011254191 4279571482
-0.3041121066 -0.1869332790 0.6021393538 4279505689
-0.3037550747 -0.1860455722 0.6014323831 4279571482
-0.3306159973 -0.1472207159 0.6546167731 4280624683
-0.3307420015 -0.1458216161 0.6548662186 4280756269
-0.3304245472 -0.1442278475 0.6542376876 4289375152
-0.3304864764 -0.1435278356 0.6543603539 4292139485
-0.3152630329 -0.2122867405 0.6255937815 4291679712
-0.3149189353 -0.2113607228 0.6249109507 4290692817
-0.3137125373 -0.2098593712 0.6225170493 4289968581
-0.3133673072 -0.2089375407 0.6218320131 4288981686
-0.3125904799 -0.2077303976 0.6202904582 4288586928
-0.3122442365 -0.2068118751 0.6196033955 4288850100
-0.3110347688 -0.2053250372 0.6172033548 4289771457
-0.3106873930 -0.2044107318 0.6165140867 4289968836
-0.3094763160 -0.2029316127 0.6141108871 4289771457
-0.3086960614 -0.2017393857 0.6125625968 4289442492
-0.3087788820 -0.2011127174 0.6127269268 4289310136
-0.3079975247 -0.1999247372 0.6111764312 4287994276
-0.3072154820 -0.1987397820 0.6096245646 4285691521
-0.3068649769 -0.1978364736 0.6089290977 4283322973
-0.3052170873 -0.1961011291 0.6056590676 4281414976
-0.3057302237 -0.1957567632 0.6066772938 4280954425
-0.3049457073 -0.1945821196 0.6051205993 4281217084
-0.3045932055 -0.1936856359 0.6044210792 4280427568
-0.3046730459 -0.1930646747 0.6045795083 4279769892
-0.3043197691 -0.1921698600 0.6038784981 4279572513
-0.3039660752 -0.1912763268 0.6031765938 4279769120
-0.3040450215 -0.1906556636 0.6033332944 4279769120
-0.3032573164 -0.1894931197 0.6017701626 4279703327
-0.3029022813 -0.1886034459 0.6010656953 4279637534
-0.3029802740 -0.1879839897 0.6012204289 4279637275
-0.3021908998 -0.1868279725 0.5996540189 4279571482
-0.3022682369 -0.1862093508 0.5998074412 4279505689
-0.3023453355 -0.1855902523 0.5999604464 4279571482
-0.3024221957 -0.1849706769 0.6001130342 4279505948
-0.3289566040 -0.1439035535 0.6527666450 4281479992
-0.3290183246 -0.1432051510 0.6528891325 4285099121
-0.3286380470 -0.1423150599 0.6521345377 4289902010
-0.3133205175 -0.2121370584 0.6231124401 4291877091
-0.3134070039 -0.2115031034 0.6232844591 4290692817
-0.3130632341 -0.2105793655 0.6226007938 4288916406
-0.3122888803 -0.2093684524 0.6210607886 4287206043
-0.3119440973 -0.2084480226 0.6203751564 4285758597
-0.3111684918 -0.2072421759 0.6188326478 4285823877
-0.3095312119 -0.2054677755 0.6155765057 4286481807
-0.3100458682 -0.2051243186 0.6166000366 4287666081
-0.3092683256 -0.2039265335 0.6150537133 4289047734
-0.3085731566 -0.2021044940 0.6136712432 4289376699
-0.3082249165 -0.2011953443 0.6129786372 4289113527
-0.3074450195 -0.2000069171 0.6114276648 4289310906
-0.3066644669 -0.1988215148 0.6098753214 4288915378
-0.3058832288 -0.1976391226 0.6083216667 4287204760
-0.3051013350 -0.1964597553 0.6067666411 4284309868
-0.3043187559 -0.1952833980 0.6052103043 4281743941
-0.3039672673 -0.1943861991 0.6045113206 4281020216
-0.3040472269 -0.1937655061 0.6046703458 4280822837
-0.3032629788 -0.1925956160 0.6031106710 4280625201
-0.3029101789 -0.1917022467 0.6024090648 4280230443
-0.3025569618 -0.1908101588 0.6017065644 4280033062
-0.3026356101 -0.1901910454 0.6018629670 4279769890
-0.3014167249 -0.1887590140 0.5994389057 4279703581
-0.3010620475 -0.1878716648 0.5987335443 4279571995
-0.3007069230 -0.1869856268 0.5980273485 4279506202
-0.3003513813 -0.1861008704 0.5973202586 4279506202
-0.3004283011 -0.1854846925 0.5974732041 4279571482
-0.3005050123 -0.1848680377 0.5976257324 4279439896
-0.3005814850 -0.1842509210 0.5977778435 4279505948
-0.3284342289 -0.1432666779 0.6531696916 4279440925
-0.3284956217 -0.1425676048 0.6532917619 4281612094
-0.3281157017 -0.1416777074 0.6525362134 4285691260
-0.3272942603 -0.1405998170 0.6509025693 4290362563
-0.3114688694 -0.2113502324 0.6208012700 4291877091
-0.3115549088 -0.2107186615 0.6209727526 4290298059
-0.3112114966 -0.2097972035 0.6202882528 4288390062
-0.3108676076 -0.2088769674 0.6196028590 4287140250
-0.3109527826 -0.2082455903 0.6197726727 4286219148
-0.3106081486 -0.2073269188 0.6190857291 4286744979
-0.3102630377 -0.2064094990 0.6183978915 4286613393
-0.3094876707 -0.2052082866 0.6168524623 4286350221
-0.3100014925 -0.2048624754 0.6178765893 4286942358
-0.3087950051 -0.2033813596 0.6154718995 4288324011
-0.3080178499 -0.2021873593 0.6139228344 4289376699
-0.3076702952 -0.2012778819 0.6132301688 4289837250
-0.3068918586 -0.2000890225 0.6116786599 4289771457
-0.3061127663 -0.1989031732 0.6101257801 4289771457
-0.3053330183 -0.1977203339 0.6085716486 4289310906
-0.3045525849 -0.1965405196 0.6070160866 4288191655
-0.3037714660 -0.1953637302 0.6054592729 4285428349
-0.3034206927 -0.1944662035 0.6047601104 4282665041
-0.3030694723 -0.1935699582 0.6040600538 4280954423
-0.3022865951 -0.1924005151 0.6024996638 4280691251
-0.3019343615 -0.1915076971 0.6017976999 4280757044
-0.3011502624 -0.1903434545 0.6002348661 4280690992
-0.3012286425 -0.1897259057 0.6003910303 4280164648
-0.3013067842 -0.1891078800 0.6005467772 4279704095
-0.3005211353 -0.1879492700 0.5989809036 4279375130
-0.3010305166 -0.1876012087 0.5999961495 4279440409
-0.3006758988 -0.1867143661 0.5992893577 4279506202
-0.3003208637 -0.1858288199 0.5985816717 4279571995
-0.3003975749 -0.1852110624 0.5987346172 4279440409
-0.3004741073 -0.1845928282 0.5988871455 4279440155
-0.3005504012 -0.1839741170 0.5990391970 4279440155
-0.2993288040 -0.1825634986 0.5966044068 4279309339
-0.3269692659 -0.1429433823 0.6516957283 4279835683
-0.3270304203 -0.1422459036 0.6518176198 4279111960
-0.3262108564 -0.1411670148 0.6501840949 4279243546
-0.3258309960 -0.1402810663 0.6494269967 4281941059
-0.3254506886 -0.1393966228 0.6486689448 4286743948
-0.3250699341 -0.1385136694 0.6479101181 4291283665
-0.3104777038 -0.2111450583 0.6201986670 4292008677
-0.3105635345 -0.2105141580 0.6203700900 4291219161
-0.3106491566 -0.2098827362 0.6205411553 4289771715
-0.3103059828 -0.2089621723 0.6198556423 4288521903
-0.3099623621 -0.2080428302 0.6191692352 4287140250
-0.3096182644 -0.2071247101 0.6184819341 4286745492
-0.3097026944 -0.2064938396 0.6186505556 4286679699
-0.3093578517 -0.2055773139 0.6179617047 4286613393
-0.3090125620 -0.2046620250 0.6172719598 4286416014
-0.3082375228 -0.2034645826 0.6157237887 4286481037
-0.3074618280 -0.2022701502 0.6141742468 4287665311
-0.3071149588 -0.2013603449 0.6134814024 4289047732
-0.3063380122 -0.2001710385 0.6119293571 4289574076
-0.3059901595 -0.1992646158 0.6112345457 4290625996
-0.3047820926 -0.1978014708 0.6088213325 4290231238
-0.3040031493 -0.1966212243 0.6072653532 4289770687
-0.3032235205 -0.1954439878 0.6057079434 4288849585
-0.3024432063 -0.1942697912 0.6041492820 4287007379
-0.3029532433 -0.1939250231 0.6051681042 4283849315
-0.3017415106 -0.1924796700 0.6027475595 4281743939
-0.3013899922 -0.1915865242 0.6020454168 4281349181
-0.3006073833 -0.1904218495 0.6004820466 4281085752
-0.3002548814 -0.1895321608 0.5997779369 4280756787
-0.3003328443 -0.1889148057 0.5999336243 4280296234
-0.2999795675 -0.1880268157 0.5992279649 4279835683
-0.2996258736 -0.1871401072 0.5985214710 4279506718
-0.2992717326 -0.1862547100 0.5978140235 4279440925
-0.2989171445 -0.1853706092 0.5971057415 4279440925
-0.2985621393 -0.1844878197 0.5963965654 4279440925
-0.2986382544 -0.1838720292 0.5965486169 4279505948
-0.2987141609 -0.1832557917 0.5967002511 4279505948
-0.2983580530 -0.1823751479 0.5959889293 4279505948
-0.2988652885 -0.1820218861 0.5970021486 4279440155
-0.3256282806 -0.1412275583 0.6504629254 4279835683
-0.3248096406 -0.1401516050 0.6488276124 4279111960
-0.3244299591 -0.1392677277 0.6480692029 4279440925
-0.3244895637 -0.1385731250 0.6481882334 4283256919
-0.3237282336 -0.1368110180 0.6466674209 4291678936
-0.3091454208 -0.2100188583 0.6189104915 4291811298
-0.3083753288 -0.2088097483 0.6173687577 4290824403
-0.3088879883 -0.2084698230 0.6183951497 4290166728
-0.3085448444 -0.2075518966 0.6177080870 4289114040
-0.3082012236 -0.2066351920 0.6170201898 4288390317
-0.3082853258 -0.2060058564 0.6171885729 4287337629
-0.3083692193 -0.2053759843 0.6173565388 4286744209
-0.3084529340 -0.2047456205 0.6175240874 4286810002
-0.3081078827 -0.2038312405 0.6168333292 4286415242
-0.3069051206 -0.2023528665 0.6144254208 4285954691
-0.3065589666 -0.2014427334 0.6137323976 4286875793
-0.3057834804 -0.2002529800 0.6121798754 4288454825
-0.3054363132 -0.1993462294 0.6114848852 4290033859
-0.3046596348 -0.1981616318 0.6099299192 4290428617
-0.3038822412 -0.1969800591 0.6083735824 4290494410
-0.3031042218 -0.1958015114 0.6068159342 4289639101
-0.3018960655 -0.1943495274 0.6043972373 4289244343
-0.3024052382 -0.1940046549 0.6054165959 4288323241
-0.3011957705 -0.1925587505 0.6029952168 4285691519
-0.3008449376 -0.1916652918 0.6022928953 4282401869
-0.3000638187 -0.1905001700 0.6007290483 4280888630
-0.2997120023 -0.1896101534 0.6000247598 4281020216
-0.2984995544 -0.1881791353 0.5975973606 4280954166
-0.2981466353 -0.1872934699 0.5968908668 4280559408
-0.2974395454 -0.1855260432 0.5954752564 4279506718
-0.2975158989 -0.1849118918 0.5956281424 4279309339
-0.2971613705 -0.1840305477 0.5949183702 4279375132
-0.2968064249 -0.1831505150 0.5942077637 4279505948
-0.2968819141 -0.1825367212 0.5943588614 4279505948
-0.2969571948 -0.1819224656 0.5945096016 4279505948
-0.3227095306 -0.1366837472 0.6460658908 4284112739
-0.3223288655 -0.1358055323 0.6453037858 4288849835
-0.3219477534 -0.1349288374 0.6445407867 4292205278
-0.3073877990 -0.2086049020 0.6167631149 4291877346
-0.3074724376 -0.2079769075 0.6169329882 4291285209
-0.3071297407 -0.2070603967 0.6162453294 4290890451
-0.3072138727 -0.2064322382 0.6164141297 4289969349
-0.3072977662 -0.2058035433 0.6165825129 4288587696
-0.3073814809 -0.2051743567 0.6167504191 4287403420
-0.3070373535 -0.2042601556 0.6160599589 4286548111
-0.3066927493 -0.2033472061 0.6153685451 4286021767
-0.3063477278 -0.2024354935 0.6146762967 4285692802
-0.3060022593 -0.2015250325 0.6139830947 4285429630
-0.3052282631 -0.2003348470 0.6124300957 4285495423
-0.3048818111 -0.1994277686 0.6117349267 4287468700
-0.3041065931 -0.1982427239 0.6101794839 4289113525
-0.3033306897 -0.1970607042 0.6086226702 4289837248
-0.3025541306 -0.1958817095 0.6070645452 4289837248
-0.3017768860 -0.1947057545 0.6055050492 4289310904
-0.3014277816 -0.1938085258 0.6048045754 4288916146
-0.3010782301 -0.1929125637 0.6041031480 4288652204
-0.3002992272 -0.1917439699 0.6025401354 4286941586
-0.2995195687 -0.1905784160 0.6009758115 4283586143
-0.2987392545 -0.1894159317 0.5994101167 4280822837
-0.2983875871 -0.1885277629 0.5987045169 4281019959
-0.2980355322 -0.1876408905 0.5979980826 4280625201
-0.2976830006 -0.1867553145 0.5972908139 4280559408
-0.2973300517 -0.1858710498 0.5965825915 4280230443
-0.2974064350 -0.1852557808 0.5967358947 4279375134
-0.2970527411 -0.1843732297 0.5960261822 4278914583
-0.2966985703 -0.1834919751 0.5953155756 4279440925
-0.2963440120 -0.1826120466 0.5946041346 4279243546
-0.2968494296 -0.1822617203 0.5956182480 4279243546
-0.2973548472 -0.1819091439 0.5966323614 4279638304
-0.2961385250 -0.1805048585 0.5941918492 4279177753
-0.2979351580 -0.1809357554 0.5977966785 4279046167
-0.2967178524 -0.1795350164 0.5953542590 4279111444
-0.2959304750 -0.1783988625 0.5937743783 4279308823
-0.2951424122 -0.1772658229 0.5921931863 4279243030
-0.2939227521 -0.1758780330 0.5897459984 4279374616
-0.3217499852 -0.1358637363 0.6455803514 4280954675
-0.3209311664 -0.1348025352 0.6439374685 4285428599
-0.3061434627 -0.2068564445 0.6156383753 4291745760
-0.3058008850 -0.2059417218 0.6149494648 4291285209
-0.3058844805 -0.2053145766 0.6151175499 4290495693
-0.3059678674 -0.2046869248 0.6152852178 4289377212
-0.3060510457 -0.2040587515 0.6154525280 4287995559
-0.3061339855 -0.2034300715 0.6156193614 4286810772
-0.3057896793 -0.2025180459 0.6149269342 4286152842
-0.3054448962 -0.2016072422 0.6142336130 4285758084
-0.3046723902 -0.2004166245 0.6126801372 4285429119
-0.3043266237 -0.1995092034 0.6119847894 4285560705
-0.3035528660 -0.1983237267 0.6104288101 4287008151
-0.3027784526 -0.1971412748 0.6088715196 4288521390
-0.3020033836 -0.1959618479 0.6073128581 4289639871
-0.3016555011 -0.1950621307 0.6066133380 4289771455
-0.3013072014 -0.1941636950 0.6059129238 4289705662
-0.3005303442 -0.1929915994 0.6043506861 4289902271
-0.3001810610 -0.1920966059 0.6036482453 4289112755
-0.2994029820 -0.1909297258 0.6020836234 4287994274
-0.2986242473 -0.1897659153 0.6005176306 4284638831
-0.2982734144 -0.1888765395 0.5998121500 4281678146
-0.2974934876 -0.1877179742 0.5982437730 4280428079
-0.2975704670 -0.1871016771 0.5983985066 4281283131
-0.2967894375 -0.1859474778 0.5968279243 4281085752
-0.2968657613 -0.1853320003 0.5969814062 4280362029
-0.2965127528 -0.1844491214 0.5962715149 4279638306
-0.2961592972 -0.1835675538 0.5955607891 4279572511
-0.2958054245 -0.1826872826 0.5948491693 4279704097
-0.2958805561 -0.1820725948 0.5950002074 4279375132
-0.2963850200 -0.1817208081 0.5960146785 4279177753
-0.2964598238 -0.1811042875 0.5961650610 4278914581
-0.2956748903 -0.1799641550 0.5945866108 4279309339
-0.2953191698 -0.1790878177 0.5938712955 4279243546
-0.2953930199 -0.1784725934 0.5940197706 4279046167
-0.2950365543 -0.1775980145 0.5933029652 4279374616
-0.2925286889 -0.1754348129 0.5882598162 4279440409
-0.3182789683 -0.1325648427 0.6400422454 4286086016
-0.3187734783 -0.1320585608 0.6410366893 4290888905
-0.3044736087 -0.2048250586 0.6136509776 4291482333
-0.3049826324 -0.2044845372 0.6146768928 4290758610
-0.3046395481 -0.2035723180 0.6139854193 4289903301
-0.3051483631 -0.2032290250 0.6150109172 4288521135
-0.3048046231 -0.2023175359 0.6143181324 4287271068
-0.3044604361 -0.2014072984 0.6136244535 4286679186
-0.3036892712 -0.2002171129 0.6120702028 4286284428
-0.3033441007 -0.1993102580 0.6113744974 4286218635
-0.3029984832 -0.1984046549 0.6106778979 4286087049
-0.3022255301 -0.1972217560 0.6091201305 4286679186
-0.3014519513 -0.1960418969 0.6075609326 4287995046
-0.3015318811 -0.1954186559 0.6077220440 4289113527
-0.3011843860 -0.1945189983 0.6070216894 4289771457
-0.3004091084 -0.1933455914 0.6054592133 4289968836
-0.2996332049 -0.1921752393 0.6038953662 4289310906
-0.2992841601 -0.1912811846 0.6031919122 4289441720
-0.2985070348 -0.1901160479 0.6016256809 4288915376
-0.2981570363 -0.1892254651 0.6009202003 4286810000
-0.2978065610 -0.1883361787 0.6002138853 4283125592
-0.2974556983 -0.1874481738 0.5995067358 4280822837
-0.2966762483 -0.1862926483 0.5979357958 4280164907
-0.2958961725 -0.1851402074 0.5963636041 4280690994
-0.2951154411 -0.1839908510 0.5947901011 4280559408
-0.2939056158 -0.1825784445 0.5923517346 4280493613
-0.2936266363 -0.1810901016 0.5917894840 4279638304
-0.2932722867 -0.1802148223 0.5910753012 4279769890
-0.2933463752 -0.1796034575 0.5912246108 4279243546
-0.2929912508 -0.1787299365 0.5905088782 4279111960
-0.2922066152 -0.1775969565 0.5889275074 4279243546
-0.2922797501 -0.1769868881 0.5890748501 4279243546
-0.2940698266 -0.1774123460 0.5926827192 4279374616
-0.2932841480 -0.1762815863 0.5910991430 4279440409
-0.2920682728 -0.1748967469 0.5886486769 4279440409
-0.2917107940 -0.1740294546 0.5879281759 4279374616
-0.2909231782 -0.1729080975 0.5863407850 4279308823
-0.3168299496 -0.1322567165 0.6385545731 4279703581
-0.3168863952 -0.1315706521 0.6386682987 4282335301
-0.3165611625 -0.1300178766 0.6380128264 4291810007
-0.3035731018 -0.2039961368 0.6132087111 4291942884
-0.3040810525 -0.2036550045 0.6142347455 4291087575
-0.3037382066 -0.2027437091 0.6135422587 4290100167
-0.3038204610 -0.2021167278 0.6137083769 4289047479
-0.3034768403 -0.2012070417 0.6130142808 4288060584
-0.3035585582 -0.2005799264 0.6131793261 4286942103
-0.3032141924 -0.1996718645 0.6124837399 4286416272
-0.3024434149 -0.1984855086 0.6109267473 4285758342
-0.3025241196 -0.1978595108 0.6110898256 4285626756
-0.3017522395 -0.1966774464 0.6095306277 4286087307
-0.3014059961 -0.1957753152 0.6088312268 4287073944
-0.3006328940 -0.1945984364 0.6072695851 4288389804
-0.3002856672 -0.1936997324 0.6065681577 4289376699
-0.2995113432 -0.1925280541 0.6050040722 4289771457
-0.2991631031 -0.1916327924 0.6043006778 4289639871
-0.2983875871 -0.1904663295 0.6027341485 4288981941
-0.2976113856 -0.1893029362 0.6011662483 4289441720
-0.2972616553 -0.1884133220 0.6004597545 4287994274
-0.2969114780 -0.1875250041 0.5997524261 4284770417
-0.2949275076 -0.1849481314 0.5957448483 4280625458
-0.2950032353 -0.1843335330 0.5958978534 4281086009
-0.2946510911 -0.1834522039 0.5951865315 4281217338
-0.2938707769 -0.1823068261 0.5936102867 4280690994
-0.2943733931 -0.1819579601 0.5946255922 4280098855
-0.2940200865 -0.1810796857 0.5939118862 4279704097
-0.2936663330 -0.1802027375 0.5931973457 4279440925
-0.2933121324 -0.1793271005 0.5924818516 4279309339
-0.2921009362 -0.1779310107 0.5900352597 4279243546
-0.2926024795 -0.1775798351 0.5910483599 4279111960
-0.2926755250 -0.1769673079 0.5911959410 4279243546
-0.2923197150 -0.1760960966 0.5904772282 4279309339
-0.2919634879 -0.1752262414 0.5897576213 4279440409
-0.2907491624 -0.1738449186 0.5873047709 4279308823
-0.3146227896 -0.1302177757 0.6355288029 4280098339
-0.3151147664 -0.1297141761 0.6365225315 4283322196
-0.3151700795 -0.1290296018 0.6366342902 4288519843
-0.3152251244 -0.1283446550 0.6367454529 4291678421
-0.3023305237 -0.2022578418 0.6120719314 4291547613
-0.3024124503 -0.2016324103 0.6122377515 4290823890
-0.3024941683 -0.2010064572 0.6124032140 4289968581
-0.3021506965 -0.2000985891 0.6117078662 4288850100
-0.3018068075 -0.1991919577 0.6110116243 4287403167
-0.3014624417 -0.1982865930 0.6103145480 4286679444
-0.3002670705 -0.1968249083 0.6078944206 4286284686
-0.3011978865 -0.1967575550 0.6097788811 4285824135
-0.3008523583 -0.1958550960 0.6090793610 4285824135
-0.3000807166 -0.1946777850 0.6075171828 4286547858
-0.2997342050 -0.1937787533 0.6068156362 4287863460
-0.2989613712 -0.1926066279 0.6052510142 4289047734
-0.2986138463 -0.1917110533 0.6045474410 4289903043
-0.2982659042 -0.1908167601 0.6038430333 4289837250
-0.2974913120 -0.1896520406 0.6022748947 4289245113
-0.2971423864 -0.1887612045 0.6015684605 4288850355
-0.2955137193 -0.1870618761 0.5982712507 4289112755
-0.2955901325 -0.1864453554 0.5984259248 4286744207
-0.2948130369 -0.1852920502 0.5968526602 4282862420
-0.2944620550 -0.1844090819 0.5961421132 4280888630
-0.2936837375 -0.1832610667 0.5945664048 4281085752
-0.2937587500 -0.1826470941 0.5947182775 4281217338
-0.2934064567 -0.1817680746 0.5940050483 4280888373
-0.2934809327 -0.1811540574 0.5941558480 4280230443
-0.2927005887 -0.1800139993 0.5925760269 4280033064
-0.2923470140 -0.1791389287 0.5918601751 4279638306
-0.2915654778 -0.1780042052 0.5902779698 4279309339
-0.2900727093 -0.1751354039 0.5872558355 4279309339
-0.2889323533 -0.1731470525 0.5849471688 4279243546
-0.2890036106 -0.1725396812 0.5850914121 4279177753
-0.3138895929 -0.1266761571 0.6354734302 4292007386
-0.3010068834 -0.2011475414 0.6107655168 4291614174
-0.3010882735 -0.2005231529 0.6109306812 4290824658
-0.3011694551 -0.1998982579 0.6110954285 4290232521
-0.3012504578 -0.1992728561 0.6112597585 4289114298
-0.3004823923 -0.1980873793 0.6097013354 4287732645
-0.2997137010 -0.1969049275 0.6081415415 4286876823
-0.3006428480 -0.1968375891 0.6100268960 4286284686
-0.2998732626 -0.1956576705 0.6084653735 4285955721
-0.2995278835 -0.1947570443 0.6077645421 4285889928
-0.2991820574 -0.1938576996 0.6070628166 4286087307
-0.2988357842 -0.1929596215 0.6063602567 4287008409
-0.2980639040 -0.1917892396 0.6047940254 4289310906
-0.2977166474 -0.1908946186 0.6040894389 4289903043
-0.2969435453 -0.1897294670 0.6025207639 4289903043
-0.2961697876 -0.1885673851 0.6009507179 4289771457
-0.2958210409 -0.1876784116 0.6002430916 4289442492
-0.2950460613 -0.1865215898 0.5986706018 4289245113
-0.2946963310 -0.1856361032 0.5979609489 4288060839
-0.2947721183 -0.1850192994 0.5981147289 4284968568
-0.2922912240 -0.1828031689 0.5930808187 4281546303
-0.2936444879 -0.1829875112 0.5958267450 4280888373
-0.2928667367 -0.1818425953 0.5942485332 4281085752
-0.2896762788 -0.1779024452 0.5877749324 4279967271
-0.2897491753 -0.1772939861 0.5879228115 4279769892
-0.2906755209 -0.1772055030 0.5898024440 4279243548
-0.2898943126 -0.1760756969 0.5882173181 4279177753
-0.2899665833 -0.1754658669 0.5883639455 4279177753
-0.2900386155 -0.1748555750 0.5885100961 4279243546
-0.2879741192 -0.1729617417 0.5843210816 4279177753
-0.2897546589 -0.1733779311 0.5879339576 4279177753
-0.2881160676 -0.1717479080 0.5846090913 4279177753
-0.2873315513 -0.1706324816 0.5830172896 4279243546
-0.3124472499 -0.1263782382 0.6339789033 4284835951
-0.3125010729 -0.1256954819 0.6340880990 4289902012
-0.2996848524 -0.2000392973 0.6094565392 4292008932
-0.2997657359 -0.1994159520 0.6096210480 4291351002
-0.2998464108 -0.1987921000 0.6097850800 4290561744
-0.2999268472 -0.1981677413 0.6099486947 4289245884
-0.2995833755 -0.1972638667 0.6092501879 4288193196
-0.2992394567 -0.1963612735 0.6085507274 4287206301
-0.2988950908 -0.1954599321 0.6078504324 4286482065
-0.2989743650 -0.1948362291 0.6080116630 4285824135
-0.2986292541 -0.1939365566 0.6073098183 4285363584
-0.2982836962 -0.1930381656 0.6066070199 4285626756
-0.2975132763 -0.1918673366 0.6050403118 4287008409
-0.2971667349 -0.1909723878 0.6043355465 4288587441
-0.2963951230 -0.1898068041 0.6027663946 4289639616
-0.2960475981 -0.1889153272 0.6020596623 4290165960
-0.2952747941 -0.1877550036 0.6004880071 4289837250
-0.2953512669 -0.1871362627 0.6006435156 4289376699
-0.2933021486 -0.1851751953 0.5964763165 4289310906
-0.2942280173 -0.1850949228 0.5983592272 4288455597
-0.2917517424 -0.1828779131 0.5933233500 4287007122
-0.2914752960 -0.1813874245 0.5927610993 4280559408
-0.2915494144 -0.1807747781 0.5929118395 4280888373
-0.2907718420 -0.1796356291 0.5913305283 4281217338
-0.2908453047 -0.1790238321 0.5914798975 4280559408
-0.2900666595 -0.1778891534 0.5898964405 4280230443
-0.2897134125 -0.1770178974 0.5891780853 4279704099
-0.2889336050 -0.1758885682 0.5875921845 4279506718
-0.2885794044 -0.1750209033 0.5868718624 4279309339
-0.2886511683 -0.1744121909 0.5870177746 4279111960
-0.2887226939 -0.1738030314 0.5871632695 4279111960
-0.2887940109 -0.1731934249 0.5873082876 4279177753
-0.2855216861 -0.1699406803 0.5806535482 4279177753
-0.2851646543 -0.1690838188 0.5799273849 4279177753
-0.2843801677 -0.1679761112 0.5783320665 4279308569
-0.2853034735 -0.1678768247 0.5802097321 4279308569
-0.2828093171 -0.1657702178 0.5751374960 4279308569
-0.2841595113 -0.1659195572 0.5778833032 4279242776
-0.2984448075 -0.1983108073 0.6083087325 4291614432
-0.2985249758 -0.1976879984 0.6084721088 4290693330
-0.2986049056 -0.1970647126 0.6086350679 4289838021
-0.2978385091 -0.1958844215 0.6070728898 4288653747
-0.2979178131 -0.1952618808 0.6072345376 4287666852
-0.2979968786 -0.1946388632 0.6073957086 4287074715
-0.2976523638 -0.1937397420 0.6066935062 4286350479
-0.2973074019 -0.1928419173 0.6059903502 4285889928
-0.2969619930 -0.1919453591 0.6052863598 4286482065
-0.2961924076 -0.1907771677 0.6037177444 4286547858
-0.2958460450 -0.1898840666 0.6030117273 4287797412
-0.2954992354 -0.1889922768 0.6023048759 4289179065
-0.2943038344 -0.1875612438 0.5998683572 4289639616
-0.2948043048 -0.1872125566 0.6008884311 4289836995
-0.2927590311 -0.1852507442 0.5967196226 4289705409
-0.2924100459 -0.1843677014 0.5960083008 4289639616
-0.2924851477 -0.1837526709 0.5961613655 4289441463
-0.2917107940 -0.1826055646 0.5945830345 4288388775
-0.2922099829 -0.1822562963 0.5956004858 4285230711
-0.2910098433 -0.1808487028 0.5931543112 4281546303
-0.2902337611 -0.1797091365 0.5915724635 4280690994
-0.2898820937 -0.1788349003 0.5908556581 4281019959
-0.2899551690 -0.1782233268 0.5910046101 4281019959
-0.2879016995 -0.1763091534 0.5868191123 4280559408
-0.2875484526 -0.1754416227 0.5860990882 4280164650
-0.2871947587 -0.1745754331 0.5853781700 4279638306
-0.2868406475 -0.1737105846 0.5846563578 4279177753
-0.2869117856 -0.1731039137 0.5848013759 4279111960
-0.2865569293 -0.1722408533 0.5840780735 4279243546
-0.2866275311 -0.1716341823 0.5842220187 4279309339
-0.2858459353 -0.1705188155 0.5826289058 4279243546
-0.2850636840 -0.1694066077 0.5810344815 4279177753
-0.2851332426 -0.1688022166 0.5811762810 4279243546
-0.2852025926 -0.1681973785 0.5813176036 4279309339
-0.2848452926 -0.1673415750 0.5805892944 4279243546
-0.3102681935 -0.1225518063 0.6324078441 4291152077
-0.2971255481 -0.1972077340 0.6069938540 4291811811
-0.2972051799 -0.1965859830 0.6071565151 4291022295
-0.2972846031 -0.1959637403 0.6073187590 4290101193
-0.2969413996 -0.1950635314 0.6066176891 4289047992
-0.2970203161 -0.1944411844 0.6067788601 4287995304
-0.2966763675 -0.1935426295 0.6060762405 4287008409
-0.2967547178 -0.1929201782 0.6062362790 4286218893
-0.2964100242 -0.1920233071 0.6055321097 4286284173
-0.2960648835 -0.1911277026 0.6048270464 4285626243
-0.2952962816 -0.1899612546 0.6032568812 4285692036
-0.2949501574 -0.1890691370 0.6025497913 4286678931
-0.2937570810 -0.1876375675 0.6001124382 4288060584
-0.2929864824 -0.1864803433 0.5985382199 4288784307
-0.2930622697 -0.1858633757 0.5986930132 4289376444
-0.2927142084 -0.1849782318 0.5979819894 4289508030
-0.2923657298 -0.1840943992 0.5972700715 4289310134
-0.2911691666 -0.1826800704 0.5948256254 4288981169
-0.2916674614 -0.1823306829 0.5958436131 4288849583
-0.2896215320 -0.1803943217 0.5916639566 4286744207
-0.2905433476 -0.1803090125 0.5935471654 4282467662
-0.2884955704 -0.1783833504 0.5893638134 4281414974
-0.2894170880 -0.1782962233 0.5912463069 4281283642
-0.2869430184 -0.1761207730 0.5861920714 4281152056
-0.2874395251 -0.1757730842 0.5872063637 4280690992
-0.2866619527 -0.1746469289 0.5856179595 4280427820
-0.2858837843 -0.1735239327 0.5840281844 4279572511
-0.2859547436 -0.1729179472 0.5841731429 4279046167
-0.2856004834 -0.1720554829 0.5834494829 4278980374
-0.2856709361 -0.1714494973 0.5835933685 4278651409
-0.2853159308 -0.1705888361 0.5828681588 4278782995
-0.2845351994 -0.1694761962 0.5812731981 4278651409
-0.2846046686 -0.1688715965 0.5814151168 4279177753
-0.2842484117 -0.1680150181 0.5806873441 4279177753
-0.2843173742 -0.1674104333 0.5808281898 4279111960
-0.2809802890 -0.1648077369 0.5740109086 4279177753
-0.2810479701 -0.1642095149 0.5741491914 4279177753
-0.2785598636 -0.1621235013 0.5690662265 4279111960
-0.2958079278 -0.1961067319 0.6056763530 4291943396
-0.2958870232 -0.1954860538 0.6058382988 4291351259
-0.2955443263 -0.1945872903 0.6051366329 4290429900
-0.2960446179 -0.1942431927 0.6061609983 4289574591
-0.2957012653 -0.1933452040 0.6054580212 4288521648
-0.2953574955 -0.1924484968 0.6047540903 4287600546
-0.2954353392 -0.1918271184 0.6049134731 4286876823
-0.2950907946 -0.1909320951 0.6042080522 4286547858
-0.2947458327 -0.1900383532 0.6035016775 4285955463
-0.2944004536 -0.1891459078 0.6027944684 4285363326
-0.2940546274 -0.1882547587 0.6020864248 4286087049
-0.2932857573 -0.1870953292 0.6005121469 4287271323
-0.2929389477 -0.1862076670 0.5998020172 4288652721
-0.2921688855 -0.1850535125 0.5982252955 4289376444
-0.2918211222 -0.1841693521 0.5975132585 4289704892
-0.2906268537 -0.1827544868 0.5950679183 4289639099
-0.2907011509 -0.1821398735 0.5952200294 4289046962
-0.2890822291 -0.1804678738 0.5919052362 4289310134
-0.2883819640 -0.1787185967 0.5904714465 4284770671
-0.2880311906 -0.1778459549 0.5897532105 4281546814
-0.2864089310 -0.1761927307 0.5864316225 4280691505
-0.2869045734 -0.1758449376 0.5874464512 4281152056
-0.2861285210 -0.1747183651 0.5858574510 4280757298
-0.2853518426 -0.1735949367 0.5842671990 4280625199
-0.2845745087 -0.1724746525 0.5826755762 4279704097
-0.2842207849 -0.1716136783 0.5819512606 4279046167
-0.2842909098 -0.1710092872 0.5820949078 4278914581
-0.2839364409 -0.1701501012 0.5813691020 4278914579
-0.2824457288 -0.1673291475 0.5783168674 4279111960
-0.2825143039 -0.1667270511 0.5784572363 4279111960
-0.2813078463 -0.1653750986 0.5759869814 4279177753
-0.2801005542 -0.1640281379 0.5735149980 4279177753
-0.2784672976 -0.1624381989 0.5701708794 4279111960
-0.2793844640 -0.1623376161 0.5720487833 4279111960
-0.3066352904 -0.1202725768 0.6278457642 4285428341
-0.3062537909 -0.1194262132 0.6270645857 4289244080
-0.2945705354 -0.1943881959 0.6045175195 4291548381
-0.2946489155 -0.1937680840 0.6046783924 4290956244
-0.2943060696 -0.1928715557 0.6039747596 4290034887
-0.2943839133 -0.1922513396 0.6041345596 4289047992
-0.2940402925 -0.1913564801 0.6034293771 4287995304
-0.2941176295 -0.1907361746 0.6035880446 4287139995
-0.2937732637 -0.1898430139 0.6028813124 4286679186
-0.2930068672 -0.1886796504 0.6013085246 4285955463
-0.2935049236 -0.1883311421 0.6023306847 4285494912
-0.2927375734 -0.1871712655 0.6007558703 4285231740
-0.2915476263 -0.1857456714 0.5983139277 4286481552
-0.2912008762 -0.1848607957 0.5976023078 4288455342
-0.2908537090 -0.1839772165 0.5968898535 4289442490
-0.2913506031 -0.1836272031 0.5979095697 4289639869
-0.2893871665 -0.1810700297 0.5938802361 4289573306
-0.2890381813 -0.1801926196 0.5931640267 4289113009
-0.2882660925 -0.1790539920 0.5915794969 4289047216
-0.2879161239 -0.1781801283 0.5908613801 4286810254
-0.2867199779 -0.1767861098 0.5884066224 4281941572
-0.2863689661 -0.1759167165 0.5876862407 4281217849
-0.2860175371 -0.1750486791 0.5869650245 4281283642
-0.2852424383 -0.1739239246 0.5853744149 4280822578
-0.2848900557 -0.1730594635 0.5846512318 4280427820
-0.2845372558 -0.1721963584 0.5839272141 4280230441
-0.2837604880 -0.1710792631 0.5823331475 4279440925
-0.2834067345 -0.1702197790 0.5816071630 4279309337
-0.2834762633 -0.1696151793 0.5817498565 4279046165
-0.2826979160 -0.1685048789 0.5801525712 4279375132
-0.2831907868 -0.1681529284 0.5811640024 4279177753
-0.2824114859 -0.1670462638 0.5795647502 4279111960
-0.2812074423 -0.1656928807 0.5770937800 4279111960
-0.2812753022 -0.1650915146 0.5772330761 4279111960
-0.2804942429 -0.1639935225 0.5756301880 4279111960
-0.2782133520 -0.1601225138 0.5709493160 4279308823
-0.3053060770 -0.1186318845 0.6265490055 4286414981
-0.3053563833 -0.1179551706 0.6266522408 4290230975
-0.2932557166 -0.1932924539 0.6031941175 4292008932
-0.2929133177 -0.1923973709 0.6024898887 4291284954
-0.2929908931 -0.1917787194 0.6026493907 4290363852
-0.2926477492 -0.1908853203 0.6019436121 4289771715
-0.2927247584 -0.1902665794 0.6021020412 4288521648
-0.2923808992 -0.1893748790 0.6013947129 4287731874
-0.2924573720 -0.1887560487 0.6015520096 4286942358
-0.2921127379 -0.1878660470 0.6008431315 4286481807
-0.2917676866 -0.1869773269 0.6001334190 4285626498
-0.2914221883 -0.1860899180 0.5994227529 4285363071
-0.2910762727 -0.1852038205 0.5987112522 4285955208
-0.2903085649 -0.1840519011 0.5971321464 4287600286
-0.2903831303 -0.1834355444 0.5972855687 4289245111
-0.2900359333 -0.1825533807 0.5965713859 4289705662
-0.2892666459 -0.1814080924 0.5949890018 4289442490
-0.2884966731 -0.1802659184 0.5934053063 4289771455
-0.2881479859 -0.1793895066 0.5926880836 4289376697
-0.2869548500 -0.1779909432 0.5902339816 4289178548
-0.2861829996 -0.1768581420 0.5886462927 4288191653
-0.2854104936 -0.1757284701 0.5870573521 4284902257
-0.2850596607 -0.1748610139 0.5863357782 4281875779
-0.2838635743 -0.1734785736 0.5838755369 4281086263
-0.2847792506 -0.1733873636 0.5857589841 4281020470
-0.2844272554 -0.1725230366 0.5850349665 4280954677
-0.2836521268 -0.1714046150 0.5834406018 4280428333
-0.2832991779 -0.1705439091 0.5827146173 4279704610
-0.2825228870 -0.1694309115 0.5811178684 4279573024
-0.2821689844 -0.1685738415 0.5803899765 4279572509
-0.2818146944 -0.1677181125 0.5796611905 4279243544
-0.2810367048 -0.1666128486 0.5780609846 4279243544
-0.2789880633 -0.1647607237 0.5738471746 4279177751
-0.2782754898 -0.1630679965 0.5723814964 4279111958
-0.2787659168 -0.1627182961 0.5733901858 4278980374
-0.2779850364 -0.1616271883 0.5717840195 4279111960
-0.2776274085 -0.1607847810 0.5710483789 4279242776
-0.2781172693 -0.1604328901 0.5720559955 4279308569
-0.2773349285 -0.1593477875 0.5704468489 4279308569
-0.3039775193 -0.1169960871 0.6252475977 4287335569
-0.2916003466 -0.1913055778 0.6011625528 4291482333
-0.2916773856 -0.1906880140 0.6013213992 4291153368
-0.2913344204 -0.1897964627 0.6006143093 4290166473
-0.2914109230 -0.1891788095 0.6007720232 4289244858
-0.2910672128 -0.1882889569 0.6000634432 4287797412
-0.2911431789 -0.1876712292 0.6002200842 4287271068
-0.2907987237 -0.1867830902 0.5995099545 4286876310
-0.2908741832 -0.1861652732 0.5996655226 4286086794
-0.2905289531 -0.1852788627 0.5989537835 4285363071
-0.2901833355 -0.1843937486 0.5982412696 4285560705
-0.2898372710 -0.1835099459 0.5975278020 4287008151
-0.2894907594 -0.1826274544 0.5968134403 4288521390
-0.2887229621 -0.1814817488 0.5952305794 4289047734
-0.2883754969 -0.1806027889 0.5945142508 4289705664
-0.2880276144 -0.1797251701 0.5937970877 4289376699
-0.2872581184 -0.1785870194 0.5922106504 4289245111
-0.2864879668 -0.1774519980 0.5906229019 4288981939
-0.2857171893 -0.1763201207 0.5890338421 4288850353
-0.2849457860 -0.1751913726 0.5874435306 4286613391
-0.2845953405 -0.1743240356 0.5867210627 4283125592
-0.2842445076 -0.1734580398 0.5859977603 4280757044
-0.2843150496 -0.1728498489 0.5861431956 4280559665
-0.2831195891 -0.1714745611 0.5836786628 4280625458
-0.2815012336 -0.1698495895 0.5803422928 4280625712
-0.2811482847 -0.1689926386 0.5796146393 4280033575
-0.2807949185 -0.1681370437 0.5788861513 4279901474
-0.2800187767 -0.1670308858 0.5772860050 4279506716
-0.2788195610 -0.1656768918 0.5748137236 4279375130
-0.2797322869 -0.1655784994 0.5766954422 4279243544
-0.2789545953 -0.1644791961 0.5750920773 4279243544
-0.2781762779 -0.1633830965 0.5734875202 4279309337
