VERSION 0.7
FIELDS x y z rgba
SIZE 4 4 4 4
TYPE F F F U
COUNT 1 1 1 1
WIDTH 920
HEIGHT 1
VIEWPOINT 0.0 0.0 0.0 1.0 0.0 0.0 0.0
POINTS 920
DATA ascii
-0.2728711367 -0.0930620283 0.5881375670 4291152340
-0.2729097009 -0.0924216211 0.5882206559 4290823890
-0.2733646929 -0.0919210687 0.5892013907 4290758097
-0.2738195658 -0.0914182886 0.5901817679 4290692304
-0.2742742896 -0.0909132808 0.5911619067 4290692304
-0.2747288942 -0.0904060528 0.5921416879 4290692304
-0.2743494511 -0.0896241814 0.5913238525 4290560718
-0.2748405933 -0.0884682760 0.5923824906 4290692304
-0.2752944231 -0.0879550949 0.5933606625 4290824403
-0.2753309608 -0.0873074085 0.5934393406 4290824403
-0.2753672004 -0.0866594613 0.5935174823 4290758610
-0.2758204937 -0.0861415863 0.5944944620 4290627024
-0.2758562863 -0.0854921490 0.5945715904 4290561231
-0.2758918107 -0.0848424658 0.5946481824 4290495438
-0.2763445079 -0.0843198970 0.5956239104 4290232266
-0.2767970562 -0.0837951154 0.5965993404 4290034887
-0.2768318951 -0.0831427202 0.5966744423 4289771715
-0.2772840858 -0.0826144964 0.5976490378 4289640129
-0.2769007981 -0.0818371847 0.5968229175 4289508543
-0.2773525417 -0.0813065022 0.5977966189 4289311164
-0.2778041363 -0.0807736143 0.5987699628 4288850613
-0.2778377533 -0.0801180303 0.5988424420 4288390062
-0.2778711021 -0.0794622153 0.5989143252 4288061097
-0.2779042125 -0.0788061619 0.5989856720 4287732132
-0.2787729204 -0.0783849135 0.6008580923 4287403422
-0.2788055837 -0.0777264237 0.6009284854 4287074457
-0.2788379788 -0.0770676956 0.6009982824 4286942871
-0.2784520090 -0.0762941912 0.6001663804 4286877078
-0.2789019644 -0.0757495686 0.6011362076 4286942871
-0.2793517113 -0.0752027482 0.6021056175 4287074457
-0.2793830931 -0.0745421275 0.6021732092 4287206043
-0.2794141769 -0.0738812909 0.6022402048 4287206043
-0.2794449925 -0.0732202381 0.6023066640 4287271836
-0.2794755399 -0.0725589618 0.6023724675 4287337629
-0.2795058191 -0.0718974695 0.6024377346 4287666594
-0.2795358300 -0.0712357685 0.6025024056 4287995559
-0.2799840868 -0.0706795007 0.6034685969 4288324524
-0.2804321647 -0.0701210424 0.6044343114 4288916661
-0.2804614305 -0.0694567263 0.6044974327 4289508798
-0.2800717950 -0.0686895251 0.6036576033 4289837763
-0.2801004946 -0.0680257827 0.6037194729 4290297029
-0.2801289260 -0.0673618466 0.6037807465 4290625994
-0.2793195248 -0.0664983094 0.6020361781 4291086799
-0.2801849246 -0.0660333633 0.6039015055 4291547350
-0.2802125216 -0.0653688237 0.6039609909 4291876315
-0.2635620832 -0.1843728721 0.5694362521 4291285467
-0.2636338472 -0.1837902367 0.5695914030 4290298572
-0.2641086876 -0.1834872514 0.5706172585 4288850613
-0.2641801834 -0.1829027683 0.5707717538 4287666339
-0.2642515302 -0.1823178232 0.5709258914 4286876823
-0.2639191151 -0.1814549416 0.5702077150 4286284686
-0.2639899552 -0.1808699220 0.5703607202 4286547345
-0.2640606165 -0.1802844554 0.5705133677 4286284173
-0.2641310692 -0.1796985120 0.5706655979 4286350481
-0.2637973428 -0.1788382232 0.5699446201 4287929513
-0.2638673186 -0.1782522351 0.5700957775 4289771717
-0.2627245188 -0.1768495589 0.5676267147 4290232268
-0.2623894811 -0.1759941578 0.5669028163 4289310651
-0.2628628314 -0.1756806523 0.5679255724 4286481552
-0.2617181838 -0.1742873788 0.5654524565 4282533196
-0.2609772980 -0.1731675267 0.5638517737 4281414715
-0.2606405616 -0.1723183990 0.5631241798 4281217336
-0.2603033781 -0.1714706272 0.5623957515 4280362027
-0.2595608830 -0.1703584343 0.5607915521 4280033062
-0.2592228055 -0.1695142835 0.5600610971 4279638304
-0.2576689124 -0.1678795964 0.5567038655 4279046167
-0.2557087243 -0.1659886539 0.5524688363 4278914581
-0.2565847635 -0.1659413725 0.5543615222 4279375130
-0.2566501200 -0.1653675586 0.5545027256 4279704095
-0.2550930679 -0.1637519449 0.5511386395 4279704095
-0.2531293333 -0.1618837267 0.5468959808 4279506716
-0.2531931996 -0.1613167673 0.5470339060 4279374616
-0.2528510094 -0.1604917645 0.5462945700 4279440409
-0.2525084019 -0.1596681625 0.5455543995 4279177237
-0.2525714636 -0.1591017395 0.5456906557 4279177237
-0.2514158487 -0.1577702612 0.5431938767 4278782993
-0.2506657243 -0.1566977948 0.5415731668 4279046165
-0.2503213286 -0.1558816135 0.5408291221 4279046165
-0.2516024411 -0.1560754180 0.5435969830 4278914579
-0.2504445314 -0.1547559500 0.5410953164 4279177753
-0.2513191700 -0.1546931118 0.5429850221 4279309339
-0.2513804734 -0.1541274041 0.5431174636 4279177751
-0.2518484592 -0.1538097709 0.5441285968 4279177751
-0.2515025139 -0.1529947668 0.5433811545 4279177753
-0.2519703209 -0.1526744813 0.5443918109 4279111960
-0.2512166202 -0.1516147554 0.5427634716 4279308569
-0.2520913780 -0.1515375376 0.5446534157 4279308569
-0.2513369024 -0.1504806727 0.5430233479 4279308571
-0.2522116601 -0.1503989547 0.5449132323 4279440157
-0.2526790202 -0.1500710994 0.5459230542 4279571741
-0.2527387738 -0.1494998783 0.5460520983 4279571741
-0.2523905635 -0.1486880481 0.5452997684 4279703329
-0.2532654703 -0.1485954970 0.5471900702 4279637536
-0.2533247173 -0.1480221450 0.5473180413 4279703329
-0.2533837259 -0.1474483907 0.5474455953 4279637536
-0.2538506687 -0.1471107304 0.5484544039 4279703329
-0.2530929744 -0.1460640728 0.5468173623 4279769122
-0.2543762326 -0.1461940259 0.5495898724 4279769122
-0.2548430264 -0.1458505541 0.5505984426 4279834915
-0.2540843487 -0.1448064148 0.5489592552 4279900708
-0.2537336349 -0.1439974606 0.5482015610 4279900708
-0.2558346689 -0.1445756853 0.5527408719 4279966501
-0.2546662092 -0.1433040351 0.5502163768 4280098087
-0.2539058328 -0.1422666758 0.5485736132 4280098857
-0.2555986643 -0.1426016092 0.5522310138 4280164650
-0.2548377216 -0.1415653229 0.5505869389 4280296236
-0.2540761828 -0.1405323744 0.5489416718 4280427822
-0.2545417845 -0.1401788741 0.5499476194 4280361259
-0.2550073564 -0.1398231238 0.5509535074 4280361259
-0.2558823228 -0.1396886110 0.5528438687 4280098855
-0.2551194131 -0.1386597306 0.5511955619 4279835683
-0.2564038932 -0.1387423575 0.5539707541 4279572511
-0.2556402981 -0.1377155036 0.5523210168 4279375132
-0.2561054528 -0.1373512894 0.5533259511 4279506720
-0.2565705776 -0.1369848400 0.5543308854 4279901478
-0.2562705874 -0.1355943084 0.5536827445 4280493615
-0.2563252151 -0.1350079030 0.5538007617 4280428333
-0.2563796043 -0.1344211102 0.5539183021 4280559919
-0.2568441033 -0.1340480894 0.5549218059 4281020470
-0.2568981647 -0.1334596127 0.5550386310 4281678400
-0.2573624551 -0.1330830157 0.5560417771 4282336076
-0.2574161887 -0.1324928701 0.5561578274 4282730834
-0.2574696839 -0.1319023371 0.5562734604 4283718246
-0.2575229704 -0.1313114464 0.5563885570 4284310383
-0.2575760484 -0.1307201982 0.5565031767 4285165947
-0.2576288879 -0.1301285774 0.5566173792 4285889670
-0.2580924928 -0.1297431886 0.5576190352 4286481807
-0.2581449747 -0.1291498989 0.5577324629 4286810772
-0.2581972480 -0.1285562366 0.5578453541 4287073944
-0.2586605251 -0.1281659901 0.5588462949 4287205530
-0.2591237724 -0.1277734935 0.5598471165 4287008151
-0.2587641478 -0.1269749999 0.5590701699 4286876565
-0.2592270970 -0.1265798807 0.5600703955 4286481807
-0.2592784464 -0.1259825528 0.5601813197 4286021256
-0.2601528168 -0.1257829070 0.5620704293 4285758084
-0.2602038682 -0.1251829714 0.5621807575 4285692291
-0.2602546811 -0.1245826781 0.5622905493 4285757314
-0.2603052855 -0.1239820346 0.5623998642 4285823107
-0.2607676089 -0.1235762611 0.5633987784 4285692291
-0.2608178556 -0.1229739711 0.5635072589 4286087049
-0.2612799704 -0.1225646511 0.5645056963 4286810772
-0.2617420256 -0.1221530735 0.5655039549 4287600288
-0.2622039914 -0.1217392534 0.5665020943 4288258218
-0.2618412077 -0.1209422573 0.5657182932 4288784562
-0.2618904412 -0.1203363314 0.5658246875 4289310906
-0.2623519599 -0.1199186221 0.5668218136 4289705664
-0.2624008358 -0.1193110645 0.5669273734 4290297801
-0.2624494731 -0.1187031642 0.5670324564 4290495180
-0.2629106343 -0.1182806119 0.5680288076 4290692559
-0.2629588842 -0.1176710799 0.5681330562 4290889938
-0.2630068958 -0.1170612201 0.5682367682 4290955731
-0.2630546689 -0.1164510250 0.5683400631 4291087317
-0.2635152638 -0.1160223484 0.5693351626 4291284694
-0.2635626793 -0.1154105291 0.5694375634 4291350487
-0.2640230060 -0.1149783209 0.5704321265 4291218901
-0.2640700042 -0.1143648848 0.5705336928 4291153108
-0.2641167939 -0.1137511209 0.5706347227 4291218131
-0.2645767033 -0.1133140847 0.5716284513 4291218131
-0.2650365531 -0.1128748059 0.5726219416 4291152338
-0.2646692097 -0.1120830178 0.5718283057 4291218131
-0.2651287317 -0.1116411686 0.5728210807 4291218131
-0.2655881345 -0.1111970767 0.5738136768 4291086545
-0.2660474777 -0.1107507348 0.5748060942 4291086545
-0.2660928667 -0.1101308689 0.5749041438 4290954959
-0.2665519118 -0.1096810028 0.5758959651 4290888909
-0.2665969133 -0.1090595499 0.5759931207 4290954702
-0.2666416466 -0.1084377766 0.5760897994 4291086288
-0.2671002746 -0.1079831049 0.5770806670 4291086288
-0.2675587833 -0.1075261906 0.5780712962 4290954702
-0.2671886683 -0.1067360714 0.5772716999 4290888909
-0.2672325373 -0.1061120927 0.5773664117 4290758352
-0.2676905096 -0.1056513488 0.5783559084 4290692559
-0.2677339315 -0.1050257906 0.5784497857 4290626766
-0.2677771151 -0.1043999270 0.5785430670 4290626766
-0.2678200603 -0.1037737653 0.5786358118 4290692559
-0.2682774067 -0.1033069715 0.5796239376 4290692559
-0.2687769532 -0.1022089347 0.5807032585 4290626766
-0.2692339122 -0.1017363891 0.5816904902 4290691789
-0.2692758143 -0.1011058241 0.5817810297 4290691789
-0.2697324455 -0.1006297842 0.5827676058 4290757582
-0.2701889575 -0.1001515016 0.5837538838 4290691789
-0.2702302337 -0.0995181128 0.5838431120 4290625996
-0.2706864476 -0.0990363359 0.5848287344 4290560203
-0.2707272768 -0.0984013975 0.5849170089 4290560203
-0.2711831629 -0.0979161188 0.5859019756 4290560203
-0.2716389298 -0.0974286050 0.5868866444 4290297548
-0.2716791630 -0.0967908651 0.5869735479 4290363341
-0.2717191279 -0.0961528420 0.5870599151 4290429134
-0.2717588544 -0.0955145359 0.5871457458 4290429134
-0.2722139060 -0.0950210169 0.5881289244 4290363339
-0.2722531855 -0.0943811759 0.5882137418 4290429132
-0.2722921968 -0.0937410593 0.5882980227 4290429132
-0.2723309398 -0.0931006745 0.5883817673 4290363339
-0.2727852762 -0.0926011726 0.5893633962 4290297546
-0.2728236020 -0.0919592604 0.5894461870 4290231753
-0.2732776105 -0.0914562792 0.5904270411 4290166473
-0.2737314701 -0.0909510702 0.5914076567 4290166473
-0.2737691104 -0.0903064013 0.5914890170 4289969349
-0.2742226422 -0.0897977203 0.5924688578 4289640384
-0.2742598355 -0.0891515389 0.5925492048 4289311419
-0.2742967606 -0.0885050893 0.5926290154 4289179833
-0.2743334472 -0.0878583863 0.5927082300 4288851126
-0.2747862041 -0.0873437598 0.5936864614 4288324782
-0.2752388120 -0.0868269131 0.5946643353 4287864231
-0.2752748132 -0.0861774683 0.5947421193 4287601059
-0.2757270932 -0.0856571645 0.5957192779 4287403680
-0.2749294937 -0.0847494155 0.5939960480 4287206301
-0.2762145102 -0.0844824761 0.5967723727 4287074202
-0.2762495875 -0.0838300586 0.5968481302 4286811030
-0.2762843966 -0.0831774026 0.5969233513 4286350479
-0.2759021521 -0.0824000165 0.5960975289 4286547858
-0.2755195498 -0.0816243663 0.5952708721 4286679444
-0.2768040895 -0.0813404471 0.5980461836 4286613651
-0.2768378854 -0.0806858242 0.5981191993 4286547858
-0.2768714130 -0.0800309628 0.5981916785 4286547858
-0.2769047022 -0.0793758705 0.5982635617 4286745237
-0.2773547769 -0.0788390934 0.5992359519 4287008409
-0.2773875594 -0.0781825408 0.5993068218 4287468700
-0.2774200737 -0.0775257498 0.5993770361 4287995044
-0.2774523497 -0.0768687353 0.5994467139 4288455595
-0.2779015899 -0.0763261020 0.6004173756 4288784560
-0.2779333591 -0.0756676421 0.6004860401 4289113525
-0.2783822119 -0.0751215816 0.6014558077 4289574076
-0.2784135044 -0.0744616911 0.6015233994 4290034627
-0.2784444988 -0.0738015696 0.6015903950 4290363592
-0.2784752548 -0.0731412396 0.6016567945 4290955729
-0.2785057127 -0.0724806860 0.6017225981 4291087315
-0.2781183124 -0.0717122331 0.6008856297 4291284692
-0.2781482041 -0.0710522458 0.6009501815 4291547864
-0.2627014220 -0.1835807264 0.5689420700 4291022295
-0.2627728283 -0.1829983145 0.5690966845 4289771715
-0.2632465661 -0.1826947778 0.5701226592 4288521648
-0.2633176744 -0.1821105331 0.5702767372 4287534753
-0.2629858851 -0.1812482327 0.5695581436 4286745237
-0.2630565464 -0.1806639433 0.5697111487 4286284686
-0.2631269991 -0.1800791621 0.5698637366 4286416272
-0.2627941966 -0.1792190522 0.5691429973 4285955723
-0.2628641725 -0.1786342263 0.5692945123 4286482067
-0.2625306547 -0.1777758747 0.5685722232 4288587443
-0.2617933750 -0.1766466647 0.5669754744 4290166475
-0.2614589632 -0.1757918596 0.5662512183 4290429132
-0.2615277171 -0.1752087921 0.5664001703 4288850100
-0.2611926198 -0.1743557751 0.5656743646 4285954434
-0.2608570755 -0.1735040992 0.5649477243 4281941061
-0.2593094110 -0.1718507260 0.5615959167 4281283131
-0.2597807944 -0.1715380251 0.5626167655 4281348924
-0.2578274906 -0.1696278006 0.5583864450 4280230443
-0.2578940690 -0.1690510362 0.5585305691 4279506720
-0.2571517825 -0.1679456830 0.5569229722 4279506718
-0.2551955879 -0.1660540253 0.5526863933 4279506718
-0.2560699284 -0.1660067588 0.5545799732 4279769890
-0.2553259134 -0.1649100482 0.5529686809 4279835683
-0.2537718415 -0.1632956564 0.5496029258 4279769890
-0.2530264258 -0.1622071415 0.5479885936 4279835683
-0.2530902922 -0.1616390795 0.5481269360 4279769120
-0.2523438931 -0.1605551690 0.5465103984 4279769120
-0.2524071932 -0.1599880755 0.5466474295 4279637788
-0.2516597807 -0.1589087695 0.5450287461 4279703581
-0.2513171136 -0.1580876559 0.5442866683 4279637788
-0.2521904409 -0.1580301672 0.5461780429 4279374616
-0.2510361969 -0.1567028165 0.5436782837 4279374362
-0.2519094348 -0.1566417366 0.5455694199 4279637534
-0.2511598468 -0.1555712670 0.5439460278 4279834913
-0.2516272366 -0.1552552879 0.5449582934 4279637534
-0.2516886592 -0.1546875536 0.5450913310 4279637534
-0.2521559596 -0.1543679982 0.5461033583 4279966499
-0.2518109679 -0.1535508633 0.5453562140 4279571741
-0.2518718243 -0.1529818922 0.5454879999 4279703327
-0.2515261173 -0.1521666795 0.5447393060 4279834915
-0.2515864670 -0.1515978128 0.5448700190 4279834915
-0.2524597049 -0.1515164971 0.5467612147 4279834915
-0.2521132529 -0.1507018954 0.5460108519 4279900708
-0.2525798380 -0.1503730267 0.5470213890 4280098085
-0.2522327602 -0.1495594531 0.5462697148 4280295464
-0.2522922158 -0.1489876360 0.5463985205 4280229673
-0.2527585030 -0.1486547738 0.5474083424 4280229673
-0.2528176606 -0.1480812132 0.5475364923 4280427052
-0.2524694204 -0.1472697258 0.5467822552 4280427052
-0.2525280714 -0.1466962844 0.5469092727 4280361259
-0.2534013391 -0.1465938091 0.5488005280 4280361259
-0.2534597814 -0.1460177302 0.5489271283 4280427052
-0.2539256215 -0.1456750631 0.5499359369 4280492845
-0.2539837360 -0.1450972557 0.5500618815 4280296236
-0.2532261312 -0.1440551132 0.5484210849 4280033064
-0.2536915243 -0.1437094063 0.5494289994 4279769892
-0.2537489533 -0.1431313455 0.5495533347 4279638306
-0.2533981204 -0.1423237026 0.5487935543 4279704099
-0.2542712986 -0.1422023028 0.5506846905 4279967271
-0.2543282211 -0.1416221261 0.5508078933 4280362029
-0.2539765835 -0.1408151835 0.5500463247 4280690994
-0.2544413805 -0.1404606253 0.5510529876 4280888119
-0.2549061477 -0.1401038319 0.5520595908 4281151291
-0.2553709149 -0.1397447735 0.5530660748 4281677889
-0.2550182641 -0.1389381438 0.5523023605 4282467405
-0.2554827631 -0.1385764480 0.5533083677 4283388507
-0.2555383742 -0.1379917115 0.5534287691 4284309609
-0.2555937767 -0.1374066025 0.5535487533 4285099384
-0.2560580075 -0.1370400190 0.5545541644 4285691521
-0.2561130822 -0.1364532113 0.5546734333 4286020486
-0.2561679184 -0.1358660161 0.5547922254 4286546830
-0.2562225759 -0.1352784485 0.5549105406 4287138965
-0.2562769949 -0.1346905082 0.5550284386 4287731102
-0.2563312054 -0.1341021955 0.5551458597 4287994274
-0.2563852072 -0.1335135102 0.5552628040 4287796895
-0.2568486333 -0.1331367940 0.5562664866 4287336346
-0.2569022775 -0.1325464249 0.5563826561 4287007381
-0.2569557130 -0.1319556832 0.5564984083 4286546830
-0.2574188411 -0.1315740943 0.5575013757 4286546830
-0.2574719191 -0.1309816688 0.5576163530 4286152842
-0.2575774491 -0.1297957450 0.5578448772 4285560705
-0.2576298714 -0.1292022318 0.5579584241 4285626498
-0.2581444979 -0.1282179654 0.5590729713 4286415244
-0.2586068511 -0.1278253347 0.5600742698 4287270553
-0.2590691149 -0.1274304390 0.5610754490 4287665311
-0.2587100565 -0.1266312897 0.5602977872 4287929253
-0.2595827878 -0.1264338344 0.5621879101 4288324011
-0.2600448132 -0.1260331273 0.5631885529 4288850355
-0.2600958943 -0.1254320145 0.5632991791 4289442492
-0.2601467371 -0.1248305440 0.5634092689 4290099652
-0.2601973414 -0.1242287308 0.5635188818 4290560203
-0.2606588900 -0.1238218620 0.5645184517 4291020754
-0.2607091367 -0.1232183874 0.5646272898 4291086547
-0.2607591450 -0.1226145700 0.5647356510 4291283926
-0.2612203360 -0.1222028509 0.5657343864 4291349719
-0.2612699568 -0.1215973869 0.5658419132 4291283926
-0.2617309093 -0.1211821139 0.5668402314 4291152340
-0.2617801726 -0.1205750033 0.5669469237 4291152340
-0.2618292272 -0.1199675575 0.5670531392 4291218133
-0.2622897923 -0.1195474416 0.5680505633 4291349719
-0.2623384595 -0.1189383566 0.5681559443 4291415512
-0.2623868883 -0.1183289289 0.5682608485 4291415512
-0.2628470659 -0.1179039776 0.5692574978 4291349719
-0.2628951073 -0.1172929257 0.5693615079 4291283926
-0.2629429102 -0.1166815385 0.5694650412 4291218133
-0.2629904747 -0.1160698161 0.5695680976 4291152340
-0.2630378306 -0.1154577658 0.5696706176 4291086547
-0.2634972930 -0.1150253937 0.5706657171 4291218133
-0.2635442317 -0.1144117191 0.5707674026 4291218133
-0.2640034556 -0.1139758155 0.5717619061 4291152340
-0.2645089626 -0.1129210889 0.5728567243 4291152340
-0.2645551264 -0.1123041883 0.5729566813 4291218133
-0.2650138140 -0.1118612140 0.5739501119 4291151827
-0.2654724419 -0.1114159897 0.5749433637 4291086034
-0.2659309506 -0.1109685153 0.5759363770 4290822862
-0.2659763694 -0.1103474498 0.5760347247 4290888655
-0.2664346099 -0.1098964512 0.5770272017 4290954448
-0.2664796114 -0.1092737839 0.5771246552 4291020241
-0.2665243745 -0.1086508036 0.5772215724 4291020241
-0.2669821978 -0.1081949994 0.5782130957 4290954448
-0.2670265436 -0.1075704247 0.5783091187 4290954448
-0.2670706511 -0.1069455445 0.5784046650 4290888655
-0.2671144903 -0.1063203588 0.5784996152 4290692304
-0.2671581209 -0.1056948602 0.5785940886 4290626511
-0.2676151097 -0.1052317023 0.5795838237 4290560718
-0.2676583230 -0.1046046242 0.5796774030 4290626511
-0.2677012682 -0.1039772481 0.5797704458 4290692304
-0.2681578100 -0.1035092995 0.5807591677 4290692304
-0.2682003379 -0.1028803512 0.5808512568 4290560718
-0.2686565816 -0.1024089009 0.5818393826 4290494925
-0.2686986923 -0.1017783806 0.5819305778 4290560718
-0.2691546381 -0.1013034210 0.5829179883 4290363339
-0.2696104348 -0.1008262187 0.5839052200 4290231753
-0.2700661421 -0.1003467813 0.5848921537 4290231753
-0.2701074481 -0.0997121707 0.5849815607 4290363339
-0.2701485157 -0.0990772694 0.5850704908 4290429132
-0.2706037164 -0.0985930711 0.5860563517 4290363339
-0.2706443369 -0.0979566202 0.5861443281 4290231753
-0.2710992098 -0.0974689201 0.5871294737 4289969094
-0.2711393833 -0.0968309194 0.5872164965 4289969094
-0.2715939581 -0.0963397250 0.5882009864 4289837508
-0.2716336846 -0.0957001895 0.5882869959 4289640129
-0.2716731727 -0.0950603783 0.5883725286 4289376957
-0.2717123926 -0.0944202840 0.5884574652 4289047992
-0.2721662521 -0.0939230919 0.5894404054 4288850868
-0.2722050250 -0.0932814702 0.5895243883 4288719282
-0.2722435594 -0.0926395729 0.5896077752 4287995559
-0.2726968825 -0.0921376422 0.5905895829 4287863973
-0.2727349401 -0.0914942250 0.5906720161 4287666594
-0.2731879354 -0.0909888223 0.5916531086 4287337629
-0.2732255459 -0.0903438926 0.5917345285 4287008151
-0.2736781836 -0.0898350105 0.5927148461 4286679186
-0.2737153471 -0.0891885683 0.5927953124 4286547600
-0.2737522423 -0.0885418653 0.5928752422 4286547600
-0.2737888694 -0.0878949016 0.5929545760 4286482320
-0.2738252580 -0.0872476771 0.5930333734 4286482320
-0.2742769420 -0.0867316052 0.5940116048 4286548113
-0.2743128538 -0.0860828832 0.5940893888 4286613906
-0.2747641802 -0.0855633542 0.5950668454 4286811285
-0.2752153575 -0.0850416124 0.5960440040 4287140250
-0.2748348117 -0.0842626914 0.5952197909 4287469215
-0.2752855718 -0.0837384760 0.5961960554 4287666594
-0.2753202915 -0.0830865353 0.5962712169 4288192938
-0.2753547430 -0.0824343488 0.5963458419 4288587696
-0.2749729455 -0.0816583782 0.5955189466 4289113527
-0.2754228413 -0.0811292455 0.5964933634 4289508285
-0.2758726180 -0.0805978924 0.5974673629 4289903043
-0.2759060562 -0.0799437538 0.5975398421 4290232008
-0.2759392262 -0.0792893842 0.5976116657 4290626766
-0.2759721577 -0.0786347687 0.5976829529 4290955731
-0.2760048211 -0.0779799297 0.5977537036 4291350489
-0.2760371864 -0.0773248523 0.5978238583 4291613661
-0.2618412077 -0.1827891916 0.5684463978 4290758610
-0.2619121969 -0.1822070181 0.5686005354 4289640129
-0.2619830370 -0.1816243678 0.5687543154 4288455855
-0.2620536685 -0.1810412407 0.5689076781 4287403167
-0.2621241212 -0.1804576367 0.5690606236 4287074202
-0.2617922425 -0.1795976907 0.5683401227 4286942616
-0.2618622184 -0.1790140569 0.5684919953 4286218893
-0.2619319856 -0.1784299463 0.5686434507 4285824135
-0.2615990937 -0.1775721908 0.5679208040 4287205790
-0.2612658143 -0.1767157614 0.5671972632 4288982201
-0.2609321177 -0.1758606583 0.5664728284 4290232266
-0.2601952553 -0.1747364104 0.5648730993 4290034887
-0.2598606348 -0.1738848984 0.5641466975 4288652206
-0.2599286139 -0.1733034253 0.5642942786 4284770419
-0.2583840489 -0.1716503501 0.5609410405 4282138697
-0.2576448023 -0.1705377996 0.5593362451 4281086009
-0.2581149042 -0.1702263504 0.5603567362 4280822837
-0.2573747635 -0.1691174358 0.5587499738 4280230700
-0.2566340268 -0.1680116802 0.5571418405 4279638306
-0.2535358667 -0.1647602916 0.5504158735 4279835685
-0.2540043592 -0.1644520611 0.5514329672 4279967271
-0.2532611191 -0.1633599550 0.5498193502 4280164648
-0.2521132231 -0.1620114148 0.5473273396 4280230441
-0.2521769106 -0.1614440829 0.5474656224 4280032292
-0.2514319420 -0.1603606790 0.5458483696 4280098085
-0.2514950633 -0.1597943008 0.5459853411 4279900706
-0.2503446639 -0.1584595144 0.5434879065 4279900706
-0.2516207099 -0.1586602628 0.5462581515 4279703327
-0.2500647008 -0.1570759416 0.5428801179 4279703327
-0.2513408363 -0.1572712809 0.5456505418 4279834915
-0.2497835457 -0.1556943357 0.5422697067 4280032294
-0.2510598004 -0.1558842659 0.5450404286 4280163880
-0.2507163286 -0.1550662518 0.5442947745 4280295466
-0.2503724694 -0.1542496532 0.5435482264 4280295466
-0.2508386672 -0.1539318264 0.5445603132 4280295466
-0.2504942119 -0.1531162262 0.5438125134 4280361259
-0.2517710626 -0.1532894224 0.5465845466 4280295466
-0.2518317401 -0.1527189314 0.5467162728 4280163880
-0.2510809898 -0.1516580135 0.5450863838 4280032294
-0.2507353425 -0.1508444399 0.5443360806 4279966501
-0.2520125806 -0.1510049701 0.5471088886 4279900708
-0.2520724833 -0.1504328251 0.5472388864 4279966501
-0.2517261505 -0.1496189684 0.5464870334 4280163880
-0.2517855465 -0.1490469426 0.5466160178 4279506720
-0.2514385283 -0.1482350230 0.5458626747 4279177755
-0.2510911524 -0.1474245638 0.5451084375 4279111962
-0.2511497438 -0.1468531787 0.5452356935 4279177755
-0.2520211041 -0.1467547864 0.5471274257 4279375134
-0.2524860799 -0.1464165300 0.5481368303 4280033064
-0.2525443733 -0.1458411664 0.5482633710 4280625201
-0.2526024282 -0.1452654004 0.5483894348 4280888373
-0.2526603043 -0.1446892470 0.5485150814 4281809221
-0.2527179718 -0.1441126913 0.5486402512 4282335565
-0.2531825006 -0.1437668800 0.5496487021 4283190874
-0.2528327107 -0.1429584026 0.5488893390 4283914597
-0.2528897822 -0.1423806697 0.5490131974 4284572527
-0.2533539534 -0.1420308948 0.5500209332 4285098871
-0.2539311349 -0.1405169517 0.5512739420 4286810003
-0.2539873421 -0.1399354190 0.5513959527 4287007382
-0.2544510961 -0.1395771801 0.5524027944 4287138967
-0.2540991008 -0.1387711763 0.5516386628 4286941588
-0.2545626462 -0.1384103000 0.5526449680 4286612623
-0.2546181083 -0.1378262937 0.5527653694 4286349451
-0.2550814748 -0.1374618411 0.5537713170 4286217866
-0.2555448115 -0.1370951384 0.5547772050 4286283659
-0.2555998266 -0.1365081221 0.5548966527 4285757315
-0.2556546032 -0.1359207183 0.5550155640 4285559936
-0.2557091713 -0.1353329420 0.5551340580 4285165177
-0.2557635307 -0.1347447783 0.5552520752 4285165177
-0.2558176816 -0.1341562569 0.5553696156 4285494142
-0.2562803626 -0.1337807178 0.5563740730 4286020486
-0.2563341558 -0.1331904978 0.5564908385 4286481038
-0.2563877702 -0.1325999200 0.5566071868 4286941589
-0.2564411163 -0.1320089549 0.5567230582 4287796384
-0.2564942837 -0.1314176321 0.5568384528 4288322728
-0.2565472126 -0.1308259517 0.5569534302 4288849585
-0.2578276992 -0.1308570206 0.5597332716 4289441722
-0.2570617795 -0.1298482269 0.5580704808 4289968066
-0.2571141422 -0.1292545050 0.5581842065 4290362824
-0.2583948076 -0.1292750388 0.5609644055 4290757582
-0.2576278150 -0.1282698810 0.5592993498 4291218133
-0.2584989369 -0.1280800849 0.5611904860 4290954961
-0.2585506737 -0.1274820715 0.5613028407 4291086547
-0.2586022019 -0.1268837005 0.5614146590 4291152340
-0.2590633929 -0.1264851093 0.5624158978 4291152340
-0.2595245540 -0.1260842681 0.5634170175 4290955729
-0.2599856257 -0.1256811619 0.5644180179 4290955729
-0.2596263587 -0.1248812303 0.5636380315 4291152338
-0.2600871325 -0.1244755238 0.5646383762 4291349717
-0.2605478764 -0.1240675598 0.5656386018 4291086034
-0.2605981231 -0.1234629080 0.5657477379 4291086034
-0.2610586584 -0.1230513901 0.5667474866 4291151827
-0.2606979907 -0.1222525612 0.5659645200 4291217620
-0.2611581981 -0.1218384430 0.5669636726 4291086034
-0.2612076402 -0.1212314516 0.5670709610 4291086034
-0.2616676390 -0.1208137721 0.5680695772 4291151827
-0.2617166936 -0.1202051416 0.5681760907 4291086034
-0.2617655396 -0.1195961684 0.5682821274 4291086034
-0.2618141174 -0.1189868525 0.5683876276 4291086034
-0.2618624866 -0.1183771938 0.5684926510 4290954448
-0.2623218000 -0.1179520860 0.5694897771 4290888655
-0.2623697817 -0.1173408031 0.5695939064 4290954448
-0.2624175251 -0.1167291775 0.5696975589 4291020241
-0.2624650598 -0.1161172315 0.5698007345 4291086034
-0.2629238069 -0.1156859845 0.5707966685 4291151827
-0.2629709244 -0.1150724143 0.5708989501 4291152341
-0.2630178034 -0.1144585088 0.5710007548 4291086548
-0.2634761631 -0.1140224338 0.5719957948 4291020755
-0.2635226548 -0.1134069189 0.5720967650 4290954962
-0.2639807165 -0.1129673123 0.5730912089 4291086548
-0.2644387186 -0.1125254557 0.5740855336 4291086548
-0.2648966312 -0.1120813489 0.5750796199 4291020755
-0.2654000223 -0.1110140085 0.5761724710 4291086548
-0.2658575773 -0.1105641201 0.5771657825 4290889169
-0.2659027576 -0.1099415272 0.5772638917 4290823376
-0.2663600445 -0.1094881073 0.5782566071 4290691790
-0.2664048076 -0.1088639274 0.5783538222 4290625996
-0.2664493322 -0.1082394272 0.5784505010 4290691789
-0.2664936483 -0.1076146141 0.5785466433 4290823375
-0.2665376961 -0.1069894880 0.5786423087 4290823375
-0.2669941783 -0.1065287068 0.5796332955 4290494925
-0.2670378089 -0.1059019938 0.5797280073 4290429132
-0.2674939930 -0.1054376960 0.5807183981 4290429132
-0.2675372064 -0.1048094034 0.5808122158 4290494925
-0.2679931223 -0.1043415815 0.5818019509 4290626513
-0.2680359185 -0.1037117168 0.5818948746 4290626513
-0.2684915364 -0.1032403857 0.5828839540 4290429134
-0.2685338855 -0.1026089489 0.5829759240 4290297548
-0.2689892054 -0.1021341011 0.5839644074 4289903303
-0.2694444060 -0.1016570106 0.5849525928 4289640131
-0.2694861591 -0.1010227352 0.5850432515 4289508545
-0.2699410319 -0.1005421430 0.5860308409 4289508545
-0.2699823678 -0.0999063104 0.5861204863 4289311166
-0.2700234354 -0.0992701873 0.5862096548 4288982201
-0.2700642347 -0.0986337736 0.5862982869 4288455857
-0.2705184519 -0.0981471464 0.5872843266 4287929513
-0.2705588341 -0.0975091830 0.5873720050 4287666594
-0.2710127234 -0.0970190540 0.5883573890 4287600801
-0.2710526586 -0.0963795483 0.5884441137 4287337629
-0.2710923254 -0.0957397595 0.5885302424 4287008664
-0.2715457082 -0.0952448845 0.5895144939 4286679699
-0.2711709440 -0.0944593474 0.5887008905 4286416527
-0.2716239393 -0.0939619541 0.5896843076 4286219148
-0.2720767856 -0.0934623331 0.5906674266 4286284941
-0.2721153200 -0.0928192064 0.5907511115 4286416527
-0.2721535861 -0.0921758041 0.5908342004 4286548113
-0.2721916139 -0.0915321335 0.5909167528 4286876563
-0.2726437449 -0.0910265297 0.5918982625 4287073942
-0.2726812959 -0.0903813392 0.5919798017 4287337114
-0.2723041475 -0.0895995051 0.5911610126 4287731872
-0.2727556825 -0.0890901610 0.5921412706 4288192423
-0.2732070386 -0.0885785967 0.5931211710 4288521388
-0.2732436359 -0.0879313722 0.5932006240 4289047992
-0.2732799649 -0.0872838870 0.5932794809 4289376957
-0.2733160555 -0.0866361484 0.5933578014 4289706177
-0.2737666667 -0.0861186311 0.5943360925 4289969349
-0.2729725838 -0.0852104053 0.5926121473 4290363594
-0.2734227180 -0.0846913978 0.5935894251 4290824145
-0.2742876709 -0.0842977092 0.5954672098 4291284696
-0.2743225694 -0.0836467370 0.5955429077 4291679454
-0.2601090074 -0.1820188612 0.5660507679 4291613919
-0.2605805099 -0.1817187369 0.5670768023 4290561231
-0.2606510222 -0.1811376810 0.5672302842 4289442750
-0.2607213557 -0.1805561483 0.5673833489 4288324269
-0.2607915103 -0.1799741536 0.5675359964 4287666339
-0.2604601383 -0.1791157126 0.5668148398 4286745237
-0.2605297863 -0.1785336733 0.5669664741 4286482065
-0.2601977289 -0.1776769757 0.5662438273 4286218893
-0.2602669001 -0.1770949066 0.5663943291 4286482065
-0.2587288618 -0.1754227877 0.5630472898 4287534753
-0.2600027919 -0.1756578833 0.5658196211 4289179578
-0.2596693337 -0.1748047322 0.5650939345 4290166473
-0.2585313320 -0.1734135300 0.5626173615 4289968836
-0.2590011954 -0.1731024534 0.5636398792 4287863460
-0.2578619421 -0.1717175543 0.5611606836 4283981673
-0.2587338090 -0.1716725528 0.5630580187 4281349953
-0.2588009238 -0.1710913330 0.5632041097 4281020218
-0.2572574615 -0.1694489270 0.5598452091 4280625460
-0.2536995113 -0.1664919704 0.5521023273 4280164907
-0.2537646890 -0.1659211665 0.5522441864 4279901735
-0.2550383806 -0.1661372930 0.5550160408 4280098857
-0.2522824705 -0.1637320220 0.5490185618 4280296236
-0.2531528771 -0.1636848301 0.5509127975 4280230443
-0.2512010336 -0.1618154049 0.5466651917 4280098857
-0.2508612275 -0.1609899551 0.5459256768 4280098857
-0.2505210340 -0.1601659060 0.5451853871 4280427822
-0.2501804531 -0.1593432426 0.5444442034 4280427050
-0.2502430975 -0.1587780714 0.5445805192 4280361257
-0.2503055334 -0.1582124680 0.5447164178 4280361259
-0.2499639839 -0.1573921889 0.5439730883 4280361259
-0.2500259280 -0.1568266600 0.5441079140 4280296236
-0.2492796779 -0.1557558179 0.5424838662 4280427822
-0.2501492798 -0.1556943357 0.5443763733 4280493615
-0.2502106726 -0.1551275551 0.5445099473 4280230443
-0.2498675436 -0.1543106586 0.5437632203 4280164650
-0.2503328621 -0.1539927423 0.5447758436 4280362029
-0.2503936589 -0.1534247100 0.5449081659 4280164650
-0.2500496507 -0.1526093185 0.5441595316 4280098857
-0.2505146563 -0.1522874087 0.5451714993 4280230443
-0.2505748868 -0.1517181396 0.5453025103 4280756787
-0.2502299845 -0.1509042829 0.5445519686 4281546303
-0.2506947219 -0.1505783796 0.5455632806 4282138440
-0.2507543266 -0.1500078887 0.5456930399 4282533198
-0.2504085600 -0.1491955668 0.5449405909 4282730577
-0.2512782514 -0.1491061747 0.5468332171 4283850085
-0.2509320080 -0.1482939720 0.5460796952 4284376429
-0.2509908378 -0.1477218568 0.5462077260 4285429117
-0.2510494590 -0.1471493393 0.5463352799 4286152840
-0.2511078715 -0.1465764344 0.5464624166 4286612621
-0.2515718639 -0.1462389827 0.5474721789 4287073172
-0.2512241304 -0.1454294026 0.5467153788 4287533725
-0.2520938218 -0.1453233212 0.5486080647 4287862690
-0.2521516383 -0.1447469592 0.5487338901 4287467932
-0.2522092462 -0.1441702098 0.5488592386 4287270553
-0.2522666454 -0.1435930580 0.5489841104 4286875795
-0.2523238361 -0.1430155039 0.5491086245 4286546830
-0.2523808181 -0.1424375772 0.5492326021 4286217866
-0.2528440952 -0.1420876831 0.5502408147 4286020487
-0.2529007792 -0.1415080279 0.5503641367 4285823108
-0.2533639073 -0.1411545724 0.5513720512 4285757315
-0.2534202635 -0.1405732036 0.5514946580 4285296764
-0.2538832426 -0.1402161717 0.5525022149 4285362557
-0.2539392710 -0.1396331042 0.5526241660 4285625729
-0.2539950907 -0.1390496492 0.5527455807 4285954694
-0.2544578314 -0.1386877149 0.5537526011 4286546831
-0.2545132935 -0.1381025612 0.5538733006 4287270554
-0.2545685768 -0.1375170201 0.5539935827 4287928484
-0.2550310194 -0.1371501982 0.5550000072 4288257449
-0.2550859451 -0.1365629584 0.5551195741 4289244344
-0.2555482388 -0.1361925602 0.5561255813 4289507516
-0.2556028366 -0.1356036216 0.5562444329 4289968067
-0.2556572258 -0.1350143105 0.5563627481 4290494411
-0.2557114065 -0.1344246417 0.5564806461 4290889169
-0.2561732531 -0.1340480298 0.5574857593 4291020755
-0.2562271059 -0.1334566623 0.5576028824 4291020755
-0.2562806904 -0.1328649074 0.5577195883 4291086548
-0.2563340962 -0.1322727948 0.5578357577 4291217620
-0.2572037876 -0.1320996732 0.5597283840 4291217620
-0.2572569251 -0.1315049380 0.5598440170 4291217620
-0.2573098242 -0.1309098303 0.5599591732 4291151827
-0.2573625147 -0.1303143650 0.5600738525 4291151827
-0.2574149966 -0.1297185123 0.5601880550 4291020241
-0.2578759193 -0.1293272674 0.5611910820 4290954961
-0.2579280436 -0.1287297606 0.5613045096 4291152340
-0.2579799294 -0.1281318814 0.5614174604 4291152340
-0.2584405541 -0.1277357638 0.5624198318 4291086547
-0.2584920824 -0.1271362305 0.5625320077 4291086547
-0.2589524686 -0.1267365366 0.5635339022 4291086547
-0.2590036392 -0.1261353344 0.5636452436 4290955731
-0.2594638467 -0.1257320940 0.5646467805 4290824145
-0.2599239945 -0.1253265887 0.5656480789 4290954961
-0.2599746287 -0.1247224137 0.5657583475 4291020754
-0.2600250840 -0.1241178885 0.5658680797 4291020241
-0.2604848444 -0.1237075254 0.5668686628 4291020241
-0.2605349123 -0.1231013462 0.5669776201 4290954448
-0.2605847418 -0.1224948242 0.5670860410 4290888655
-0.2610441744 -0.1220795959 0.5680858493 4290822862
-0.2610936165 -0.1214714199 0.5681934953 4290822862
-0.2615528107 -0.1210526377 0.5691927671 4290954448
-0.2616018951 -0.1204428226 0.5692995787 4290954448
-0.2616507411 -0.1198326573 0.5694058537 4290691789
-0.2616993487 -0.1192221567 0.5695116520 4290757582
-0.2617477477 -0.1186113134 0.5696169734 4290757582
-0.2622062266 -0.1181850880 0.5706147552 4290757582
-0.2622542381 -0.1175726131 0.5707191825 4290757583
-0.2623020113 -0.1169598028 0.5708231330 4290757583
-0.2623495460 -0.1163466573 0.5709266067 4290625997
-0.2628074586 -0.1159143001 0.5719231367 4290625997
-0.2628546059 -0.1152995303 0.5720257759 4290298061
-0.2633123100 -0.1148636267 0.5730217695 4290363854
-0.2633590698 -0.1142472401 0.5731235147 4290363854
-0.2638165057 -0.1138077900 0.5741190314 4290429647
-0.2642738521 -0.1133660972 0.5751143098 4290495438
-0.2643200457 -0.1127468050 0.5752148032 4290495438
-0.2647771239 -0.1123015657 0.5762095451 4290429645
-0.2648229003 -0.1116806641 0.5763091445 4290363852
-0.2652797401 -0.1112318933 0.5773033500 4290363852
-0.2653250992 -0.1106093824 0.5774020553 4290298059
-0.2653702497 -0.1099865586 0.5775002837 4290363852
-0.2662381232 -0.1097025201 0.5793889761 4290495438
-0.2662829459 -0.1090771258 0.5794864893 4290561486
-0.2663274705 -0.1084514186 0.5795834661 4290495693
-0.2663717866 -0.1078253984 0.5796798468 4290166728
-0.2664158642 -0.1071990654 0.5797757506 4289903556
-0.2664597034 -0.1065724194 0.5798711777 4289968836
-0.2669151723 -0.1061092168 0.5808624029 4289639871
-0.2669585943 -0.1054809913 0.5809568763 4289245626
-0.2674137950 -0.1050142646 0.5819475055 4288850868
-0.2674567699 -0.1043844596 0.5820410252 4288521903
-0.2674995363 -0.1037543491 0.5821340680 4288192938
-0.2679542601 -0.1032828316 0.5831236243 4287863718
-0.2684088647 -0.1028090715 0.5841130018 4287666339
-0.2688633800 -0.1023330688 0.5851020813 4287337374
-0.2689053416 -0.1016988456 0.5851933360 4287008409
-0.2689470351 -0.1010643244 0.5852841139 4286679444
-0.2694010437 -0.1005835459 0.5862721205 4286547858
-0.2694423199 -0.0999474600 0.5863619447 4286416274
-0.2698960304 -0.0994631723 0.5873492956 4286547860
-0.2699368596 -0.0988255367 0.5874381661 4286679446
-0.2699774504 -0.0981876105 0.5875265002 4286811032
-0.2700177729 -0.0975493938 0.5876142383 4286877078
-0.2704707980 -0.0970590785 0.5886000991 4287140250
-0.2705106735 -0.0964193195 0.5886869431 4287469215
-0.2705503106 -0.0957792774 0.5887731910 4287798180
-0.2705897093 -0.0951389596 0.5888589025 4288192938
-0.2706288397 -0.0944983587 0.5889440775 4288521903
-0.2710809410 -0.0940007791 0.5899279714 4289048247
-0.2711196244 -0.0933586434 0.5900121331 4289508798
-0.2711580694 -0.0927162394 0.5900957584 4289705662
-0.2707828283 -0.0919332057 0.5892791748 4290166213
-0.2712341547 -0.0914306119 0.5902613401 4290692557
-0.2712718248 -0.0907873958 0.5903433561 4291087315
-0.2717228234 -0.0902813300 0.5913248062 4291284694
-0.2709327340 -0.0893637314 0.5896054506 4291547866
-0.2717969716 -0.0889916047 0.5914861560 4291745245
-0.2592514157 -0.1812299341 0.5655514002 4291416540
-0.2593216300 -0.1806504726 0.5657045841 4290298572
-0.2593916655 -0.1800705492 0.5658573508 4289311677
-0.2594614923 -0.1794901639 0.5660097003 4288192683
-0.2595311701 -0.1789093018 0.5661616921 4286942616
-0.2592000067 -0.1780527681 0.5654392838 4286547858
-0.2596698999 -0.1777461767 0.5664643049 4286350479
-0.2589373291 -0.1766171157 0.5648662448 4286153100
-0.2590059936 -0.1760361791 0.5650160909 4286350479
-0.2586734593 -0.1751831919 0.5642905831 4287797925
-0.2587416470 -0.1746022552 0.5644393563 4289442750
-0.2584083974 -0.1737510413 0.5637124181 4290166215
-0.2584761083 -0.1731700748 0.5638601184 4289574078
-0.2573392391 -0.1717846841 0.5613800287 4286087049
-0.2578078210 -0.1714726090 0.5624022484 4283192157
-0.2558663785 -0.1695611477 0.5581670403 4281086781
-0.2559325695 -0.1689847112 0.5583114624 4279836714
-0.2555967271 -0.1681434363 0.5575788021 4280428079
-0.2548584640 -0.1670400649 0.5559683442 4280362286
-0.2545217276 -0.1662024409 0.5552336574 4280099114
-0.2537823617 -0.1651045382 0.5536208153 4280099114
-0.2518355250 -0.1632275879 0.5493738651 4279901478
-0.2510946691 -0.1621388048 0.5477576852 4280098857
-0.2495482266 -0.1605353653 0.5443841219 4280296236
-0.2496111691 -0.1599708498 0.5445214510 4280296236
-0.2488685250 -0.1588916928 0.5429013371 4279901478
-0.2493336797 -0.1585843563 0.5439161062 4280033064
-0.2489930540 -0.1577641964 0.5431730151 4280296493
-0.2486520261 -0.1569454372 0.5424290895 4280822837
-0.2487137169 -0.1563815475 0.5425636172 4281217595
-0.2487751991 -0.1558172405 0.5426977873 4281678146
-0.2488365024 -0.1552525163 0.5428315401 4282533455
-0.2488976121 -0.1546873599 0.5429648161 4283322971
-0.2489585280 -0.1541218013 0.5430977345 4284244073
-0.2494228482 -0.1538047045 0.5441105962 4285099382
-0.2494834810 -0.1532373875 0.5442428589 4285691519
-0.2495439053 -0.1526696682 0.5443747044 4285888898
-0.2500080466 -0.1523476541 0.5453871489 4286415242
-0.2497240305 -0.1509640366 0.5447676182 4287533723
-0.2503067553 -0.1494962424 0.5460388064 4287139735
-0.2503659129 -0.1489247382 0.5461678505 4286021254
-0.2504248619 -0.1483528316 0.5462964773 4285955461
-0.2504836023 -0.1477805227 0.5464246273 4285823877
-0.2505421638 -0.1472078115 0.5465523601 4285494912
-0.2510053515 -0.1468715817 0.5475628376 4285165947
-0.2506586611 -0.1460611820 0.5468065143 4284968568
-0.2511216402 -0.1457222998 0.5478165150 4284705396
-0.2515846193 -0.1453811675 0.5488264561 4284771189
-0.2512371242 -0.1445714235 0.5480684042 4285297533
-0.2516998947 -0.1442276537 0.5490779281 4285758084
-0.2521626055 -0.1438816190 0.5500873327 4286415759
-0.2522198260 -0.1433029324 0.5502121449 4286942103
-0.2522768378 -0.1427238584 0.5503365397 4287468447
-0.2523336411 -0.1421443969 0.5504604578 4288126377
-0.2523902357 -0.1415645480 0.5505838990 4288915379
-0.2524466217 -0.1409842968 0.5507069230 4289375930
-0.2529087663 -0.1406293958 0.5517150760 4290099653
-0.2529648542 -0.1400474459 0.5518373847 4290560204
-0.2534268200 -0.1396889538 0.5528452396 4291086548
-0.2530763447 -0.1388823688 0.5520806313 4291283927
-0.2539444268 -0.1387432367 0.5539743304 4291218134
-0.2539998293 -0.1381578743 0.5540952086 4291218134
-0.2544615269 -0.1377922446 0.5551023483 4291283927
-0.2541100085 -0.1369860023 0.5543355942 4291349720
-0.2545714676 -0.1366177350 0.5553421974 4291152341
-0.2550328672 -0.1362472028 0.5563487411 4291020755
-0.2550874054 -0.1356580555 0.5564677119 4291086548
-0.2559555769 -0.1354993880 0.5583615899 4291086548
-0.2551958263 -0.1344786435 0.5567042232 4291020755
-0.2556568086 -0.1341019124 0.5577098727 4291020755
-0.2557105720 -0.1335103214 0.5578271151 4291152341
-0.2557640970 -0.1329183578 0.5579439402 4291218134
-0.2562247813 -0.1325367391 0.5589488745 4291151828
-0.2566854358 -0.1321528703 0.5599537492 4291086035
-0.2571460009 -0.1317667365 0.5609585047 4291151828
-0.2567913234 -0.1309625804 0.5601847768 4291217621
-0.2572516501 -0.1305738240 0.5611889958 4291086548
-0.2573041320 -0.1299768239 0.5613034964 4291086548
-0.2573564053 -0.1293794513 0.5614175200 4291086548
-0.2574084699 -0.1287817210 0.5615310669 4291152341
-0.2578683197 -0.1283867657 0.5625342131 4290889168
-0.2583281100 -0.1279895604 0.5635372996 4290823375
-0.2579714954 -0.1271875948 0.5627592802 4290823375
-0.2584310174 -0.1267877668 0.5637617111 4290889168
-0.2588904500 -0.1263856888 0.5647640228 4290758352
-0.2589414418 -0.1257829517 0.5648751855 4290758352
-0.2594006658 -0.1253773123 0.5658770204 4290758352
-0.2594512701 -0.1247729138 0.5659874082 4290758352
-0.2595016658 -0.1241681650 0.5660973191 4290823375
-0.2599605322 -0.1237576529 0.5670983791 4290889168
-0.2600105405 -0.1231512502 0.5672074556 4290823375
-0.2600603104 -0.1225444973 0.5673160553 4290691789
-0.2605188489 -0.1221291199 0.5683162808 4290495180
-0.2605682313 -0.1215207130 0.5684240460 4290495180
-0.2606174052 -0.1209119707 0.5685313344 4290560973
-0.2610755563 -0.1204917356 0.5695307851 4290560973
-0.2615336478 -0.1200692505 0.5705300570 4290692559
-0.2611729205 -0.1192706153 0.5697430968 4290495180
-0.2616306841 -0.1188455299 0.5707417130 4290429132
-0.2616788447 -0.1182331592 0.5708467960 4290429132
-0.2621363997 -0.1178045198 0.5718449354 4290429132
-0.2621841729 -0.1171905175 0.5719491839 4290494925
-0.2622317374 -0.1165761873 0.5720528960 4290560718
-0.2626888454 -0.1161427051 0.5730501413 4290494925
-0.2627360225 -0.1155267432 0.5731530190 4290495438
-0.2631928921 -0.1150897145 0.5741496682 4290429645
-0.2636497021 -0.1146504357 0.5751461983 4290363852
-0.2641063929 -0.1142088994 0.5761424899 4290232266
-0.2641528249 -0.1135887355 0.5762437582 4290100680
-0.2646092772 -0.1131436601 0.5772395134 4289837508
-0.2646553218 -0.1125218794 0.5773399472 4289574849
-0.2647011280 -0.1118997708 0.5774398446 4289443263
-0.2647466660 -0.1112773418 0.5775392056 4289114297
-0.2652025223 -0.1108261570 0.5785336494 4288851125
-0.2652476728 -0.1102021188 0.5786321163 4288456367
-0.2652925849 -0.1095777676 0.5787301064 4288061609
-0.2657479942 -0.1091217622 0.5797235966 4287666851
-0.2657925189 -0.1084958091 0.5798206925 4287337886
-0.2658367753 -0.1078695506 0.5799171925 4286943128
-0.2658807933 -0.1072429717 0.5800132155 4286679956
-0.2659245431 -0.1066160873 0.5801087022 4286350219
-0.2659680843 -0.1059888899 0.5802037120 4286350219
-0.2664225399 -0.1055242345 0.5811950564 4286350219
-0.2664656341 -0.1048954576 0.5812891126 4286416012
-0.2669197917 -0.1044272855 0.5822798014 4286547600
-0.2673738301 -0.1039568558 0.5832702518 4286744979
-0.2678277493 -0.1034841910 0.5842604637 4287008664
-0.2678700686 -0.1028512865 0.5843528509 4287206043
-0.2679121494 -0.1022180915 0.5844446421 4287666594
-0.2679539919 -0.1015845910 0.5845358968 4287929766
-0.2684072554 -0.1011058688 0.5855246782 4288258731
-0.2688603997 -0.1006248966 0.5865131617 4288719282
-0.2689016163 -0.0999885723 0.5866031051 4289179578
-0.2693544328 -0.0995040908 0.5875909328 4289574336
-0.2693952322 -0.0988662019 0.5876799226 4290034887
-0.2694357634 -0.0982280299 0.5877683163 4290429645
-0.2694760561 -0.0975895673 0.5878562331 4291218903
-0.2699281871 -0.0970990583 0.5888425708 4291416282
-0.2699680328 -0.0964590460 0.5889294744 4291679454
-0.2579948902 -0.1801627427 0.5641772747 4291088088
-0.2580646276 -0.1795844287 0.5643297434 4290101193
-0.2581341565 -0.1790056378 0.5644818544 4288982712
-0.2582035065 -0.1784263849 0.5646334887 4287995817
-0.2582726777 -0.1778466552 0.5647847056 4287139995
-0.2575418353 -0.1767176539 0.5631865263 4286284686
-0.2576104105 -0.1761388034 0.5633364916 4286284686
-0.2572786510 -0.1752868891 0.5626110435 4286021514
-0.2573467493 -0.1747080088 0.5627599359 4286482067
-0.2566139996 -0.1735870540 0.5611575246 4288126892
-0.2570819259 -0.1732789725 0.5621808171 4290100422
-0.2567487955 -0.1724306196 0.5614523292 4289310906
-0.2564152777 -0.1715836227 0.5607230067 4286744979
-0.2560813427 -0.1707379818 0.5599927902 4286679186
-0.2561478615 -0.1701599807 0.5601382256 4285560705
-0.2554122806 -0.1690507680 0.5585296750 4282336848
-0.2550771534 -0.1682091951 0.5577968359 4280888632
-0.2547416389 -0.1673689932 0.5570631027 4279967530
-0.2519980669 -0.1649541855 0.5510635972 4279506979
-0.2520625293 -0.1643839329 0.5512045026 4279638565
-0.2513238192 -0.1632915437 0.5495891571 4279704356
-0.2505845129 -0.1622023731 0.5479724407 4280033321
-0.2498446107 -0.1611163914 0.5463544130 4280099114
-0.2491041124 -0.1600336283 0.5447351336 4280033321
-0.2487649024 -0.1592112929 0.5439933538 4280690994
-0.2484253049 -0.1583903581 0.5432507396 4282335819
-0.2484873980 -0.1578262001 0.5433865190 4285100152
-0.2481471151 -0.1570071578 0.5426424146 4286547598
-0.2482087165 -0.1564430743 0.5427771211 4287337114
-0.2482701391 -0.1558785737 0.5429114103 4287205528
-0.2483313680 -0.1553136557 0.5430452824 4287073942
-0.2483924031 -0.1547483206 0.5431787968 4286679184
-0.2484532446 -0.1541825682 0.5433118343 4286087047
-0.2489166558 -0.1538653672 0.5443252325 4285823875
-0.2489772141 -0.1532978565 0.5444576144 4285429117
-0.2490375638 -0.1527299434 0.5445896387 4285363324
-0.2495007962 -0.1524078399 0.5456026196 4285231738
-0.2495608628 -0.1518381685 0.5457339287 4285165945
-0.2496207356 -0.1512681097 0.5458648801 4285100152
-0.2496803999 -0.1506976187 0.5459953547 4285297531
-0.2497398704 -0.1501267403 0.5461254120 4285758084
-0.2497991472 -0.1495554447 0.5462550521 4286021256
-0.2502618730 -0.1492244154 0.5472669005 4286942358
-0.2495133579 -0.1481718719 0.5456300974 4287468702
-0.2499757856 -0.1478391141 0.5466412902 4288060839
-0.2496303320 -0.1470282972 0.5458858609 4288521390
-0.2504965663 -0.1469298750 0.5477801561 4289179320
-0.2505547404 -0.1463552266 0.5479073524 4289705664
-0.2510169446 -0.1460153162 0.5489180684 4290165960
-0.2510747910 -0.1454389542 0.5490446091 4290758097
-0.2519412637 -0.1453287303 0.5509393215 4291021269
-0.2519989014 -0.1447497010 0.5510653853 4291152855
-0.2516517639 -0.1439388692 0.5503062606 4291350234
-0.2521135807 -0.1435904801 0.5513161421 4291416027
-0.2517658472 -0.1427807212 0.5505557656 4291416027
-0.2522274256 -0.1424296647 0.5515651703 4291481820
-0.2522840500 -0.1418486685 0.5516889691 4291416027
-0.2523404658 -0.1412672848 0.5518123507 4291284441
-0.2528018057 -0.1409113258 0.5528211594 4291415512
-0.2528578937 -0.1403282285 0.5529438257 4291283926
-0.2533190846 -0.1399687082 0.5539523363 4291086548
-0.2529694438 -0.1391608864 0.5531877875 4291020755
-0.2534303963 -0.1387986988 0.5541957617 4291086548
-0.2538913190 -0.1384342760 0.5552036762 4291283927
-0.2539465427 -0.1378473788 0.5553244352 4291415512
