VERSION 0.7
FIELDS x y z rgba
SIZE 4 4 4 4
TYPE F F F U
COUNT 1 1 1 1
WIDTH 920
HEIGHT 1
VIEWPOINT 0.0 0.0 0.0 1.0 0.0 0.0 0.0
POINTS 920
DATA ascii
-0.2712831795 -0.1028262153 0.5805456042 4282137919
-0.2717438340 -0.1023546979 0.5815314054 4283585365
-0.2726225257 -0.1020374447 0.5834118128 4286217087
-0.2735011876 -0.1017160192 0.5852921605 4282137921
-0.2743799090 -0.1013904214 0.5871725678 4280757038
-0.2752586007 -0.1010606438 0.5890530348 4285625720
-0.2765556872 -0.1008793041 0.5918287635 4290560195
-0.2735618949 -0.1228448451 0.5868168473 4292534242
-0.2736122310 -0.1222153306 0.5869248509 4291547347
-0.2740775943 -0.1217699721 0.5879230499 4290297280
-0.2741275430 -0.1211388111 0.5880301595 4288586405
-0.2741772234 -0.1205073074 0.5881367326 4287073166
-0.2742266655 -0.1198754609 0.5882428288 4286283650
-0.2742758691 -0.1192432716 0.5883483887 4285954685
-0.2743248343 -0.1186107397 0.5884534121 4285822327
-0.2743735313 -0.1179778725 0.5885578990 4285822327
-0.2744220197 -0.1173446700 0.5886618495 4286085499
-0.2744702399 -0.1167111322 0.5887653232 4286809222
-0.2741022706 -0.1159013882 0.5879760385 4284835432
-0.2741499543 -0.1152681485 0.5880782604 4284769639
-0.2741973698 -0.1146345735 0.5881800056 4288059289
-0.2742445469 -0.1140006781 0.5882812142 4287664531
-0.2742914855 -0.1133664548 0.5883818865 4285427569
-0.2743381560 -0.1127319038 0.5884820223 4282927435
-0.2743846178 -0.1120970324 0.5885816216 4282203712
-0.2744308114 -0.1114618331 0.5886807442 4282466884
-0.2744767368 -0.1108263209 0.5887792706 4282926924
-0.2745224535 -0.1101904884 0.5888773203 4282795338
-0.2745679021 -0.1095543355 0.5889747739 4282466373
-0.2737796605 -0.1085873172 0.5872839689 4282203201
-0.2734076977 -0.1077881604 0.5864861012 4281677111
-0.2726185024 -0.1068272814 0.5847932100 4281545525
-0.2718288004 -0.1058699638 0.5830991864 4281282353
-0.2714555562 -0.1050776169 0.5822985172 4281479732
-0.2710819244 -0.1042869017 0.5814970732 4282071615
-0.2707079053 -0.1034978256 0.5806947947 4283058510
-0.2703335285 -0.1027103886 0.5798916817 4283124814
-0.2707932591 -0.1022396609 0.5808778405 4282006333
-0.2708355486 -0.1016101316 0.5809685588 4282795849
-0.2712949812 -0.1011359021 0.5819540620 4285559155
-0.2721717358 -0.1008140668 0.5838348269 4282795851
-0.2726309896 -0.1003343984 0.5848199129 4280427303
-0.2735076845 -0.1000051722 0.5867005587 4284046688
-0.2748019993 -0.0998234823 0.5894770026 4290033851
-0.2722436488 -0.1218944341 0.5853837729 4292600036
-0.2727079988 -0.1214508265 0.5863821507 4291613141
-0.2727577090 -0.1208213344 0.5864890814 4290033596
-0.2732217908 -0.1203741655 0.5874869227 4288454564
-0.2732710838 -0.1197430342 0.5875929594 4287270545
-0.2733201683 -0.1191115603 0.5876985192 4286415236
-0.2733689845 -0.1184797436 0.5878034830 4286282878
-0.2734175920 -0.1178475991 0.5879079700 4286019706
-0.2734659314 -0.1172151119 0.5880119205 4285624948
-0.2730989754 -0.1164053828 0.5872228742 4286019706
-0.2731467783 -0.1157731861 0.5873256326 4286151292
-0.2731943130 -0.1151406616 0.5874278545 4285493362
-0.2732416093 -0.1145078093 0.5875295401 4287006601
-0.2732886672 -0.1138746291 0.5876307487 4287796117
-0.2733354568 -0.1132411212 0.5877313614 4286546050
-0.2737975121 -0.1127784178 0.5887248516 4285295983
-0.2738438845 -0.1121433005 0.5888245702 4283059021
-0.2734743953 -0.1113386527 0.5880301595 4281611575
-0.2735202312 -0.1107038558 0.5881286860 4282269507
-0.2735657990 -0.1100687385 0.5882266760 4282664265
-0.2731953263 -0.1092669964 0.5874300599 4282664265
-0.2724085450 -0.1083015203 0.5857383013 4282664265
-0.2720372081 -0.1075039804 0.5849398375 4282203455
-0.2712494731 -0.1065446585 0.5832460523 4282203455
-0.2712934017 -0.1059137806 0.5833405256 4281018927
-0.2709209323 -0.1051211208 0.5825396180 4281347892
-0.2709642947 -0.1044906005 0.5826328397 4281479478
-0.2701748312 -0.1035407037 0.5809353590 4282203201
-0.2698012292 -0.1027529538 0.5801320076 4282137921
-0.2698436677 -0.1021244451 0.5802232027 4282137921
-0.2694693506 -0.1013390124 0.5794184208 4280558889
-0.2695112228 -0.1007108837 0.5795084238 4282598472
-0.2695528567 -0.1000824571 0.5795979500 4285690744
-0.2695942223 -0.0994537473 0.5796868801 4283387989
-0.2704688609 -0.0991302356 0.5815675259 4280690476
-0.2717602849 -0.0989543200 0.5843443871 4283322196
-0.2726349831 -0.0986214727 0.5862252116 4289111979
-0.2739266157 -0.0984342769 0.5890024900 4292730594
-0.2709273696 -0.1209466606 0.5839480162 4292665829
-0.2713904977 -0.1205035001 0.5849462152 4291546835
-0.2714397609 -0.1198753417 0.5850524306 4290362561
-0.2719026506 -0.1194286197 0.5860501528 4289046701
-0.2719515264 -0.1187988222 0.5861554742 4287599255
-0.2720001340 -0.1181686819 0.5862602592 4286809222
-0.2720485330 -0.1175382137 0.5863645077 4286085499
-0.2720966637 -0.1169074029 0.5864682794 4286151292
-0.2721445560 -0.1162762567 0.5865715146 4285624948
-0.2717779279 -0.1154687628 0.5857812762 4286414464
-0.2718252838 -0.1148379222 0.5858833194 4286348671
-0.2718723714 -0.1142067462 0.5859848261 4286546050
-0.2719192207 -0.1135752425 0.5860858560 4287532945
-0.2723804116 -0.1131155863 0.5870798826 4287269773
-0.2724268436 -0.1124824733 0.5871799588 4286348671
-0.2724730372 -0.1118490398 0.5872794986 4284638053
-0.2721042037 -0.1110460013 0.5864844918 4282598470
-0.2721498311 -0.1104128882 0.5865828991 4282137919
-0.2721952200 -0.1097794548 0.5866807103 4282532677
-0.2718253434 -0.1089793295 0.5858834982 4282532677
-0.2710400522 -0.1080154032 0.5841908455 4282598470
-0.2706693411 -0.1072194874 0.5833919048 4282795338
-0.2702982724 -0.1064251885 0.5825920701 4282203201
-0.2703420818 -0.1057950333 0.5826864839 4281874237
-0.2703856528 -0.1051645726 0.5827804208 4281282100
-0.2700135708 -0.1043732315 0.5819784403 4281676858
-0.2692256272 -0.1034239233 0.5802801251 4281676858
-0.2688527107 -0.1026368365 0.5794764161 4281743163
-0.2688950300 -0.1020090505 0.5795676112 4281479991
-0.2685214579 -0.1012242734 0.5787623525 4280822061
-0.2681474686 -0.1004411429 0.5779563189 4281348405
-0.2677731216 -0.0996596664 0.5771494508 4282664266
-0.2673983872 -0.0988798514 0.5763418078 4286019709
-0.2674392164 -0.0982544944 0.5764297843 4284111712
-0.2687277794 -0.0980843455 0.5792070627 4279966753
-0.2696003914 -0.0977572203 0.5810878873 4282335300
-0.2708891332 -0.0975757986 0.5838655829 4288651428
-0.2721779943 -0.0973882526 0.5866435766 4293059557
-0.2695637941 -0.1206267104 0.5824032426 4293060589
-0.2700259089 -0.1201853007 0.5834016800 4292073694
-0.2700749636 -0.1195588186 0.5835076571 4291152592
-0.2701238096 -0.1189320013 0.5836131573 4290099901
-0.2701723874 -0.1183048412 0.5837181211 4288652455
-0.2702207267 -0.1176773384 0.5838225484 4287993245
-0.2702688277 -0.1170495003 0.5839264989 4287072143
-0.2707300186 -0.1165993512 0.5849229097 4286348674
-0.2707777321 -0.1159698889 0.5850259662 4285953916
-0.2704117000 -0.1151639968 0.5842351913 4285888120
-0.2704588473 -0.1145348325 0.5843370557 4286085499
-0.2705057561 -0.1139053404 0.5844383836 4286217339
-0.2709661126 -0.1134487316 0.5854329467 4286151546
-0.2710125744 -0.1128176227 0.5855333805 4287072646
-0.2710588276 -0.1121861935 0.5856333375 4286809474
-0.2711048126 -0.1115544364 0.5857326984 4286085751
-0.2707366049 -0.1107530147 0.5849371552 4284572512
-0.2707820535 -0.1101215929 0.5850353241 4282861383
-0.2708272338 -0.1094898432 0.5851329565 4282466625
-0.2704580128 -0.1086913347 0.5843352079 4282729799
-0.2696741521 -0.1077289656 0.5826416612 4282400834
-0.2697184086 -0.1070991755 0.5827372670 4282664265
-0.2693480253 -0.1063055396 0.5819370747 4282993230
-0.2693917453 -0.1056761071 0.5820314884 4282664265
-0.2694351971 -0.1050463691 0.5821253657 4281940542
-0.2690638006 -0.1042556837 0.5813229680 4281808956
-0.2686920464 -0.1034666374 0.5805197954 4281282612
-0.2679052055 -0.1025205329 0.5788198113 4281216819
-0.2679474056 -0.1018934697 0.5789109468 4281414198
-0.2675745189 -0.1011093557 0.5781053305 4281479992
-0.2667863369 -0.1001711041 0.5764024854 4281808957
-0.2659976780 -0.0992364511 0.5746985078 4282072129
-0.2656235397 -0.0984592363 0.5738901496 4283256403
-0.2656641304 -0.0978365466 0.5739778280 4285822330
-0.2661196291 -0.0973654762 0.5749620199 4283322196
-0.2669902444 -0.0970430970 0.5768430233 4279374616
-0.2678608596 -0.0967165381 0.5787240267 4282072129
-0.2691468298 -0.0965347663 0.5815023780 4288060061
-0.2704329193 -0.0963468701 0.5842810273 4292533985
-0.2686639428 -0.1198667511 0.5818553567 4292863210
-0.2687128186 -0.1192419454 0.5819611549 4292139487
-0.2687614262 -0.1186168045 0.5820664167 4291086797
-0.2688098252 -0.1179913208 0.5821712017 4289770937
-0.2688579559 -0.1173655018 0.5822755098 4289177519
-0.2689058483 -0.1167393476 0.5823792219 4287993245
-0.2693660259 -0.1162909493 0.5833758116 4287203983
-0.2694135308 -0.1156631634 0.5834786892 4286743432
-0.2690481246 -0.1148588881 0.5826873183 4286348671
-0.2690950632 -0.1142314076 0.5827890038 4286282878
-0.2691417634 -0.1136035994 0.5828901529 4286283132
-0.2696011066 -0.1131487414 0.5838849545 4286283132
-0.2696473897 -0.1125193164 0.5839852095 4286151544
-0.2696934342 -0.1118895710 0.5840849280 4286612095
-0.2697392404 -0.1112595052 0.5841841102 4286414718
-0.2693716586 -0.1104597002 0.5833880305 4285954167
-0.2690036893 -0.1096615121 0.5825911164 4284506467
-0.2690486014 -0.1090324223 0.5826883912 4282598470
-0.2686799467 -0.1082364991 0.5818899870 4282137921
-0.2683109045 -0.1074422002 0.5810907483 4282269507
-0.2679414749 -0.1066495180 0.5802906752 4282664265
-0.2679852247 -0.1060220897 0.5803853869 4282795851
-0.2676151097 -0.1052317023 0.5795838237 4282795851
-0.2676583230 -0.1046046242 0.5796774030 4282532679
-0.2672875226 -0.1038165390 0.5788743496 4281940542
-0.2673301697 -0.1031898335 0.5789666772 4281348405
-0.2665447891 -0.1022452861 0.5772657990 4281216820
-0.2665868104 -0.1016199216 0.5773568153 4281019441
-0.2662145793 -0.1008374393 0.5765506029 4281282613
-0.2654278576 -0.0999007598 0.5748468637 4281479992
-0.2646406591 -0.0989676714 0.5731419921 4281545785
-0.2646813989 -0.0983460024 0.5732301474 4282006336
-0.2638933361 -0.0974181816 0.5715234280 4282993231
-0.2639334202 -0.0967978910 0.5716102719 4283980126
-0.2643876970 -0.0963282958 0.5725941062 4282993231
-0.2656707764 -0.0961565003 0.5753728747 4280229925
-0.2669539750 -0.0959785655 0.5781519413 4281678140
-0.2682372928 -0.0957945064 0.5809313059 4287928475
-0.2695207298 -0.0956043079 0.5837109089 4293191145
-0.2677645981 -0.1191076711 0.5813058615 4293060587
-0.2678130865 -0.1184832528 0.5814111233 4292139485
-0.2678613365 -0.1178584918 0.5815158486 4291021004
-0.2674978077 -0.1170533150 0.5807266831 4290493379
-0.2675454915 -0.1164288446 0.5808302164 4289045933
-0.2675929666 -0.1158040389 0.5809332132 4288059292
-0.2676401734 -0.1151788980 0.5810357332 4287598741
-0.2676871717 -0.1145534366 0.5811377764 4287006603
-0.2681457996 -0.1141029149 0.5821334720 4286743431
-0.2681923807 -0.1134758294 0.5822345614 4286809476
-0.2682387233 -0.1128484160 0.5823351741 4286875269
-0.2682847977 -0.1122206822 0.5824351907 4285888374
-0.2683306634 -0.1115926206 0.5825347304 4286085753
-0.2679640353 -0.1107937917 0.5817387700 4286677636
-0.2680093050 -0.1101660579 0.5818371177 4286217085
-0.2676419914 -0.1093694866 0.5810396671 4285427571
-0.2676867247 -0.1087420806 0.5811368227 4284177504
-0.2669061720 -0.1077812016 0.5794422626 4282203714
-0.2665376961 -0.1069894880 0.5786423087 4281808956
-0.2665815055 -0.1063640565 0.5787374377 4282532679
-0.2662123442 -0.1055746377 0.5779359937 4282664265
-0.2662555873 -0.1049495563 0.5780298710 4282598473
-0.2658857405 -0.1041624323 0.5772269368 4282401094
-0.2659284472 -0.1035377234 0.5773196816 4281743164
-0.2655579150 -0.1027529016 0.5765152574 4281282613
-0.2656000853 -0.1021285653 0.5766067505 4281151027
-0.2656419873 -0.1015039235 0.5766977668 4280887855
-0.2652704418 -0.1007221043 0.5758911967 4280953648
-0.2648985684 -0.0999419391 0.5750837922 4281216820
-0.2636996508 -0.0988535360 0.5724809766 4282664012
-0.2633268535 -0.0980786234 0.5716717243 4283782493
-0.2629537284 -0.0973053798 0.5708616376 4283782493
-0.2625802159 -0.0965337902 0.5700507760 4283519321
-0.2634470463 -0.0962170213 0.5719326138 4283782493
-0.2651411593 -0.0961962044 0.5756105185 4284440423
-0.2660081387 -0.0958691165 0.5774926543 4280625197
-0.2672888637 -0.0956859663 0.5802730918 4283191124
-0.2681559026 -0.0953495353 0.5821553469 4289046956
-0.2660445869 -0.1179853454 0.5789678097 4292797415
-0.2660925686 -0.1173632294 0.5790721774 4291942106
-0.2661403120 -0.1167407781 0.5791760683 4291481044
-0.2661877871 -0.1161179915 0.5792794228 4290099391
-0.2662350535 -0.1154948696 0.5793823004 4288915115
-0.2662820816 -0.1148714200 0.5794846416 4288191392
-0.2663288414 -0.1142476350 0.5795864463 4287533715
-0.2667864859 -0.1137988716 0.5805822611 4287138957
-0.2668328583 -0.1131734774 0.5806832314 4287204234
-0.2668789923 -0.1125477478 0.5807836056 4287138441
-0.2669248879 -0.1119217053 0.5808835030 4287006855
-0.2669705451 -0.1112953350 0.5809828639 4284967272
-0.2670159638 -0.1106686443 0.5810816884 4285559155
-0.2666496336 -0.1098720804 0.5802844763 4286348671
-0.2662829459 -0.1090771258 0.5794864893 4286217087
-0.2663274705 -0.1084514186 0.5795834661 4285822329
-0.2659600973 -0.1076587439 0.5787839293 4283914333
-0.2655923367 -0.1068676934 0.5779835582 4282598473
-0.2652241886 -0.1060782671 0.5771824121 4282466886
-0.2652675509 -0.1054542214 0.5772768259 4282532679
-0.2648987174 -0.1046670973 0.5764741898 4282137922
-0.2649415731 -0.1040434092 0.5765673518 4281874750
-0.2649841607 -0.1034194231 0.5766600370 4281611578
-0.2646143138 -0.1026352718 0.5758552551 4281414199
-0.2646563649 -0.1020116583 0.5759467483 4281151027
-0.2646981478 -0.1013877466 0.5760377049 4281085234
-0.2639149725 -0.1004496366 0.5743333101 4281085234
-0.2635437250 -0.0996711105 0.5735253692 4280690476
-0.2635845840 -0.0990492404 0.5736143589 4281545531
-0.2628000975 -0.0981190130 0.5719071031 4282071875
-0.2624277472 -0.0973454639 0.5710967779 4282729805
-0.2612296343 -0.0962693989 0.5684894919 4282664012
-0.2629201412 -0.0962566733 0.5721683502 4282269254
-0.2617212534 -0.0951849297 0.5695593357 4284374630
-0.2638247013 -0.0953120217 0.5741368532 4284375398
-0.2646897435 -0.0949845314 0.5760193467 4281941057
-0.2639027834 -0.0940640420 0.5743067861 4284243812
-0.2660067081 -0.0941707715 0.5788853765 4290954698
-0.2647379041 -0.1170486510 0.5775200725 4292600036
-0.2647854388 -0.1164278835 0.5776237845 4292073181
-0.2648327351 -0.1158067808 0.5777269602 4291020493
-0.2652898133 -0.1153636575 0.5787240863 4289770424
-0.2653367221 -0.1147409305 0.5788263679 4288651943
-0.2653833628 -0.1141178757 0.5789281130 4287796887
-0.2654297948 -0.1134944931 0.5790293813 4287402129
-0.2654759586 -0.1128707826 0.5791301131 4287073162
-0.2655219138 -0.1122467443 0.5792303681 4286875783
-0.2655676007 -0.1116223931 0.5793300271 4287204748
-0.2656130493 -0.1109977141 0.5794292092 4285428337
-0.2656582892 -0.1103727147 0.5795278549 4284440928
-0.2652925849 -0.1095777676 0.5787301064 4285427823
-0.2653372586 -0.1089531034 0.5788275599 4286480259
-0.2649708986 -0.1081604287 0.5780283213 4286282880
-0.2646041512 -0.1073693782 0.5772282481 4285493364
-0.2642370164 -0.1065799519 0.5764274001 4284243297
-0.2642804980 -0.1059569418 0.5765222907 4283257172
-0.2639127076 -0.1051698104 0.5757198930 4282007105
-0.2635444999 -0.1043843105 0.5749167204 4281480761
-0.2635871470 -0.1037623286 0.5750097036 4281743933
-0.2636295557 -0.1031400412 0.5751022696 4281743678
-0.2632603645 -0.1023575217 0.5742968917 4281546299
-0.2633022368 -0.1017356142 0.5743882060 4281283127
-0.2633438408 -0.1011134014 0.5744789839 4281151541
-0.2633852363 -0.1004908979 0.5745692253 4280690990
-0.2626031339 -0.0995560214 0.5728631616 4280690990
-0.2626439035 -0.0989348814 0.5729520917 4280888369
-0.2618609667 -0.0980052650 0.5712440610 4281348920
-0.2614893019 -0.0972323716 0.5704333186 4282796368
-0.2594698668 -0.0958525687 0.5660279989 4284441193
-0.2586853206 -0.0949357450 0.5643165112 4284309607
-0.2591362298 -0.0944731310 0.5653001070 4282993747
-0.2608231306 -0.0944559574 0.5689800978 4283585882
-0.2620981932 -0.0942824408 0.5717616081 4283980640
-0.2625490427 -0.0938082635 0.5727451444 4281414713
-0.2646486759 -0.0939170048 0.5773254633 4288191392
-0.2634332180 -0.1161146462 0.5760697126 4292599525
-0.2634803355 -0.1154952347 0.5761727095 4291678423
-0.2639363706 -0.1150538623 0.5771700144 4290362561
-0.2639830709 -0.1144328266 0.5772721171 4288849322
-0.2640295327 -0.1138114631 0.5773736835 4287796887
-0.2640757561 -0.1131897718 0.5774747729 4287204750
-0.2641217113 -0.1125677526 0.5775752664 4286744197
-0.2645770311 -0.1121189669 0.5785709620 4286481025
-0.2646225989 -0.1114953309 0.5786706209 4286612611
-0.2646679282 -0.1108713821 0.5787697434 4286744197
-0.2647130489 -0.1102471054 0.5788683891 4285099372
-0.2643480599 -0.1094528213 0.5780702233 4283915098
-0.2643926144 -0.1088288873 0.5781676173 4284770409
-0.2640269399 -0.1080368683 0.5773680210 4286020476
-0.2640709281 -0.1074132696 0.5774642229 4286217857
-0.2632944584 -0.1064577177 0.5757662654 4285559927
-0.2629276514 -0.1056705788 0.5749641657 4284704618
-0.2629707456 -0.1050489619 0.5750583410 4281743933
-0.2626032531 -0.1042641252 0.5742547512 4281283382
-0.2626457810 -0.1036428735 0.5743477345 4281678140
-0.2622776330 -0.1028603464 0.5735426545 4281612347
-0.2623196244 -0.1022394598 0.5736345053 4281480761
-0.2623613477 -0.1016182825 0.5737257600 4281612092
-0.2628135085 -0.1011548564 0.5747144818 4281283127
-0.2620334029 -0.1002179533 0.5730085969 4281085748
-0.2616635859 -0.0994407535 0.5721998811 4280822576
-0.2617042363 -0.0988203436 0.5722887516 4280296232
-0.2609228194 -0.0978913307 0.5705800056 4281019955
-0.2589080334 -0.0965063795 0.5661741495 4281941057
-0.2593585551 -0.0960441455 0.5671592951 4282598987
-0.2585756779 -0.0951259807 0.5654473305 4282993747
-0.2590257525 -0.0946622193 0.5664315820 4282204231
-0.2594757378 -0.0941962227 0.5674155354 4281414713
-0.2607481480 -0.0940246060 0.5701979995 4283454296
-0.2611979842 -0.0935522020 0.5711817741 4282927952
-0.2620591223 -0.0932239145 0.5730648637 4285625465
-0.2596285939 -0.0917284787 0.5677498579 4292402144
-0.2625388801 -0.1153627485 0.5755117536 4292402148
-0.2625856102 -0.1147437245 0.5756141543 4291217870
-0.2626321018 -0.1141243801 0.5757160783 4289770424
-0.2626783550 -0.1135047078 0.5758174658 4288323233
-0.2627243698 -0.1128847077 0.5759183764 4287336338
-0.2627701461 -0.1122643799 0.5760186911 4286481025
-0.2632244229 -0.1118173599 0.5770145655 4286020474
-0.2632698119 -0.1111954153 0.5771140456 4286415232
-0.2633149326 -0.1105731577 0.5772129893 4286086267
-0.2633598447 -0.1099505797 0.5773113966 4285823095
-0.2634045184 -0.1093276888 0.5774093270 4284178270
-0.2630398571 -0.1085356772 0.5766099691 4283388756
-0.2630839646 -0.1079131216 0.5767066479 4284836202
-0.2627186477 -0.1071233898 0.5759057999 4286152064
-0.2623529136 -0.1063352898 0.5751041174 4286612615
-0.2619868219 -0.1055488214 0.5743016005 4285428086
-0.2616203725 -0.1047639772 0.5734983087 4282401608
-0.2616630197 -0.1041437611 0.5735917687 4282072643
-0.2612958848 -0.1033612266 0.5727869868 4281546299
-0.2613379955 -0.1027413756 0.5728792548 4281283127
-0.2609701753 -0.1019611582 0.5720729828 4281283127
-0.2610117197 -0.1013416797 0.5721640587 4281677885
-0.2614628673 -0.1008800268 0.5731530190 4281414713
-0.2610941231 -0.1001018360 0.5723447204 4281151541
-0.2607250214 -0.0993253067 0.5715355873 4280954162
-0.2607655525 -0.0987056345 0.5716244578 4280822578
-0.2603957653 -0.0979314521 0.5708138943 4280822578
-0.2592053711 -0.0968524367 0.5682043433 4280756785
-0.2592449188 -0.0962358043 0.5682910681 4281151543
-0.2580534518 -0.0951650068 0.5656792521 4282401610
-0.2580923438 -0.0945507437 0.5657645464 4283717470
-0.2577206194 -0.0937868655 0.5649496317 4283191379
-0.2585798502 -0.0934697539 0.5668331981 4281283382
-0.2561550736 -0.0919693708 0.5615177751 4285428599
-0.2582454979 -0.0920909420 0.5661002398 4285297013
-0.2599256933 -0.0920570269 0.5697833896 4291086797
-0.2611909509 -0.1150505692 0.5739544034 4292731370
-0.2612374723 -0.1144332439 0.5740566254 4292007388
-0.2612837851 -0.1138155907 0.5741583705 4290888907
-0.2613298297 -0.1131976098 0.5742595196 4289441714
-0.2613756359 -0.1125793010 0.5743602514 4288060061
-0.2614212334 -0.1119606644 0.5744603872 4286744199
-0.2618744969 -0.1115154102 0.5754563808 4285954683
-0.2619196773 -0.1108951643 0.5755556822 4285625716
-0.2619646192 -0.1102746055 0.5756544471 4285296751
-0.2620093226 -0.1096537262 0.5757526755 4285099374
-0.2620537877 -0.1090325266 0.5758504272 4284507237
-0.2616897821 -0.1082421467 0.5750505328 4283322965
-0.2617337108 -0.1076212823 0.5751470327 4283059793
-0.2613690197 -0.1068331897 0.5743456483 4284638825
-0.2610039413 -0.1060467139 0.5735434294 4286415236
-0.2606384754 -0.1052618772 0.5727403760 4285230707
-0.2602726519 -0.1044786796 0.5719364882 4283388503
-0.2603151202 -0.1038601547 0.5720298290 4283191124
-0.2603573501 -0.1032413393 0.5721225739 4281546299
-0.2608081400 -0.1027833149 0.5731131434 4281283127
-0.2604410946 -0.1020027921 0.5723066330 4281348920
-0.2604826093 -0.1013830751 0.5723978281 4281546301
-0.2601149082 -0.1006048843 0.5715898275 4281414715
-0.2601558566 -0.0999855474 0.5716798306 4280954164
-0.2601965964 -0.0993659273 0.5717692971 4281019957
-0.2598279119 -0.0985907465 0.5709591508 4280822578
-0.2594588399 -0.0978172347 0.5701481104 4280888371
-0.2578614950 -0.0965854526 0.5666380525 4281019957
-0.2583102584 -0.0961228684 0.5676241517 4281348922
-0.2563023269 -0.0947499052 0.5632118583 4282598989
-0.2567504644 -0.0942887142 0.5641966462 4283651677
-0.2563793957 -0.0935264900 0.5633811951 4282994000
-0.2564175725 -0.0929143652 0.5634651184 4281480761
-0.2564555109 -0.0923019722 0.5635485053 4282533707
-0.2589516342 -0.0925681219 0.5690335631 4286415494
-0.2565306723 -0.0910763741 0.5637136698 4289310385
-0.2598457336 -0.1147380471 0.5723953247 4292863726
-0.2598920465 -0.1141224131 0.5724973679 4292140003
-0.2599381208 -0.1135064512 0.5725988746 4291153108
-0.2599839866 -0.1128901616 0.5726998448 4289968832
-0.2600296140 -0.1122735515 0.5728003383 4288587179
-0.2604819834 -0.1118313521 0.5737969279 4287139217
-0.2605272233 -0.1112131253 0.5738965273 4285691771
-0.2605721951 -0.1105945781 0.5739955902 4285363059
-0.2606169581 -0.1099757180 0.5740941763 4284639336
-0.2606614828 -0.1093565300 0.5741922855 4284507237
-0.2607057393 -0.1087370291 0.5742897987 4283849307
-0.2607497871 -0.1081172153 0.5743868351 4283586133
-0.2603861094 -0.1073291227 0.5735856891 4282665031
-0.2600220442 -0.1065426543 0.5727837086 4282664515
-0.2600652575 -0.1059238464 0.5728788972 4284835684
-0.2597005069 -0.1051396728 0.5720754266 4285032813
-0.2593353987 -0.1043571383 0.5712711811 4283980125
-0.2593777478 -0.1037393510 0.5713644624 4283782747
-0.2590119541 -0.1029591262 0.5705586672 4282927438
-0.2594617307 -0.1025028750 0.5715494752 4282072129
-0.2595033646 -0.1018841937 0.5716411471 4281414199
-0.2591366768 -0.1011059880 0.5708333850 4281611578
-0.2591777742 -0.1004876792 0.5709239244 4281414199
-0.2588104010 -0.0997118056 0.5701146722 4281414199
-0.2588509321 -0.0990938917 0.5702039599 4281545785
-0.2588912547 -0.0984756872 0.5702927709 4281150773
-0.2585229278 -0.0977028459 0.5694813728 4281019187
-0.2569288015 -0.0964715481 0.5659698248 4280690222
-0.2573766112 -0.0960097685 0.5669562817 4280756015
-0.2565985024 -0.0950914845 0.5652422905 4280822062
-0.2562285960 -0.0943272784 0.5644273758 4281282613
-0.2554495931 -0.0934152901 0.5627113581 4281282613
-0.2554876506 -0.0928039029 0.5627952218 4281940543
-0.2547078133 -0.0918972343 0.5610773563 4281216820
-0.2547452748 -0.0912872702 0.5611599088 4283387989
-0.2556004524 -0.0909681320 0.5630437136 4289244080
-0.2589551508 -0.1139899045 0.5718325973 4292732140
-0.2590011060 -0.1133746728 0.5719341040 4291942624
-0.2590468526 -0.1127591208 0.5720350742 4290824141
-0.2590923309 -0.1121432409 0.5721355081 4289574074
-0.2591376007 -0.1115270332 0.5722354650 4288060319
-0.2595888674 -0.1110843495 0.5732319951 4286481287
-0.2592274249 -0.1102936566 0.5724338293 4285494391
-0.2592719793 -0.1096764952 0.5725321770 4284770668
-0.2593162954 -0.1090590060 0.5726300478 4284770409
-0.2593603730 -0.1084412113 0.5727274418 4284046686
-0.2594042420 -0.1078230962 0.5728242397 4283783514
-0.2590411901 -0.1070366353 0.5720225573 4282993998
-0.2590844929 -0.1064188629 0.5721182227 4282336066
-0.2587207854 -0.1056346968 0.5713150501 4283059789
-0.2583566904 -0.1048521623 0.5705110431 4283782747
-0.2583991587 -0.1042354107 0.5706048012 4284309091
-0.2580343783 -0.1034551859 0.5697993040 4284703849
-0.2584833801 -0.1030010059 0.5707908273 4283453782
-0.2585251331 -0.1023833528 0.5708829761 4283256403
-0.2585666478 -0.1017654017 0.5709747076 4282072129
-0.2582006752 -0.1009878665 0.5701665282 4280887855
-0.2582416534 -0.1003703028 0.5702570081 4281085234
-0.2578749955 -0.0995950997 0.5694473386 4281611578
-0.2579154372 -0.0989779159 0.5695366263 4281677371
-0.2579556406 -0.0983604491 0.5696254373 4281479738
-0.2571804225 -0.0974338725 0.5679135919 4281348152
-0.2559971213 -0.0963574722 0.5653005242 4280821808
-0.2552208900 -0.0954391137 0.5635864735 4280756015
-0.2552596927 -0.0948273391 0.5636721253 4280690476
-0.2548904121 -0.0940647870 0.5628567338 4280953648
-0.2545208037 -0.0933039188 0.5620405078 4281545785
-0.2541508079 -0.0925447270 0.5612235069 4283651161
-0.2541884780 -0.0919347927 0.5613067150 4284441191
-0.2546339929 -0.0914711729 0.5622904301 4282204229
-0.2546712458 -0.0908597186 0.5623727441 4287072911
-0.2555246353 -0.0905372575 0.5642572045 4292731109
-0.2576600015 -0.1130649224 0.5703715086 4292534759
-0.2577055395 -0.1124510616 0.5704723001 4291547864
-0.2577508092 -0.1118368804 0.5705725551 4290626762
-0.2577958703 -0.1112223715 0.5706722736 4289376179
-0.2582461238 -0.1107814610 0.5716689825 4287862940
-0.2582907975 -0.1101653427 0.5717678666 4286678665
-0.2579296827 -0.1093769372 0.5709684491 4285362805
-0.2583794296 -0.1089321598 0.5719640255 4284968047
-0.2584233880 -0.1083150953 0.5720613599 4284244324
-0.2580613494 -0.1075286418 0.5712599754 4283980893
-0.2581047714 -0.1069119200 0.5713560581 4283651928
-0.2577420771 -0.1061277539 0.5705531836 4282993998
-0.2577849627 -0.1055113822 0.5706481338 4282730826
-0.2578276098 -0.1048947051 0.5707425475 4282664266
-0.2578700185 -0.1042777225 0.5708364248 4283387989
-0.2575060427 -0.1034971848 0.5700306892 4284901228
-0.2575479150 -0.1028805673 0.5701233745 4283848540
-0.2575895488 -0.1022636518 0.5702155232 4283914333
-0.2572245896 -0.1014861092 0.5694076419 4283190610
-0.2572656870 -0.1008695737 0.5694986582 4281808957
-0.2569000721 -0.1000943631 0.5686892867 4281348406
-0.2569406331 -0.0994782075 0.5687790513 4281611578
-0.2569809556 -0.0988617688 0.5688682795 4281545785
-0.2566143572 -0.0980895832 0.5680567622 4281545531
-0.2562474012 -0.0973190665 0.5672444701 4281545531
-0.2554732561 -0.0963967219 0.5655307770 4280953394
-0.2551055253 -0.0956305191 0.5647167563 4280756015
-0.2547374070 -0.0948659852 0.5639018416 4280690476
-0.2543689311 -0.0941031352 0.5630861521 4280822062
-0.2540000975 -0.0933419690 0.5622696877 4282401094
-0.2536309063 -0.0925824791 0.5614524484 4284835435
-0.2536685169 -0.0919723064 0.5615357161 4285230707
-0.2541131377 -0.0915085077 0.5625199676 4282335815
-0.2537430525 -0.0907511488 0.5617007017 4283980640
-0.2537799776 -0.0901401713 0.5617824197 4290888905
-0.2567258775 -0.1129326746 0.5697043538 4292863724
-0.2567712665 -0.1123195440 0.5698050857 4292140255
-0.2568164468 -0.1117061004 0.5699053407 4291482325
-0.2568613589 -0.1110923290 0.5700049996 4290429637
-0.2569060624 -0.1104782373 0.5701042414 4289179570
-0.2569505274 -0.1098638251 0.5702028871 4288323491
-0.2569947839 -0.1092490926 0.5703010559 4286415494
-0.2570387721 -0.1086340398 0.5703987479 4285362805
-0.2570825517 -0.1080186814 0.5704958439 4284507496
-0.2567211688 -0.1072338670 0.5696939230 4284112738
-0.2567644119 -0.1066188440 0.5697898269 4283849566
-0.2568073869 -0.1060035154 0.5698852539 4283520601
-0.2568501532 -0.1053878814 0.5699801445 4283191636
-0.2568926811 -0.1047719419 0.5700745583 4283124817
-0.2565297186 -0.1039914042 0.5692690611 4282006336
-0.2565717101 -0.1033758298 0.5693622828 4283585368
-0.2566134632 -0.1027599499 0.5694549084 4284111712
-0.2566550076 -0.1021437645 0.5695470572 4284440677
-0.2562907636 -0.1013668999 0.5687387586 4283519575
-0.2563317418 -0.1007510945 0.5688297153 4282795852
-0.2559668422 -0.0999765545 0.5680199265 4282137922
-0.2560072839 -0.0993611440 0.5681096911 4281545785
-0.2560474873 -0.0987454429 0.5681989193 4281282613
-0.2556816041 -0.0979739353 0.5673869848 4281348152
-0.2553153634 -0.0972040892 0.5665742755 4281479738
-0.2545427978 -0.0962823555 0.5648598671 4281216566
-0.2541757822 -0.0955168307 0.5640453696 4280953394
-0.2542144954 -0.0949045867 0.5641313195 4280887601
-0.2534406483 -0.0939908102 0.5624140501 4280756015
-0.2530725300 -0.0932303220 0.5615971684 4280296234
-0.2535166144 -0.0927688479 0.5625826716 4281019957
-0.2535542548 -0.0921574607 0.5626661777 4281677885
-0.2531852722 -0.0913990885 0.5618473291 4280954162
-0.2528159022 -0.0906424150 0.5610277057 4281743678
-0.2536657453 -0.0903216675 0.5629135966 4286349188
-0.2541089952 -0.0898529664 0.5638971925 4292336606
-0.2554345131 -0.1120108813 0.5682392120 4292863978
-0.2554794550 -0.1113991290 0.5683392286 4292337634
-0.2555242181 -0.1107870638 0.5684387684 4291350739
-0.2555687129 -0.1101746708 0.5685377717 4290298051
-0.2556129992 -0.1095619649 0.5686362386 4289573558
-0.2556570172 -0.1089489385 0.5687342286 4287862940
-0.2557008266 -0.1083355919 0.5688316822 4286415494
-0.2557444274 -0.1077219397 0.5689285994 4285099634
-0.2553836703 -0.1069387570 0.5681261420 4284573290
-0.2558308840 -0.1064936817 0.5691209435 4284310118
-0.2558737397 -0.1058790907 0.5692163110 4284046946
-0.2559163868 -0.1052641943 0.5693112016 4283783774
-0.2559587955 -0.1046489850 0.5694055557 4283651161
-0.2555965483 -0.1038691252 0.5685997009 4282335301
-0.2556384206 -0.1032542810 0.5686928630 4282598473
-0.2556800544 -0.1026391387 0.5687854886 4283322196
-0.2557214797 -0.1020236984 0.5688775778 4284309091
-0.2553579509 -0.1012475044 0.5680688620 4283782747
-0.2549940646 -0.1004729569 0.5672593713 4283453528
-0.2550346255 -0.0998585746 0.5673496127 4282927184
-0.2550749481 -0.0992439017 0.5674393773 4282071875
-0.2551150620 -0.0986289382 0.5675285459 4281545531
-0.2547498941 -0.0978581011 0.5667162538 4281282359
-0.2543843985 -0.0970889404 0.5659031272 4281282359
-0.2540185153 -0.0963214412 0.5650891662 4281348152
-0.2532470822 -0.0954029709 0.5633730292 4281019187
-0.2532856762 -0.0947914720 0.5634589195 4280624429
-0.2533240318 -0.0941796899 0.5635442734 4280295464
-0.2525514066 -0.0932682157 0.5618254542 4279572511
-0.2529945970 -0.0928065702 0.5628113747 4279375132
-0.2522211969 -0.0918994471 0.5610908866 4280427818
-0.2526639700 -0.0914362743 0.5620759130 4280888369
-0.2522954047 -0.0906792954 0.5612559915 4281348920
-0.2519264817 -0.0899240151 0.5604352951 4281941057
-0.2523686886 -0.0894580781 0.5614190102 4288322978
-0.2541452050 -0.1110918224 0.5667713881 4292995564
-0.2541897595 -0.1104814634 0.5668707490 4292074462
-0.2542340457 -0.1098707765 0.5669695139 4291087567
-0.2542781234 -0.1092597693 0.5670678616 4290429383
-0.2543219924 -0.1086484492 0.5671656132 4289245109
-0.2543655932 -0.1080368161 0.5672628880 4287665563
-0.2544089854 -0.1074248627 0.5673596263 4285954945
-0.2544521391 -0.1068126038 0.5674558878 4285165429
-0.2544950545 -0.1062000319 0.5675516129 4284836464
-0.2545377314 -0.1055871472 0.5676468015 4284507245
-0.2549836636 -0.1051403135 0.5686412454 4284046694
-0.2546224296 -0.1043604612 0.5678356290 4283782493
-0.2546644211 -0.1037466601 0.5679292679 4283387735
-0.2547061741 -0.1031325534 0.5680223703 4282730059
-0.2547476888 -0.1025181487 0.5681149960 4282401094
-0.2547889650 -0.1019034460 0.5682070851 4283124817
-0.2544261813 -0.1011279225 0.5673979521 4283585368
-0.2540630102 -0.1003540531 0.5665881038 4284177251
-0.2541034520 -0.0997404158 0.5666782856 4283519321
-0.2541436851 -0.0991264805 0.5667679906 4282927184
-0.2541836500 -0.0985122547 0.5668571591 4282269254
-0.2538192272 -0.0977420956 0.5660443902 4281479738
-0.2534544468 -0.0969736129 0.5652309060 4281019187
-0.2530892789 -0.0962067917 0.5644165874 4281084980
-0.2531281412 -0.0955943614 0.5645031929 4280492843
-0.2527623177 -0.0948299095 0.5636873841 4280032292
-0.2528006434 -0.0942178965 0.5637728572 4279834913
-0.2528387010 -0.0936056003 0.5638577938 4279638304
-0.2524719536 -0.0928442404 0.5630398393 4280296234
-0.2521048188 -0.0920845643 0.5622211099 4281019955
-0.2517373562 -0.0913265795 0.5614016056 4282006850
-0.2517742813 -0.0907161385 0.5614839792 4281875264
-0.2514061630 -0.0899605602 0.5606630445 4281348920
-0.2518474758 -0.0894944444 0.5616472363 4285099121
-0.2518837154 -0.0888831988 0.5617280006 4292073179
-0.2528579831 -0.1101755202 0.5653010011 4292732138
-0.2529020905 -0.1095665395 0.5653995872 4291942622
-0.2529459894 -0.1089572459 0.5654976964 4291613657
-0.2529896498 -0.1083476320 0.5655952692 4290560969
-0.2530330718 -0.1077377051 0.5656923652 4289047216
-0.2530762553 -0.1071274653 0.5657889247 4287270805
-0.2535216212 -0.1066862494 0.5667846203 4286086277
-0.2535644174 -0.1060744151 0.5668803453 4285230968
-0.2536070049 -0.1054622754 0.5669754744 4284704626
-0.2532467246 -0.1046833992 0.5661700368 4284046696
-0.2532887459 -0.1040716097 0.5662639737 4284440423
-0.2533305585 -0.1034595221 0.5663574338 4283848286
-0.2533721328 -0.1028471366 0.5664503574 4283322196
-0.2538163364 -0.1023969799 0.5674434900 4282993231
-0.2538574934 -0.1017830148 0.5675355196 4282335301
-0.2534954250 -0.1010081694 0.5667260289 4282532680
-0.2531329691 -0.1002349705 0.5659157634 4283585114
-0.2531733215 -0.0996220708 0.5660059452 4283782493
-0.2532134056 -0.0990088806 0.5660955906 4283519321
-0.2532532811 -0.0983953923 0.5661846995 4283190356
-0.2532929182 -0.0977816209 0.5662733316 4282269254
-0.2529289126 -0.0970128328 0.5654595494 4281084980
-0.2521610856 -0.0960919708 0.5637429357 4280887601
-0.2521998286 -0.0954802781 0.5638295412 4280098085
-0.2522383332 -0.0948683023 0.5639156103 4279900706
-0.2522765994 -0.0942560509 0.5640011430 4280361257
-0.2519109249 -0.0934936926 0.5631836653 4280164648
-0.2515448928 -0.0927330106 0.5623653531 4280822578
-0.2511785030 -0.0919740200 0.5615462065 4281480506
-0.2508117557 -0.0912167281 0.5607262850 4282072643
-0.2512525320 -0.0907529294 0.5617117286 4282467401
-0.2508851886 -0.0899970606 0.5608904958 4282270022
-0.2509215772 -0.0893868208 0.5609717965 4284441191
-0.2509576976 -0.0887763277 0.5610525608 4290823112
-0.2515728772 -0.1092619747 0.5638279319 4292797931
-0.2516165674 -0.1086543873 0.5639258027 4292600552
-0.2516600192 -0.1080464795 0.5640231967 4291482071
-0.2517032325 -0.1074382588 0.5641201138 4290362822
-0.2517462373 -0.1068297327 0.5642164946 4289112755
-0.2521905899 -0.1063903049 0.5652123690 4287731102
-0.2522332072 -0.1057801768 0.5653078556 4286086277
-0.2522755861 -0.1051697508 0.5654028058 4285296763
-0.2519159317 -0.1043925136 0.5645968318 4284638833
-0.2519578040 -0.1037824452 0.5646905899 4284506216
-0.2519994080 -0.1031720713 0.5647838712 4284177251
-0.2524427772 -0.1027249694 0.5657775402 4284045919
-0.2524839938 -0.1021130234 0.5658699274 4283716954
-0.2525249720 -0.1015007719 0.5659617782 4282335301
-0.2525657117 -0.1008882299 0.5660530925 4281808957
-0.2522040009 -0.1001157090 0.5652424097 4282532426
-0.2522442341 -0.0995035544 0.5653325319 4283387735
-0.2522841990 -0.0988911018 0.5654221773 4283650907
-0.2519215345 -0.0981216133 0.5646093488 4283979872
-0.2519609928 -0.0975095630 0.5646977425 4283190356
-0.2515976429 -0.0967424363 0.5638834238 4281677117
-0.2516365647 -0.0961307883 0.5639706850 4281084980
-0.2512725592 -0.0953660309 0.5631548762 4280163878
-0.2517136931 -0.0949066505 0.5641435385 4280295466
-0.2517519295 -0.0942941606 0.5642291903 4281413947
-0.2513870299 -0.0935314968 0.5634114146 4281151543
-0.2514247000 -0.0929194391 0.5634958744 4281151543
-0.2510591745 -0.0921591669 0.5626766086 4281611578
-0.2506932914 -0.0914005935 0.5618565679 4282137922
-0.2503270209 -0.0906437114 0.5610357523 4282204229
-0.2503635883 -0.0900335088 0.5611176491 4282401608
-0.2503999174 -0.0894230381 0.5611990690 4284770669
-0.2504360080 -0.0888122991 0.5612799525 4290428867
-0.2502898574 -0.1083511859 0.5623522401 4292797931
-0.2503331006 -0.1077449992 0.5624493957 4292074208
-0.2507767379 -0.1073099151 0.5634461641 4291087315
-0.2512202859 -0.1068725735 0.5644427538 4290100420
-0.2512630224 -0.1062635034 0.5645387173 4288916146
-0.2513054907 -0.1056541204 0.5646342039 4287600286
-0.2509468794 -0.1048768982 0.5638284087 4286021254
-0.2509888411 -0.1042678729 0.5639227033 4284442222
-0.2510305643 -0.1036585420 0.5640164614 4284441706
-0.2510720491 -0.1030489132 0.5641096830 4284244327
-0.2511133254 -0.1024389789 0.5642024279 4283981155
-0.2515555620 -0.1019914150 0.5651960373 4283389018
-0.2515964210 -0.1013799086 0.5652878284 4282796368
-0.2512357235 -0.1006073877 0.5644774437 4281677887
-0.2512760758 -0.0999962687 0.5645680428 4281414715
-0.2509146929 -0.0992260873 0.5637561679 4281875266
-0.2509545088 -0.0986153558 0.5638455749 4282927438
-0.2509940863 -0.0980043411 0.5639345050 4283453782
-0.2506317794 -0.0972371995 0.5631204247 4283387989
-0.2506708205 -0.0966265872 0.5632081628 4281808957
-0.2503078580 -0.0958618075 0.5623926520 4281151027
-0.2507481873 -0.0954044983 0.5633820295 4279637788
-0.2507865429 -0.0947930291 0.5634681582 4281216820
-0.2508246303 -0.0941812843 0.5635538101 4282137922
-0.2504604757 -0.0934193134 0.5627356172 4282400840
-0.2504980564 -0.0928079933 0.5628200173 4282335047
-0.2505353987 -0.0921963975 0.5629039407 4282006082
-0.2497680932 -0.0912905261 0.5611799359 4281874496
-0.2494025826 -0.0905343294 0.5603587031 4281809473
-0.2494390309 -0.0899248719 0.5604405999 4282335817
-0.2498776317 -0.0894592032 0.5614260435 4282927956
-0.2499136776 -0.0888482332 0.5615070462 4288849326
-0.2499494702 -0.0882369950 0.5615874529 4292796904
-0.2494086176 -0.1076156422 0.5617741942 4292798185
-0.2494515330 -0.1070098802 0.5618708134 4292074208
-0.2494942248 -0.1064038053 0.5619669557 4291284692
-0.2495366782 -0.1057974175 0.5620625615 4290297799
-0.2495789081 -0.1051907241 0.5621576905 4289113525
-0.2496208996 -0.1045837253 0.5622522831 4287534493
-0.2496626675 -0.1039764136 0.5623463988 4285955461
-0.2497042120 -0.1033688039 0.5624399781 4285231222
-0.2497455180 -0.1027608886 0.5625330210 4284573292
-0.2497866005 -0.1021526754 0.5626255274 4284244327
-0.2502278090 -0.1017068923 0.5636193156 4283849569
-0.2502684891 -0.1010971069 0.5637109876 4283388505
-0.2503089607 -0.1004870236 0.5638020635 4282335817
-0.2499486059 -0.0997168422 0.5629904270 4281875266
-0.2499885410 -0.0991071463 0.5630803704 4281677887
-0.2500282228 -0.0984971598 0.5631697774 4281612094
-0.2500676811 -0.0978868827 0.5632586479 4282401610
-0.2497061044 -0.0971204266 0.5624442101 4282795852
-0.2497450262 -0.0965105593 0.5625318885 4282137922
-0.2497837245 -0.0959004015 0.5626190305 4281216820
-0.2498221844 -0.0952899605 0.5627056956 4279966753
-0.2498604208 -0.0946792439 0.5627918243 4282203715
-0.2498984188 -0.0940682441 0.5628773570 4283059024
-0.2495349944 -0.0933069512 0.5620588064 4282927438
-0.2495724559 -0.0926963836 0.5621432066 4282861645
-0.2492083907 -0.0919374898 0.5613231659 4282203715
-0.2488439679 -0.0911802873 0.5605022907 4281874750
-0.2488806099 -0.0905708671 0.5605848432 4281480508
-0.2489170134 -0.0899611712 0.5606668591 4281875266
-0.2489531785 -0.0893512145 0.5607483387 4281677889
-0.2485875189 -0.0885978565 0.5599247217 4284901746
-0.2490248233 -0.0881305039 0.5609096885 4290033598
-0.2490602732 -0.0875197500 0.5609895587 4293060076
-0.2481290549 -0.1067095175 0.5602937341 4292600552
-0.2481715530 -0.1061051562 0.5603896379 4292008415
-0.2482138127 -0.1055004895 0.5604851246 4291153108
-0.2482558489 -0.1048955098 0.5605800152 4290232006
-0.2482976615 -0.1042902246 0.5606744289 4288981939
-0.2483392358 -0.1036846340 0.5607683063 4287534493
-0.2483805865 -0.1030787453 0.5608617067 4286349703
-0.2484217137 -0.1024725512 0.5609545708 4285099636
-0.2488620728 -0.1020298302 0.5619488955 4284507499
-0.2489027977 -0.1014220566 0.5620408654 4284244327
-0.2489432991 -0.1008139923 0.5621323586 4283849056
-0.2489835769 -0.1002056301 0.5622232556 4283191126
-0.2490236163 -0.0995969772 0.5623136759 4282730575
-0.2490634173 -0.0989880264 0.5624035597 4282072645
-0.2491029948 -0.0983787850 0.5624929667 4281677887
-0.2491423339 -0.0977692530 0.5625817776 4282006852
-0.2491814494 -0.0971594378 0.5626701117 4282204231
-0.2492203265 -0.0965493321 0.5627579093 4282006852
-0.2492589802 -0.0959389433 0.5628451705 4281085750
-0.2488972396 -0.0951752588 0.5620283484 4280230441
-0.2489353567 -0.0945652798 0.5621144176 4282401610
-0.2489732355 -0.0939550325 0.5621999502 4284309607
-0.2490108907 -0.0933445022 0.5622849464 4283651161
-0.2486479133 -0.0925846025 0.5614653230 4282861645
-0.2486850321 -0.0919745043 0.5615491271 4282532680
-0.2479208857 -0.0910698846 0.5598236322 4282730059
-0.2479574233 -0.0904612094 0.5599061251 4281875266
-0.2479937226 -0.0898522660 0.5599881411 4281743680
-0.2480297834 -0.0892430544 0.5600695610 4282072647
-0.2476648688 -0.0884903967 0.5592455268 4285822848
-0.2477003932 -0.0878816396 0.5593257546 4288257187
-0.2477357090 -0.0872726291 0.5594055057 4290625735
-0.2473698407 -0.0865231231 0.5585793853 4293126122
-0.2468516082 -0.1058061793 0.5588106513 4292601065
-0.2468936890 -0.1052032262 0.5589058995 4291877344
-0.2469355315 -0.1045999676 0.5590006113 4291153621
-0.2469771504 -0.1039964035 0.5590948462 4290232519
-0.2470185459 -0.1033925414 0.5591885448 4289048245
-0.2470597178 -0.1027883664 0.5592817068 4288191653
-0.2474991977 -0.1023487076 0.5602766275 4286481035
-0.2475399822 -0.1017429605 0.5603688955 4285362554
-0.2475805283 -0.1011369154 0.5604606867 4284704624
-0.2476208359 -0.1005305722 0.5605520010 4284178280
-0.2476609349 -0.0999239311 0.5606427193 4283651936
-0.2477007955 -0.0993169993 0.5607329607 4283454811
-0.2477404177 -0.0987097695 0.5608226657 4282796881
-0.2477798164 -0.0981022567 0.5609118342 4282731088
-0.2478189766 -0.0974944532 0.5610005260 4282204744
-0.2482570410 -0.0970423743 0.5619921684 4282072645
-0.2482958138 -0.0964330211 0.5620799661 4281546301
-0.2483343482 -0.0958233774 0.5621671677 4281085750
-0.2483726442 -0.0952134505 0.5622538924 4280493613
-0.2484107167 -0.0946032479 0.5623400807 4281480508
-0.2484485507 -0.0939927623 0.5624257326 4284638572
-0.2480866611 -0.0932318643 0.5616064668 4285427572
-0.2477244139 -0.0924726576 0.5607864261 4284045919
-0.2473618090 -0.0917151421 0.5599656105 4282927438
-0.2473985255 -0.0911064968 0.5600486994 4282598473
-0.2470352799 -0.0903513879 0.5592264533 4282533196
-0.2470714748 -0.0897431970 0.5593083501 4281941059
-0.2471074462 -0.0891347378 0.5593897700 4281546303
-0.2467432618 -0.0883827657 0.5585653782 4286743950
-0.2463787198 -0.0876325071 0.5577401519 4289244082
-0.2464138716 -0.0870252252 0.5578197241 4289046703
-0.2468488514 -0.0865579769 0.5588043928 4290428354
-0.2459736764 -0.1050753966 0.5582267642 4292732653
-0.2460153997 -0.1044728830 0.5583214164 4292074723
-0.2460568994 -0.1038700715 0.5584156513 4291351000
-0.2460981756 -0.1032669470 0.5585092902 4290495691
-0.2461392134 -0.1026635244 0.5586024523 4289902271
-0.2461800426 -0.1020597965 0.5586950779 4288257446
-0.2462206334 -0.1014557704 0.5587871671 4286875793
-0.2466588318 -0.1010143757 0.5597816706 4285691519
-0.2466990352 -0.1004087776 0.5598729253 4284638831
-0.2467390001 -0.0998028889 0.5599636436 4283980901
-0.2467787415 -0.0991967022 0.5600538254 4283849315
-0.2468182594 -0.0985902250 0.5601434708 4283454557
-0.2468575388 -0.0979834646 0.5602326393 4283520350
-0.2472948134 -0.0975334644 0.5612249970 4282796627
-0.2473336905 -0.0969251394 0.5613132715 4282204490
-0.2473723441 -0.0963165313 0.5614009500 4281678146
-0.2474107742 -0.0957076401 0.5614881516 4281217849
-0.2474489659 -0.0950984582 0.5615748167 4280559919
-0.2474869192 -0.0944890007 0.5616610050 4280296747
-0.2475246340 -0.0938792676 0.5617465973 4282533709
-0.2471634895 -0.0931190550 0.5609269738 4285164400
-0.2468019724 -0.0923605412 0.5601065159 4285953916
-0.2464401126 -0.0916037112 0.5592852831 4284637802
-0.2464767247 -0.0909958258 0.5593683720 4282861391
-0.2461142093 -0.0902414098 0.5585457087 4282796370
-0.2461502999 -0.0896339640 0.5586276054 4282204233
-0.2461861521 -0.0890262574 0.5587089658 4280690994
-0.2458227128 -0.0882749781 0.5578841567 4284178023
-0.2454589307 -0.0875254124 0.5570585132 4288651947
-0.2454939634 -0.0869188830 0.5571380854 4288322982
-0.2459280044 -0.0864524469 0.5581231117 4288520359
-0.2455633432 -0.0857050568 0.5572955012 4291810009
-0.2446997464 -0.1041767672 0.5567389131 4292732651
-0.2447410524 -0.1035756692 0.5568329096 4292140516
-0.2447821349 -0.1029742733 0.5569263697 4291548379
-0.2448229939 -0.1023725718 0.5570193529 4291218901
-0.2448636293 -0.1017705724 0.5571117997 4290034627
-0.2453009635 -0.1013322398 0.5581068397 4288784560
-0.2453411967 -0.1007286683 0.5581983924 4287337114
-0.2453812212 -0.1001247987 0.5582894087 4286021254
-0.2454210073 -0.0995206311 0.5583799481 4284771187
-0.2454605699 -0.0989161730 0.5584699512 4284375659
-0.2454999089 -0.0983114243 0.5585594773 4284046694
-0.2459363192 -0.0978644863 0.5595523715 4283849315
-0.2459752560 -0.0972581804 0.5596409440 4283520350
-0.2460139692 -0.0966515839 0.5597290397 4282928213
-0.2464499474 -0.0961998701 0.5607209802 4282730834
-0.2464882582 -0.0955917239 0.5608081222 4281875525
-0.2465263307 -0.0949832946 0.5608947873 4281151802
-0.2461664975 -0.0942223743 0.5600760579 4280691251
-0.2462040484 -0.0936143696 0.5601615310 4280822837
-0.2458435595 -0.0928558335 0.5593413711 4282729805
-0.2458805889 -0.0922482535 0.5594255924 4285493111
-0.2459173948 -0.0916404054 0.5595093369 4286085250
-0.2455559671 -0.0908849835 0.5586870313 4284637804
-0.2451941967 -0.0901312605 0.5578639507 4282598737
-0.2452301830 -0.0895245671 0.5579457879 4281809221
-0.2452659309 -0.0889176130 0.5580271482 4281085498
-0.2449032366 -0.0881670266 0.5572019219 4281414463
-0.2445401847 -0.0874181539 0.5563759208 4284178023
-0.2449734509 -0.0869537741 0.5573616624 4286875536
-0.2450082153 -0.0863467529 0.5574407578 4287730843
-0.2450427413 -0.0857394785 0.5575193167 4290823114
-0.2434279621 -0.1032809541 0.5552484989 4292864237
-0.2434688509 -0.1026812792 0.5553417802 4292469479
-0.2435095310 -0.1020813063 0.5554345250 4292008419
-0.2439459860 -0.1016460434 0.5564301014 4291218903
-0.2439862788 -0.1010444909 0.5565219522 4290297801
-0.2440263331 -0.1004426405 0.5566133261 4289047734
-0.2440661639 -0.0998404995 0.5567042232 4287797667
-0.2441057712 -0.0992380679 0.5567945838 4286152842
-0.2441451550 -0.0986353382 0.5568844080 4284968566
-0.2445807159 -0.0981914625 0.5578778386 4284244843
-0.2446196973 -0.0975871682 0.5579667687 4284244073
-0.2446584553 -0.0969825983 0.5580552220 4283980901
-0.2450935841 -0.0965339392 0.5590476990 4283651936
-0.2451319546 -0.0959278047 0.5591351986 4283651936
-0.2451700866 -0.0953213945 0.5592222214 4282862420
-0.2452079952 -0.0947147012 0.5593086481 4282467662
-0.2452456653 -0.0941077247 0.5593945980 4282401869
-0.2448862046 -0.0933491737 0.5585746765 4282138697
-0.2449233532 -0.0927426293 0.5586594343 4283058770
-0.2449602783 -0.0921358019 0.5587436557 4284769388
-0.2449969649 -0.0915287063 0.5588273406 4286019457
-0.2446362972 -0.0907739773 0.5580046177 4286019457
-0.2442752570 -0.0900209472 0.5571811199 4283388253
-0.2443111390 -0.0894150063 0.5572629571 4281940807
-0.2443467826 -0.0888088048 0.5573442578 4281677635
-0.2439848185 -0.0880589187 0.5565186739 4280756533
