VERSION 0.7
FIELDS x y z rgba
SIZE 4 4 4 4
TYPE F F F U
COUNT 1 1 1 1
WIDTH 920
HEIGHT 1
VIEWPOINT 0.0 0.0 0.0 1.0 0.0 0.0 0.0
POINTS 920
DATA ascii
-0.2700665593 -0.1216927692 0.5752077103 4282730573
-0.2701166272 -0.1210761145 0.5753143430 4282993747
-0.2697488666 -0.1202729270 0.5745310783 4283388505
-0.2693807483 -0.1194713116 0.5737469792 4283651677
-0.2694299221 -0.1188555434 0.5738517642 4283914849
-0.2698966861 -0.1184227541 0.5748459101 4284046435
-0.2695276141 -0.1176229939 0.5740598440 4283849056
-0.2695761025 -0.1170062125 0.5741630793 4283717470
-0.2700423598 -0.1165695563 0.5751562119 4284046435
-0.2705085576 -0.1161306500 0.5761491060 4284308837
-0.2705564797 -0.1155109629 0.5762511492 4284966767
-0.2710224092 -0.1150685251 0.5772435069 4285756537
-0.2714882195 -0.1146238446 0.5782356858 4287072397
-0.2719539702 -0.1141769141 0.5792276263 4288257185
-0.2720011473 -0.1135530472 0.5793281198 4289638838
-0.2720480859 -0.1129288524 0.5794280767 4290888905
-0.2725133598 -0.1124771163 0.5804191232 4291744214
-0.2729785740 -0.1120231375 0.5814099312 4292599523
-0.2666183710 -0.2045374811 0.5692100525 4292600556
-0.2666972280 -0.2039653510 0.5693783760 4292337384
-0.2667759061 -0.2033927143 0.5695463419 4292074212
-0.2668544054 -0.2028195709 0.5697139502 4291745247
-0.2665288746 -0.2019399405 0.5690189600 4291482075
-0.2666069269 -0.2013666630 0.5691855550 4291284696
-0.2666847706 -0.2007928789 0.5693517923 4291482075
-0.2667624354 -0.2002185881 0.5695176125 4291218903
-0.2668399513 -0.1996437907 0.5696830750 4291152855
-0.2669172585 -0.1990685016 0.5698481202 4291087062
-0.2669944167 -0.1984927058 0.5700128078 4290889683
-0.2666667104 -0.1976165473 0.5693132281 4290692304
-0.2663386166 -0.1967416257 0.5686127543 4290297546
-0.2664149702 -0.1961660832 0.5687758327 4289705409
-0.2660861611 -0.1952928156 0.5680738091 4288784562
-0.2661620677 -0.1947171539 0.5682358742 4287337116
-0.2662377656 -0.1941410154 0.5683974624 4285955463
-0.2663133144 -0.1935643852 0.5685587525 4284705396
-0.2659831941 -0.1926935315 0.5678539872 4283915625
-0.2656526864 -0.1918239295 0.5671483278 4283257695
-0.2657274306 -0.1912475973 0.5673079491 4283191388
-0.2658019960 -0.1906707734 0.5674671531 4282796630
-0.2658763826 -0.1900934577 0.5676259398 4282665044
-0.2659505904 -0.1895156652 0.5677843690 4282072907
-0.2660246193 -0.1889373809 0.5679423809 4281414723
-0.2656922042 -0.1880710572 0.5672327280 4281809481
-0.2653593719 -0.1872060150 0.5665221214 4282927962
-0.2654325962 -0.1866280586 0.5666784644 4283585892
-0.2650990486 -0.1857647151 0.5659664273 4283914600
-0.2639516890 -0.1843346059 0.5635168552 4284243565
-0.2644307315 -0.1840419024 0.5645396113 4283784043
-0.2640959620 -0.1831824630 0.5638248920 4284573559
-0.2637607753 -0.1823243201 0.5631092787 4284573559
-0.2634252012 -0.1814674884 0.5623928308 4285494661
-0.2639037073 -0.1811711341 0.5634144545 4284178799
-0.2635675371 -0.1803151369 0.5626966953 4283389283
-0.2636384070 -0.1797382683 0.5628480315 4285165694
-0.2637091279 -0.1791609377 0.5629990101 4284244592
-0.2637796104 -0.1785831451 0.5631495118 4281086528
-0.2638499439 -0.1780048758 0.5632996559 4282599767
-0.2635121346 -0.1771519333 0.5625784993 4283652455
-0.2631739378 -0.1763003021 0.5618564487 4283652455
-0.2628353536 -0.1754500121 0.5611335635 4283256927
-0.2629045844 -0.1748726070 0.5612813830 4282533204
-0.2633819580 -0.1745653749 0.5623005033 4282664790
-0.2634508908 -0.1739861518 0.5624477267 4283651685
-0.2631111145 -0.1731376350 0.5617222786 4283849066
-0.2631795704 -0.1725583971 0.5618684292 4283322722
-0.2628390491 -0.1717116684 0.5611414313 4282927962
-0.2629069984 -0.1711324453 0.5612865686 4281941067
-0.2633837461 -0.1708180159 0.5623043776 4281875017
-0.2638605237 -0.1705013216 0.5633222461 4282203982
-0.2639281154 -0.1699189395 0.5634664893 4281809222
-0.2635861933 -0.1690735817 0.5627365708 4281480257
-0.2632438838 -0.1682295799 0.5620057583 4281282363
-0.2633106709 -0.1676476747 0.5621483326 4281413949
-0.2633772492 -0.1670653224 0.5622904897 4281545022
-0.2634436488 -0.1664825380 0.5624322295 4281479229
-0.2635098398 -0.1658993065 0.5625735521 4281479227
-0.2635758221 -0.1653156281 0.5627143979 4281413434
-0.2632316053 -0.1644753367 0.5619795322 4281413434
-0.2632970810 -0.1638917029 0.5621193647 4281413434
-0.2633623779 -0.1633076221 0.5622587204 4281413688
-0.2638377845 -0.1629765928 0.5632736683 4281808446
-0.2639027834 -0.1623907387 0.5634124279 4281347895
-0.2639675736 -0.1618044525 0.5635507703 4280755758
-0.2636215091 -0.1609670222 0.5628119707 4282663753
-0.2636857927 -0.1603807956 0.5629491806 4286545540
-0.2637498677 -0.1597941369 0.5630859733 4287927192
-0.2642246783 -0.1594550312 0.5640996695 4287795606
-0.2646994591 -0.1591136903 0.5651133060 4288453790
-0.2647631168 -0.1585239172 0.5652492046 4288716962
-0.2652377784 -0.1581789702 0.5662626028 4289111718
-0.2653011382 -0.1575874388 0.5663978457 4289309097
-0.2657756805 -0.1572388858 0.5674109459 4289045925
-0.2683078051 -0.1581005007 0.5728168488 4288453788
-0.2671363652 -0.1567765772 0.5703159571 4287993235
-0.2684344053 -0.1569016129 0.5730870962 4287664270
-0.2684973776 -0.1563015431 0.5732215643 4287335566
-0.2689720690 -0.1559398472 0.5742349625 4287006601
-0.2690347135 -0.1553380042 0.5743687153 4286546050
-0.2690971494 -0.1547357440 0.5745020509 4286085499
-0.2691593766 -0.1541330665 0.5746348500 4285690484
-0.2696336508 -0.1537650824 0.5756474733 4285164140
-0.2696955502 -0.1531606317 0.5757795572 4284572003
-0.2697572410 -0.1525557786 0.5759112239 4284045659
-0.2698186934 -0.1519505233 0.5760424733 4283650899
-0.2698799372 -0.1513448358 0.5761731863 4283256141
-0.2695282102 -0.1505082548 0.5754222870 4282861383
-0.2695889175 -0.1499026865 0.5755519271 4282861383
-0.2692364752 -0.1490680575 0.5747994781 4282795077
-0.2692966461 -0.1484626085 0.5749279857 4282466112
-0.2693566382 -0.1478567272 0.5750560164 4282202940
-0.2694163620 -0.1472504586 0.5751835704 4282071354
-0.2690626085 -0.1464188695 0.5744282603 4281545523
-0.2691218257 -0.1458127201 0.5745546818 4281545523
-0.2695943117 -0.1454292387 0.5755634308 4281611316
-0.2696531713 -0.1448213607 0.5756890774 4281742902
-0.2701254785 -0.1444342732 0.5766974688 4281742902
-0.2701840103 -0.1438246667 0.5768224001 4281611316
-0.2706561387 -0.1434339881 0.5778303742 4281611318
-0.2711282372 -0.1430410445 0.5788382888 4281808697
-0.2711862624 -0.1424283832 0.5789621472 4282006076
-0.2712440789 -0.1418153346 0.5790855289 4282335041
-0.2708874345 -0.1409863234 0.5783241987 4282664006
-0.2709447145 -0.1403734386 0.5784464478 4282598213
-0.2710017562 -0.1397601515 0.5785682201 4282532166
-0.2710585594 -0.1391464770 0.5786894560 4282729545
-0.2707006037 -0.1383206099 0.5779252648 4282993230
-0.2703422308 -0.1374962330 0.5771601796 4283190609
-0.2703981996 -0.1368832886 0.5772796273 4283124303
-0.2704539299 -0.1362699717 0.5773985982 4283058510
-0.2709243000 -0.1358643323 0.5784028769 4283059023
-0.2709796727 -0.1352493167 0.5785210729 4282993230
-0.2714498639 -0.1348401010 0.5795249343 4282861644
-0.2715048492 -0.1342234015 0.5796422958 4282861644
-0.2719748318 -0.1338106096 0.5806456804 4283059023
-0.2720294595 -0.1331921965 0.5807622671 4283190609
-0.2720838189 -0.1325734258 0.5808783770 4283585367
-0.2721379697 -0.1319542825 0.5809939504 4283190609
-0.2721918821 -0.1313347816 0.5811090469 4282203714
-0.2722455859 -0.1307148933 0.5812236667 4280953647
-0.2722990215 -0.1300946474 0.5813378096 4281414199
-0.2719364464 -0.1292763799 0.5805636644 4281545785
-0.2711575627 -0.1282629073 0.5789008737 4281677371
-0.2707940936 -0.1274486482 0.5781248808 4281479992
-0.2708463073 -0.1268307418 0.5782363415 4281743164
-0.2704821229 -0.1260186136 0.5774588585 4281743164
-0.2697013617 -0.1250151098 0.5757919550 4281677371
-0.2689200342 -0.1240150481 0.5741239190 4281874750
-0.2685545385 -0.1232094690 0.5733435750 4282269254
-0.2681886554 -0.1224054471 0.5725624561 4282335047
-0.2678223550 -0.1216029748 0.5717804432 4282138438
-0.2674556971 -0.1208020747 0.5709976554 4282270024
-0.2670886219 -0.1200027317 0.5702139735 4282138438
-0.2671379447 -0.1193912178 0.5703192353 4282467403
-0.2663533390 -0.1184087619 0.5686442256 4282796370
-0.2664020360 -0.1177984849 0.5687481761 4283059542
-0.2668674588 -0.1173712686 0.5697418451 4283256921
-0.2669157684 -0.1167593673 0.5698449016 4283256921
-0.2665466666 -0.1159656569 0.5690569878 4283388507
-0.2670116425 -0.1155345738 0.5700495839 4283849058
-0.2674764991 -0.1151012480 0.5710420609 4283979874
-0.2675239146 -0.1144870743 0.5711432695 4284177253
-0.2679885328 -0.1140502244 0.5721352100 4284111460
-0.2684530616 -0.1136111319 0.5731269121 4284177253
-0.2684999108 -0.1129940674 0.5732269287 4283849056
-0.2685465217 -0.1123766750 0.5733264685 4283914849
-0.2690106034 -0.1119327769 0.5743172765 4284375400
-0.2694746256 -0.1114866287 0.5753079057 4284967537
-0.2695206404 -0.1108663604 0.5754061937 4285822846
-0.2699843943 -0.1104166955 0.5763962269 4286875534
-0.2704479992 -0.1099647954 0.5773860216 4287862427
-0.2709115446 -0.1095106453 0.5783756375 4288849322
-0.2713749707 -0.1090542600 0.5793650150 4289704631
-0.2718382776 -0.1085956320 0.5803541541 4290230975
-0.2727197707 -0.1083008721 0.5822360516 4290888905
-0.2736012936 -0.1080019400 0.5841180682 4291152077
-0.2736460268 -0.1073704883 0.5842134953 4291348942
-0.2736904919 -0.1067387313 0.5843084455 4291612114
-0.2737346888 -0.1061066613 0.5844028592 4292072665
-0.2737786770 -0.1054742858 0.5844967365 4292533216
-0.2655966282 -0.2017119080 0.5683764219 4292600554
-0.2656744421 -0.2011393011 0.5685429573 4292337382
-0.2657520771 -0.2005662173 0.5687090755 4292206311
-0.2658295333 -0.1999926120 0.5688748360 4291877346
-0.2659068406 -0.1994185150 0.5690402389 4291614174
-0.2659839392 -0.1988439113 0.5692052841 4291351002
-0.2656571567 -0.1979679614 0.5685058832 4291087830
-0.2657337785 -0.1973932385 0.5686699152 4291087830
-0.2658102214 -0.1968180090 0.5688335299 4291022037
-0.2654824257 -0.1959440559 0.5681320429 4290758865
-0.2651542127 -0.1950713545 0.5674296618 4290890451
-0.2652299106 -0.1944964081 0.5675916076 4290166728
-0.2653053999 -0.1939209551 0.5677531958 4289639616
-0.2649762034 -0.1930502951 0.5670486689 4288784307
-0.2650512159 -0.1924747378 0.5672092438 4287863205
-0.2647213042 -0.1916057318 0.5665032268 4286481552
-0.2647958398 -0.1910300851 0.5666627288 4285363071
-0.2648702264 -0.1904539615 0.5668218732 4284441969
-0.2649444044 -0.1898773462 0.5669806600 4283718248
-0.2650184035 -0.1893002540 0.5671390295 4283257697
-0.2646868825 -0.1884341091 0.5664295554 4282730583
-0.2647604048 -0.1878569275 0.5665869117 4282072653
-0.2648337483 -0.1872792691 0.5667438507 4281612102
-0.2645012140 -0.1864152104 0.5660322309 4281348930
-0.2645740509 -0.1858374923 0.5661880970 4280954174
-0.2638349235 -0.1846909970 0.5646063685 4280691002
-0.2635011673 -0.1838308424 0.5638921261 4281152323
-0.2635731399 -0.1832543463 0.5640461445 4281744460
-0.2632386684 -0.1823959053 0.5633304119 4282270804
-0.2633101642 -0.1818193644 0.5634833574 4284178801
-0.2629749775 -0.1809626520 0.5627660751 4282665562
-0.2630459666 -0.1803860515 0.5629180074 4281218116
-0.2631167769 -0.1798090041 0.5630695224 4284244594
-0.2631873786 -0.1792314798 0.5632206202 4284639352
-0.2632578015 -0.1786534786 0.5633713603 4282862941
-0.2629210353 -0.1777998060 0.5626506805 4284113008
-0.2629909813 -0.1772217751 0.5628002882 4284902522
-0.2630607188 -0.1766432971 0.5629495382 4284968315
-0.2627229393 -0.1757918149 0.5622267127 4285034108
-0.2623847723 -0.1749416590 0.5615030527 4284639350
-0.2628612518 -0.1746343523 0.5625227094 4284376178
-0.2629301250 -0.1740549356 0.5626701117 4284705143
-0.2629987895 -0.1734750718 0.5628170371 4284967549
-0.2626594305 -0.1726266891 0.5620908141 4284770170
-0.2627275884 -0.1720468253 0.5622366667 4284243824
-0.2627955973 -0.1714664996 0.5623821616 4283454308
-0.2628633678 -0.1708857119 0.5625272393 4283520101
-0.2633392513 -0.1705689430 0.5635456443 4283914859
-0.2634067535 -0.1699863672 0.5636900663 4282861912
-0.2634740770 -0.1694033444 0.5638341308 4281809224
-0.2631325722 -0.1685581356 0.5631033778 4281347901
-0.2631993890 -0.1679751277 0.5632463098 4281479487
-0.2628571987 -0.1671317518 0.5625140667 4281611073
-0.2633324265 -0.1668077707 0.5635310411 4281676866
-0.2633986473 -0.1662234366 0.5636727214 4281742401
-0.2630555332 -0.1653814614 0.5629385114 4281742401
-0.2631212473 -0.1647971570 0.5630791187 4281742401
-0.2627774477 -0.1639570296 0.5623434186 4281676608
-0.2628426850 -0.1633727551 0.5624829531 4281677119
-0.2633171976 -0.1630416065 0.5634984374 4281413947
-0.2637917101 -0.1627082080 0.5645139217 4281940289
-0.2638565302 -0.1621208191 0.5646526217 4282203461
-0.2631015182 -0.1610313356 0.5630368590 4282006082
-0.2631657124 -0.1604449004 0.5631742477 4283453528
-0.2636397183 -0.1601070464 0.5641886592 4284900715
-0.2637036145 -0.1595188379 0.5643253922 4285032301
-0.2641775310 -0.1591773927 0.5653395653 4285558644
-0.2646514177 -0.1588336676 0.5663536787 4285821816
-0.2647148967 -0.1582423598 0.5664895177 4286282621
-0.2651886940 -0.1578950286 0.5675033927 4286743172
-0.2652518451 -0.1573019624 0.5676385760 4287072135
-0.2661361992 -0.1571936160 0.5695310831 4287466893
-0.2674315572 -0.1573228389 0.5723031163 4287993237
-0.2674945593 -0.1567239016 0.5724380016 4288387995
-0.2675573826 -0.1561245322 0.5725724101 4288717473
-0.2680310607 -0.1557636410 0.5735861063 4288849059
-0.2680935562 -0.1551625133 0.5737197995 4288914852
-0.2681558132 -0.1545609534 0.5738530755 4288914852
-0.2682178915 -0.1539589912 0.5739858747 4288848546
-0.2682797313 -0.1533565968 0.5741182566 4288585374
-0.2683413625 -0.1527538002 0.5742501020 4288190616
-0.2684027553 -0.1521505713 0.5743815303 4287927444
-0.2684639692 -0.1515469402 0.5745124817 4287203721
-0.2681131065 -0.1507113874 0.5737616420 4286874756
-0.2681737840 -0.1501078606 0.5738915205 4286216826
-0.2678222060 -0.1492742747 0.5731391311 4285756275
-0.2678823471 -0.1486708522 0.5732678771 4285426797
-0.2675300539 -0.1478392333 0.5725139380 4284966246
-0.2675896883 -0.1472359449 0.5726415515 4284637281
-0.2676490843 -0.1466322392 0.5727686882 4284374109
-0.2677082717 -0.1460281312 0.5728953481 4283847765
-0.2677672505 -0.1454236358 0.5730215311 4283453007
-0.2682386637 -0.1450418681 0.5740303993 4283058762
-0.2682972848 -0.1444356441 0.5741558075 4282729797
-0.2687685490 -0.1440502852 0.5751643181 4282466627
-0.2688268125 -0.1434423327 0.5752890110 4282203455
-0.2692978978 -0.1430533826 0.5762971044 4282137662
-0.2693558037 -0.1424437165 0.5764210820 4282071869
-0.2698267102 -0.1420511752 0.5774288177 4282006076
-0.2694709599 -0.1412231773 0.5766674876 4281742904
-0.2695282102 -0.1406123191 0.5767900348 4281545271
-0.2691717744 -0.1397863477 0.5760272145 4281282099
-0.2692284882 -0.1391756535 0.5761485696 4281282099
-0.2692849636 -0.1385645866 0.5762694478 4281479478
-0.2693412304 -0.1379531175 0.5763898492 4281479478
-0.2689834237 -0.1371303052 0.5756241679 4281479478
-0.2686252594 -0.1363089979 0.5748576522 4281742650
-0.2690946460 -0.1359073669 0.5758621693 4282005822
-0.2691499293 -0.1352953166 0.5759804845 4282400580
-0.2696191370 -0.1348901093 0.5769845843 4282532166
-0.2696740329 -0.1342763752 0.5771020651 4282532166
-0.2697286904 -0.1336622685 0.5772190690 4282597959
-0.2701975703 -0.1332521588 0.5782223940 4282861644
-0.2702518702 -0.1326363534 0.5783386230 4283256402
-0.2703059316 -0.1320201904 0.5784543157 4283716954
-0.2707744241 -0.1316051930 0.5794568658 4283124817
-0.2704133689 -0.1307867467 0.5786842108 4282137922
-0.2704667449 -0.1301694810 0.5787984729 4280953648
-0.2701049745 -0.1293531358 0.5780242682 4281282613
-0.2697428167 -0.1285383403 0.5772492290 4281085234
-0.2693802714 -0.1277250648 0.5764734149 4281282613
-0.2690173090 -0.1269133389 0.5756967068 4281282613
-0.2690692246 -0.1262980551 0.5758077502 4281479992
-0.2687055767 -0.1254884601 0.5750295520 4281479992
-0.2679261267 -0.1244874150 0.5733615756 4281414199
-0.2671461403 -0.1234898195 0.5716924071 4281479992
-0.2671967149 -0.1228778884 0.5718005896 4281677371
-0.2668314278 -0.1220754534 0.5710188746 4281611578
-0.2660500407 -0.1210853830 0.5693467259 4281611324
-0.2656839192 -0.1202870309 0.5685631633 4281808703
-0.2653173804 -0.1194902435 0.5677788258 4281874496
-0.2649504542 -0.1186950281 0.5669935942 4281940289
-0.2645831406 -0.1179013774 0.5662075877 4281941061
-0.2646315396 -0.1172937378 0.5663111806 4282270026
-0.2650958896 -0.1168692261 0.5673047900 4282730577
-0.2651439011 -0.1162599623 0.5674075484 4282730577
-0.2651916742 -0.1156503633 0.5675097704 4282598991
-0.2652392089 -0.1150404438 0.5676115155 4282664784
-0.2657029927 -0.1146098301 0.5686039925 4283058772
-0.2657501400 -0.1139982939 0.5687049031 4283124565
-0.2657970488 -0.1133864373 0.5688052773 4283256151
-0.2662603855 -0.1129510105 0.5697968602 4283782495
-0.2658901513 -0.1121617481 0.5690045357 4283520093
-0.2659363449 -0.1115489230 0.5691034198 4283388507
-0.2663992047 -0.1111096591 0.5700939298 4283191128
-0.2668619752 -0.1106681526 0.5710842609 4283191128
-0.2669076025 -0.1100524515 0.5711818933 4282533196
-0.2669529915 -0.1094364375 0.5712790489 4282796368
-0.2674153447 -0.1089901403 0.5722684264 4282862161
-0.2678775787 -0.1085416004 0.5732576251 4282927954
-0.2679224014 -0.1079227179 0.5733535290 4282927954
-0.2683843672 -0.1074706689 0.5743421316 4283322712
-0.2692636847 -0.1071825549 0.5762239099 4283914847
-0.2697255015 -0.1067250669 0.5772122145 4284046433
-0.2697696090 -0.1061010957 0.5773066282 4284440423
-0.2698134780 -0.1054768115 0.5774005055 4284900974
-0.2702748477 -0.1050145403 0.5783877969 4285558904
-0.2703182995 -0.1043886915 0.5784807801 4286151041
-0.2703615129 -0.1037625372 0.5785732269 4287138190
-0.2704044580 -0.1031360850 0.5786651373 4288256671
-0.2704471648 -0.1025093347 0.5787565708 4289178287
-0.2709077001 -0.1020397618 0.5797420740 4290230975
-0.2709499896 -0.1014114469 0.5798325539 4291876055
-0.2647254169 -0.1977436244 0.5678617358 4292337895
-0.2648018301 -0.1971696019 0.5680256486 4292140516
-0.2648780942 -0.1965950727 0.5681892037 4291943139
-0.2645508647 -0.1957217008 0.5674872994 4291745760
-0.2642232478 -0.1948495805 0.5667845607 4291679967
-0.2642987370 -0.1942753196 0.5669464469 4291416795
-0.2639704049 -0.1934048533 0.5662421584 4291416540
-0.2640454173 -0.1928304881 0.5664030313 4291284954
-0.2641202509 -0.1922556460 0.5665635467 4291021782
-0.2637909055 -0.1913872212 0.5658571124 4290232266
-0.2638652623 -0.1908122748 0.5660166144 4289573823
-0.2639394104 -0.1902368367 0.5661756992 4288915893
-0.2640134096 -0.1896609217 0.5663344264 4287994793
-0.2640872002 -0.1890845299 0.5664927363 4286547347
-0.2637562752 -0.1882189661 0.5657828450 4285626245
-0.2638296187 -0.1876424849 0.5659401417 4285099901
-0.2639027536 -0.1870655268 0.5660970211 4284376178
-0.2639756799 -0.1864880919 0.5662534833 4283586662
-0.2636434734 -0.1856250316 0.5655408502 4282665560
-0.2633108497 -0.1847632825 0.5648273230 4282139216
-0.2633830309 -0.1841861904 0.5649821758 4281875793
-0.2630496919 -0.1833261400 0.5642670989 4281020484
-0.2627159357 -0.1824674010 0.5635512471 4280494139
-0.2627873421 -0.1818906665 0.5637043715 4281086276
-0.2628585398 -0.1813134700 0.5638570786 4280691518
-0.2625238001 -0.1804568768 0.5631390214 4280757311
-0.2625945210 -0.1798796356 0.5632907152 4283125859
-0.2622590661 -0.1790248007 0.5625711679 4283323238
-0.2627353668 -0.1787237376 0.5635929108 4282928480
-0.2623993158 -0.1778697670 0.5628720522 4283191652
-0.2620628774 -0.1770171076 0.5621502995 4283126113
-0.2621324360 -0.1764393300 0.5622995496 4283191906
-0.2622017860 -0.1758610904 0.5624483228 4283784043
-0.2622709572 -0.1752824038 0.5625966787 4284047215
-0.2619332075 -0.1744323969 0.5618721843 4283849066
-0.2624087334 -0.1741236448 0.5628921986 4283585894
-0.2624773085 -0.1735435873 0.5630393028 4283849066
-0.2621386647 -0.1726949066 0.5623129010 4284309617
-0.2622067630 -0.1721148342 0.5624589920 4284638582
-0.2622746527 -0.1715343148 0.5626046062 4284572789
-0.2623423636 -0.1709533483 0.5627498627 4284506994
-0.2628173530 -0.1706364751 0.5637687445 4284506994
-0.2628847957 -0.1700537056 0.5639134049 4283519842
-0.2629520297 -0.1694704890 0.5640575886 4282861912
-0.2626112700 -0.1686249822 0.5633266568 4281611843
-0.2626779974 -0.1680417806 0.5634698272 4281480257
-0.2627445161 -0.1674581170 0.5636125207 4281545535
-0.2632189691 -0.1671331525 0.5646302104 4281479742
-0.2628769875 -0.1662894934 0.5638967156 4281479742
-0.2629429400 -0.1657045186 0.5640381575 4281611328
-0.2626002729 -0.1648627073 0.5633031130 4281677121
-0.2622572184 -0.1640222669 0.5625671744 4281677121
-0.2623223364 -0.1634377986 0.5627068877 4281413947
-0.2627959847 -0.1631065607 0.5637229085 4281413947
-0.2632696331 -0.1627730578 0.5647389293 4281742912
-0.2629254460 -0.1619336307 0.5640006065 4282269256
-0.2633988857 -0.1615974307 0.5650162101 4282137668
-0.2626450062 -0.1605089456 0.5633990169 4282598219
-0.2631181180 -0.1601709872 0.5644139647 4282927438
-0.2635912597 -0.1598307639 0.5654288530 4282598473
-0.2636549771 -0.1592410058 0.5655655265 4282005822
-0.2641279697 -0.1588971913 0.5665801764 4282268994
-0.2646009922 -0.1585510969 0.5675948262 4282664006
-0.2646642923 -0.1579582393 0.5677306056 4283190350
-0.2651371658 -0.1576085538 0.5687449574 4283716694
-0.2656100392 -0.1572566032 0.5697593093 4284308831
-0.2664928734 -0.1571441442 0.5716530681 4284966759
-0.2665557265 -0.1565459073 0.5717878938 4285361517
-0.2666183710 -0.1559472531 0.5719223022 4286085240
-0.2666808069 -0.1553481817 0.5720561743 4286479998
-0.2671533823 -0.1549867541 0.5730699301 4286940549
-0.2672154903 -0.1543859094 0.5732031465 4287335307
-0.2672773600 -0.1537846476 0.5733359456 4287795858
-0.2673390508 -0.1531829685 0.5734682083 4288190616
-0.2674005032 -0.1525808722 0.5736000538 4288519581
-0.2674617469 -0.1519783735 0.5737314820 4288848546
-0.2675227821 -0.1513754427 0.5738623738 4288914339
-0.2671725750 -0.1505405158 0.5731111169 4289374890
-0.2668219507 -0.1497070193 0.5723590255 4289309097
-0.2668821514 -0.1491047293 0.5724881887 4288980132
-0.2665308416 -0.1482731998 0.5717345476 4288716960
-0.2665905058 -0.1476710290 0.5718625188 4288453788
-0.2666499615 -0.1470684409 0.5719900727 4288190103
-0.2667092085 -0.1464654505 0.5721171498 4287597966
-0.2667682469 -0.1458620578 0.5722438097 4286677377
-0.2668270469 -0.1452582777 0.5723699331 4286479998
-0.2668856382 -0.1446540803 0.5724956393 4286019449
-0.2673559785 -0.1442718059 0.5735045075 4285361519
-0.2674142122 -0.1436658800 0.5736294389 4284900968
-0.2678843737 -0.1432800144 0.5746379495 4284703589
-0.2679422498 -0.1426723748 0.5747621655 4284177245
-0.2679999173 -0.1420643330 0.5748858452 4283585108
-0.2680573761 -0.1414559186 0.5750091076 4283321936
-0.2681145966 -0.1408471018 0.5751318336 4283058764
-0.2681716084 -0.1402378976 0.5752541423 4282927178
-0.2678157389 -0.1394134909 0.5744907260 4282992971
-0.2678721845 -0.1388044506 0.5746119022 4282795338
-0.2679284513 -0.1381950378 0.5747325420 4282334787
-0.2675715387 -0.1373732239 0.5739669800 4281940283
-0.2676272690 -0.1367639750 0.5740864873 4281874490
-0.2672696412 -0.1359442323 0.5733193755 4281545271
-0.2677380145 -0.1355443448 0.5743240118 4281676857
-0.2677930295 -0.1349339634 0.5744420886 4281611064
-0.2682611942 -0.1345304847 0.5754463077 4281479478
-0.2683158815 -0.1339184195 0.5755636096 4281413685
-0.2683703005 -0.1333059669 0.5756803751 4281413685
-0.2684245110 -0.1326931417 0.5757966638 4281808956
-0.2684785128 -0.1320799440 0.5759124756 4282401093
-0.2689460218 -0.1316689551 0.5769153237 4282532680
-0.2689996362 -0.1310540736 0.5770303607 4282006336
-0.2690530121 -0.1304388344 0.5771448612 4281348406
-0.2686921656 -0.1296235025 0.5763707757 4280690476
-0.2687450051 -0.1290084720 0.5764841437 4281151027
-0.2683834434 -0.1281952560 0.5757085085 4281019441
-0.2680214643 -0.1273835748 0.5749320984 4281085234
-0.2676591277 -0.1265734285 0.5741547942 4281085234
-0.2677108049 -0.1259598136 0.5742656589 4281151026
-0.2673477530 -0.1251518130 0.5734868646 4281282612
-0.2669843137 -0.1243453622 0.5727072954 4281348406
-0.2657911777 -0.1231561974 0.5701478720 4281414199
-0.2654267848 -0.1223547533 0.5693662763 4281545785
-0.2650620341 -0.1215548664 0.5685837865 4281479992
-0.2646968663 -0.1207565442 0.5678005219 4281348406
-0.2643313408 -0.1199597865 0.5670164227 4281545785
-0.2639654279 -0.1191646010 0.5662314296 4281348406
-0.2635990977 -0.1183709800 0.5654456615 4281545785
-0.2636476159 -0.1177643985 0.5655497313 4281677117
-0.2636958659 -0.1171574742 0.5656532645 4281874496
-0.2637439072 -0.1165502220 0.5657563210 4282006082
-0.2637917101 -0.1159426346 0.5658588409 4281940289
-0.2638392746 -0.1153347194 0.5659608841 4282006082
-0.2643021941 -0.1149071530 0.5669538975 4282269254
-0.2639337182 -0.1141179129 0.5661634803 4281940291
-0.2639805973 -0.1135090142 0.5662640333 4282137670
-0.2644430399 -0.1130775958 0.5672559738 4282335049
-0.2644895017 -0.1124670953 0.5673556924 4282664014
-0.2645357549 -0.1118562743 0.5674548745 4282270026
-0.2641657293 -0.1110702157 0.5666611791 4282270026
-0.2646275163 -0.1106336713 0.5676516891 4282401612
-0.2650891840 -0.1101948917 0.5686420798 4282533198
-0.2651345730 -0.1095818356 0.5687393546 4282467403
-0.2651796937 -0.1089684665 0.5688362122 4282467403
-0.2656409442 -0.1085248962 0.5698256493 4282401610
-0.2656856477 -0.1079099402 0.5699215531 4282335817
-0.2657301426 -0.1072946787 0.5700169802 4282270024
-0.2661909461 -0.1068463102 0.5710054636 4282533196
-0.2666516602 -0.1063957140 0.5719937682 4282862161
-0.2666955590 -0.1057775989 0.5720878839 4282730575
-0.2671560049 -0.1053234935 0.5730755925 4282729805
-0.2671994865 -0.1047037989 0.5731688738 4283256149
-0.2672427297 -0.1040838137 0.5732616186 4283453528
-0.2672857344 -0.1034635231 0.5733538270 4283453528
-0.2673284709 -0.1028429270 0.5734455585 4283716700
-0.2673709989 -0.1022220477 0.5735367537 4283979872
-0.2674132586 -0.1016008630 0.5736274123 4284440677
-0.2678725421 -0.1011369228 0.5746126175 4285230193
-0.2683316767 -0.1006707475 0.5755975246 4286480774
-0.2683733404 -0.1000467464 0.5756868720 4287862427
-0.2684147656 -0.0994224623 0.5757757425 4289836472
-0.2684559226 -0.0987978801 0.5758640170 4291678676
-0.2629658580 -0.1937572062 0.5654344559 4292403690
-0.2630408406 -0.1931840330 0.5655956864 4292074725
-0.2631156445 -0.1926103681 0.5657564998 4291745760
-0.2627871931 -0.1917421371 0.5650503039 4291614174
-0.2628615201 -0.1911683828 0.5652101040 4291416795
-0.2629356682 -0.1905941367 0.5653695464 4291350747
-0.2630096376 -0.1900193989 0.5655285716 4291153368
-0.2630833983 -0.1894441843 0.5656872392 4290758610
-0.2631570101 -0.1888684928 0.5658454299 4290495438
-0.2632304132 -0.1882923096 0.5660033226 4290166475
-0.2628998160 -0.1874277443 0.5652924180 4289311166
-0.2629727423 -0.1868514866 0.5654492378 4288323758
-0.2630454898 -0.1862747371 0.5656057000 4287600035
-0.2627138793 -0.1854122728 0.5648926497 4286876312
-0.2623818517 -0.1845511049 0.5641787052 4286218382
-0.2628582418 -0.1842581928 0.5652030110 4284639612
-0.2625256181 -0.1833978444 0.5644878149 4283850096
-0.2621926069 -0.1825388223 0.5637717843 4283192166
-0.2618591785 -0.1816810966 0.5630548596 4282139478
-0.2619301677 -0.1811045855 0.5632075071 4281613134
-0.2615960538 -0.1802486032 0.5624890924 4281415755
-0.2616665661 -0.1796720624 0.5626407266 4281415241
-0.2617368996 -0.1790950447 0.5627919436 4280494139
-0.2618070543 -0.1785175800 0.5629427433 4279967795
-0.2614716291 -0.1776641905 0.5622215271 4280165174
-0.2611357868 -0.1768121272 0.5614994168 4280362807
-0.2612051368 -0.1762350649 0.5616485476 4280494393
-0.2612743080 -0.1756575406 0.5617972612 4280822588
-0.2613433003 -0.1750795543 0.5619455576 4281283139
-0.2614120841 -0.1745011061 0.5620934963 4281743690
-0.2614806890 -0.1739221960 0.5622409582 4282072655
-0.2615490854 -0.1733428538 0.5623880625 4281941069
-0.2616173029 -0.1727630347 0.5625347495 4282401620
-0.2616853118 -0.1721827686 0.5626809597 4282796376
-0.2617531419 -0.1716020554 0.5628268123 4283454306
-0.2618207633 -0.1710208952 0.5629722476 4284441201
-0.2618882060 -0.1704392880 0.5631172657 4285230717
-0.2623622119 -0.1701209694 0.5641364455 4284177772
-0.2624293566 -0.1695375592 0.5642808080 4282861912
-0.2620893121 -0.1686917394 0.5635496974 4281809222
-0.2621559799 -0.1681083441 0.5636930466 4281546050
-0.2622224391 -0.1675244868 0.5638359189 4281414464
-0.2626959682 -0.1671994179 0.5648541451 4281414464
-0.2623547316 -0.1663554609 0.5641204119 4281414463
-0.2624205947 -0.1657702923 0.5642620325 4281414463
-0.2620786726 -0.1649281830 0.5635268092 4281677121
-0.2617363334 -0.1640874445 0.5627907515 4281677121
-0.2618013918 -0.1635027677 0.5629305840 4281413947
-0.2618662417 -0.1629176736 0.5630700588 4281479740
-0.2623389065 -0.1625849754 0.5640863776 4281742912
-0.2624034584 -0.1619980931 0.5642251968 4281677119
-0.2624678016 -0.1614107788 0.5643635392 4281940289
-0.2625319660 -0.1608230323 0.5645014644 4284703595
-0.2630043030 -0.1604840457 0.5655171275 4286874764
-0.2630681396 -0.1598945260 0.5656543970 4286940557
-0.2635403872 -0.1595519334 0.5666697621 4287203470
-0.2636038959 -0.1589606404 0.5668063760 4286479747
-0.2640760243 -0.1586144418 0.5678215623 4285427058
-0.2645481229 -0.1582659930 0.5688366890 4284308577
-0.2646112442 -0.1576715708 0.5689723492 4283387475
-0.2654922903 -0.1575622857 0.5708668232 4282926924
-0.2651460171 -0.1567233354 0.5701222420 4282795338
-0.2656178772 -0.1563676596 0.5711368322 4282663752
-0.2656803429 -0.1557697207 0.5712711811 4282729799
-0.2657426000 -0.1551713496 0.5714050531 4282861385
-0.2662141919 -0.1548107266 0.5724191070 4283190350
-0.2662761509 -0.1542105973 0.5725522637 4283519315
-0.2663378716 -0.1536100507 0.5726850033 4284045657
-0.2663993537 -0.1530090868 0.5728172660 4284703587
-0.2664606571 -0.1524077058 0.5729490519 4285361517
-0.2665217519 -0.1518059075 0.5730803609 4285822068
-0.2665826082 -0.1512036920 0.5732112527 4286414205
-0.2662330568 -0.1503693759 0.5724596381 4286874756
-0.2662933767 -0.1497672796 0.5725893974 4287401100
-0.2659431100 -0.1489349306 0.5718362331 4287861651
-0.2660029531 -0.1483329386 0.5719648600 4288190616
-0.2656519413 -0.1475025564 0.5712101460 4288651167
-0.2657112479 -0.1469006836 0.5713376403 4288980132
-0.2657703459 -0.1462984085 0.5714647174 4288980132
-0.2658292055 -0.1456957310 0.5715912580 4289111718
-0.2658878565 -0.1450926661 0.5717173815 4289111718
-0.2663573325 -0.1447125077 0.5727268457 4288980134
-0.2664156258 -0.1441077143 0.5728522539 4288585376
-0.2664737105 -0.1435025036 0.5729771256 4288256411
-0.2665315866 -0.1428969204 0.5731015205 4287993239
-0.2670006454 -0.1425105035 0.5741100907 4287466893
-0.2670581639 -0.1419031918 0.5742337704 4286808963
-0.2671154439 -0.1412954777 0.5743569732 4286151033
-0.2671725154 -0.1406873912 0.5744796991 4285822068
-0.2672293484 -0.1400789022 0.5746019483 4285361519
-0.2668741345 -0.1392551214 0.5738381147 4284900968
-0.2665185332 -0.1384328306 0.5730735064 4284308318
-0.2661625147 -0.1376120448 0.5723080039 4283781974
-0.2662182152 -0.1370048374 0.5724277496 4283781972
-0.2662737072 -0.1363972425 0.5725470185 4283584593
-0.2663289607 -0.1357892752 0.5726658106 4283058764
-0.2663839757 -0.1351809204 0.5727841854 4282795592
-0.2668512166 -0.1347805113 0.5737888217 4282466373
-0.2669058740 -0.1341704726 0.5739063621 4282268994
-0.2669603229 -0.1335600615 0.5740234256 4282005822
-0.2670145333 -0.1329492629 0.5741400123 4281742650
-0.2670685053 -0.1323381066 0.5742560625 4281611577
-0.2675351501 -0.1319301724 0.5752593875 4281808956
-0.2675887346 -0.1313173324 0.5753746629 4281743164
-0.2676421404 -0.1307041198 0.5754894614 4281216820
-0.2676952779 -0.1300905347 0.5756037831 4280887342
-0.2673350275 -0.1292767823 0.5748291016 4280821549
-0.2673876286 -0.1286634207 0.5749422312 4281150516
-0.2670266628 -0.1278517991 0.5741660595 4281084723
-0.2674921751 -0.1274356246 0.5751670003 4280953394
-0.2671305835 -0.1266251653 0.5743895173 4280953394
-0.2663550079 -0.1256211996 0.5727218390 4281216820
-0.2664062381 -0.1250088960 0.5728319883 4281216820
-0.2656297088 -0.1240099221 0.5711623430 4281085234
-0.2648526430 -0.1230144054 0.5694914460 4280953648
-0.2640750408 -0.1220223457 0.5678194165 4281019441
-0.2637108862 -0.1212240607 0.5670363903 4281085234
-0.2633463442 -0.1204273328 0.5662525892 4281216566
-0.2629814148 -0.1196321771 0.5654678941 4281348152
-0.2630303204 -0.1190260351 0.5655730367 4280953394
-0.2626646757 -0.1182330623 0.5647868514 4280953394
-0.2627130449 -0.1176272035 0.5648908615 4281019187
-0.2627612054 -0.1170210019 0.5649943948 4281216566
-0.2628090978 -0.1164144799 0.5650973916 4281479738
-0.2628567815 -0.1158076152 0.5651999116 4281479738
-0.2629042268 -0.1152004302 0.5653018951 4281413945
-0.2629514337 -0.1145929098 0.5654034019 4281479738
-0.2629984021 -0.1139850691 0.5655044317 4281348154
-0.2630451322 -0.1133769006 0.5656049252 4281413947
-0.2630916536 -0.1127684042 0.5657049417 4281348154
-0.2631379366 -0.1121595874 0.5658044219 4281611326
-0.2631839812 -0.1115504578 0.5659034252 4281479740
-0.2632297873 -0.1109410003 0.5660019517 4281611326
-0.2632753551 -0.1103312299 0.5660999417 4281611324
-0.2633206844 -0.1097211465 0.5661973953 4281479738
-0.2633657753 -0.1091107428 0.5662943721 4281545531
-0.2638261318 -0.1086711660 0.5672841668 4281545531
-0.2642863691 -0.1082293466 0.5682738423 4281611324
-0.2647465169 -0.1077852920 0.5692632198 4281479738
-0.2647908628 -0.1071707532 0.5693585873 4281545531
-0.2648349702 -0.1065559089 0.5694534779 4281940289
-0.2648788691 -0.1059407517 0.5695478320 4282006852
-0.2649224997 -0.1053252965 0.5696417093 4281941059
-0.2649659216 -0.1047095358 0.5697349906 4281940289
-0.2650090754 -0.1040934771 0.5698277950 4282532426
-0.2650519907 -0.1034771129 0.5699201226 4282927184
-0.2650946677 -0.1028604507 0.5700118542 4283058770
-0.2651371062 -0.1022434905 0.5701031089 4283453528
-0.2651793063 -0.1016262397 0.5701938868 4283782493
-0.2652212679 -0.1010086909 0.5702840686 4283980126
-0.2652629912 -0.1003908515 0.5703737736 4284572263
-0.2657209337 -0.0999293476 0.5713585019 4285493365
-0.2661787868 -0.0994656160 0.5723429322 4285624951
-0.2662198842 -0.0988449678 0.5724313259 4286217088
-0.2662607729 -0.0982240289 0.5725191832 4286809225
-0.2667181194 -0.0977555513 0.5735026598 4289967803
-0.2671753764 -0.0972848386 0.5744858384 4292402144
-0.2619331479 -0.1909492165 0.5645621419 4292206311
-0.2620070875 -0.1903756708 0.5647215247 4292074470
-0.2620808482 -0.1898016483 0.5648804903 4291679712
-0.2621544003 -0.1892271340 0.5650390983 4291613919
-0.2622278035 -0.1886521280 0.5651972890 4291482333
-0.2623010278 -0.1880766600 0.5653550625 4291416540
-0.2619710267 -0.1872126758 0.5646438003 4291284954
-0.2620437443 -0.1866371185 0.5648005605 4291350749
-0.2621162832 -0.1860610843 0.5649569035 4291350749
-0.2621886730 -0.1854845732 0.5651128888 4290824405
-0.2618573606 -0.1846231073 0.5643988252 4290298061
-0.2619292438 -0.1840465218 0.5645537376 4289968845
-0.2615972459 -0.1831867844 0.5638381839 4289245122
-0.2616686523 -0.1826101393 0.5639920831 4288784571
-0.2613359392 -0.1817521155 0.5632749796 4287863469
-0.2614068687 -0.1811754405 0.5634278059 4287337124
-0.2610734403 -0.1803191453 0.5627092123 4286284436
-0.2611438930 -0.1797424108 0.5628610253 4285362821
-0.2612141371 -0.1791652143 0.5630124211 4284639098
-0.2608797252 -0.1783111095 0.5622916818 4283915629
-0.2609494925 -0.1777338684 0.5624420047 4283257699
-0.2606143951 -0.1768815219 0.5617197752 4282731355
-0.2606836557 -0.1763042659 0.5618690848 4282270804
-0.2607527375 -0.1757265478 0.5620179772 4281677895
-0.2608216405 -0.1751483679 0.5621664524 4281085758
-0.2608903348 -0.1745697260 0.5623145103 4280691000
-0.2609588504 -0.1739906371 0.5624622107 4280296242
-0.2610271871 -0.1734110862 0.5626094937 4280493623
-0.2610953152 -0.1728310883 0.5627563000 4280362037
-0.2611632347 -0.1722506285 0.5629027486 4280230451
-0.2612309754 -0.1716697216 0.5630487204 4280888381
-0.2612985373 -0.1710883677 0.5631943345 4281414725
-0.2613658905 -0.1705065519 0.5633394718 4281941069
-0.2618390024 -0.1701881438 0.5643592477 4281348930
-0.2619060576 -0.1696045399 0.5645037889 4280888379
-0.2615667582 -0.1687584370 0.5637724996 4280888122
-0.2616333365 -0.1681748331 0.5639159679 4280953915
-0.2616997063 -0.1675907820 0.5640590191 4281217085
-0.2617658973 -0.1670062989 0.5642016530 4281414464
-0.2622384429 -0.1666797847 0.5652201772 4281414464
-0.2623043060 -0.1660934985 0.5653621554 4281348671
-0.2619632185 -0.1652501673 0.5646269917 4281348671
-0.2612148523 -0.1641525328 0.5630139709 4281414464
-0.2612798214 -0.1635676622 0.5631540418 4281413949
-0.2613446116 -0.1629823595 0.5632936358 4281282363
-0.2614091933 -0.1623966247 0.5634328723 4281084982
-0.2618808448 -0.1620624810 0.5644494295 4281479740
-0.2615377307 -0.1612238437 0.5637099147 4283453530
-0.2616017163 -0.1606367975 0.5638478398 4286019457
-0.2620730698 -0.1602986306 0.5648637414 4286677385
-0.2625444233 -0.1599581987 0.5658797026 4286677385
-0.2626079917 -0.1593680382 0.5660166740 4286677128
-0.2630791962 -0.1590240002 0.5670323372 4286742921
-0.2635504305 -0.1586776972 0.5680480003 4287137677
-0.2636135817 -0.1580844223 0.5681841373 4287466642
-0.2640846968 -0.1577345133 0.5691995025 4287664021
-0.2641475201 -0.1571394801 0.5693349242 4287664021
-0.2646184862 -0.1567859650 0.5703501105 4287466641
-0.2646810114 -0.1561891437 0.5704848170 4287006090
-0.2647432983 -0.1555919051 0.5706191063 4286545793
-0.2648053765 -0.1549942493 0.5707529187 4286019449
-0.2652760148 -0.1546344459 0.5717672706 4285295726
-0.2653377950 -0.1540350169 0.5719004273 4284506210
-0.2653993368 -0.1534351856 0.5720330477 4283914073
-0.2654606700 -0.1528349370 0.5721653104 4283519315
-0.2655217946 -0.1522342563 0.5722970366 4283321936
-0.2655827105 -0.1516331732 0.5724283457 4283256143
-0.2656434178 -0.1510316879 0.5725591779 4283058762
-0.2657039165 -0.1504297704 0.5726895332 4282795590
-0.2653546929 -0.1495966017 0.5719368458 4283058762
-0.2650050521 -0.1487648636 0.5711832643 4283848278
-0.2650647163 -0.1481635869 0.5713118911 4284308829
-0.2651241720 -0.1475619078 0.5714399815 4284637794
-0.2651833892 -0.1469598264 0.5715676546 4285427310
-0.2652423978 -0.1463573277 0.5716948509 4286019447
-0.2648911476 -0.1455291659 0.5709377527 4286808963
-0.2653597891 -0.1451511532 0.5719478130 4287006342
-0.2654181421 -0.1445474625 0.5720736384 4287401100
-0.2658866048 -0.1441658437 0.5730833411 4287927444
-0.2659446299 -0.1435604244 0.5732083917 4288322202
-0.2660024166 -0.1429546177 0.5733329654 4288453788
-0.2660599947 -0.1423484087 0.5734570622 4288585374
-0.2661173642 -0.1417418122 0.5735806823 4288782753
-0.2661744952 -0.1411348134 0.5737038255 4288782753
-0.2662314177 -0.1405274272 0.5738264918 4288716960
-0.2662881017 -0.1399196535 0.5739487410 4288387482
-0.2663445771 -0.1393114924 0.5740704536 4288058517
-0.2659897208 -0.1384889036 0.5733056068 4287729552
-0.2656344771 -0.1376678050 0.5725398660 4287532173
-0.2652788162 -0.1368481964 0.5717732906 4287137415
-0.2653341293 -0.1362413317 0.5718925595 4286084727
-0.2653892338 -0.1356340796 0.5720112920 4285361519
-0.2654441297 -0.1350264400 0.5721296072 4284835175
-0.2654987574 -0.1344184428 0.5722473860 4284374624
-0.2655532062 -0.1338100582 0.5723646879 4284177245
-0.2656074166 -0.1332013011 0.5724815726 4283979612
-0.2656613886 -0.1325921714 0.5725978613 4283584854
-0.2657151520 -0.1319826841 0.5727137327 4283322195
-0.2661807239 -0.1315764934 0.5737172365 4283256402
-0.2662340999 -0.1309653074 0.5738322735 4282598473
-0.2662872374 -0.1303537637 0.5739468336 4281874750
-0.2663401663 -0.1297418475 0.5740609169 4281216307
-0.2663928866 -0.1291295737 0.5741745234 4281150514
-0.2660329044 -0.1283179969 0.5733986497 4281084723
-0.2660850585 -0.1277059317 0.5735110641 4281150516
-0.2661369741 -0.1270935237 0.5736230016 4281084980
-0.2661886811 -0.1264807582 0.5737344027 4281150773
-0.2658273876 -0.1256724894 0.5729556680 4281216055
-0.2654657066 -0.1248657629 0.5721760988 4281281848
-0.2651036084 -0.1240605935 0.5713956952 4281216568
-0.2643281221 -0.1230646893 0.5697242618 4281084982
-0.2639651895 -0.1222635806 0.5689420104 4280953396
-0.2636018693 -0.1214640290 0.5681589246 4281084982
-0.2632381618 -0.1206660494 0.5673750043 4281150775
-0.2628740966 -0.1198696271 0.5665902495 4281084982
-0.2625096142 -0.1190747768 0.5658046603 4280887603
-0.2625582218 -0.1184680685 0.5659094453 4280821810
-0.2621930540 -0.1176754087 0.5651223660 4280756017
-0.2622411251 -0.1170689836 0.5652260184 4280821810
-0.2622889876 -0.1164622232 0.5653291345 4280887603
-0.2627503872 -0.1160378680 0.5663236380 4280887603
-0.2627978623 -0.1154294908 0.5664259195 4280887603
-0.2624311447 -0.1146399602 0.5656355619 4281084982
-0.2624780834 -0.1140318811 0.5657366514 4280689965
-0.2625247538 -0.1134234816 0.5658373237 4280953137
-0.2625712156 -0.1128147542 0.5659374595 4280821297
-0.2626174390 -0.1122057065 0.5660370588 4280887090
-0.2626634240 -0.1115963385 0.5661361814 4280756017
-0.2622947991 -0.1108115911 0.5653417110 4280953396
-0.2623402476 -0.1102025434 0.5654396415 4281019187
-0.2623854578 -0.1095931828 0.5655370951 4281019187
-0.2628450394 -0.1091556847 0.5665276051 4281019187
-0.2628898323 -0.1085447297 0.5666241646 4281084980
-0.2629344165 -0.1079334691 0.5667202473 4281150773
-0.2629787624 -0.1073218957 0.5668158531 4280887601
-0.2634377182 -0.1068783253 0.5678050518 4280953394
-0.2634816468 -0.1062651724 0.5678997636 4281413945
-0.2635253370 -0.1056517139 0.5679939389 4281545531
-0.2635687888 -0.1050379500 0.5680875778 4281677117
-0.2636120021 -0.1044238880 0.5681807399 4281611578
-0.2636549771 -0.1038095132 0.5682733655 4281940543
-0.2636977136 -0.1031948477 0.5683655143 4282072129
-0.2637402117 -0.1025798842 0.5684570670 4282006336
-0.2633670866 -0.1018040478 0.5676528215 4282401094
-0.2634090185 -0.1011894569 0.5677432418 4282861645
-0.2634507418 -0.1005745754 0.5678331256 4283124817
-0.2634921968 -0.0999594033 0.5679225326 4283519575
-0.2639490962 -0.0995006412 0.5689072609 4284506470
-0.2644058764 -0.0990396440 0.5698918104 4284967021
-0.2640309632 -0.0982669070 0.5690836906 4285361779
-0.2644873857 -0.0978033990 0.5700674653 4283651161
-0.2649436891 -0.0973376557 0.5710510015 4286085502
-0.2653998733 -0.0968696848 0.5720342398 4288717222
-0.2662720084 -0.0965503454 0.5739139915 4289835703
-0.2667280138 -0.0960769430 0.5748968720 4291283149
-0.2671838999 -0.0956013128 0.5758794546 4292797155
-0.2607512772 -0.1892919093 0.5633634329 4292337897
-0.2608245313 -0.1887189746 0.5635216832 4292074725
-0.2608976066 -0.1881455630 0.5636795759 4291877346
-0.2609705031 -0.1875716746 0.5638371110 4291811298
-0.2610432208 -0.1869972944 0.5639941692 4291679712
-0.2607134283 -0.1861351877 0.5632816553 4291613919
-0.2607856393 -0.1855607480 0.5634377003 4291548126
-0.2608577013 -0.1849858314 0.5635933876 4291482333
-0.2609295845 -0.1844104230 0.5637486577 4291350747
-0.2610012591 -0.1838345528 0.5639035106 4291416031
-0.2606698573 -0.1829753965 0.5631875396 4291284445
-0.2607410848 -0.1823994666 0.5633413792 4291218652
-0.2608121037 -0.1818230599 0.5634948611 4291218652
-0.2608829141 -0.1812461913 0.5636478662 4291087066
-0.2609535754 -0.1806688458 0.5638005137 4290823894
-0.2606205940 -0.1798126847 0.5630810857 4290297807
-0.2606907487 -0.1792353094 0.5632326603 4289771463
-0.2603570819 -0.1783808917 0.5625117421 4289179326
-0.2604267299 -0.1778034717 0.5626623034 4288916154
-0.2600923479 -0.1769508272 0.5619398355 4288389812
-0.2601615489 -0.1763733774 0.5620893240 4287666089
-0.2602305412 -0.1757954657 0.5622383952 4286744987
-0.2598951757 -0.1749450266 0.5615137815 4285889678
-0.2603679895 -0.1746382713 0.5625353456 4285034882
-0.2604364157 -0.1740589887 0.5626831651 4284442745
-0.2605046630 -0.1734792441 0.5628305674 4283849066
-0.2605727017 -0.1728990525 0.5629776120 4283256929
-0.2606405616 -0.1723183990 0.5631241798 4282598999
-0.2607082129 -0.1717372984 0.5632703900 4282006862
-0.2607756853 -0.1711557508 0.5634161234 4281546311
-0.2608429492 -0.1705737412 0.5635614991 4281019967
-0.2609100342 -0.1699912846 0.5637063980 4280691002
-0.2609769106 -0.1694083810 0.5638509393 4280559416
-0.2610435784 -0.1688250303 0.5639950037 4280427830
-0.2611100674 -0.1682412326 0.5641386509 4280296244
-0.2611763775 -0.1676569879 0.5642818809 4280361524
-0.2612424791 -0.1670723110 0.5644246936 4280295731
-0.2613083720 -0.1664871722 0.5645670295 4280229938
-0.2613740563 -0.1659016013 0.5647090077 4280295731
-0.2614395618 -0.1653155833 0.5648505092 4280427571
-0.2610988021 -0.1644733399 0.5641142726 4280559157
-0.2611638010 -0.1638873667 0.5642547011 4281414715
-0.2608223557 -0.1630469859 0.5635169744 4282927954
-0.2612932026 -0.1627140939 0.5645343065 4284375400
-0.2609511316 -0.1618746668 0.5637952685 4285362295
-0.2610152364 -0.1612878591 0.5639337301 4286349190
-0.2606724799 -0.1604502946 0.5631932020 4286743948
-0.2607360780 -0.1598635465 0.5633305907 4286414213
-0.2612063289 -0.1595248431 0.5643466115 4285822076
-0.2616765797 -0.1591838747 0.5653625727 4285756283
-0.2621468306 -0.1588406563 0.5663785934 4285427318
-0.2626170516 -0.1584951580 0.5673945546 4285164400
-0.2630872726 -0.1581474096 0.5684104562 4285295986
-0.2631501555 -0.1575534940 0.5685462952 4285427572
-0.2636202574 -0.1572021395 0.5695619583 4285427572
-0.2636828125 -0.1566064656 0.5696970820 4285624951
-0.2637451291 -0.1560103595 0.5698317885 4286019709
-0.2638072670 -0.1554138362 0.5699660182 4286216828
-0.2638691962 -0.1548168957 0.5700998306 4286414207
-0.2643388212 -0.1544578969 0.5711144805 4286677379
-0.2644004226 -0.1538591832 0.5712475777 4286743172
-0.2644618154 -0.1532600671 0.5713801980 4286677379
-0.2645229697 -0.1526605189 0.5715123415 4286348414
-0.2645839453 -0.1520605683 0.5716440678 4286085242
-0.2646446824 -0.1514602005 0.5717753172 4285953656
-0.2647052109 -0.1508594155 0.5719060898 4285558898
-0.2647655308 -0.1502582133 0.5720364451 4284966761
-0.2644169629 -0.1494256556 0.5712833405 4284177245
-0.2644767761 -0.1488245726 0.5714125037 4283453522
-0.2641274929 -0.1479939967 0.5706579089 4282795592
-0.2645957470 -0.1476211846 0.5716695786 4282269248
-0.2646549046 -0.1470188797 0.5717973709 4282071869
-0.2647138536 -0.1464161873 0.5719247460 4281940283
-0.2643633485 -0.1455876976 0.5711674690 4282466884
-0.2648310661 -0.1452095658 0.5721780062 4282532677
-0.2648893595 -0.1446056515 0.5723039508 4282927689
-0.2653569579 -0.1442239136 0.5733141899 4283585619
-0.2654148936 -0.1436182857 0.5734393597 4284309342
-0.2654726207 -0.1430122405 0.5735641122 4284835686
-0.2655301392 -0.1424058229 0.5736883283 4285427823
-0.2655874193 -0.1417990029 0.5738121271 4285822581
-0.2656444907 -0.1411917806 0.5739354491 4286612097
-0.2652913034 -0.1403672248 0.5731723905 4287072648
-0.2653478384 -0.1397601813 0.5732945204 4287335820
-0.2654041648 -0.1391527355 0.5734162331 4287730578
-0.2650499642 -0.1383307725 0.5726509690 4288124823
-0.2651057541 -0.1377234906 0.5727714896 4288387995
-0.2647508681 -0.1369035840 0.5720047355 4288585374
-0.2648061216 -0.1362964958 0.5721241236 4288453788
-0.2644505203 -0.1354786456 0.5713558197 4288585372
-0.2645052373 -0.1348717362 0.5714740753 4288190614
-0.2645597458 -0.1342644393 0.5715917945 4287730065
-0.2646140456 -0.1336567849 0.5717090964 4287137928
-0.2646681070 -0.1330487430 0.5718258619 4286940551
-0.2647219300 -0.1324403435 0.5719422102 4286480000
-0.2647755444 -0.1318315566 0.5720580220 4285953656
-0.2648289204 -0.1312224120 0.5721733570 4285098347
-0.2648820579 -0.1306128949 0.5722881556 4284703589
-0.2649349868 -0.1300030202 0.5724025369 4283387729
-0.2653991580 -0.1295937002 0.5734053850 4281348146
-0.2654517293 -0.1289821416 0.5735189319 4281216560
-0.2650924325 -0.1281711906 0.5727426410 4281084463
-0.2651444376 -0.1275598556 0.5728550553 4281281842
-0.2651962340 -0.1269481778 0.5729669333 4281150514
