VERSION 0.7
FIELDS x y z rgba
SIZE 4 4 4 4
TYPE F F F U
COUNT 1 1 1 1
WIDTH 920
HEIGHT 1
VIEWPOINT 0.0 0.0 0.0 1.0 0.0 0.0 0.0
POINTS 920
DATA ascii
-0.2744636536 -0.0930397287 0.5458363295 4289871674
-0.2745040953 -0.0924468786 0.5459167361 4289937467
-0.2749885023 -0.0920023993 0.5468801260 4290134076
-0.2750284970 -0.0914080739 0.5469596982 4290265662
-0.2755126357 -0.0909601897 0.5479224920 4289480509
-0.2759966254 -0.0905101374 0.5488850474 4289612095
-0.2764805257 -0.0900579020 0.5498473644 4288237639
-0.2765197158 -0.0894596577 0.5499252677 4288237639
-0.2770032883 -0.0890040323 0.5508869886 4286864468
-0.2774867117 -0.0885462239 0.5518484116 4286996054
-0.2779700458 -0.0880862400 0.5528095961 4286474081
-0.2780084014 -0.0874840990 0.5528859496 4286671460
-0.2784914076 -0.0870207325 0.5538464785 4285692012
-0.2789742649 -0.0865551829 0.5548067689 4285692012
-0.2803469896 -0.0863616243 0.5575367808 4284908147
-0.2808296978 -0.0858897939 0.5584967732 4285105526
-0.2817574143 -0.0855509415 0.5603416562 4285368190
-0.2826850712 -0.0852079839 0.5621865988 4285433983
-0.2836127281 -0.0848609209 0.5640314221 4285501064
-0.2845403254 -0.0845097452 0.5658762455 4286224787
-0.2854679227 -0.0841544643 0.5677209496 4286355860
-0.2868408859 -0.0839253962 0.5704514384 4286750618
-0.2882139385 -0.0836902857 0.5731820464 4287604900
-0.2895870507 -0.0834491253 0.5759128332 4288262830
-0.2914058268 -0.0833293274 0.5795298815 4290432459
-0.2932247519 -0.0832015499 0.5831472874 4293327351
-0.3128523827 -0.1859619170 0.6235587597 4290296000
-0.3124961555 -0.1850581467 0.6228488088 4290426541
-0.3121395111 -0.1841557026 0.6221379042 4289308060
-0.3113487661 -0.1829996854 0.6205618978 4289043830
-0.3105573654 -0.1818467975 0.6189845204 4288649072
-0.3080299497 -0.1796847284 0.6139470339 4288977764
-0.3020294309 -0.1755155623 0.6019871235 4289043557
-0.2938554585 -0.1701147556 0.5856952667 4288781690
-0.2809015214 -0.1619935781 0.5598762631 4285689419
-0.2866144776 -0.1646534801 0.5712629557 4288255094
-0.2832081914 -0.1620694697 0.5644737482 4290492056
-0.2793655396 -0.1592518091 0.5568148494 4290228885
-0.2781282961 -0.1579305828 0.5543487668 4290163092
-0.2768901885 -0.1566143781 0.5518811345 4290228372
-0.2756512761 -0.1553031802 0.5494117737 4290359958
-0.2765859663 -0.1552172750 0.5512747169 4290228372
-0.2749109268 -0.1536684632 0.5479361415 4290162579
-0.2745401263 -0.1528532207 0.5471970439 4290097045
-0.2741689086 -0.1520393938 0.5464571714 4290031252
-0.2733619809 -0.1509865522 0.5448488593 4289965713
-0.2725544572 -0.1499369442 0.5432393551 4289899920
-0.2721817791 -0.1491291970 0.5424966216 4289965453
-0.2722443342 -0.1485605687 0.5426211953 4289833867
-0.2718709409 -0.1477547586 0.5418770313 4289899406
-0.2710613608 -0.1467144936 0.5402634144 4289899406
-0.2711229622 -0.1461474299 0.5403862000 4289703053
-0.2707483768 -0.1453459263 0.5396395922 4289637260
-0.2703733742 -0.1445458680 0.5388921499 4289702540
-0.2695617676 -0.1435150206 0.5372744799 4289636747
-0.2700583935 -0.1431813836 0.5382643938 4289439881
-0.2696822882 -0.1423847526 0.5375146866 4289505674
-0.2693057358 -0.1415895671 0.5367642045 4290030992
-0.2689287961 -0.1407958269 0.5360128880 4289899406
-0.2689881027 -0.1402312070 0.5361311436 4289233776
-0.2686104476 -0.1394394785 0.5353783965 4285549368
-0.2686692476 -0.1388750374 0.5354956388 4286002989
-0.2682908773 -0.1380853206 0.5347414613 4286068782
-0.2683491707 -0.1375210434 0.5348576307 4285869093
-0.2679700851 -0.1367333531 0.5341020823 4285803300
-0.2675906122 -0.1359471381 0.5333456993 4285608231
-0.2676480412 -0.1353836060 0.5334601998 4285542438
-0.2677052915 -0.1348197162 0.5335742831 4285542438
-0.2677623034 -0.1342554688 0.5336879492 4285542438
-0.2673814893 -0.1334724128 0.5329289436 4285608232
-0.2674379945 -0.1329083741 0.5330415368 4285674025
-0.2670564950 -0.1321273595 0.5322811007 4285739818
-0.2671124637 -0.1315635294 0.5323926806 4285739818
-0.2671682239 -0.1309993416 0.5325038433 4285608232
-0.2667856812 -0.1302209795 0.5317413807 4285608232
-0.2668409050 -0.1296570152 0.5318514705 4285739818
-0.2668959200 -0.1290926933 0.5319611430 4285871404
-0.2669507265 -0.1285280287 0.5320703387 4285805868
-0.2670053244 -0.1279630214 0.5321791172 4285740075
-0.2666211426 -0.1271884739 0.5314134359 4285739818
-0.2666752040 -0.1266237050 0.5315212011 4285674025
-0.2667290270 -0.1260585934 0.5316284895 4285477926
-0.2667826712 -0.1254931390 0.5317353606 4285543719
-0.2663971782 -0.1247218624 0.5309670568 4285412392
-0.2668892443 -0.1243612021 0.5319477916 4285280806
-0.2669421732 -0.1237947270 0.5320532918 4285346859
-0.2669949234 -0.1232279167 0.5321584344 4285544238
-0.2670474350 -0.1226607710 0.5322631001 4285018923
-0.2666604221 -0.1218924820 0.5314916968 4286597955
-0.2671518028 -0.1215254813 0.5324711204 4290744197
-0.2672036588 -0.1209573373 0.5325744152 4289428337
-0.2672552764 -0.1203888580 0.5326773524 4285942335
-0.2673066556 -0.1198200583 0.5327798128 4284560682
-0.2673578560 -0.1192509308 0.5328817964 4284954924
-0.2669689953 -0.1184862703 0.5321066976 4285152303
-0.2670196295 -0.1179174334 0.5322076678 4285808690
-0.2670700550 -0.1173482612 0.5323081613 4286598206
-0.2671202421 -0.1167787760 0.5324081779 4286857780
-0.2671702206 -0.1162089631 0.5325077772 4286134057
-0.2672199607 -0.1156388372 0.5326069593 4286855727
-0.2672694623 -0.1150683910 0.5327056646 4286789934
-0.2673187554 -0.1144976318 0.5328038931 4288233530
-0.2673678100 -0.1139265522 0.5329016447 4288365116
-0.2674166560 -0.1133551598 0.5329989791 4289282621
-0.2674652636 -0.1127834544 0.5330958962 4289216828
-0.2675136328 -0.1122114435 0.5331923366 4289873216
-0.2675617933 -0.1116391197 0.5332883000 4289807423
-0.2680505812 -0.1112494618 0.5342625380 4289741630
-0.2680983543 -0.1106755808 0.5343577266 4289807423
-0.2681458890 -0.1101013869 0.5344524980 4290004286
-0.2681932151 -0.1095268950 0.5345467925 4290070079
-0.2682402730 -0.1089520976 0.5346406102 4290135357
-0.2678458691 -0.1081987470 0.5338544846 4290003771
-0.2678924203 -0.1076242924 0.5339472294 4289676348
-0.2679387331 -0.1070495397 0.5340395570 4289544762
-0.2679848075 -0.1064744890 0.5341314077 4289544249
-0.2680306435 -0.1058991477 0.5342227817 4289675835
-0.2680762410 -0.1053235009 0.5343136787 4290003773
-0.2685633302 -0.1049201339 0.5352845192 4289937980
-0.2686085403 -0.1043429598 0.5353746414 4289674297
-0.2690953910 -0.1039361656 0.5363450050 4289937469
-0.2691402137 -0.1033574566 0.5364342928 4289937469
-0.2696268260 -0.1029472351 0.5374041796 4289937469
-0.2696712315 -0.1023669988 0.5374926925 4289872446
-0.2701575756 -0.1019533426 0.5384620428 4290069825
-0.2702015936 -0.1013715938 0.5385497808 4290266947
-0.2702454031 -0.1007895544 0.5386370420 4290201154
-0.2702889442 -0.1002072319 0.5387238860 4290397252
-0.2703322470 -0.0996246338 0.5388101935 4290397252
-0.2708178163 -0.0992038473 0.5397779942 4290200387
-0.2708607316 -0.0986197367 0.5398635268 4290003008
-0.2709033787 -0.0980353504 0.5399485230 4289740862
-0.2713885307 -0.0976099148 0.5409154892 4289675069
-0.2714307606 -0.0970240235 0.5409997106 4289413178
-0.2719156444 -0.0965951756 0.5419660807 4289413178
-0.2719574571 -0.0960077792 0.5420494676 4289544251
-0.2724420428 -0.0955755189 0.5430153012 4289741630
-0.2724834681 -0.0949866325 0.5430978537 4289872187
-0.2725246251 -0.0943974704 0.5431799293 4289937980
-0.2730087638 -0.0939605758 0.5441448689 4289937467
-0.2739360332 -0.0936730802 0.5459930301 4289937467
-0.2739766836 -0.0930802450 0.5460740328 4289807932
-0.2744604647 -0.0926368088 0.5470382571 4289807932
-0.2745006680 -0.0920424908 0.5471184254 4289415484
-0.2749841511 -0.0915956497 0.5480820537 4289481277
-0.2750239074 -0.0909998491 0.5481613278 4288304966
-0.2755070925 -0.0905496106 0.5491244197 4288370759
-0.2755464315 -0.0899523348 0.5492027998 4287323986
-0.2764731050 -0.0896425843 0.5510497689 4287323986
-0.2765120566 -0.0890428796 0.5511274338 4285034848
-0.2769946754 -0.0885848850 0.5520893335 4285034848
-0.2774771750 -0.0881247073 0.5530510545 4284248677
-0.2779595554 -0.0876623541 0.5540124774 4284182884
-0.2779977024 -0.0870587528 0.5540884733 4284379753
-0.2793680131 -0.0868692249 0.5568197370 4284313960
-0.2798500657 -0.0863993764 0.5577805042 4284448626
-0.2807762027 -0.0860635266 0.5596264601 4285369728
-0.2812580168 -0.0855883658 0.5605868101 4286157706
-0.2821840942 -0.0852452666 0.5624325871 4286223499
-0.2826656699 -0.0847647786 0.5633924603 4285828741
-0.2840361297 -0.0845467448 0.5661239624 4286618257
-0.2849621177 -0.0841913149 0.5679695606 4286290321
-0.2863326669 -0.0839621574 0.5707013011 4286553493
-0.2877033055 -0.0837269500 0.5734331608 4287605152
-0.2890740335 -0.0834856927 0.5761651993 4288460461
-0.2908896208 -0.0833658576 0.5797839165 4290827213
-0.3114244342 -0.1855238229 0.6220898032 4290164414
-0.3110687137 -0.1846215129 0.6213792562 4290162852
-0.3107125461 -0.1837205291 0.6206677556 4289307543
-0.3099230826 -0.1825658679 0.6190907955 4289043053
-0.3086999953 -0.1811602563 0.6166476011 4288385123
-0.3061768711 -0.1790000200 0.6116074920 4288384851
-0.3001868725 -0.1748318523 0.5996420979 4288911195
-0.2924606204 -0.1696829051 0.5842084289 4288518005
-0.2803965807 -0.1620611399 0.5601097345 4286346836
-0.2865328193 -0.1649717540 0.5723672509 4287071078
-0.2822656333 -0.1618884504 0.5638433099 4290360728
-0.2788635492 -0.1593183279 0.5570473671 4290229146
-0.2776285410 -0.1579965800 0.5545804501 4290031767
-0.2763927579 -0.1566798538 0.5521118045 4290228120
-0.2755901217 -0.1556131989 0.5505084991 4290425499
-0.2752209604 -0.1547939330 0.5497711301 4290293913
-0.2748513818 -0.1539760530 0.5490328670 4290293913
-0.2740471065 -0.1529172510 0.5474262834 4290162842
-0.2736766040 -0.1521031111 0.5466861725 4290097049
-0.2733056843 -0.1512903869 0.5459452271 4290031252
-0.2729343772 -0.1504790783 0.5452035069 4289965459
-0.2721279263 -0.1494304836 0.5435926318 4289965199
-0.2721905112 -0.1488607228 0.5437175632 4289899406
-0.2718179524 -0.1480537057 0.5429733992 4289898639
-0.2710099816 -0.1470121294 0.5413594246 4289832846
-0.2706364989 -0.1462088674 0.5406134129 4289504908
-0.2702626288 -0.1454070657 0.5398665667 4289439115
-0.2698883414 -0.1446066946 0.5391188860 4289439115
-0.2695136666 -0.1438077539 0.5383704305 4289373322
-0.2695740461 -0.1432416886 0.5384910703 4289242249
-0.2691986561 -0.1424447447 0.5377411842 4289242249
-0.2688228488 -0.1416492462 0.5369904637 4289834127
-0.2688824236 -0.1410838664 0.5371094942 4289702541
-0.2685059011 -0.1402903795 0.5363573432 4289960067
-0.2685649395 -0.1397251636 0.5364753008 4286999382
-0.2681877017 -0.1389336735 0.5357217193 4286201909
-0.2682462335 -0.1383686364 0.5358386636 4286136116
-0.2678682804 -0.1375791728 0.5350837111 4286330672
-0.2674899399 -0.1367911696 0.5343279243 4286001707
-0.2675476372 -0.1362268776 0.5344431996 4285805868
-0.2671685815 -0.1354409009 0.5336859822 4285740075
-0.2672257423 -0.1348768026 0.5338001847 4285543466
-0.2672827244 -0.1343123317 0.5339139700 4285477673
-0.2673394680 -0.1337475181 0.5340273380 4285477673
-0.2665221691 -0.1327470988 0.5323947072 4285411880
-0.2670153081 -0.1324000955 0.5333798528 4285542698
-0.2666342258 -0.1316193491 0.5326185822 4285476905
-0.2666899264 -0.1310549527 0.5327298641 4285476905
-0.2667454183 -0.1304901838 0.5328406692 4285476905
-0.2663633227 -0.1297120899 0.5320774317 4285411882
-0.2664182782 -0.1291475594 0.5321872234 4285543468
-0.2664730251 -0.1285826713 0.5322965384 4285543214
-0.2665275633 -0.1280174553 0.5324054956 4285477421
-0.2665818632 -0.1274518669 0.5325139761 4285477421
-0.2661981285 -0.1266776025 0.5317474604 4285345835
-0.2666898370 -0.1263196915 0.5327296257 4285347112
-0.2667434812 -0.1257530898 0.5328367949 4285347112
-0.2667969167 -0.1251861304 0.5329435468 4285346087
-0.2664119601 -0.1244142205 0.5321745872 4285148708
-0.2664648592 -0.1238475293 0.5322802663 4285280042
-0.2665175498 -0.1232804954 0.5323854685 4285477421
-0.2665700018 -0.1227131262 0.5324903131 4285281068
-0.2666222453 -0.1221454293 0.5325946808 4285675826
-0.2666742802 -0.1215773970 0.5326985717 4288834919
-0.2667260766 -0.1210090294 0.5328020453 4288571747
-0.2663388550 -0.1202422380 0.5320285559 4286597957
-0.2663901448 -0.1196741462 0.5321310163 4285479476
-0.2664411664 -0.1191057339 0.5322329402 4286135862
-0.2664920092 -0.1185369864 0.5323345065 4286464827
-0.2665426135 -0.1179679185 0.5324355364 4286595127
-0.2665929794 -0.1173985302 0.5325361490 4286726713
-0.2666431069 -0.1168288141 0.5326363444 4287315249
-0.2666930556 -0.1162587777 0.5327360630 4286525733
-0.2667427361 -0.1156884283 0.5328353643 4287576113
-0.2667922080 -0.1151177511 0.5329341888 4287707699
-0.2668414414 -0.1145467684 0.5330325365 4288757305
-0.2668904662 -0.1139754578 0.5331304669 4288559926
-0.2669392526 -0.1134038419 0.5332279205 4289412667
-0.2669878304 -0.1128319129 0.5333248973 4289149495
-0.2674760818 -0.1124446094 0.5343002677 4289281079
-0.2675242722 -0.1118711159 0.5343964696 4289610044
-0.2675722241 -0.1112973094 0.5344923139 4289807936
-0.2676199675 -0.1107231975 0.5345876217 4289676350
-0.2672272027 -0.1099676117 0.5338031054 4289675321
-0.2672744095 -0.1093938276 0.5338973403 4289741114
-0.2673213482 -0.1088197455 0.5339911580 4290068537
-0.2673680782 -0.1082453653 0.5340844989 4289936951
-0.2674145699 -0.1076706797 0.5341773629 4289412917
-0.2674608529 -0.1070956960 0.5342698097 4289412917
-0.2675068676 -0.1065204144 0.5343617201 4289478710
-0.2679934502 -0.1061193720 0.5353336930 4289215538
-0.2680391073 -0.1055425480 0.5354248881 4289477427
-0.2685254216 -0.1051380709 0.5363963842 4289806392
-0.2685706913 -0.1045597121 0.5364867449 4290068283
-0.2690567672 -0.1041518077 0.5374577641 4289673525
-0.2691016197 -0.1035719141 0.5375473499 4289805113
-0.2691462338 -0.1029917374 0.5376365185 4289739320
-0.2696319222 -0.1025791541 0.5386066437 4289543224
-0.2696761489 -0.1019974500 0.5386949778 4289740603
-0.2697201371 -0.1014154553 0.5387828350 4289806396
-0.2697638571 -0.1008331850 0.5388702154 4289740603
-0.2702489495 -0.1004147008 0.5398392081 4289936699
-0.2702922821 -0.0998309031 0.5399258137 4290002492
-0.2703354061 -0.0992468297 0.5400118828 4289675067
-0.2708200514 -0.0988236964 0.5409800410 4289543481
-0.2708627284 -0.0982381105 0.5410652757 4289609274
-0.2709051967 -0.0976522490 0.5411500931 4289477688
-0.2709473968 -0.0970661119 0.5412343740 4289609017
-0.2714314461 -0.0966370925 0.5422012806 4289674810
-0.2714732289 -0.0960494578 0.5422847867 4289936188
-0.2719569802 -0.0956170261 0.5432510972 4290265153
-0.2719983757 -0.0950278863 0.5433337688 4290331459
-0.2724818289 -0.0945920423 0.5442995429 4290463045
-0.2725227773 -0.0940014124 0.5443813801 4289809223
-0.2734484375 -0.0937138051 0.5462304354 4289875016
-0.2734890580 -0.0931207240 0.5463114977 4288436553
-0.2739720047 -0.0926771015 0.5472762585 4288436553
-0.2740121782 -0.0920825377 0.5473564863 4287062600
-0.2744948268 -0.0916355178 0.5483206511 4287062600
-0.2745345831 -0.0910394713 0.5484000444 4286015058
-0.2750169337 -0.0905890465 0.5493635535 4285949265
-0.2754991651 -0.0901364386 0.5503268242 4285295195
-0.2755382955 -0.0895376951 0.5504049659 4285229402
-0.2760201991 -0.0890816897 0.5513676405 4283789666
-0.2765020132 -0.0886235088 0.5523300767 4283526494
-0.2769836783 -0.0881631374 0.5532922149 4283068254
-0.2774652243 -0.0877005979 0.5542541742 4283660391
-0.2779466212 -0.0872358754 0.5552157760 4284709488
-0.2788712680 -0.0869071409 0.5570628047 4285170039
-0.2797958851 -0.0865743011 0.5589097738 4286683280
-0.2802770138 -0.0861011147 0.5598708987 4288657070
-0.2812015414 -0.0857610255 0.5617176890 4288856248
-0.2816824317 -0.0852825120 0.5626783371 4288329904
-0.2826068699 -0.0849351659 0.5645248890 4286224528
-0.2835312486 -0.0845837072 0.5663714409 4286224528
-0.2844556272 -0.0842281356 0.5682179332 4286159246
-0.2858237922 -0.0839988813 0.5709509254 4286356625
-0.2871920168 -0.0837635845 0.5736840367 4287605150
-0.2885603309 -0.0835222304 0.5764173865 4288657838
-0.2908167243 -0.0835298747 0.5809246302 4291353041
-0.3092118204 -0.1839275062 0.6190434098 4290162850
-0.3092879951 -0.1832848489 0.6191959381 4289044369
-0.3084998131 -0.1821315438 0.6176179647 4288779621
-0.3068466187 -0.1804729998 0.6143082976 4288319070
-0.3047600687 -0.1785678864 0.6101309657 4288121164
-0.2983483374 -0.1741474271 0.5972946882 4288384336
-0.2910682559 -0.1692505628 0.5827199221 4287596903
-0.2855148017 -0.1653862447 0.5716018677 4287333731
-0.2795256972 -0.1612952501 0.5596116781 4286676322
-0.2817567885 -0.1619559377 0.5640783310 4290229144
-0.2783609033 -0.1593847722 0.5572797656 4290228894
-0.2771281898 -0.1580625176 0.5548118353 4289899929
-0.2758946717 -0.1567452699 0.5523423553 4290228122
-0.2746603191 -0.1554330438 0.5498711467 4290162329
-0.2755917311 -0.1553471237 0.5517358780 4290293915
-0.2743562460 -0.1540404260 0.5492624044 4290293915
-0.2735534608 -0.1529812068 0.5476552248 4290228635
-0.2731836736 -0.1521667540 0.5469149351 4290097049
-0.2728134990 -0.1513537169 0.5461738110 4290097049
-0.2724429071 -0.1505421102 0.5454319119 4289965463
-0.2720718980 -0.1497319043 0.5446891189 4289965200
-0.2717004716 -0.1489231437 0.5439455509 4289965200
-0.2717627585 -0.1483527869 0.5440702438 4289898639
-0.2705221772 -0.1470738202 0.5415865779 4289898639
-0.2701494396 -0.1462702602 0.5408403873 4289570701
-0.2697762847 -0.1454681307 0.5400933027 4289373322
-0.2698372602 -0.1449007839 0.5402153730 4289307531
-0.2694633901 -0.1441006362 0.5394668579 4289175945
-0.2690891027 -0.1433019340 0.5387175679 4289044870
-0.2687144279 -0.1425046772 0.5379674435 4289044870
-0.2683393359 -0.1417088807 0.5372165442 4289373833
-0.2683988512 -0.1411432922 0.5373356938 4289373833
-0.2680230439 -0.1403494775 0.5365833044 4289896069
-0.2680820525 -0.1397840679 0.5367014408 4287922279
-0.2677055299 -0.1389922649 0.5359476805 4285742385
-0.2677640021 -0.1384270191 0.5360647440 4285610799
-0.2673867941 -0.1376372427 0.5353095531 4286134576
-0.2670091689 -0.1368489265 0.5345535278 4285674025
-0.2670668066 -0.1362844259 0.5346689224 4285675052
-0.2671242356 -0.1357195377 0.5347838998 4285609259
-0.2667455971 -0.1349338293 0.5340259075 4285543466
-0.2668025196 -0.1343691498 0.5341398120 4285543466
-0.2664231658 -0.1335854679 0.5333803892 4285477673
-0.2660434246 -0.1328032911 0.5326201320 4285477673
-0.2665357292 -0.1324561685 0.5336056948 4285543468
-0.2661553919 -0.1316751093 0.5328442454 4285609261
-0.2662110329 -0.1311104894 0.5329556465 4285543468
-0.2662664652 -0.1305455267 0.5330666304 4285477675
-0.2663216889 -0.1299801916 0.5331771970 4285543725
-0.2663766742 -0.1294145286 0.5332872868 4285609518
-0.2664314806 -0.1288484931 0.5333969593 4285477934
-0.2664860487 -0.1282821149 0.5335062146 4285412141
-0.2665403783 -0.1277153939 0.5336150527 4285477421
-0.2661574781 -0.1269398928 0.5328484178 4285477421
-0.2662113011 -0.1263734102 0.5329561830 4285280804
-0.2662649155 -0.1258065850 0.5330635309 4285215011
-0.2658809721 -0.1250337660 0.5322948694 4285476646
-0.2659340501 -0.1244671941 0.5324011445 4285542439
-0.2659869194 -0.1239002794 0.5325070024 4285804589
-0.2660395503 -0.1233330294 0.5326123834 4285673003
-0.2660919726 -0.1227654368 0.5327172875 4285609007
-0.2661441565 -0.1221975163 0.5328217745 4285740593
-0.2661961317 -0.1216292605 0.5329258442 4285938998
-0.2662478983 -0.1210606694 0.5330294371 4285741619
-0.2662994266 -0.1204917505 0.5331326127 4285543727
-0.2659126520 -0.1197252646 0.5323582888 4285741106
-0.2659636438 -0.1191566214 0.5324603915 4286331187
-0.2660143971 -0.1185876578 0.5325620174 4286396980
-0.2660649717 -0.1180183664 0.5326632261 4286659124
-0.2661152780 -0.1174487472 0.5327639580 4287185468
-0.2661653757 -0.1168788075 0.5328642726 4287379502
-0.2662152648 -0.1163085476 0.5329641104 4287182123
-0.2662649155 -0.1157379672 0.5330635309 4287772977
-0.2663143277 -0.1151670739 0.5331624746 4287970356
-0.2663635314 -0.1145958528 0.5332609415 4288296754
-0.2664124966 -0.1140243262 0.5333589911 4288691512
-0.2664612532 -0.1134524792 0.5334565639 4288885551
-0.2665097713 -0.1128803194 0.5335537195 4289477688
-0.2669971883 -0.1124928668 0.5345295668 4289673525
-0.2670453489 -0.1119191423 0.5346259475 4289607732
-0.2670932412 -0.1113451123 0.5347218513 4289674295
-0.2671409249 -0.1107707694 0.5348173380 4289674295
-0.2671883702 -0.1101961210 0.5349122882 4289280563
-0.2667960823 -0.1094408631 0.5341268778 4289214770
-0.2668429911 -0.1088665500 0.5342208147 4289214768
-0.2668896616 -0.1082919389 0.5343142748 4289148975
-0.2669361234 -0.1077170223 0.5344073176 4289412147
-0.2669823468 -0.1071418002 0.5344998240 4289280561
-0.2670283318 -0.1065662876 0.5345919132 4289083950
-0.2675140798 -0.1061650962 0.5355643630 4289281329
-0.2675596774 -0.1055880412 0.5356556773 4289544501
-0.2680451870 -0.1051834002 0.5366276503 4289215536
-0.2680903971 -0.1046048105 0.5367181301 4289674806
-0.2685756683 -0.1041967422 0.5376896262 4289674806
-0.2686204612 -0.1036166176 0.5377793312 4289608502
-0.2691054940 -0.1032051146 0.5387503505 4289542709
-0.2691498995 -0.1026234552 0.5388392806 4289411636
-0.2696346641 -0.1022085175 0.5398097634 4289543222
-0.2696786523 -0.1016253382 0.5398978591 4289543735
-0.2692817152 -0.1008767709 0.5391031504 4289412149
-0.2697659731 -0.1004581228 0.5400726795 4289543224
-0.2698092759 -0.0998740867 0.5401593447 4289674810
-0.2702932656 -0.0994520187 0.5411283374 4289804600
-0.2703361511 -0.0988664702 0.5412141681 4289804600
-0.2703787982 -0.0982806459 0.5412995815 4289282619
-0.2704212070 -0.0976945460 0.5413844585 4289216826
-0.2709046006 -0.0972665846 0.5423521996 4288432702
-0.2709465921 -0.0966789722 0.5424363017 4288498495
-0.2714297175 -0.0962475985 0.5434034467 4287647296
-0.2714712918 -0.0956584886 0.5434867144 4288042054
-0.2715126276 -0.0950691104 0.5435694456 4287715145
-0.2724368274 -0.0947867110 0.5454196930 4287715145
-0.2724778056 -0.0941948816 0.5455017686 4286864716
-0.2729602158 -0.0937544927 0.5464676023 4286864716
-0.2730007768 -0.0931611657 0.5465487838 4285622094
-0.2734829187 -0.0927173644 0.5475140214 4285622094
-0.2735230625 -0.0921225548 0.5475943685 4284575823
-0.2740048766 -0.0916753486 0.5485589504 4284641616
-0.2740446031 -0.0910790563 0.5486384630 4284182106
-0.2745261192 -0.0906284451 0.5496025085 4283984727
-0.2750075161 -0.0901756510 0.5505662560 4283264603
-0.2754887938 -0.0897206739 0.5515298247 4283133017
-0.2755277157 -0.0891204700 0.5516076684 4283525214
-0.2760086656 -0.0886620954 0.5525705814 4283591007
-0.2764895260 -0.0882015377 0.5535332561 4284314984
-0.2769702375 -0.0877388045 0.5544956326 4285959809
-0.2774508297 -0.0872738957 0.5554577708 4287210390
-0.2788164020 -0.0870832577 0.5581916571 4287276183
-0.2792968452 -0.0866120532 0.5591534972 4288523942
-0.2802198231 -0.0862749666 0.5610013008 4289971388
-0.2807000577 -0.0857984349 0.5619627237 4289644996
-0.2816229463 -0.0854540914 0.5638103485 4289118652
-0.2821029425 -0.0849722400 0.5647713542 4286225045
-0.2830257118 -0.0846206322 0.5666187406 4286225045
-0.2839484811 -0.0842649192 0.5684660673 4286093964
-0.2853142321 -0.0840355754 0.5712003112 4286225550
-0.2866800427 -0.0838001817 0.5739347339 4287539868
-0.2880459726 -0.0835587308 0.5766692758 4288789935
-0.2902983427 -0.0835663900 0.5811785460 4291615700
-0.3077899814 -0.1834897697 0.6175701022 4290491043
-0.3074347079 -0.1825925857 0.6168572307 4288583046
-0.3066476882 -0.1814415455 0.6152781248 4288978030
-0.3054286242 -0.1800393313 0.6128321290 4287530584
-0.3024826944 -0.1776284724 0.6069211960 4287004473
-0.2965138257 -0.1734623164 0.5949448347 4288583505
-0.2896783650 -0.1688177437 0.5812297463 4287991886
-0.2845666111 -0.1652043462 0.5709731579 4287465542
-0.2785882950 -0.1611125916 0.5589779019 4287071347
-0.2812473476 -0.1620233655 0.5643131733 4290032032
-0.2778576314 -0.1594511569 0.5575118661 4289835417
-0.2766272128 -0.1581283808 0.5550430417 4289901210
-0.2753959596 -0.1568106115 0.5525726080 4290292892
-0.2745963335 -0.1557431370 0.5509681702 4290161306
-0.2750937045 -0.1554119587 0.5519661307 4290226841
-0.2738604844 -0.1541047394 0.5494917035 4290226841
-0.2730592191 -0.1530451179 0.5478839874 4290030751
-0.2726901472 -0.1522303522 0.5471435189 4290096544
-0.2727536261 -0.1516577303 0.5472708344 4290097560
-0.2723838687 -0.1508448869 0.5465289354 4290163353
-0.2715805173 -0.1497945637 0.5449170470 4290228374
-0.2716430724 -0.1492234915 0.5450425744 4290030995
-0.2712720633 -0.1484149247 0.5442981720 4289965202
-0.2709006667 -0.1476077884 0.5435529351 4289899409
-0.2705288231 -0.1468020976 0.5428068638 4289833875
-0.2697229683 -0.1457635015 0.5411899090 4289702289
-0.2697839737 -0.1451950222 0.5413123369 4289374353
-0.2689770758 -0.1441611350 0.5396933556 4289242767
-0.2694714069 -0.1438253224 0.5406851768 4288915083
-0.2686636150 -0.1427952498 0.5390643477 4288915083
-0.2682893574 -0.1419982165 0.5383133888 4288849286
-0.2683489025 -0.1414314955 0.5384328961 4288849286
-0.2679739296 -0.1406364739 0.5376805067 4289634438
-0.2675985396 -0.1398428977 0.5369273424 4288844922
-0.2672227621 -0.1390507966 0.5361733437 4285942848
-0.2668465674 -0.1382601559 0.5354185700 4284100644
-0.2669046819 -0.1376952529 0.5355351567 4285608241
-0.2665278018 -0.1369066387 0.5347789526 4285345069
-0.2665853798 -0.1363419145 0.5348944664 4285346859
-0.2666427791 -0.1357768178 0.5350096226 4285149480
-0.2666999400 -0.1352113634 0.5351243019 4285412652
-0.2663217187 -0.1344259083 0.5343654156 4285412652
-0.2663783729 -0.1338606477 0.5344790816 4285346089
-0.2659994364 -0.1330772340 0.5337187648 4285280296
-0.2660555542 -0.1325121820 0.5338314176 4285476394
-0.2661114633 -0.1319467872 0.5339435935 4285673773
-0.2657315135 -0.1311659962 0.5331812501 4285674286
-0.2657869160 -0.1306008101 0.5332923532 4285674286
-0.2658420801 -0.1300352663 0.5334030390 4285412654
-0.2663329244 -0.1296816170 0.5343879461 4285412654
-0.2659517527 -0.1289031208 0.5336231589 4285281584
-0.2660062611 -0.1283365339 0.5337325335 4285215791
-0.2660605609 -0.1277695894 0.5338414311 4285412400
-0.2656784058 -0.1269937754 0.5330746174 4285412400
-0.2657321692 -0.1264270842 0.5331825018 4285609011
-0.2657857239 -0.1258600354 0.5332899690 4285477425
-0.2658390403 -0.1252926439 0.5333970189 4285216304
-0.2658921778 -0.1247249171 0.5335035324 4285347890
-0.2659450471 -0.1241568550 0.5336096883 4285543729
-0.2659977376 -0.1235884428 0.5337153673 4285609522
-0.2656133175 -0.1228177026 0.5329440832 4286002740
-0.2656654716 -0.1222495586 0.5330486894 4286002740
-0.2657173872 -0.1216810793 0.5331528783 4285870636
-0.2657690942 -0.1211122647 0.5332565904 4286199601
-0.2658205628 -0.1205431223 0.5333598852 4286264368
-0.2658718228 -0.1199736521 0.5334627628 4286330161
-0.2659228444 -0.1194038540 0.5335651636 4286987062
-0.2659736574 -0.1188337281 0.5336670876 4286723890
-0.2660242617 -0.1182632670 0.5337685943 4287117359
-0.2656369805 -0.1174989194 0.5329915285 4286985773
-0.2656870484 -0.1169287562 0.5330919623 4287182636
-0.2657368779 -0.1163582727 0.5331919789 4287380015
-0.2657864690 -0.1157874614 0.5332915187 4287904305
-0.2658358514 -0.1152163446 0.5333905816 4288101684
-0.2658849955 -0.1146449000 0.5334891677 4288888372
-0.2663720250 -0.1142610684 0.5344663858 4288888372
-0.2664208114 -0.1136880517 0.5345642567 4288887602
-0.2664693594 -0.1131147295 0.5346617103 4288953395
-0.2665176988 -0.1125410870 0.5347586870 4289215797
-0.2665657997 -0.1119671315 0.5348551869 4289150004
-0.2666136622 -0.1113928631 0.5349512100 4289412147
-0.2666612864 -0.1108182967 0.5350467563 4289477940
-0.2667087018 -0.1102434173 0.5351418853 4289346354
-0.2667558789 -0.1096682325 0.5352365375 4289280561
-0.2668028176 -0.1090927422 0.5353307724 4289149745
-0.2668495476 -0.1085169464 0.5354244709 4289149745
-0.2668960392 -0.1079408526 0.5355177522 4289083698
-0.2669422925 -0.1073644534 0.5356105566 4289083698
-0.2669883072 -0.1067877635 0.5357029438 4289543220
-0.2670340836 -0.1062107682 0.5357947946 4289543220
-0.2675189376 -0.1058072224 0.5367676020 4289543220
-0.2680036724 -0.1054014787 0.5377402306 4289740599
-0.2680489123 -0.1048217043 0.5378310084 4289413174
-0.2680939138 -0.1042416319 0.5379213095 4289413174
-0.2681386769 -0.1036612689 0.5380111337 4288756784
-0.2686228752 -0.1032496095 0.5389826298 4289019956
-0.2686672509 -0.1026677117 0.5390716791 4288954933
-0.2691511810 -0.1022526175 0.5400426388 4289086519
-0.2691951394 -0.1016691923 0.5401308537 4288889140
-0.2692388594 -0.1010854915 0.5402185917 4288757554
-0.2692823708 -0.1005015001 0.5403059125 4288889653
-0.2693256140 -0.0999172330 0.5403926969 4288560688
-0.2698087990 -0.0994949862 0.5413621068 4288888372
-0.2698516548 -0.0989092067 0.5414481163 4289085751
-0.2698942423 -0.0983231366 0.5415335894 4287710519
-0.2699366212 -0.0977367982 0.5416186452 4287776312
-0.2704191804 -0.0973086655 0.5425868630 4286534723
-0.2704611421 -0.0967208147 0.5426710248 4286468930
-0.2709434032 -0.0962892622 0.5436387062 4285291848
-0.2709849477 -0.0956999138 0.5437220335 4285555020
-0.2719076276 -0.0954195932 0.5455734134 4284376914
-0.2719488442 -0.0948277861 0.5456560254 4283982156
-0.2719897628 -0.0942357108 0.5457382202 4283460955
-0.2724713683 -0.0937951431 0.5467045307 4283395162
-0.2725118995 -0.0932015702 0.5467858315 4282804828
-0.2729932070 -0.0927575901 0.5477515459 4282541656
-0.2730332911 -0.0921625346 0.5478320122 4282212693
-0.2735143006 -0.0917151421 0.5487971306 4282607451
-0.2735539675 -0.0911186039 0.5488767028 4282476630
-0.2740346789 -0.0906678066 0.5498412251 4282147665
-0.2745152414 -0.0902148262 0.5508054495 4283066197
-0.2749956846 -0.0897596702 0.5517694950 4283658334
-0.2750345767 -0.0891592130 0.5518474579 4285102959
-0.2755146921 -0.0887006447 0.5528108478 4285892475
-0.2759947181 -0.0882399008 0.5537739992 4286352775
-0.2764745951 -0.0877769813 0.5547368526 4289576632
-0.2773960829 -0.0874511302 0.5565857887 4288854451
-0.2783175409 -0.0871211663 0.5584346652 4287867556
-0.2787971497 -0.0866497681 0.5593969822 4288658351
-0.2797185183 -0.0863125399 0.5612456799 4289118902
-0.2801979184 -0.0858358145 0.5622075796 4288329900
-0.2811191976 -0.0854913294 0.5640560389 4288922037
-0.2815983593 -0.0850092769 0.5650175214 4285895561
-0.2829616666 -0.0847900137 0.5677528977 4286158733
-0.2838828564 -0.0844331831 0.5696012378 4286289800
-0.2852462530 -0.0842027813 0.5723368526 4286947730
-0.2866097093 -0.0839663297 0.5750726461 4287932832
-0.2879732847 -0.0837238133 0.5778085589 4289117106
-0.2897793055 -0.0836028755 0.5814322829 4292535775
-0.3062947392 -0.1836905628 0.6159425974 4290229688
-0.3068009019 -0.1833086163 0.6169604063 4290359716
-0.3055854142 -0.1818996072 0.6145161390 4288912270
-0.3052300811 -0.1810061187 0.6138015985 4289175157
-0.3035824597 -0.1793507636 0.6104882956 4288977778
-0.3010723293 -0.1771951467 0.6054406166 4288122705
-0.2955449522 -0.1732816994 0.5943253636 4288385877
-0.2887218595 -0.1686361283 0.5806044340 4287926103
-0.2840503752 -0.1652729511 0.5712103248 4288189275
-0.2806697786 -0.1626788825 0.5644121170 4287466103
-0.2781497836 -0.1605968028 0.5593445897 4289571479
-0.2769223750 -0.1592693925 0.5568763614 4289571992
-0.2761256099 -0.1581941843 0.5552740097 4290295715
-0.2753281891 -0.1571221799 0.5536704659 4290096796
-0.2745301723 -0.1560533792 0.5520656705 4289767831
-0.2741632760 -0.1552322507 0.5513278842 4290029460
-0.2733640969 -0.1541689932 0.5497208238 4290029460
-0.2729962766 -0.1533515900 0.5489811301 4289833113
-0.2726280689 -0.1525356174 0.5482406616 4289833113
-0.2718272507 -0.1514802128 0.5466303229 4289768595
-0.2718903720 -0.1509079039 0.5467572212 4289900181
-0.2710885406 -0.1498571634 0.5451447964 4290031513
-0.2707185745 -0.1490477771 0.5444008112 4290163099
-0.2703481913 -0.1482398212 0.5436559916 4290031767
-0.2704100609 -0.1476695687 0.5437803864 4289965974
-0.2700389624 -0.1468635648 0.5430341363 4290031513
-0.2692345977 -0.1458245516 0.5414165854 4289899927
-0.2692955434 -0.1452558637 0.5415391326 4289702291
-0.2689232230 -0.1444541812 0.5407904387 4289570705
-0.2689836323 -0.1438856423 0.5409119129 4289505423
-0.2681773603 -0.1428551674 0.5392905474 4289439630
-0.2678038180 -0.1420578212 0.5385394096 4289308295
-0.2678633332 -0.1414908916 0.5386590362 4289242502
-0.2674890757 -0.1406955570 0.5379064679 4289766023
-0.2671144307 -0.1399016827 0.5371530652 4289371265
-0.2667393684 -0.1391092688 0.5363988280 4287852126
-0.2663639188 -0.1383183300 0.5356438160 4284036132
-0.2664219737 -0.1377532035 0.5357605815 4284884518
-0.2660458088 -0.1369642764 0.5350041389 4285213483
-0.2661033571 -0.1363993436 0.5351198316 4285017896
-0.2665948570 -0.1360556334 0.5361082554 4284952103
-0.2666520774 -0.1354890466 0.5362232924 4285083689
-0.2662746906 -0.1347023547 0.5354643464 4285149482
-0.2663313746 -0.1341359615 0.5355783105 4285411628
-0.2663878202 -0.1335691959 0.5356918573 4285609007
-0.2660094202 -0.1327851266 0.5349309444 4285674286
-0.2660653591 -0.1322185695 0.5350434184 4285411114
-0.2661210895 -0.1316516697 0.5351554751 4285674286
-0.2657416761 -0.1308702230 0.5343924761 4285674286
-0.2657968700 -0.1303035319 0.5345035195 4285346607
-0.2658518553 -0.1297364980 0.5346140862 4285346607
-0.2659066319 -0.1291691065 0.5347242355 4285215791
-0.2655259073 -0.1283908933 0.5339586139 4285281584
-0.2655801475 -0.1278237402 0.5340676904 4285347377
-0.2656341791 -0.1272562295 0.5341762900 4285347377
-0.2652524114 -0.1264806986 0.5334086418 4285673775
-0.2653059363 -0.1259134263 0.5335162282 4285936947
-0.2653591931 -0.1253458261 0.5336233974 4285741619
-0.2654122710 -0.1247778758 0.5337300897 4285675826
-0.2654651105 -0.1242095903 0.5338363647 4285937972
-0.2655177414 -0.1236409619 0.5339421630 4286069558
-0.2655701339 -0.1230719984 0.5340475440 4286331703
-0.2651861608 -0.1223015487 0.5332753658 4286331703
-0.2652380168 -0.1217328459 0.5333796740 4286331701
-0.2652896643 -0.1211638153 0.5334835649 4286397494
-0.2653411031 -0.1205944493 0.5335869789 4286856503
-0.2653923035 -0.1200247556 0.5336899757 4287053882
-0.2654432952 -0.1194547340 0.5337924957 4287381819
-0.2654940486 -0.1188843772 0.5338945389 4287513405
-0.2655445933 -0.1183137000 0.5339961648 4286923062
-0.2655948997 -0.1177426949 0.5340973735 4286659890
-0.2652080953 -0.1169786528 0.5333194733 4287510836
-0.2652578652 -0.1164079458 0.5334196091 4287642422
-0.2653074265 -0.1158369109 0.5335192680 4288232500
-0.2653567493 -0.1152655631 0.5336184502 4288364086
-0.2654058635 -0.1146938950 0.5337172151 4288954165
-0.2658920586 -0.1143099219 0.5346949100 4289019958
-0.2659407854 -0.1137366816 0.5347929001 4289084979
-0.2659893036 -0.1131631210 0.5348904729 4289084979
-0.2660375834 -0.1125892550 0.5349875689 4289215795
-0.2660856247 -0.1120150685 0.5350841880 4289215795
-0.2661334574 -0.1114405766 0.5351803303 4289347124
-0.2661810219 -0.1108657792 0.5352760553 4289412917
-0.2662284076 -0.1102906689 0.5353713036 4289413176
-0.2662755251 -0.1097152531 0.5354660749 4289413176
-0.2663224339 -0.1091395319 0.5355603695 4289216826
-0.2663691044 -0.1085635126 0.5356542468 4289216826
-0.2664155364 -0.1079871804 0.5357476473 4289871156
-0.2664617598 -0.1074105576 0.5358405709 4290068535
-0.2669460773 -0.1070093438 0.5368145108 4289741110
-0.2669918835 -0.1064311713 0.5369066596 4289675317
-0.2670374811 -0.1058527008 0.5369983315 4289218359
-0.2675214112 -0.1054468006 0.5379714370 4289284152
-0.2675665915 -0.1048667878 0.5380623341 4288433981
-0.2676115632 -0.1042864844 0.5381527543 4288565567
-0.2676562965 -0.1037058905 0.5382426977 4287188791
-0.2681396306 -0.1032940596 0.5392146707 4286925619
-0.2681839764 -0.1027119309 0.5393038392 4286271282
-0.2686670721 -0.1022966653 0.5402752757 4286731833
-0.2687110007 -0.1017130092 0.5403636694 4286143548
-0.2687546909 -0.1011290699 0.5404515266 4286011962
-0.2687981427 -0.1005448401 0.5405389071 4285553723
-0.2688413560 -0.0999603346 0.5406258106 4285619516
-0.2693236768 -0.0995379239 0.5415957570 4284112192
-0.2693665028 -0.0989518985 0.5416818261 4284177985
-0.2694090605 -0.0983655974 0.5417674184 4283456833
-0.2694514096 -0.0977790132 0.5418525934 4283522626
-0.2699331343 -0.0973507091 0.5428212881 4283196231
-0.2699750364 -0.0967626199 0.5429055691 4282998852
-0.2704564929 -0.0963308960 0.5438737273 4282671688
-0.2704979777 -0.0957413018 0.5439572334 4282605895
-0.2714190483 -0.0954608694 0.5458093882 4282607184
-0.2714602053 -0.0948688239 0.5458921790 4282278219
-0.2719411552 -0.0944292992 0.5468593240 4281883980
-0.2719818652 -0.0938357487 0.5469412208 4282212945
-0.2720223665 -0.0932419375 0.5470226407 4282804060
-0.2725028396 -0.0927977785 0.5479888320 4282540888
-0.2725428939 -0.0922024772 0.5480694175 4282211153
-0.2730230689 -0.0917548984 0.5490350127 4282803290
-0.2730627060 -0.0911581144 0.5491147041 4283791473
-0.2735425830 -0.0907071382 0.5500797033 4284712575
-0.2740223110 -0.0902539715 0.5510444641 4286487182
-0.2745019495 -0.0897986218 0.5520089269 4286289803
-0.2745407820 -0.0891979188 0.5520870090 4287340948
-0.2750200927 -0.0887391642 0.5530509353 4288525222
-0.2754992843 -0.0882782340 0.5540145040 4287143570
-0.2764191926 -0.0879554003 0.5558644533 4289972669
-0.2768981755 -0.0874891356 0.5568276644 4287275933
-0.2778180242 -0.0871590376 0.5586774349 4285631108
-0.2782967985 -0.0866874456 0.5596402287 4288263343
-0.2792165577 -0.0863500834 0.5614897609 4288723894
-0.2796951234 -0.0858731642 0.5624521375 4288394666
-0.2806147635 -0.0855285376 0.5643015504 4288921010
-0.2810931206 -0.0850462839 0.5652634501 4286223748
-0.2820126712 -0.0846943930 0.5671126246 4286223748
-0.2833735645 -0.0844699591 0.5698493123 4286881680
-0.2847345471 -0.0842394680 0.5725861788 4286947473
-0.2860956192 -0.0840029120 0.5753232241 4288063644
-0.2878983319 -0.0838889703 0.5789483786 4289971641
-0.2897011936 -0.0837670192 0.5825738311 4292996066
-0.3049536347 -0.1826127768 0.6146184802 4289900195
-0.3041697443 -0.1814622283 0.6130385399 4289110679
-0.3033851683 -0.1803148091 0.6114572883 4288911993
-0.3017402887 -0.1786614954 0.6081421375 4289109372
-0.2988045514 -0.1762541234 0.6022253036 4289044074
-0.2945770025 -0.1731007844 0.5937048793 4288517730
-0.2877662778 -0.1684542447 0.5799782276 4288189543
-0.2831032574 -0.1650906056 0.5705801249 4287926371
-0.2775769830 -0.1612464190 0.5594422221 4287269227
-0.2802264988 -0.1621580124 0.5647821426 4288387708
-0.2768492103 -0.1595837325 0.5579754114 4287138420
-0.2756233513 -0.1582599133 0.5555047989 4288585866
-0.2748274505 -0.1571874917 0.5539006591 4289835417
-0.2740309238 -0.1561182886 0.5522953272 4290230175
-0.2736647725 -0.1552968621 0.5515573025 4290228884
-0.2728671134 -0.1542331725 0.5499497056 4289965712
-0.2725000083 -0.1534154713 0.5492098331 4289767573
-0.2721325159 -0.1525991708 0.5484691262 4289635987
-0.2717645764 -0.1517843008 0.5477275848 4289702287
-0.2713962495 -0.1509708464 0.5469852686 4289768080
-0.2705959380 -0.1499197036 0.5453722477 4289571479
-0.2702266872 -0.1491100043 0.5446280837 4289703065
-0.2698570490 -0.1483017355 0.5438830256 4289703831
-0.2694869637 -0.1474948972 0.5431371927 4289638038
-0.2695484757 -0.1469249576 0.5432611704 4289769370
-0.2691777050 -0.1461200863 0.5425138474 4289769370
-0.2688065171 -0.1453166455 0.5417657495 4289767831
-0.2684349120 -0.1445146650 0.5410168171 4289636245
-0.2680629194 -0.1437141150 0.5402671099 4289898387
-0.2681229711 -0.1431459039 0.5403881073 4289898387
-0.2677502632 -0.1423473358 0.5396369696 4289767823
-0.2673771381 -0.1415502429 0.5388849378 4289636237
-0.2670036256 -0.1407545954 0.5381321311 4289701258
-0.2666296959 -0.1399604082 0.5373785496 4289635465
-0.2666883171 -0.1393939853 0.5374966860 4289301626
-0.2667467296 -0.1388271749 0.5376143456 4285222460
-0.2663717866 -0.1380355507 0.5368586779 4284359712
-0.2659964561 -0.1372454017 0.5361022353 4285149228
-0.2660540044 -0.1366793364 0.5362182856 4285214764
-0.2661113739 -0.1361128986 0.5363338590 4285148971
-0.2661685348 -0.1355460882 0.5364490151 4284951849
-0.2657918632 -0.1347590834 0.5356898904 4284820263
-0.2658484876 -0.1341924816 0.5358040333 4284951079
-0.2654711306 -0.1334075332 0.5350434780 4285148458
-0.2659611106 -0.1330581903 0.5360310078 4285542446
-0.2655831277 -0.1322743595 0.5352692008 4285542446
-0.2656387985 -0.1317072511 0.5353813767 4285608239
-0.2656942606 -0.1311397702 0.5354931355 4285608239
-0.2653152645 -0.1303585917 0.5347293019 4285412143
-0.2653701901 -0.1297913343 0.5348400474 4285412143
-0.2654249072 -0.1292237192 0.5349503160 4285346607
-0.2650448978 -0.1284452081 0.5341844559 4285412400
-0.2650991082 -0.1278778315 0.5342936516 4285347377
-0.2651530802 -0.1273100972 0.5344024301 4285347377
-0.2647720575 -0.1265342534 0.5336345434 4285805361
-0.2648255229 -0.1259667724 0.5337422490 4285936947
-0.2648787498 -0.1253989488 0.5338495374 4285543727
-0.2649317682 -0.1248307824 0.5339564085 4285477934
-0.2649845481 -0.1242622808 0.5340628028 4285741106
-0.2650371194 -0.1236934289 0.5341687799 4285938485
-0.2650894821 -0.1231242493 0.5342742801 4286135351
-0.2651416063 -0.1225547269 0.5343793035 4286464316
-0.2647580504 -0.1217845678 0.5336062908 4286398009
-0.2648096681 -0.1212153137 0.5337103009 4286463802
-0.2648610473 -0.1206457242 0.5338138342 4286922296
-0.2649121881 -0.1200758070 0.5339169502 4287053882
-0.2649631202 -0.1195055619 0.5340196490 4286857529
-0.2650138438 -0.1189349890 0.5341218114 4287515459
-0.2650643289 -0.1183640808 0.5342236161 4285943362
-0.2651146054 -0.1177928597 0.5343248844 4285680190
-0.2647285163 -0.1170285046 0.5335467458 4285418560
-0.2652144432 -0.1166494265 0.5345261693 4285550146
-0.2652640343 -0.1160772294 0.5346261263 4285943616
-0.2653134167 -0.1155047193 0.5347256064 4286009409
-0.2653625309 -0.1149318814 0.5348246098 4286533694
-0.2654114664 -0.1143587306 0.5349231958 4286599487
-0.2654601336 -0.1137852594 0.5350213051 4286861117
-0.2655085921 -0.1132114753 0.5351189971 4286861117
-0.2655568421 -0.1126373783 0.5352162123 4287057980
-0.2660416961 -0.1122472808 0.5361934304 4287189566
-0.2660895288 -0.1116716117 0.5362898707 4287058496
-0.2661371529 -0.1110956371 0.5363858342 4287190082
-0.2661845684 -0.1105193570 0.5364813805 4287059785
-0.2662317157 -0.1099427640 0.5365764499 4287059785
-0.2662786543 -0.1093658656 0.5366710424 4286601292
-0.2663253546 -0.1087886617 0.5367651582 4286601292
-0.2663718462 -0.1082111597 0.5368587971 4285945667
-0.2668555677 -0.1078100875 0.5378336906 4286077253
-0.2669016421 -0.1072310358 0.5379266143 4285683522
-0.2669475079 -0.1066516787 0.5380190015 4285617729
-0.2669931054 -0.1060720235 0.5381109715 4285225283
-0.2670384943 -0.1054920778 0.5382024050 4285225283
-0.2675215006 -0.1050838158 0.5391758680 4284635715
-0.2675665021 -0.1045023277 0.5392665863 4284240957
-0.2676112652 -0.1039205417 0.5393567681 4283847743
-0.2676557899 -0.1033384725 0.5394465327 4283847743
-0.2681382000 -0.1029242873 0.5404188037 4283783490
-0.2681823373 -0.1023406759 0.5405077338 4283980869
-0.2682262063 -0.1017567888 0.5405961871 4283588166
-0.2682698667 -0.1011726037 0.5406841636 4283588166
-0.2683132887 -0.1005881429 0.5407716632 4283129670
-0.2683564425 -0.1000033990 0.5408586860 4283063877
-0.2688379586 -0.0995808169 0.5418291092 4282604617
-0.2688807249 -0.0989945531 0.5419153571 4282407238
-0.2693619430 -0.0985685438 0.5428852439 4282275141
-0.2694043219 -0.0979807675 0.5429705977 4282340934
-0.2694464326 -0.0973927155 0.5430554748 4282406986
-0.2694883049 -0.0968043804 0.5431399345 4282538572
-0.2704079151 -0.0965291858 0.5449932814 4282277197
-0.2704494298 -0.0959383920 0.5450769663 4281882439
-0.2709298432 -0.0955021158 0.5460451841 4281685318
-0.2709709406 -0.0949098170 0.5461280942 4281685318
-0.2714510560 -0.0944701210 0.5470957160 4281751115
-0.2714917362 -0.0938763246 0.5471777320 4282343252
-0.2715322077 -0.0932822675 0.5472592711 4282343252
-0.2720118463 -0.0928379223 0.5482259393 4283856491
-0.2724913657 -0.0923913941 0.5491923690 4284975229
-0.2725312114 -0.0917946249 0.5492727160 4283856748
-0.2730104327 -0.0913446844 0.5502385497 4287080354
-0.2730498314 -0.0907464251 0.5503180027 4289054144
-0.2735287547 -0.0902930796 0.5512832403 4288658097
-0.2740075588 -0.0898375437 0.5522481799 4287473823
-0.2744862139 -0.0893798247 0.5532129407 4288394919
-0.2749647796 -0.0889199227 0.5541774035 4288460712
-0.2754431963 -0.0884578303 0.5551416278 4287078804
-0.2763615549 -0.0881339014 0.5569925308 4290236868
-0.2768397629 -0.0876664817 0.5579563975 4288723890
-0.2773178518 -0.0871968791 0.5589199662 4286355342
-0.2782360613 -0.0868625268 0.5607705116 4288657840
-0.2787139416 -0.0863875896 0.5617336631 4288592047
-0.2791916728 -0.0859104693 0.5626965165 4288656808
-0.2801097035 -0.0855657086 0.5645467639 4288130464
-0.2805872262 -0.0850832537 0.5655092001 4286484608
-0.2819456756 -0.0848638192 0.5682470798 4286813573
-0.2828636169 -0.0845066980 0.5700971484 4286551432
-0.2842222154 -0.0842761174 0.5728353262 4287077776
-0.2860215604 -0.0841691643 0.5764617920 4288852896
-0.2873803377 -0.0839254856 0.5792003870 4291221444
-0.2891800106 -0.0838034898 0.5828275084 4293391076
-0.3031104207 -0.1819162369 0.6122741103 4289439903
-0.3027565181 -0.1810243428 0.6115592122 4289242524
-0.3019732237 -0.1798782796 0.6099770069 4288386680
-0.3003312051 -0.1782261282 0.6066601872 4288715645
-0.2974006832 -0.1758195907 0.6007406116 4289241201
-0.2927514613 -0.1724139899 0.5913493037 4289109615
-0.2825180292 -0.1657530218 0.5706781149 4289242231
-0.2868811488 -0.1676689982 0.5794914365 4287334234
-0.2774999738 -0.1615633368 0.5605417490 4287071329
-0.2797151208 -0.1622252464 0.5650163293 4288387189
-0.2763440609 -0.1596499234 0.5582068563 4285493352
-0.2755503654 -0.1585729718 0.5566036105 4285822317
-0.2743261158 -0.1572527587 0.5541306138 4286679939
-0.2731010020 -0.1559375674 0.5516559482 4287995799
-0.2735958099 -0.1556060612 0.5526554585 4289245347
-0.2723695040 -0.1542973071 0.5501783490 4289376933
-0.2720031142 -0.1534792781 0.5494382977 4289834663
-0.2716363370 -0.1526626796 0.5486973524 4289703077
-0.2712691426 -0.1518474966 0.5479556322 4289834134
-0.2704708278 -0.1507936120 0.5463431478 4289768341
-0.2701027393 -0.1499821842 0.5455995202 4289702550
-0.2701650858 -0.1494104713 0.5457255244 4289636757
-0.2697962523 -0.1486009806 0.5449804664 4289505937
-0.2689959407 -0.1475564539 0.5433638692 4289505937
-0.2690573633 -0.1469863057 0.5434879661 4289506968
-0.2686873078 -0.1461811215 0.5427404642 4289572761
-0.2683168650 -0.1453773677 0.5419921279 4289637274
-0.2679460049 -0.1445750743 0.5412430167 4289505688
-0.2684378624 -0.1442380100 0.5422365665 4289963929
-0.2676347196 -0.1432057917 0.5406142473 4290029722
-0.2672627270 -0.1424069256 0.5398628712 4289767831
-0.2668903470 -0.1416095197 0.5391106606 4289833624
-0.2665175498 -0.1408135742 0.5383576155 4289571732
-0.2661443651 -0.1400190741 0.5376037955 4289637525
-0.2662029266 -0.1394524425 0.5377220511 4289764748
-0.2662612796 -0.1388854235 0.5378398895 4287593579
-0.2663193941 -0.1383180320 0.5379573107 4285218871
-0.2659448981 -0.1375266612 0.5372008085 4284955699
-0.2655699849 -0.1367367506 0.5364435315 4285609522
-0.2656272948 -0.1361701041 0.5365592837 4285609522
-0.2656843662 -0.1356030852 0.5366746187 4285346350
-0.2657412589 -0.1350357085 0.5367894769 4285412143
-0.2653650045 -0.1342489570 0.5360295177 4285477423
-0.2654213607 -0.1336817741 0.5361433625 4285214251
-0.2650444210 -0.1328970790 0.5353819132 4285410860
-0.2651002705 -0.1323300898 0.5354947448 4285476653
-0.2651558816 -0.1317627579 0.5356070399 4285673775
-0.2652112842 -0.1311950684 0.5357189775 4285673775
-0.2652664781 -0.1306270212 0.5358304381 4285542446
-0.2648878992 -0.1298461109 0.5350657701 4285542446
-0.2649425864 -0.1292782873 0.5351762176 4285412143
-0.2645633221 -0.1284994632 0.5344100595 4285477936
-0.2646174431 -0.1279318631 0.5345194340 4285478193
-0.2646713853 -0.1273639202 0.5346283913 4285478193
-0.2642911077 -0.1265877783 0.5338602066 4285871665
-0.2643445134 -0.1260200739 0.5339680910 4285871665
-0.2643976808 -0.1254520267 0.5340754986 4285741108
