VERSION 0.7
FIELDS x y z rgba
SIZE 4 4 4 4
TYPE F F F U
COUNT 1 1 1 1
WIDTH 920
HEIGHT 1
VIEWPOINT 0.0 0.0 0.0 1.0 0.0 0.0 0.0
POINTS 920
DATA ascii
-0.3045416772 -0.1538262218 0.5296148062 4288514117
-0.3036440015 -0.1527861059 0.5280537009 4288777289
-0.3037129045 -0.1522339284 0.5281735659 4289369428
-0.3032978773 -0.1514398605 0.5274517536 4289369428
-0.3033662438 -0.1508878320 0.5275706649 4289106769
-0.3029504418 -0.1500956416 0.5268475413 4289040976
-0.3025341928 -0.1493048668 0.5261237025 4289172049
-0.3026016653 -0.1487534791 0.5262410641 4289106256
-0.3021846712 -0.1479645967 0.5255158544 4289105229
-0.3022516072 -0.1474133581 0.5256322622 4289236815
-0.3018338382 -0.1466263980 0.5249057412 4289302608
-0.3014156520 -0.1458408386 0.5241784453 4289368401
-0.3014816940 -0.1452902853 0.5242933631 4289499733
-0.3010627329 -0.1445066631 0.5235647559 4289697112
-0.3011282682 -0.1439562589 0.5236786604 4289433942
-0.3007085323 -0.1431745738 0.5229487419 4289236563
-0.3002883792 -0.1423943043 0.5222181082 4289761365
-0.3003530204 -0.1418446153 0.5223305225 4289563986
-0.2999321222 -0.1410662979 0.5215985179 4289103435
-0.2999961972 -0.1405167878 0.5217099786 4288248126
-0.2995745540 -0.1397404373 0.5209766626 4288642114
-0.2996380925 -0.1391911209 0.5210871696 4288510528
-0.2997013927 -0.1386414468 0.5211973190 4290089562
-0.2992786467 -0.1378676146 0.5204620957 4289365839
-0.2993414104 -0.1373181343 0.5205712914 4286996264
-0.2989179194 -0.1365462840 0.5198347569 4287785780
-0.2989801168 -0.1359970123 0.5199429989 4289889360
-0.2990421355 -0.1354473978 0.5200507641 4286007573
-0.2986175418 -0.1346780956 0.5193123817 4287716394
-0.2986789644 -0.1341286898 0.5194192529 4290019149
-0.2982536554 -0.1333613992 0.5186795592 4286991388
-0.2983145416 -0.1328122169 0.5187854767 4284359680
-0.2983751893 -0.1322626919 0.5188909769 4289422911
-0.2984356284 -0.1317128390 0.5189960599 4289291325
-0.2980088890 -0.1309486777 0.5182539225 4286003466
-0.2980687618 -0.1303990632 0.5183580518 4289622081
-0.2981284261 -0.1298491061 0.5184618235 4289950793
-0.2981878519 -0.1292988360 0.5185651779 4288305968
-0.2982470393 -0.1287482232 0.5186681151 4285079296
-0.2983060181 -0.1281972826 0.5187706351 4287184666
-0.2983647585 -0.1276460290 0.5188727975 4290742100
-0.2984232605 -0.1270944327 0.5189745426 4291268444
-0.2984815240 -0.1265425235 0.5190758705 4289427269
-0.2985395789 -0.1259902865 0.5191768408 4284953345
-0.2981094718 -0.1252327710 0.5184288621 4286594322
-0.2981669605 -0.1246807948 0.5185288191 4291660383
-0.2982242107 -0.1241285056 0.5186284184 4290876509
-0.2982812524 -0.1235758960 0.5187276006 4290350165
-0.2983380258 -0.1230229661 0.5188263059 4286987798
-0.2983945906 -0.1224697307 0.5189247131 4285935110
-0.2984509170 -0.1219161749 0.5190226436 4289221682
-0.2980184555 -0.1211636737 0.5182705522 4291984988
-0.2980742157 -0.1206104010 0.5183675289 4291722075
-0.2981297374 -0.1200568229 0.5184640884 4287182358
-0.2986738682 -0.1196988374 0.5194103718 4287050259
-0.2987290025 -0.1191437319 0.5195062757 4291787355
-0.2987839282 -0.1185883135 0.5196017623 4290803794
-0.2988385856 -0.1180325970 0.5196968317 4287119386
-0.2988930345 -0.1174765751 0.5197914839 4288434474
-0.2989472449 -0.1169202477 0.5198857784 4291460952
-0.2990011871 -0.1163636148 0.5199795961 4291858532
-0.2990549207 -0.1158066839 0.5200730562 4291792739
-0.2991084158 -0.1152494550 0.5201660395 4291531105
-0.2991616428 -0.1146919280 0.5202586651 4291004761
-0.2992146611 -0.1141341031 0.5203508139 4291335009
-0.2992674410 -0.1135759801 0.5204426050 4290742872
-0.2993199527 -0.1130175665 0.5205339789 4289821002
-0.2993722558 -0.1124588549 0.5206248760 4285939215
-0.2994242907 -0.1118998602 0.5207154155 4286793493
-0.2994760871 -0.1113405675 0.5208054781 4291925347
-0.3000178933 -0.1109622940 0.5217477083 4290751583
-0.3000692725 -0.1104015037 0.5218370557 4290817376
-0.3001204431 -0.1098404303 0.5219260454 4290293335
-0.3001713753 -0.1092790738 0.5220146179 4290424921
-0.3002220392 -0.1087174267 0.5221027136 4290686812
-0.3002724648 -0.1081554964 0.5221903920 4290686812
-0.3003226519 -0.1075932831 0.5222777128 4290883678
-0.3008633852 -0.1072056815 0.5232180953 4290883678
-0.3009131849 -0.1066419855 0.5233046412 4290818137
-0.3014536798 -0.1062510610 0.5242446065 4290883930
-0.3015030324 -0.1056858972 0.5243304372 4290883678
-0.3015521467 -0.1051204503 0.5244158506 4290949471
-0.3016010225 -0.1045547277 0.5245008469 4290949471
-0.3016496301 -0.1039887294 0.5245854259 4290949471
-0.3021893799 -0.1035908982 0.5255240202 4291015264
-0.3022375703 -0.1030234322 0.5256078839 4291015264
-0.3022855222 -0.1024556980 0.5256912708 4291015264
-0.3023332357 -0.1018876955 0.5257741809 4290949471
-0.3028723598 -0.1014841720 0.5267117620 4291015264
-0.3029196262 -0.1009147018 0.5267940164 4291081057
-0.3029666543 -0.1003449708 0.5268757939 4291081057
-0.3035053313 -0.0999369547 0.5278126001 4291081057
-0.3035519421 -0.0993657708 0.5278936028 4291146850
-0.3035982847 -0.0987943187 0.5279741883 4291146850
-0.3041365147 -0.0983818099 0.5289102197 4291146850
-0.3041824102 -0.0978089124 0.5289900303 4289962576
-0.3047203720 -0.0973931029 0.5299255252 4291479165
-0.3052581847 -0.0969751775 0.5308608413 4290755442
-0.3053034842 -0.0963996500 0.5309396386 4291542339
-0.3053485155 -0.0958238766 0.5310179591 4291608132
-0.3058858812 -0.0954014659 0.5319524407 4291673412
-0.3064230978 -0.0949769467 0.5328867435 4291673412
-0.3069602251 -0.0945503190 0.5338208079 4291411782
-0.3074972332 -0.0941215754 0.5347546935 4291609161
-0.3080341220 -0.0936907232 0.5356883407 4291739466
-0.3085708916 -0.0932577625 0.5366218090 4291739466
-0.3086145520 -0.0926746428 0.5366977453 4291805510
-0.3091509938 -0.0922383890 0.5376306772 4291937096
-0.3101804554 -0.0919462070 0.5394209623 4291872331
-0.3107167184 -0.0915047973 0.5403535962 4291806538
-0.3112528622 -0.0910612866 0.5412859321 4292068683
-0.3117888868 -0.0906156600 0.5422181487 4292134476
-0.3118313849 -0.0900254846 0.5422919989 4291872333
-0.3123670518 -0.0895765722 0.5432235599 4291806540
-0.3133961558 -0.0892661363 0.5450132489 4291937611
-0.3139316142 -0.0888120756 0.5459444523 4291937611
-0.3144669831 -0.0883559063 0.5468754768 4291871818
-0.3154959083 -0.0880354047 0.5486648083 4291674439
-0.3160310388 -0.0875740871 0.5495954752 4291609161
-0.3160721660 -0.0869747624 0.5496669412 4291740747
-0.3166069388 -0.0865101665 0.5505969524 4291676242
-0.3176355660 -0.0861774907 0.5523858070 4291939414
-0.3092038035 -0.1660610288 0.5387631655 4289108325
-0.3092780411 -0.1655021459 0.5388925076 4288910946
-0.3103142977 -0.1654559076 0.5406980515 4289042781
-0.3118319809 -0.1656614393 0.5433425307 4289108574
-0.3114247918 -0.1648422182 0.5426330566 4289239384
-0.3119800985 -0.1645321548 0.5436005592 4289305177
-0.3115722537 -0.1637138724 0.5428899527 4289567066
-0.3111639619 -0.1628969461 0.5421785712 4289369687
-0.3097916543 -0.1615787894 0.5397874117 4289369176
-0.3108279407 -0.1615175456 0.5415930748 4289434969
-0.3089723885 -0.1599551737 0.5383599401 4289631834
-0.3075978458 -0.1586480737 0.5359649062 4289631834
-0.3067046404 -0.1575936377 0.5344085693 4288909388
-0.3053284287 -0.1562953889 0.5320106149 4288119872
-0.3058812022 -0.1559861749 0.5329737663 4287528499
-0.3049862385 -0.1549393386 0.5314143300 4287199534
-0.3045732975 -0.1541399211 0.5306948423 4287067948
-0.3041599095 -0.1533418745 0.5299745202 4287199534
-0.3037461042 -0.1525452137 0.5292534828 4287792187
-0.3033318520 -0.1517499238 0.5285316706 4288252738
-0.3029171526 -0.1509560347 0.5278091431 4288515143
-0.3029852509 -0.1504034102 0.5279278159 4288712522
-0.3025698066 -0.1496114135 0.5272039175 4288843595
-0.3021539152 -0.1488208026 0.5264792442 4289172560
-0.3022211194 -0.1482688338 0.5265963674 4289368658
-0.3018044829 -0.1474801451 0.5258703828 4289171279
-0.3013873994 -0.1466928571 0.5251436234 4289433424
-0.3014537394 -0.1461415589 0.5252592564 4289565010
-0.3010358810 -0.1453561932 0.5245311856 4289235793
-0.3006176054 -0.1445722431 0.5238023400 4289433172
-0.3006830812 -0.1440216154 0.5239164829 4289630553
-0.3007483482 -0.1434706450 0.5240301490 4289170002
-0.3003289700 -0.1426891685 0.5232994556 4289498963
-0.2999091744 -0.1419091076 0.5225679874 4289367377
-0.2999735475 -0.1413588375 0.5226801634 4289827928
-0.2995530069 -0.1405807287 0.5219473839 4289893721
-0.2996168435 -0.1400306374 0.5220586061 4289565526
-0.2991955280 -0.1392545104 0.5213245153 4289368147
-0.2992587984 -0.1387046129 0.5214347243 4289368147
-0.2988367379 -0.1379304528 0.5206993222 4289762905
-0.2988994718 -0.1373807490 0.5208086371 4289302354
-0.2989619672 -0.1368307024 0.5209175348 4289302354
-0.2985388339 -0.1360590756 0.5201802850 4290025050
-0.2986007929 -0.1355092376 0.5202882290 4288972362
-0.2986625135 -0.1349590421 0.5203957558 4290023510
-0.2982382774 -0.1341899782 0.5196565986 4289628752
-0.2982994616 -0.1336400062 0.5197631717 4288705854
-0.2978744805 -0.1328729391 0.5190227032 4287982131
-0.2979351282 -0.1323232055 0.5191283226 4289097024
-0.2975094020 -0.1315581501 0.5183865428 4288504887
-0.2975694537 -0.1310086399 0.5184912086 4287257894
-0.2976293266 -0.1304587871 0.5185955167 4290021200
-0.2976889312 -0.1299086064 0.5186994076 4290218327
-0.2977483273 -0.1293580979 0.5188028812 4288507709
-0.2973208725 -0.1285967976 0.5180580616 4285808143
-0.2973797023 -0.1280465275 0.5181605816 4286400280
-0.2974383235 -0.1274959445 0.5182626843 4289231169
-0.2974967062 -0.1269450188 0.5183644295 4290415443
-0.2980418503 -0.1266006380 0.5193142891 4288243506
-0.2976127565 -0.1258422136 0.5185666680 4285282821
-0.2976704538 -0.1252903342 0.5186671615 4286529556
-0.2972406149 -0.1245339736 0.5179182291 4290148171
-0.2972977459 -0.1239823550 0.5180177689 4290941787
-0.2978421152 -0.1236327663 0.5189663172 4290810201
-0.2978988886 -0.1230796054 0.5190652013 4290275405
-0.2979553938 -0.1225261316 0.5191636682 4286393618
-0.2980116904 -0.1219723448 0.5192617774 4286720784
-0.2980677485 -0.1214182377 0.5193594694 4290273606
-0.2981235683 -0.1208638251 0.5194566846 4289156148
-0.2981791496 -0.1203090996 0.5195535421 4286392842
-0.2982345223 -0.1197540686 0.5196500421 4289814846
-0.2982896268 -0.1191987246 0.5197460651 4292907117
-0.2983445227 -0.1186430752 0.5198416710 4289949255
-0.2983991504 -0.1180871204 0.5199369192 4285935882
-0.2984535694 -0.1175308600 0.5200316906 4287316252
-0.2985077500 -0.1169742942 0.5201261044 4289816386
-0.2985616624 -0.1164174229 0.5202200413 4290870103
-0.2986153662 -0.1158602610 0.5203136206 4289817415
-0.2986688316 -0.1153027862 0.5204067826 4289687112
-0.2987220287 -0.1147450209 0.5204994678 4289094975
-0.2987750173 -0.1141869575 0.5205917954 4289292087
-0.2993168235 -0.1138145700 0.5215358734 4290739533
-0.2993694246 -0.1132549942 0.5216274858 4290278728
-0.2994217575 -0.1126951352 0.5217186809 4286857492
-0.2994738817 -0.1121349782 0.5218095183 4288435749
-0.2995257378 -0.1115745232 0.5218998790 4292843880
-0.2995773554 -0.1110137850 0.5219898224 4291275104
-0.2996287346 -0.1104527563 0.5220793486 4291209311
-0.2996798456 -0.1098914370 0.5221683979 4290620760
-0.2997307479 -0.1093298346 0.5222570896 4290620760
-0.2997813821 -0.1087679490 0.5223453641 4290621019
-0.2998318076 -0.1082057729 0.5224331617 4290752605
-0.2998819649 -0.1076433212 0.5225205421 4290687582
-0.3004219532 -0.1072555482 0.5234614611 4290687582
-0.3004716933 -0.1066916063 0.5235481262 4290753373
-0.3010114431 -0.1063005179 0.5244886279 4290687580
-0.3010607958 -0.1057351008 0.5245745778 4290884191
-0.3011098802 -0.1051694080 0.5246601105 4290884191
-0.3011587262 -0.1046034396 0.5247452259 4290884191
-0.3016978800 -0.1042066365 0.5256846547 4290884191
-0.3017463088 -0.1036391929 0.5257690549 4290884191
-0.3017944694 -0.1030714810 0.5258529782 4290949984
-0.3023332059 -0.1026701704 0.5267916918 4291015777
-0.3023809791 -0.1021009907 0.5268748999 4290949984
-0.3024284840 -0.1015315428 0.5269576311 4291015777
-0.3024757206 -0.1009618267 0.5270400047 4291015777
-0.3030138314 -0.1005548164 0.5279775858 4291081570
-0.3030606508 -0.0999836475 0.5280591846 4291015777
-0.3035984933 -0.0995733291 0.5289963484 4291212643
-0.3036448956 -0.0990007073 0.5290771723 4291212643
-0.3036910295 -0.0984278172 0.5291575789 4291146850
-0.3042283952 -0.0980130136 0.5300939083 4290094162
-0.3042741120 -0.0974386781 0.5301735401 4291413372
-0.3048111796 -0.0970205665 0.5311093330 4290755442
-0.3048564494 -0.0964447856 0.5311882496 4291477062
-0.3053932488 -0.0960233808 0.5321235657 4291608648
-0.3054380715 -0.0954461619 0.5322016478 4291804744
-0.3064664900 -0.0951742232 0.5339936018 4291870537
-0.3070029318 -0.0947464779 0.5349283218 4291543114
-0.3075392842 -0.0943166167 0.5358628035 4291674700
-0.3075833619 -0.0937346667 0.5359396338 4291674189
-0.3081193864 -0.0933015123 0.5368736386 4291608396
-0.3086552918 -0.0928662494 0.5378074050 4291805511
-0.3086987138 -0.0922816917 0.5378830433 4291937097
-0.3097267151 -0.0919893831 0.5396742821 4291872333
-0.3102622330 -0.0915477797 0.5406073928 4291872333
-0.3107976317 -0.0911040679 0.5415402651 4291937611
-0.3113329113 -0.0906582475 0.5424729586 4291937611
-0.3118680716 -0.0902103186 0.5434054136 4291872333
-0.3119103312 -0.0896186978 0.5434790254 4291872333
-0.3129379451 -0.0893081203 0.5452695489 4292003406
-0.3134726882 -0.0888538584 0.5462012887 4292069199
-0.3140072823 -0.0883974880 0.5471327901 4291937613
-0.3150347471 -0.0880768448 0.5489230752 4291740234
-0.3150760531 -0.0874784216 0.5489950776 4291674702
-0.3156102300 -0.0870157257 0.5499258637 4291740495
-0.3161442876 -0.0865509212 0.5508563519 4291610196
-0.3166781664 -0.0860840082 0.5517866015 4291807575
-0.3097782433 -0.1660912335 0.5408106446 4288780134
-0.3112936020 -0.1662999094 0.5434561968 4288911456
-0.3114420772 -0.1651709974 0.5437153578 4289173852
-0.3115159571 -0.1646059453 0.5438443422 4289239645
-0.3111087978 -0.1637873352 0.5431335568 4289501534
-0.3107011914 -0.1629700661 0.5424219370 4289238362
-0.3093309700 -0.1616513431 0.5400298238 4289434971
-0.3084410429 -0.1605880111 0.5384761691 4289434971
-0.3075504601 -0.1595277637 0.5369213820 4289434969
-0.3061777949 -0.1582218707 0.5345250368 4289434969
-0.3076933920 -0.1584082395 0.5371709466 4289238353
-0.3048747182 -0.1563657522 0.5322501063 4288975181
-0.3059084713 -0.1563025564 0.5340548158 4288580933
-0.3045331538 -0.1550091505 0.5316537619 4288054589
-0.3041208684 -0.1542093903 0.5309340358 4287398710
-0.3037081659 -0.1534110159 0.5302135348 4286806573
-0.3032950461 -0.1526140273 0.5294922590 4286871598
-0.3028814495 -0.1518184245 0.5287702680 4287134770
-0.3024674356 -0.1510242075 0.5280475020 4287660603
-0.3025355041 -0.1504713595 0.5281662941 4287923775
-0.3021207452 -0.1496790349 0.5274421573 4287659834
-0.3021882474 -0.1491263211 0.5275600553 4288186178
-0.3022555411 -0.1485732496 0.5276775360 4288316740
-0.3013567328 -0.1475468874 0.5261083841 4287527224
-0.3014233708 -0.1469948441 0.5262247324 4288579144
-0.3010066450 -0.1462077498 0.5254971981 4289368660
-0.3005894721 -0.1454220712 0.5247688890 4289236563
-0.3001718521 -0.1446377933 0.5240398645 4289170770
-0.3002372980 -0.1440869421 0.5241540670 4289368151
-0.2998189330 -0.1433046162 0.5234237313 4289302358
-0.2998838425 -0.1427539438 0.5235369802 4289367631
-0.2994647324 -0.1419735551 0.5228053331 4289499217
-0.2990451753 -0.1411945820 0.5220728517 4289302354
-0.2995931804 -0.1408722103 0.5230295658 4289499733
-0.2991729677 -0.1400943249 0.5222960114 4289499733
-0.2992365658 -0.1395436525 0.5224069953 4289828698
-0.2988156080 -0.1387677342 0.5216720700 4289170768
-0.2983942032 -0.1379932463 0.5209364295 4289236561
-0.2984569073 -0.1374433190 0.5210458636 4289565526
-0.2980347574 -0.1366708279 0.5203089118 4289368147
-0.2980969250 -0.1361210942 0.5204173923 4289433940
-0.2981588244 -0.1355710328 0.5205255151 4289236561
-0.2977356315 -0.1348010749 0.5197866559 4289762135
-0.2977969944 -0.1342512220 0.5198938251 4289762135
-0.2978581488 -0.1337010413 0.5200005174 4290156123
-0.2979190648 -0.1331505030 0.5201069117 4289695572
-0.2974944413 -0.1323836744 0.5193656087 4290220121
-0.2975547910 -0.1318333745 0.5194709897 4290351707
-0.2976149321 -0.1312827319 0.5195759535 4289565008
-0.2971892357 -0.1305184811 0.5188328028 4289762387
-0.2972488403 -0.1299680769 0.5189368129 4289696342
-0.2973082066 -0.1294173449 0.5190404654 4289367377
-0.2973673344 -0.1288662702 0.5191437006 4289365580
-0.2974262238 -0.1283148825 0.5192465186 4288970822
-0.2969987988 -0.1275543869 0.5185003281 4289102916
-0.2975433469 -0.1272111088 0.5194509625 4289760846
-0.2971152663 -0.1264517754 0.5187036395 4289035584
-0.2971731424 -0.1258999854 0.5188046694 4288772412
-0.2972308099 -0.1253478676 0.5189053416 4288704057
-0.2972882390 -0.1247954294 0.5190055966 4289361987
-0.2973454297 -0.1242426783 0.5191054344 4290614615
-0.2974023819 -0.1236895993 0.5192048550 4290680408
-0.2969722748 -0.1229346767 0.5184540153 4291332959
-0.2970286608 -0.1223818809 0.5185524821 4289951306
-0.2970848382 -0.1218287647 0.5186505318 4287715109
-0.2971407771 -0.1212753356 0.5187481642 4286794007
-0.2971964777 -0.1207215935 0.5188453794 4287452702
-0.2972519398 -0.1201675385 0.5189422369 4289426492
-0.2973071635 -0.1196131781 0.5190386772 4291664736
-0.2973621786 -0.1190585122 0.5191347003 4291467357
-0.2974169254 -0.1185035333 0.5192303061 4289428799
-0.2974714637 -0.1179482564 0.5193254948 4287060251
-0.2975257337 -0.1173926666 0.5194202662 4286862874
-0.2975797951 -0.1168367714 0.5195146203 4287455011
-0.2976336181 -0.1162805855 0.5196085572 4287717930
-0.2981751859 -0.1159138009 0.5205540657 4288178481
-0.2982286215 -0.1153560951 0.5206473470 4289559368
-0.2982818186 -0.1147980839 0.5207402110 4289690954
-0.2983347774 -0.1142397821 0.5208326578 4287716901
-0.2983874679 -0.1136811823 0.5209246874 4287453729
-0.2984399498 -0.1131222844 0.5210162401 4286928668
-0.2984921634 -0.1125630960 0.5211074352 4288178735
-0.2985441685 -0.1120036095 0.5211982131 4291006291
-0.2985959053 -0.1114438400 0.5212885737 4292124772
-0.2986474335 -0.1108837724 0.5213784575 4290750554
-0.2986986935 -0.1103234142 0.5214679837 4291079519
-0.2987497151 -0.1097627729 0.5215570331 4290620760
-0.2988004982 -0.1092018485 0.5216456652 4290554967
-0.2993401289 -0.1088184416 0.5225878358 4290490203
-0.2993905246 -0.1082560197 0.5226757526 4290621789
-0.2994406521 -0.1076933220 0.5227632523 4290622048
-0.2994905412 -0.1071303412 0.5228503942 4290687841
-0.2995401621 -0.1065670773 0.5229370594 4290819166
-0.2995895743 -0.1060035303 0.5230232477 4290687580
-0.3001283109 -0.1056120023 0.5239638090 4290949471
-0.3006669879 -0.1052183434 0.5249042511 4290949471
-0.3007158041 -0.1046521291 0.5249894857 4290949471
-0.3012542129 -0.1042551547 0.5259294510 4290949471
-0.3013026118 -0.1036874652 0.5260139108 4290884191
-0.3013507724 -0.1031195000 0.5260979533 4290949984
-0.3013986647 -0.1025512666 0.5261815786 4291015777
-0.3019364774 -0.1021485925 0.5271205306 4291015777
-0.3019839525 -0.1015788913 0.5272033811 4291015777
-0.3025214970 -0.1011729017 0.5281418562 4291015777
-0.3025685549 -0.1006017402 0.5282239914 4291147363
-0.3031058013 -0.1001924425 0.5291619301 4291015777
-0.3031524420 -0.0996198282 0.5292433500 4291213156
-0.3031988144 -0.0990469456 0.5293242931 4291213156
-0.3037356138 -0.0986331478 0.5302614570 4291015777
-0.3037815392 -0.0980588198 0.5303416252 4290160468
-0.3043180704 -0.0976417139 0.5312782526 4291347581
-0.3043635786 -0.0970659405 0.5313577056 4290821237
-0.3048997819 -0.0966455340 0.5322938561 4291542857
-0.3049448431 -0.0960683078 0.5323725343 4291674443
-0.3049896657 -0.0954908356 0.5324507356 4291871052
-0.3060165942 -0.0952187851 0.5342435837 4291871052
-0.3065523207 -0.0947908461 0.5351788402 4291477834
-0.3070878983 -0.0943607986 0.5361138582 4291543627
-0.3071319461 -0.0937785953 0.5361907482 4291739982
-0.3076672256 -0.0933452472 0.5371252298 4291608396
-0.3082023859 -0.0929097906 0.5380595326 4291608648
-0.3087374270 -0.0924722180 0.5389935970 4291871820
-0.3092723191 -0.0920325369 0.5399274230 4291937872
-0.3098071218 -0.0915907398 0.5408610702 4291937872
-0.3103417754 -0.0911468342 0.5417944789 4292003406
-0.3108763099 -0.0907008126 0.5427276492 4291937613
-0.3114106953 -0.0902526826 0.5436605811 4291937872
-0.3119449615 -0.0898024365 0.5445932746 4291872079
-0.3124790788 -0.0893500820 0.5455257893 4292068947
-0.3130130768 -0.0888956189 0.5464580059 4292134740
-0.3135469258 -0.0884390473 0.5473900437 4292068947
-0.3145729303 -0.0881182626 0.5491812229 4291805775
-0.3146142364 -0.0875195712 0.5492533445 4291740242
-0.3151476681 -0.0870566666 0.5501846075 4291806035
-0.3156809509 -0.0865916535 0.5511156321 4291675991
-0.3162141144 -0.0861245319 0.5520463586 4291807577
-0.3083567023 -0.1656502634 0.5393747687 4288649064
-0.3093899786 -0.1656040400 0.5411821604 4288976996
-0.3109032810 -0.1658098251 0.5438292623 4289108582
-0.3109773695 -0.1652449518 0.5439587831 4289173599
-0.3115312457 -0.1649338156 0.5449276567 4289305185
-0.3111248612 -0.1641139984 0.5442168117 4289567330
-0.3107180297 -0.1632955372 0.5435051918 4289304158
-0.3088696897 -0.1617238671 0.5402720571 4289566815
-0.3099030256 -0.1616626382 0.5420796275 4289435229
-0.3080531359 -0.1600989401 0.5388437510 4289303896
-0.3062021136 -0.1585418433 0.5356059670 4289303896
-0.3057923913 -0.1577353925 0.5348892808 4289304146
-0.3053822219 -0.1569303274 0.5341718793 4289304146
-0.3049716353 -0.1561266184 0.5334536433 4289304145
-0.3045606017 -0.1553242952 0.5327346325 4289106766
-0.3036678731 -0.1542788297 0.5311731100 4288581452
-0.3032558262 -0.1534801275 0.5304523706 4288120901
-0.3028433621 -0.1526828110 0.5297309160 4287923006
-0.3029120564 -0.1521287411 0.5298510790 4287857213
-0.3024988174 -0.1513333023 0.5291282535 4288120385
-0.3020851612 -0.1505392641 0.5284046531 4287923006
-0.3021529615 -0.1499858201 0.5285232663 4286672685
-0.3012565374 -0.1489553601 0.5269552469 4287067443
-0.3008415699 -0.1481654942 0.5262293816 4287856959
-0.3009083867 -0.1476135999 0.5263462663 4286606892
-0.3004926443 -0.1468256563 0.5256190300 4287330358
-0.3000764847 -0.1460391283 0.5248910785 4288317253
-0.3001424372 -0.1454879045 0.5250064731 4288974670
-0.2997255027 -0.1447032988 0.5242772102 4288777291
-0.2997909188 -0.1441522390 0.5243915915 4288711498
-0.2993732393 -0.1433695704 0.5236609578 4288514119
-0.2989551425 -0.1425883323 0.5229296088 4289303119
-0.2995027304 -0.1422674358 0.5238874555 4289105740
-0.2990839779 -0.1414872557 0.5231549740 4288645705
-0.2986647785 -0.1407084912 0.5224217176 4288908877
-0.2987285256 -0.1401579529 0.5225332379 4289171279
-0.2987920642 -0.1396070719 0.5226444006 4289566037
-0.2983717918 -0.1388308257 0.5219092369 4289499217
-0.2984347641 -0.1382801384 0.5220194459 4289499217
-0.2980137467 -0.1375058740 0.5212829709 4289696083
-0.2980761826 -0.1369553655 0.5213921666 4289564497
-0.2976543903 -0.1361830980 0.5206544399 4289630803
-0.2977162898 -0.1356327981 0.5207626820 4289565010
-0.2977779508 -0.1350821704 0.5208705068 4289170768
-0.2973550856 -0.1343124509 0.5201308727 4289302354
-0.2974162102 -0.1337620318 0.5202377439 4289499987
-0.2974770963 -0.1332112700 0.5203442574 4289499987
-0.2975377440 -0.1326601803 0.5204503536 4289565008
-0.2971134782 -0.1318935752 0.5197082162 4289762387
-0.2971735895 -0.1313427091 0.5198133588 4289435472
-0.2972334623 -0.1307915151 0.5199181437 4289435472
-0.2968081236 -0.1300275177 0.5191741586 4289434192
-0.2968674600 -0.1294765472 0.5192778707 4289499985
-0.2969265580 -0.1289252490 0.5193812847 4290222425
-0.2969854176 -0.1283736229 0.5194842219 4289959253
-0.2970440686 -0.1278216690 0.5195868015 4289763408
-0.2971024513 -0.1272694021 0.5196889639 4289829201
-0.2966750860 -0.1265097409 0.5189414024 4289827922
-0.2967329323 -0.1259577125 0.5190426111 4290222680
-0.2967905700 -0.1254053712 0.5191434026 4290287707
-0.2968479395 -0.1248527020 0.5192437768 4290024535
-0.2969051003 -0.1242997125 0.5193437338 4290090579
-0.2969620228 -0.1237464100 0.5194433331 4290287958
-0.2970187366 -0.1231927872 0.5195425153 4290682200
-0.2965889871 -0.1224381253 0.5187907815 4290419028
-0.2971314192 -0.1220845878 0.5197396278 4290420821
-0.2971874177 -0.1215300187 0.5198375583 4289762891
-0.2972431779 -0.1209751368 0.5199351311 4289960268
-0.2972986996 -0.1204199418 0.5200322270 4290618198
-0.2973539829 -0.1198644415 0.5201289654 4290486866
-0.2974090576 -0.1193086207 0.5202252269 4290421073
-0.2974638641 -0.1187525019 0.5203211308 4289696835
-0.2975184619 -0.1181960702 0.5204166174 4290157386
-0.2975727916 -0.1176393405 0.5205116868 4290093135
-0.2976269126 -0.1170822978 0.5206063390 4290093135
-0.2976807952 -0.1165249571 0.5207005739 4289961297
-0.2977344394 -0.1159673110 0.5207943916 4290290262
-0.2977878153 -0.1154093668 0.5208877921 4291012959
-0.2983284593 -0.1150390953 0.5218334198 4291144545
-0.2983814478 -0.1144796386 0.5219261646 4290552924
-0.2984342277 -0.1139198840 0.5220184922 4290421338
-0.2984867394 -0.1133598313 0.5221103430 4290028633
-0.2980512381 -0.1126151681 0.5213485360 4290686563
-0.2981031835 -0.1120554507 0.5214394331 4291605095
-0.2981548905 -0.1114954352 0.5215299129 4291210337
-0.2986944318 -0.1111166850 0.5224736333 4290490714
-0.2987457514 -0.1105551720 0.5225633979 4290490714
-0.2987968326 -0.1099933684 0.5226527452 4290555478
-0.2988476753 -0.1094312817 0.5227416754 4290489685
-0.2988982797 -0.1088689044 0.5228301883 4290490205
-0.2994371057 -0.1084832177 0.5237726569 4290621791
-0.2994872928 -0.1079193503 0.5238604546 4290687584
-0.2995372117 -0.1073551998 0.5239478350 4290687584
-0.2995869219 -0.1067907736 0.5240347385 4291015007
-0.2996363640 -0.1062260643 0.5241212249 4290949214
-0.3001744449 -0.1058334410 0.5250624418 4290949471
-0.3002234995 -0.1052672565 0.5251482129 4290883678
-0.3002722859 -0.1047007889 0.5252335668 4290949471
-0.3008099496 -0.1043036506 0.5261740685 4290949471
-0.3008583188 -0.1037357077 0.5262586474 4290949471
-0.3013957143 -0.1033352464 0.5271986723 4290949471
-0.3014436662 -0.1027658433 0.5272825360 4291015264
-0.3014913797 -0.1021961644 0.5273659825 4291015264
-0.3020283282 -0.1017911881 0.5283052325 4291081057
-0.3020756245 -0.1012200490 0.5283879638 4291015264
-0.3026123047 -0.1008117646 0.5293267369 4291147363
-0.3026591539 -0.1002391577 0.5294086933 4291015777
-0.3031955659 -0.0998275653 0.5303469896 4291213156
-0.3032419980 -0.0992535055 0.5304281712 4291278949
-0.3032881618 -0.0986791849 0.5305089355 4290949984
-0.3033340573 -0.0981045961 0.5305892229 4290226261
-0.3038698435 -0.0976873115 0.5315263867 4291215741
-0.3039153218 -0.0971112847 0.5316059589 4290820983
-0.3044508100 -0.0966906920 0.5325425863 4291542603
-0.3044958413 -0.0961132199 0.5326213837 4291674189
-0.3050310314 -0.0956893265 0.5335575342 4291871054
-0.3055661023 -0.0952633172 0.5344934464 4291871054
-0.3061010540 -0.0948351994 0.5354291797 4291477581
-0.3066358864 -0.0944049582 0.5363647342 4291543374
-0.3066799045 -0.0938224941 0.5364417434 4291805778
-0.3072144389 -0.0933889523 0.5373767614 4291608399
-0.3077488542 -0.0929533094 0.5383115411 4291608396
-0.3082831502 -0.0925155431 0.5392461419 4291871568
-0.3088172972 -0.0920756683 0.5401804447 4291937875
-0.3093513548 -0.0916336775 0.5411146283 4291937875
-0.3098852634 -0.0911895707 0.5420485139 4292003154
-0.3104190230 -0.0907433555 0.5429822206 4292003154
-0.3109526932 -0.0902950242 0.5439156294 4292003668
-0.3114862144 -0.0898445845 0.5448488593 4291937875
-0.3120195866 -0.0893920287 0.5457818508 4292003414
-0.3125528395 -0.0889373571 0.5467146039 4292135000
-0.3130859435 -0.0884805843 0.5476471186 4292068696
-0.3141104877 -0.0881596580 0.5494392514 4291871317
-0.3141517341 -0.0875606909 0.5495114326 4291740503
-0.3146844506 -0.0870975852 0.5504431725 4291872089
-0.3152169883 -0.0866323635 0.5513747334 4291807579
-0.3157493770 -0.0861650333 0.5523059964 4291873372
-0.3078950942 -0.1657242477 0.5396156907 4288649322
-0.3089268804 -0.1656780541 0.5414240360 4288911718
-0.3104380071 -0.1658839583 0.5440723896 4288977511
-0.3105120361 -0.1653188765 0.5442021489 4289173347
-0.3105858266 -0.1647533774 0.5443314910 4289239140
-0.3106594384 -0.1641874760 0.5444604754 4289567076
-0.3102532923 -0.1633686721 0.5437486172 4289435490
-0.3084077537 -0.1617963463 0.5405141711 4289435231
-0.3094396293 -0.1617351174 0.5423226357 4289369438
-0.3075925708 -0.1601707488 0.5390854478 4289303896
-0.3071843088 -0.1593599916 0.5383699536 4289369689
-0.3062955141 -0.1583024710 0.5368122458 4289238355
-0.3054060340 -0.1572480649 0.5352534056 4289106769
-0.3045159280 -0.1561967880 0.5336933732 4289172302
-0.3041055799 -0.1553941220 0.5329741836 4289172302
-0.3036947548 -0.1545928419 0.5322542191 4288974933
-0.3028028905 -0.1535491943 0.5306910872 4289040726
-0.3023911119 -0.1527515501 0.5299693942 4288908625
-0.3024597466 -0.1521972567 0.5300897360 4288645453
-0.3025281727 -0.1516425908 0.5302096009 4288974672
-0.3021152914 -0.1508473307 0.5294860005 4288843086
-0.3017019629 -0.1500534713 0.5287616253 4287593276
-0.3012882173 -0.1492610127 0.5280365348 4288448585
-0.3008740544 -0.1484699398 0.5273106098 4288054338
-0.3009409308 -0.1479169279 0.5274278522 4287396408
-0.3005259931 -0.1471277773 0.5267006159 4287133236
-0.3001106083 -0.1463400275 0.5259726644 4287067443
-0.3001766205 -0.1457877010 0.5260883570 4287330869
-0.2997604907 -0.1450018883 0.5253590345 4286804525
-0.2993439138 -0.1442174762 0.5246289372 4287462454
-0.2989269197 -0.1434344947 0.5238981247 4287528247
-0.2989917397 -0.1428833753 0.5240117311 4289040973
-0.2986382544 -0.1415514052 0.5233922005 4287725626
-0.2987022996 -0.1410001069 0.5235044360 4287923005
-0.2982834578 -0.1402215660 0.5227704048 4289040461
-0.2983469665 -0.1396704614 0.5228816867 4289369426
-0.2979273796 -0.1388938874 0.5221462846 4289433677
-0.2979903221 -0.1383429617 0.5222566128 4289499470
-0.2975699902 -0.1375683695 0.5215199590 4289695823
-0.2976323962 -0.1370176524 0.5216292739 4289827409
-0.2972112894 -0.1362450570 0.5208913088 4288972871
-0.2972731292 -0.1356945336 0.5209996700 4289433422
-0.2973347604 -0.1351436824 0.5211076736 4289303119
-0.2973961532 -0.1345924735 0.5212153196 4289171533
-0.2974573374 -0.1340409368 0.5213224888 4289303118
-0.2975182831 -0.1334890574 0.5214293003 4289434704
-0.2970951200 -0.1327206790 0.5206876993 4289566288
-0.2971555293 -0.1321690232 0.5207935572 4289500495
-0.2972157001 -0.1316170245 0.5208989978 4289304138
-0.2972756326 -0.1310646981 0.5210040808 4289435724
-0.2968510985 -0.1302994788 0.5202600360 4289498442
-0.2969104648 -0.1297473758 0.5203641057 4289958993
-0.2969696224 -0.1291949451 0.5204677582 4289761616
-0.2965440154 -0.1284323335 0.5197218060 4289761616
-0.2966026068 -0.1278801560 0.5198245645 4289500747
-0.2966609895 -0.1273276508 0.5199268460 4289500747
-0.2967191339 -0.1267748177 0.5200287700 4289369679
-0.2967770398 -0.1262216568 0.5201302767 4289501265
-0.2963497043 -0.1254628450 0.5193812847 4289632598
-0.2964070737 -0.1249099374 0.5194818377 4289566805
-0.2964642048 -0.1243567243 0.5195819139 4289763921
-0.2965210974 -0.1238031834 0.5196816325 4290158679
-0.2965777516 -0.1232493296 0.5197809339 4290222678
-0.2966341674 -0.1226951554 0.5198798776 4290091092
-0.2966903746 -0.1221406683 0.5199783444 4289699153
-0.2967463434 -0.1215858608 0.5200764537 4289764946
-0.2968020737 -0.1210307479 0.5201740861 4289896274
-0.2968575656 -0.1204753146 0.5202713609 4289962067
-0.2969128191 -0.1199195758 0.5203682184 4290355028
-0.2969678640 -0.1193635240 0.5204646587 4290355028
-0.2970226407 -0.1188071668 0.5205606818 4290222416
-0.2970771790 -0.1182505041 0.5206562877 4290814553
-0.2971315086 -0.1176935360 0.5207514763 4290356825
-0.2971855998 -0.1171362549 0.5208462477 4290291032
-0.2972394228 -0.1165786758 0.5209406018 4290422619
-0.2972930372 -0.1160207912 0.5210345984 4290356826
-0.2973464131 -0.1154626086 0.5211281180 4290881889
-0.2978862822 -0.1150921881 0.5220742822 4290816096
-0.2979392707 -0.1145324931 0.5221671462 4290749786
-0.2979919910 -0.1139724925 0.5222595334 4290881372
-0.2980445027 -0.1134122014 0.5223515630 4290489181
-0.2980967462 -0.1128516197 0.5224431753 4290094423
-0.2976616025 -0.1121072546 0.5216804743 4290947417
-0.2977132797 -0.1115470007 0.5217710733 4291144796
-0.2977647185 -0.1109864488 0.5218612552 4290621270
-0.2983033657 -0.1106063426 0.5228052735 4290950235
-0.2983544171 -0.1100442931 0.5228947401 4290817110
-0.2984052300 -0.1094819605 0.5229837894 4290817110
-0.2984557748 -0.1089193448 0.5230723619 4290621021
-0.2989938557 -0.1085334867 0.5240154266 4290752607
-0.2990440130 -0.1079693809 0.5241033435 4290752607
-0.2990939319 -0.1074049845 0.5241907835 4290752607
-0.2991435826 -0.1068403125 0.5242778659 4291079517
-0.2991930246 -0.1062753573 0.5243644714 4291145310
-0.2997303605 -0.1058825701 0.5253061652 4290949214
-0.2997793555 -0.1053161323 0.5253921151 4290883421
-0.2998281121 -0.1047494262 0.5254775286 4290949214
-0.3003650308 -0.1043521166 0.5264185667 4291015007
-0.3004133701 -0.1037839279 0.5265032649 4291015007
-0.3009500504 -0.1033832952 0.5274438262 4291015007
-0.3009979725 -0.1028136387 0.5275278091 4290949471
-0.3015343547 -0.1024096906 0.5284678936 4290949471
-0.3015818596 -0.1018385664 0.5285511017 4291015264
-0.3021179736 -0.1014313027 0.5294907093 4290883678
-0.3021650314 -0.1008587107 0.5295732021 4291081057
-0.3027008772 -0.1004481316 0.5305123329 4291015264
-0.3027475476 -0.0998740867 0.5305941105 4291278949
-0.3027939200 -0.0992997736 0.5306754112 4291344742
-0.3028400838 -0.0987251922 0.5307562947 4290949984
-0.3028859496 -0.0981503576 0.5308367014 4290292054
-0.3034209907 -0.0977328941 0.5317744017 4291084155
-0.3034664392 -0.0971565992 0.5318540335 4290755190
-0.3040011525 -0.0967358276 0.5327911973 4291542604
-0.3040461838 -0.0961580947 0.5328701138 4291674190
-0.3045806289 -0.0957340226 0.5338067412 4291805006
-0.3051149249 -0.0953078270 0.5347431898 4291870799
-0.3056491613 -0.0948795229 0.5356794596 4291543376
-0.3061832488 -0.0944490954 0.5366154909 4291609169
-0.3067172170 -0.0940165520 0.5375513434 4291739731
-0.3067610264 -0.0934326425 0.5376281142 4291542352
-0.3072946966 -0.0929967985 0.5385634303 4291674190
-0.3078282475 -0.0925588459 0.5394985080 4291937362
-0.3083616495 -0.0921187699 0.5404333472 4291937623
-0.3088949323 -0.0916765854 0.5413680077 4291871830
-0.3094280958 -0.0912322849 0.5423024297 4292003155
-0.3099611402 -0.0907858759 0.5432366133 4292003155
-0.3104940355 -0.0903373435 0.5441705585 4291938134
-0.3110268116 -0.0898867026 0.5451043248 4291938134
-0.3115594387 -0.0894339457 0.5460377932 4292069211
-0.3120919466 -0.0889790803 0.5469710827 4292135004
-0.3126243055 -0.0885220990 0.5479040742 4292003164
-0.3131565154 -0.0880630016 0.5488368869 4291871578
-0.3136886060 -0.0876017958 0.5497694016 4291806299
-0.3142205477 -0.0871384814 0.5507016778 4291937885
-0.3142613173 -0.0865378380 0.5507731438 4291610716
-0.3147929013 -0.0860712379 0.5517047644 4291610716
-0.3073588014 -0.1663579345 0.5397264361 4288716156
-0.3069547415 -0.1655403376 0.5390168428 4288189812
-0.3084631860 -0.1657520086 0.5416657329 4289108584
-0.3099721074 -0.1659580469 0.5443153977 4289108584
-0.3100460768 -0.1653927416 0.5444452763 4289304926
-0.3101198375 -0.1648270339 0.5445747972 4289436512
-0.3101933897 -0.1642609090 0.5447039604 4289239133
-0.3097878993 -0.1634417772 0.5439919233 4289568098
-0.3089030683 -0.1623722613 0.5424381495 4289173337
-0.3080175519 -0.1613058299 0.5408831835 4289173337
-0.3076105118 -0.1604925096 0.5401684046 4289172823
-0.3067238033 -0.1594314277 0.5386112928 4289172823
-0.3058363795 -0.1583734602 0.5370530486 4289238105
-0.3059072793 -0.1578133404 0.5371775031 4289172312
-0.3045392036 -0.1565133780 0.5347751379 4289304148
-0.3041296303 -0.1557095200 0.5340558887 4289106769
-0.3037196100 -0.1549070179 0.5333359241 4289041233
-0.3028292358 -0.1538620740 0.5317724347 4288778061
-0.3019382060 -0.1528202593 0.5302077532 4288251971
-0.3020068109 -0.1522657424 0.5303282142 4288778315
-0.3020752072 -0.1517108530 0.5304483175 4289172560
-0.3016629815 -0.1509152651 0.5297244787 4289040974
-0.3012503684 -0.1501210779 0.5289998651 4288777291
-0.3008373082 -0.1493282914 0.5282745361 4289106256
-0.3009044826 -0.1487745494 0.5283924937 4288317253
-0.3004906476 -0.1479836702 0.5276657939 4288580425
-0.3000763953 -0.1471941918 0.5269383788 4288054338
-0.3001426756 -0.1466411203 0.5270547867 4287988545
-0.2997276783 -0.1458535641 0.5263260007 4288055108
-0.2997934222 -0.1453006566 0.5264414549 4287331385
-0.2993776500 -0.1445150375 0.5257113576 4286871093
-0.2989614308 -0.1437308341 0.5249804854 4287529023
-0.2985447943 -0.1429480463 0.5242488384 4288647247
-0.2986093462 -0.1423963457 0.5243622065 4287199801
-0.2981919348 -0.1416155100 0.5236292481 4286344490
-0.2987377942 -0.1412918866 0.5245877504 4286805041
-0.2983197570 -0.1405121237 0.5238536596 4287659834
-0.2979012728 -0.1397338063 0.5231187940 4287791420
-0.2974823713 -0.1389569044 0.5223832130 4287659320
-0.2975452840 -0.1384057552 0.5224937201 4287790906
-0.2971256077 -0.1376308501 0.5217567682 4288909128
-0.2971879840 -0.1370798945 0.5218662620 4288251198
-0.2967675626 -0.1363069713 0.5211279988 4288118842
-0.2968293726 -0.1357562393 0.5212365985 4288645186
-0.2968909740 -0.1352051497 0.5213447213 4288645188
-0.2969523370 -0.1346537173 0.5214524865 4288842567
-0.2970134616 -0.1341019571 0.5215598345 4289171019
-0.2970743775 -0.1335498542 0.5216668248 4289039433
-0.2971350551 -0.1329974085 0.5217733383 4289039433
-0.2967122793 -0.1322292686 0.5210309625 4289236812
-0.2967724204 -0.1316770464 0.5211365223 4289434191
-0.2968323231 -0.1311244816 0.5212417245 4289171019
-0.2964084446 -0.1303589344 0.5204974413 4288842054
-0.2964678109 -0.1298066080 0.5206016302 4289565777
-0.2965269387 -0.1292539537 0.5207054615 4289697876
-0.2965858281 -0.1287009716 0.5208088756 4289500497
-0.2961605787 -0.1279386133 0.5200621486 4289632083
-0.2962189019 -0.1273858696 0.5201646090 4289829462
-0.2962770164 -0.1268328130 0.5202666521 4289566290
-0.2963348925 -0.1262794137 0.5203682780 4289895255
-0.2963925600 -0.1257257015 0.5204694867 4289829462
-0.2959655821 -0.1249671429 0.5197197199 4289697876
-0.2960226834 -0.1244136915 0.5198199749 4289566290
-0.2960795164 -0.1238599271 0.5199198127 4289895255
-0.2961361706 -0.1233058348 0.5200192928 4289829712
-0.2966773212 -0.1229523346 0.5209695697 4289698126
-0.2967335880 -0.1223967001 0.5210683346 4289501517
-0.2967896163 -0.1218407601 0.5211667418 4289896275
-0.2968454063 -0.1212844998 0.5212646723 4289830482
-0.2969009578 -0.1207279265 0.5213622451 4289962068
-0.2969562709 -0.1201710403 0.5214594007 4289829712
-0.2970113456 -0.1196138486 0.5215561390 4289961298
-0.2965807915 -0.1188618019 0.5208000541 4290224470
-0.2966353297 -0.1183049008 0.5208957791 4290290263
-0.2966895998 -0.1177476943 0.5209911466 4290158677
-0.2967436612 -0.1171901822 0.5210860372 4290027091
-0.2967974544 -0.1166323647 0.5211805105 4290421849
-0.2968510389 -0.1160742491 0.5212746263 4290487642
-0.2973903120 -0.1157048866 0.5222215652 4290421849
-0.2974435091 -0.1151452512 0.5223149657 4290685021
-0.2974964380 -0.1145853102 0.5224079490 4290422616
-0.2975491583 -0.1140250787 0.5225005150 4290619995
-0.2976016104 -0.1134645492 0.5225926638 4290619995
-0.2976538539 -0.1129037216 0.5226843357 4290422616
-0.2977058291 -0.1123425961 0.5227756500 4290620249
-0.2977575958 -0.1117811799 0.5228664875 4290949214
-0.2978090942 -0.1112194732 0.5229569674 4290817628
-0.2978603542 -0.1106574759 0.5230469704 4290751835
-0.2979113758 -0.1100951880 0.5231365561 4290752092
-0.2979621589 -0.1095326170 0.5232257247 4290620506
-0.2984996438 -0.1091478094 0.5241695642 4291081311
-0.2985500097 -0.1085837334 0.5242580175 4290818139
-0.2986001372 -0.1080193818 0.5243460536 4291015518
-0.2986500263 -0.1074547470 0.5244336128 4290883932
-0.2986996472 -0.1068898290 0.5245208144 4290818139
-0.2987490594 -0.1063246280 0.5246075392 4290949725
-0.2992856503 -0.1059316695 0.5255497694 4291080800
-0.2998221219 -0.1055365950 0.5264918804 4291080800
-0.2998709381 -0.1049687117 0.5265775919 4290883421
-0.2999195158 -0.1044005528 0.5266628861 4290949214
-0.3004556000 -0.1040009484 0.5276042223 4291015264
-0.3005037308 -0.1034313142 0.5276888013 4291146850
-0.3005516231 -0.1028614119 0.5277729034 4290817885
-0.3010872602 -0.1024572849 0.5287134647 4291146850
-0.3011347353 -0.1018859148 0.5287968516 4290883678
-0.3016701043 -0.1014784724 0.5297369957 4290488920
-0.3017171621 -0.1009056345 0.5298196077 4290687582
-0.3022522628 -0.1004948765 0.5307592154 4291016547
-0.3022988737 -0.0999205783 0.5308411121 4291148133
-0.3023452461 -0.0993460119 0.5309225321 4291082340
-0.3028798699 -0.0989307463 0.5318613648 4290884191
-0.3029258251 -0.0983547270 0.5319420099 4290621019
-0.3029715121 -0.0977784395 0.5320222378 4291280759
-0.3035056591 -0.0973586738 0.5329602361 4290886001
-0.3035508990 -0.0967809409 0.5330396891 4291411541
-0.3040847778 -0.0963578746 0.5339771509 4291608920
-0.3041295707 -0.0957786962 0.5340558290 4291871052
-0.3041741252 -0.0951992646 0.5341340899 4291805259
-0.3047075272 -0.0947716981 0.5350707173 4291804754
-0.3057299554 -0.0944932029 0.5368661284 4291804754
-0.3062631786 -0.0940604731 0.5378024578 4291608658
-0.3067962825 -0.0936256275 0.5387386084 4291608658
-0.3068398833 -0.0930402726 0.5388152003 4291740242
-0.3073726892 -0.0926021188 0.5397507548 4291806035
-0.3079053462 -0.0921618566 0.5406861305 4291937112
-0.3084378839 -0.0917194784 0.5416212678 4292002905
-0.3089703023 -0.0912749767 0.5425562263 4292068700
-0.3095025718 -0.0908283666 0.5434908867 4292002907
-0.3100347221 -0.0903796405 0.5444253683 4292199764
-0.3105667531 -0.0899287984 0.5453596115 4292199764
-0.3110986352 -0.0894758403 0.5462936163 4292133986
-0.3116303980 -0.0890207738 0.5472273827 4292068193
-0.3121620119 -0.0885635912 0.5481609106 4292003414
-0.3126934767 -0.0881042928 0.5490942001 4291937621
-0.3137150109 -0.0877800360 0.5508880019 4291741022
-0.3137560189 -0.0871793553 0.5509600043 4291741022
-0.3142870665 -0.0867137238 0.5518925190 4291873637
-0.3148179650 -0.0862459764 0.5528247952 4291544672
-0.3084022403 -0.1666459888 0.5426169634 4288452986
-0.3094314039 -0.1665972024 0.5444277525 4289043304
-0.3095794916 -0.1654665619 0.5446882844 4289436512
-0.3096532226 -0.1649006307 0.5448179841 4289370719
-0.3097267151 -0.1643342972 0.5449473262 4289173597
-0.3093219101 -0.1635148376 0.5442351103 4289173597
-0.3084384799 -0.1624448746 0.5426807404 4289239643
-0.3080326617 -0.1616289765 0.5419667363 4289239643
-0.3071480095 -0.1605643481 0.5404102206 4289172823
-0.3062626719 -0.1595028341 0.5388525128 4289107030
-0.3044193685 -0.1579477340 0.5356093645 4289303898
-0.3040112555 -0.1571416706 0.5348912477 4289303898
-0.3036026657 -0.1563369781 0.5341724157 4289238866
-0.3027147055 -0.1552879661 0.5326100588 4289107280
-0.3023051322 -0.1544868946 0.5318894386 4289106767
-0.3018951416 -0.1536872089 0.5311681032 4288185665
-0.3014847338 -0.1528889090 0.5304459929 4286607146
-0.3015532792 -0.1523341835 0.5305665731 4287133490
-0.3011420965 -0.1515377611 0.5298431516 4288449350
-0.3012101054 -0.1509831697 0.5299627781 4288515143
-0.3007981479 -0.1501886547 0.5292379856 4287725373
-0.3003857732 -0.1493955255 0.5285124183 4288449096
-0.2999729514 -0.1486038119 0.5277860761 4288778831
-0.2995596826 -0.1478134841 0.5270589590 4288976210
-0.2996261716 -0.1472605616 0.5271759629 4288910415
-0.2992121577 -0.1464721560 0.5264475346 4289107794
-0.2992780805 -0.1459193826 0.5265635252 4289305173
-0.2983828485 -0.1448995918 0.5249883533 4288844622
-0.2989287078 -0.1445803046 0.5259488225 4288580682
-0.2989938855 -0.1440273374 0.5260635018 4288712268
-0.2980972230 -0.1430126727 0.5244858861 4288975694
-0.2981617451 -0.1424607486 0.5245993733 4288120385
-0.2977450192 -0.1416795999 0.5238661766 4287528248
-0.2982901037 -0.1413558424 0.5248252153 4287133490
-0.2978727520 -0.1405757666 0.5240908861 4287133490
-0.2974549532 -0.1397971064 0.5233558416 4287265076
-0.2979995906 -0.1394705176 0.5243140459 4287001391
-0.2970996201 -0.1384685189 0.5227305889 4286738219
-0.2971622646 -0.1379168034 0.5228408575 4288383044
-0.2967429757 -0.1371421069 0.5221031308 4287593528
-0.2968050539 -0.1365906000 0.5222123861 4287790906
-0.2968669534 -0.1360387355 0.5223212242 4288185664
-0.2969285846 -0.1354865283 0.5224297047 4287527988
-0.2965078950 -0.1347149312 0.5216895342 4287396402
-0.2965689898 -0.1341629475 0.5217970014 4287462195
-0.2966298759 -0.1336106062 0.5219041109 4287791160
-0.2966905236 -0.1330579370 0.5220108628 4287856442
-0.2962684333 -0.1322894692 0.5212681890 4288316993
-0.2963285148 -0.1317370236 0.5213739276 4288843337
-0.2963883877 -0.1311842352 0.5214792490 4288316993
-0.2959652245 -0.1304183602 0.5207347274 4287725113
-0.2960245311 -0.1298658103 0.5208390951 4288448836
-0.2960836291 -0.1293129325 0.5209430456 4288646469
-0.2961424887 -0.1287597120 0.5210465789 4288778055
-0.2957179248 -0.1279970258 0.5202996135 4289238606
-0.2962595224 -0.1276523024 0.5212525129 4289370192
-0.2958343029 -0.1268907636 0.5205043554 4288251711
-0.2958921492 -0.1263371408 0.5206061602 4288778055
-0.2959497571 -0.1257832050 0.5207075477 4288120125
-0.2955234647 -0.1250243187 0.5199574828 4289107020
-0.2955805361 -0.1244706362 0.5200579166 4289304399
-0.2956373692 -0.1239166334 0.5201578736 4289304399
-0.2956939638 -0.1233623102 0.5202574730 4289369931
-0.2962343693 -0.1230086684 0.5212082863 4289435724
-0.2962906063 -0.1224528030 0.5213071704 4289567310
-0.2963465750 -0.1218966246 0.5214056969 4289698896
-0.2964023352 -0.1213401332 0.5215038061 4289633103
-0.2964578569 -0.1207833290 0.5216014981 4289764689
-0.2965131402 -0.1202262044 0.5216987729 4289764688
-0.2965682149 -0.1196687743 0.5217956305 4289962067
-0.2966230214 -0.1191110387 0.5218920708 4289896274
-0.2961928248 -0.1183592752 0.5211352110 4289633102
-0.2962470949 -0.1178018302 0.5212306380 4289238344
-0.2963010967 -0.1172440797 0.5213257074 4289501516
-0.2963548899 -0.1166860238 0.5214203000 4289896274
-0.2964084446 -0.1161276698 0.5215145350 4290093653
-0.2969469428 -0.1157581583 0.5224620104 4290290262
-0.2970001101 -0.1151982844 0.5225555301 4290553434
-0.2970530093 -0.1146381050 0.5226486325 4290291032
-0.2971056998 -0.1140776351 0.5227413177 4290422618
-0.2971581519 -0.1135168597 0.5228335857 4290291032
-0.2972103357 -0.1129557937 0.5229254365 4290291032
-0.2972622812 -0.1123944297 0.5230168700 4290554202
-0.2973140180 -0.1118327752 0.5231078267 4290685788
-0.2973654866 -0.1112708226 0.5231984258 4290685788
-0.2974167168 -0.1107085869 0.5232885480 4290685788
-0.2974677086 -0.1101460531 0.5233782530 4290686299
-0.2975184619 -0.1095832363 0.5234675407 4290488920
-0.2980552018 -0.1091982722 0.5244119167 4290620506
-0.2981055379 -0.1086339578 0.5245004892 4290752092
-0.2981556356 -0.1080693603 0.5245886445 4290554713
-0.2982054949 -0.1075044796 0.5246763229 4290620506
-0.2982551157 -0.1069393083 0.5247636437 4290817885
-0.2983044684 -0.1063738614 0.5248504877 4290620506
-0.2983535826 -0.1058081388 0.5249369144 4290686299
-0.2984024584 -0.1052421331 0.5250229239 4290554713
-0.2994248271 -0.1050173715 0.5268217325 4290423640
-0.2994733751 -0.1044489667 0.5269071460 4290357847
-0.3000086844 -0.1040491909 0.5278489590 4290292054
-0.3000568151 -0.1034793109 0.5279336572 4290489433
-0.3001046777 -0.1029091552 0.5280178785 4289963089
-0.3006395698 -0.1025048569 0.5289589763 4290621019
-0.3006870151 -0.1019332334 0.5290424824 4289963859
-0.3012216389 -0.1015256196 0.5299831033 4289305929
-0.3012686670 -0.1009525284 0.5300658345 4289832786
-0.3018029928 -0.1005415916 0.5310059786 4290885474
-0.3018496037 -0.0999670401 0.5310879350 4291214439
-0.3018959463 -0.0993922204 0.5311694741 4290885474
-0.3024298251 -0.0989767760 0.5321088433 4290621787
-0.3024757206 -0.0984005034 0.5321896076 4290687580
-0.3030093312 -0.0979817510 0.5331284404 4291478137
-0.3030548096 -0.0974040180 0.5332084298 4291083379
-0.3035880923 -0.0969819501 0.5341467857 4291542873
