VERSION 0.7
FIELDS x y z rgba
SIZE 4 4 4 4
TYPE F F F U
COUNT 1 1 1 1
WIDTH 920
HEIGHT 1
VIEWPOINT 0.0 0.0 0.0 1.0 0.0 0.0 0.0
POINTS 920
DATA ascii
-0.3187154830 -0.1168193519 0.6394917369 4280829785
-0.3192060888 -0.1162875593 0.6404761076 4283724161
-0.3192562163 -0.1155940890 0.6405766606 4288527050
-0.3193060458 -0.1149002984 0.6406766772 4291618032
-0.3193555772 -0.1142061725 0.6407760382 4292802303
-0.3078432679 -0.1571065933 0.6190565825 4293653755
-0.3074750304 -0.1562316716 0.6183160543 4293193202
-0.3062376082 -0.1549186856 0.6158276796 4292798444
-0.3049993813 -0.1536108404 0.6133376956 4292601065
-0.3041948974 -0.1525260061 0.6117199063 4292601065
-0.3020858467 -0.1507935673 0.6074787378 4292864237
-0.2991061509 -0.1486378759 0.6014867425 4293127409
-0.2974294424 -0.1471401006 0.5981149673 4293456374
-0.2948819101 -0.1452209651 0.5929920077 4293653753
-0.2918980420 -0.1430993080 0.5869916081 4293851132
-0.2910882235 -0.1420519054 0.5853630304 4293916925
-0.2898425758 -0.1407964379 0.5828581452 4294114303
-0.2890314758 -0.1397566497 0.5812270641 4294114303
-0.2886551321 -0.1389297396 0.5804702640 4294048511
-0.2878429294 -0.1378956884 0.5788369775 4294048511
-0.2883367836 -0.1374880522 0.5798301101 4294048505
-0.2883949578 -0.1368714124 0.5799470544 4294114298
-0.2884528637 -0.1362544149 0.5800635219 4294114044
-0.2885105312 -0.1356370300 0.5801795125 4294114044
-0.2885679901 -0.1350192875 0.5802950263 4294114044
-0.2890611887 -0.1346042007 0.5812867880 4294114044
-0.2891182303 -0.1339847893 0.5814015269 4294048764
-0.2891750336 -0.1333650053 0.5815157294 4294114557
-0.2896678448 -0.1329450756 0.5825067759 4294180350
-0.2897242606 -0.1323236376 0.5826202035 4294246143
-0.2902168334 -0.1319001764 0.5836107731 4294179838
-0.2907093465 -0.1314744800 0.5846011639 4294245631
-0.2916383743 -0.1312430203 0.5864693522 4294179838
-0.2916941345 -0.1306163967 0.5865815282 4294179838
-0.2921864092 -0.1301839948 0.5875714421 4294246143
-0.2931154370 -0.1299430132 0.5894396901 4293982972
-0.2936076224 -0.1295052022 0.5904294848 4293983231
-0.2940997481 -0.1290651560 0.5914191008 4293983231
-0.2950288355 -0.1288136989 0.5932874680 4293917438
-0.2959580123 -0.1285581291 0.5951560140 4293785852
-0.2968872786 -0.1282984465 0.5970246792 4293851645
-0.2973792851 -0.1278466284 0.5980140567 4293391094
-0.2983085811 -0.1275796294 0.5998828411 4292074723
-0.2992379665 -0.1273085177 0.6017517447 4290693070
-0.3001673818 -0.1270332634 0.6036208272 4290693070
-0.3010968864 -0.1267538965 0.6054899693 4289311417
-0.3020264506 -0.1264703870 0.6073592305 4289508794
-0.3025182486 -0.1260004193 0.6083482504 4287666590
-0.3038856983 -0.1258910000 0.6110981107 4291285205
-0.3048154116 -0.1255950928 0.6129677296 4290298310
-0.3053071201 -0.1251155436 0.6139565706 4291548379
-0.3062368631 -0.1248123273 0.6158261895 4292206309
-0.3067284226 -0.1243273467 0.6168147326 4294048511
-0.3076581359 -0.1240167916 0.6186843514 4293785341
-0.3085879087 -0.1237021014 0.6205540299 4293851647
-0.3095177114 -0.1233832613 0.6224237680 4293851647
-0.3100090325 -0.1228864715 0.6234118342 4293326077
-0.3109388053 -0.1225602925 0.6252815723 4293062905
-0.3123072386 -0.1224018931 0.6280333996 4292669178
-0.3132371306 -0.1220664755 0.6299033761 4289708493
-0.3137282729 -0.1215569004 0.6308910251 4286090908
-0.3142192662 -0.1210450828 0.6318784356 4285301392
-0.3151490688 -0.1206991300 0.6337481737 4283987074
-0.3152008951 -0.1200147197 0.6338524222 4282276456
-0.3156915009 -0.1194961667 0.6348389983 4280631892
-0.3161819875 -0.1189753786 0.6358252764 4279447618
-0.3166723251 -0.1184523404 0.6368113160 4279579720
-0.3171625137 -0.1179270595 0.6377971172 4280566615
-0.3172132075 -0.1172371656 0.6378990412 4281750373
-0.3172636330 -0.1165469363 0.6380004883 4282868854
-0.3173137903 -0.1158563793 0.6381012797 4285829278
-0.3178032041 -0.1153250039 0.6390854716 4289579479
-0.3178528547 -0.1146328375 0.6391853094 4291880689
-0.3179022074 -0.1139403507 0.6392846107 4292801791
-0.3067190349 -0.1582569182 0.6181765199 4293653753
-0.3059187829 -0.1571589708 0.6165636778 4293061618
-0.3051179349 -0.1560643017 0.6149495840 4292798446
-0.3038829565 -0.1547521353 0.6124605536 4292403688
-0.3022135794 -0.1532252580 0.6090960503 4292403688
-0.3009769320 -0.1519242823 0.6066035628 4292864237
-0.2984381318 -0.1499744803 0.6014868021 4293324788
-0.2954641283 -0.1478183120 0.5954928398 4293587960
-0.2924886048 -0.1456747055 0.5894957781 4293719546
-0.2908137143 -0.1441892982 0.5861201286 4293982718
-0.2891378701 -0.1427109241 0.5827425718 4294048511
-0.2874610424 -0.1412395835 0.5793630481 4294114558
-0.2866519392 -0.1402001232 0.5777322650 4294048765
-0.2862766087 -0.1393755078 0.5769758821 4294114558
-0.2863354087 -0.1387629360 0.5770943761 4294114558
-0.2859593630 -0.1379403472 0.5763364434 4294048765
-0.2864522636 -0.1375366598 0.5773298740 4293982972
-0.2865103185 -0.1369229555 0.5774469376 4294179837
-0.2870030105 -0.1365157217 0.5784398913 4294179837
-0.2866257727 -0.1356944293 0.5776795745 4294179837
-0.2871181667 -0.1352846026 0.5786719322 4294245630
-0.2876105011 -0.1348725259 0.5796642303 4294179837
-0.2876675427 -0.1342551112 0.5797792077 4294114044
-0.2881596684 -0.1338394880 0.5807710290 4294048764
-0.2886517048 -0.1334216446 0.5817627311 4294114557
-0.2887082100 -0.1328012645 0.5818766356 4293982972
-0.2892000079 -0.1323798746 0.5828678608 4294114558
-0.2892561257 -0.1317578256 0.5829809308 4294048765
-0.2901834249 -0.1315304041 0.5848498344 4294114558
-0.2906750143 -0.1311023235 0.5858405828 4294180095
-0.2911665142 -0.1306719929 0.5868312120 4294114303
-0.2916579545 -0.1302394271 0.5878216624 4294245887
-0.2921493053 -0.1298046261 0.5888119936 4294048511
-0.2930766940 -0.1295603961 0.5906810760 4294048767
-0.2935679555 -0.1291201711 0.5916712284 4293917183
-0.2944954336 -0.1288686395 0.5935404897 4293588475
-0.2954230011 -0.1286129802 0.5954099298 4292601580
-0.2963505983 -0.1283532083 0.5972794890 4291943650
-0.2972782850 -0.1280892938 0.5991491675 4291351513
-0.2982060611 -0.1278212667 0.6010190248 4290035142
-0.2991338670 -0.1275491118 0.6028890014 4289245626
-0.3000617623 -0.1272728294 0.6047590971 4288192938
-0.3009896874 -0.1269924045 0.6066293120 4287666594
-0.3019177020 -0.1267078519 0.6084996462 4288785586
-0.3024087250 -0.1262367517 0.6094893217 4287403933
-0.3037738502 -0.1261263490 0.6122406125 4289838020
-0.3042648435 -0.1256488711 0.6132301688 4289969606
-0.3051929474 -0.1253487319 0.6151008010 4292008932
-0.3056837916 -0.1248658076 0.6160900593 4292601069
-0.3066119254 -0.1245583296 0.6179606318 4293851134
-0.3071026206 -0.1240699738 0.6189495921 4293522169
-0.3080307543 -0.1237551570 0.6208202243 4293522428
-0.3089588881 -0.1234362051 0.6226908565 4293588221
-0.3098870814 -0.1231131032 0.6245615482 4293194234
-0.3108153045 -0.1227858588 0.6264323592 4293194234
-0.3113057017 -0.1222824752 0.6274207234 4292010735
-0.3122338951 -0.1219478846 0.6292914152 4287799983
-0.3131621182 -0.1216091514 0.6311621666 4284182140
-0.3136522770 -0.1210971251 0.6321501136 4282932073
-0.3141423166 -0.1205828637 0.6331377029 4281288276
-0.3146322072 -0.1200663522 0.6341251135 4280301381
-0.3146837056 -0.1193813309 0.6342288852 4280104776
-0.3151732683 -0.1188612804 0.6352155805 4280038983
-0.3161011040 -0.1185033545 0.6370856166 4280565586
-0.3161519766 -0.1178144589 0.6371881366 4281684067
-0.3162025511 -0.1171252355 0.6372900605 4283657598
-0.3162528574 -0.1164356843 0.6373914480 4284973458
-0.3163028955 -0.1157457978 0.6374922991 4286551716
-0.3163526356 -0.1150555909 0.6375924945 4288722885
-0.3164020777 -0.1143650562 0.6376922131 4291024351
-0.3164512515 -0.1136742011 0.6377913356 4292603383
-0.3055283725 -0.1600533724 0.6171582937 4293719546
-0.3047308326 -0.1589516550 0.6155472994 4293258995
-0.3043650389 -0.1580777466 0.6148083806 4292864239
-0.3031339347 -0.1567580253 0.6123216152 4292601067
-0.3023345470 -0.1556661129 0.6107068658 4292403688
-0.3011019230 -0.1543556899 0.6082170010 4292732653
-0.2985703945 -0.1523878276 0.6031033993 4293127411
-0.2964702845 -0.1506505758 0.5988612175 4293456376
-0.2943690121 -0.1489221603 0.5946167111 4293719546
-0.2914006114 -0.1467664391 0.5886206627 4293851132
-0.2892968655 -0.1450575888 0.5843711495 4293916925
-0.2871919572 -0.1433576047 0.5801192522 4293982718
-0.2859524190 -0.1420971006 0.5776154399 4293982972
-0.2855788171 -0.1412705034 0.5768607855 4293982972
-0.2847713530 -0.1402319521 0.5752297640 4293982972
-0.2843968570 -0.1394092441 0.5744732618 4293982972
-0.2844555378 -0.1387996078 0.5745918155 4294048765
-0.2840802670 -0.1379789263 0.5738337636 4294048765
-0.2841384113 -0.1373694688 0.5739511847 4294114045
-0.2846302092 -0.1369684190 0.5749446154 4294114045
-0.2855558991 -0.1367729902 0.5768145323 4294180350
-0.2856135964 -0.1361596137 0.5769310594 4294114557
-0.2856710553 -0.1355458647 0.5770471096 4294179837
-0.2861625254 -0.1351368129 0.5780398250 4294179837
-0.2862195969 -0.1345213950 0.5781551003 4294114557
-0.2867108285 -0.1341087967 0.5791473985 4294048764
-0.2872020006 -0.1336939782 0.5801395774 4294048765
-0.2876931131 -0.1332769096 0.5811315775 4294048765
-0.2881841362 -0.1328576058 0.5821234584 4294180095
-0.2886751294 -0.1324360669 0.5831152201 4293982718
-0.2887311876 -0.1318137795 0.5832284689 4293851132
-0.2896568179 -0.1315862834 0.5850982666 4294048511
-0.2901475728 -0.1311580241 0.5860895514 4294048511
-0.2906382382 -0.1307275444 0.5870806575 4293982718
-0.2911288440 -0.1302948147 0.5880716443 4294114303
-0.2920545936 -0.1300536692 0.5899416804 4293982719
-0.2925451100 -0.1296155304 0.5909324884 4293390585
-0.2934709489 -0.1293670833 0.5928026438 4292074725
-0.2939613461 -0.1289235204 0.5937932730 4290956501
-0.2948872745 -0.1286677718 0.5956636071 4289838020
-0.2958132625 -0.1284079105 0.5975340605 4290232778
-0.2967393100 -0.1281439066 0.5994046330 4290627536
-0.2976654172 -0.1278757900 0.6012753844 4288916919
-0.2990275025 -0.1277898103 0.6040267348 4288785333
-0.2999538481 -0.1275124848 0.6058979034 4287337887
-0.3013162911 -0.1274154186 0.6086499691 4288193196
-0.3022427857 -0.1271288693 0.6105215549 4288785333
-0.3027331531 -0.1266556978 0.6115120649 4288851126
-0.3036597073 -0.1263618171 0.6133836508 4289903814
-0.3041499257 -0.1258832067 0.6143738627 4291417053
-0.3050764799 -0.1255819947 0.6162455082 4292732913
-0.3055665493 -0.1250979453 0.6172354221 4293390843
-0.3060565293 -0.1246116459 0.6182251573 4293719550
-0.3069830537 -0.1242999136 0.6200967431 4293587964
-0.3079096079 -0.1239840314 0.6219683290 4293456635
-0.3083993793 -0.1234890968 0.6229576468 4293193463
-0.3093259335 -0.1231658757 0.6248292923 4293194234
-0.3102525175 -0.1228385046 0.6267009377 4292799476
-0.3107420802 -0.1223349273 0.6276898384 4289774027
-0.3112315238 -0.1218291074 0.6286784410 4284839552
-0.3121580184 -0.1214911863 0.6305499673 4282339679
-0.3126472533 -0.1209799200 0.6315382123 4282076507
-0.3131363690 -0.1204664037 0.6325262189 4282010972
-0.3131879568 -0.1197833493 0.6326304078 4282339937
-0.3136767447 -0.1192662939 0.6336177588 4282604138
-0.3141653836 -0.1187469959 0.6346048117 4282867310
-0.3146539032 -0.1182254553 0.6355915666 4283788412
-0.3147045672 -0.1175381988 0.6356939673 4285170065
-0.3143171966 -0.1166880876 0.6349114776 4286749095
-0.3143672645 -0.1160011217 0.6350125670 4288525506
-0.3144170344 -0.1153138280 0.6351131201 4289708752
-0.3144665062 -0.1146262139 0.6352130771 4290629854
-0.3149537742 -0.1140969619 0.6361973286 4291616229
-0.3150027692 -0.1134077385 0.6362962723 4292471538
-0.3039737046 -0.1609645039 0.6153985858 4293390583
-0.3031783700 -0.1598613858 0.6137884259 4292864239
-0.3028137684 -0.1589879990 0.6130502820 4292601067
-0.3020172715 -0.1578904688 0.6114377975 4292535274
-0.3007886410 -0.1565715522 0.6089503765 4292601580
-0.2995591760 -0.1552577615 0.6064612865 4292798959
-0.2978971899 -0.1537262797 0.6030966043 4293324790
-0.2953705490 -0.1517580450 0.5979813933 4293456376
-0.2928425670 -0.1498004794 0.5928634405 4293719546
-0.2903132141 -0.1478535980 0.5877427459 4293982718
-0.2882146537 -0.1461365074 0.5834941864 4294180095
-0.2861149311 -0.1444282830 0.5792432427 4294245887
-0.2848786116 -0.1431634128 0.5767403245 4294114303
-0.2836415470 -0.1419037133 0.5742358565 4293851132
-0.2828361690 -0.1408645809 0.5726053715 4294048765
-0.2824627459 -0.1400432289 0.5718493462 4293982972
-0.2825215757 -0.1394369006 0.5719684362 4294048252
-0.2825801671 -0.1388301849 0.5720871091 4294114045
-0.2826385200 -0.1382230967 0.5722052455 4294179837
-0.2826966643 -0.1376156360 0.5723229051 4294179837
-0.2827545702 -0.1370078027 0.5724401474 4294245630
-0.2832453251 -0.1366084814 0.5734336972 4294245630
-0.2841692269 -0.1364148557 0.5753041506 4294048764
-0.2846599519 -0.1360101253 0.5762976408 4294048764
-0.2847172618 -0.1353970766 0.5764136910 4294048765
-0.2852077782 -0.1349887997 0.5774067640 4294048765
-0.2856982350 -0.1345783025 0.5783996582 4294114558
-0.2857550383 -0.1339622736 0.5785146356 4294048765
-0.2862452567 -0.1335482299 0.5795071125 4294048511
-0.2871692479 -0.1333333552 0.5813777447 4294048511
-0.2876594365 -0.1329138875 0.5823701024 4294114303
-0.2881495357 -0.1324921995 0.5833624005 4293916925
-0.2882055640 -0.1318696588 0.5834757686 4293851134
-0.2891295552 -0.1316420883 0.5853464603 4293785341
-0.2900536656 -0.1314104050 0.5872173309 4293653755
-0.2905435860 -0.1309788078 0.5882091522 4293587962
-0.2910334170 -0.1305449903 0.5892007947 4292995825
-0.2919576168 -0.1303028166 0.5910718441 4292008930
-0.2924473584 -0.1298635751 0.5920633674 4290232779
-0.2933716476 -0.1296140999 0.5939345360 4288982712
-0.2938612998 -0.1291694343 0.5949258804 4288587954
-0.2947856486 -0.1289126575 0.5967972279 4287864231
-0.2957100868 -0.1286517531 0.5986687541 4289377470
-0.2966345847 -0.1283867210 0.6005403996 4290627537
-0.2975591421 -0.1281175613 0.6024122238 4288719540
-0.2984837592 -0.1278442591 0.6042841077 4288851126
-0.3002788126 -0.1279376745 0.6079182625 4288851126
-0.3007684648 -0.1274697483 0.6089094877 4290495951
-0.3016933501 -0.1271830946 0.6107819676 4290759123
-0.3026182652 -0.1268923134 0.6126545072 4291351260
-0.3031077683 -0.1264157593 0.6136454344 4292601329
-0.3040327132 -0.1261176467 0.6155180335 4293259259
-0.3045220673 -0.1256356388 0.6165087223 4293522429
-0.3050113022 -0.1251513958 0.6174991727 4293193464
-0.3059362173 -0.1248427480 0.6193717122 4293325049
-0.3064253032 -0.1243530586 0.6203618646 4293390842
-0.3073502183 -0.1240370646 0.6222344041 4293588222
-0.3078391552 -0.1235419363 0.6232242584 4293390843
-0.3087640703 -0.1232185960 0.6250967383 4293062394
-0.3092528284 -0.1227180213 0.6260862350 4290957018
-0.3101777136 -0.1223873273 0.6279587150 4286680986
-0.3106663227 -0.1218813062 0.6289478540 4283193957
-0.3111547828 -0.1213730350 0.6299367547 4283655024
-0.3116430938 -0.1208625138 0.6309253573 4283457645
-0.3116947711 -0.1201814264 0.6310299635 4283655539
-0.3121827543 -0.1196673736 0.6320179105 4284839813
-0.3122339249 -0.1189846545 0.6321215034 4286353310
-0.3122848272 -0.1183016077 0.6322245598 4287866549
-0.3127723038 -0.1177827269 0.6332114339 4288919237
-0.3132596314 -0.1172616035 0.6341980100 4289840339
-0.3133098185 -0.1165756434 0.6342996955 4289972694
-0.3129227161 -0.1157277226 0.6335159540 4290762210
-0.3129723072 -0.1150420681 0.6336163282 4291155937
-0.3130216002 -0.1143560857 0.6337161660 4291748074
-0.3130706251 -0.1136697829 0.6338154078 4292536816
-0.3135566711 -0.1131409556 0.6347994208 4293128953
-0.3023539186 -0.1625125259 0.6134988070 4293719546
-0.3019914031 -0.1616368443 0.6127631664 4293193204
-0.3016284108 -0.1607625633 0.6120266914 4292995825
-0.3012650311 -0.1598896980 0.6112893224 4292666860
-0.3004707396 -0.1587907374 0.6096776724 4292535274
-0.2992452383 -0.1574684680 0.6071910262 4292732653
-0.2975882888 -0.1559256464 0.6038289666 4292995825
-0.2954995632 -0.1541650593 0.5995908380 4293324790
-0.2934096754 -0.1524132639 0.5953502655 4293587962
-0.2908876836 -0.1504473984 0.5902329683 4293785339
-0.2879332900 -0.1482702643 0.5842382908 4293916925
-0.2862707675 -0.1467687637 0.5808648467 4294114303
-0.2846072614 -0.1452742666 0.5774894953 4294114303
-0.2829427719 -0.1437867731 0.5741121173 4293982718
-0.2821401656 -0.1427428275 0.5724835396 4294048511
-0.2813369334 -0.1417021900 0.5708537698 4294180351
-0.2809647024 -0.1408813000 0.5700985193 4294180351
-0.2805920839 -0.1400618702 0.5693423748 4294179838
-0.2806508243 -0.1394584626 0.5694615245 4294114045
-0.2807092965 -0.1388546973 0.5695802569 4294179838
-0.2811995149 -0.1384632289 0.5705749393 4294179838
-0.2812576592 -0.1378577799 0.5706928968 4294179837
-0.2817476690 -0.1374627799 0.5716871619 4294179837
-0.2818054259 -0.1368556321 0.5718043447 4294179837
-0.2822952569 -0.1364571005 0.5727982521 4294179837
-0.2832174301 -0.1362643540 0.5746694207 4293982972
-0.2837072313 -0.1358604133 0.5756632090 4294048765
-0.2837643921 -0.1352480501 0.5757792592 4294114558
-0.2842539847 -0.1348405629 0.5767726302 4294114558
-0.2847435176 -0.1344308406 0.5777659416 4294180095
-0.2852329612 -0.1340188831 0.5787590742 4294114303
-0.2857223749 -0.1336046755 0.5797521472 4294114303
-0.2862116992 -0.1331882477 0.5807449818 4294180095
-0.2871340215 -0.1329701245 0.5826165080 4293785341
-0.2871901393 -0.1323486567 0.5827303529 4293785341
-0.2876792550 -0.1319254935 0.5837228298 4293917439
-0.2886016369 -0.1316978484 0.5855943561 4293522682
-0.2895241082 -0.1314660907 0.5874661207 4293522682
-0.2904466689 -0.1312302053 0.5893380642 4293654268
-0.2909357250 -0.1307952702 0.5903304219 4292075236
-0.2914246917 -0.1303580999 0.5913226008 4290101446
-0.2923473418 -0.1301117241 0.5931947231 4288653747
-0.2928362489 -0.1296691298 0.5941867232 4288653747
-0.2937589586 -0.1294154525 0.5960589647 4289772228
-0.2946817577 -0.1291576475 0.5979313850 4288390575
-0.2956046164 -0.1288957000 0.5998039842 4288456368
-0.2965275645 -0.1286296397 0.6016767025 4289048505
-0.2978847921 -0.1285468191 0.6044306159 4288456368
-0.2988079488 -0.1282715499 0.6063037515 4289640642
-0.3001655340 -0.1281776279 0.6090583801 4290627537
-0.3006544113 -0.1277085692 0.6100503802 4292338155
-0.3015777171 -0.1274208724 0.6119238734 4292009190
-0.3020664752 -0.1269463897 0.6129155159 4292206569
-0.3029898107 -0.1266513616 0.6147890687 4293061878
-0.3034784198 -0.1261714250 0.6157804728 4293193464
-0.3044017851 -0.1258690506 0.6176540852 4293522429
-0.3048902452 -0.1253836602 0.6186451912 4293522429
-0.3053785861 -0.1248960346 0.6196361184 4293653502
-0.3058668375 -0.1244061589 0.6206267476 4293390330
-0.3067901134 -0.1240900531 0.6225001812 4293390843
-0.3072782159 -0.1235947236 0.6234905124 4292996085
-0.3077661693 -0.1230971515 0.6244806647 4291811813
-0.3086893857 -0.1227704883 0.6263539195 4288324784
-0.3091771901 -0.1222674698 0.6273437142 4284575097
-0.3096648455 -0.1217622012 0.6283332109 4283917167
-0.3097167909 -0.1210843846 0.6284385920 4285233540
-0.3102041185 -0.1205755696 0.6294274330 4286483607
-0.3106913567 -0.1200645119 0.6304160357 4287865776
-0.3107426167 -0.1193837672 0.6305200458 4289050050
-0.3112294972 -0.1188691705 0.6315079927 4289905874
-0.3112802804 -0.1181868017 0.6316109896 4290826976
-0.3113307655 -0.1175040975 0.6317135096 4291024355
-0.3118171096 -0.1169846803 0.6327003241 4291090148
-0.3118671179 -0.1163003519 0.6328018308 4291155937
-0.3114806116 -0.1154540032 0.6320175529 4291419109
-0.3115300238 -0.1147699878 0.6321178079 4291682021
-0.3115791380 -0.1140856445 0.6322174668 4292405744
-0.3116279840 -0.1134009808 0.6323165298 4293194485
-0.3012332320 -0.1636371762 0.6126054525 4293456374
-0.2995843887 -0.1620645523 0.6092522144 4293127409
-0.3005103171 -0.1618864387 0.6111353040 4292930030
-0.2992894351 -0.1605524868 0.6086524129 4292666860
-0.2984972298 -0.1594530344 0.6070412993 4292732653
-0.2977043986 -0.1583568454 0.6054289341 4292798446
-0.2964812517 -0.1570363045 0.6029415131 4293061618
-0.2943977416 -0.1552675515 0.5987043977 4293456376
-0.2918832004 -0.1532818377 0.5935906768 4293785341
-0.2893672884 -0.1513067782 0.5884741545 4293982719
-0.2868500352 -0.1493423730 0.5833548903 4294180095
-0.2847615480 -0.1476116180 0.5791076422 4294048765
-0.2831021547 -0.1461117715 0.5757330060 4294048765
-0.2814418077 -0.1446189135 0.5723564029 4294048765
-0.2810717821 -0.1437936872 0.5716038942 4294048765
-0.2802708149 -0.1427506357 0.5699750185 4294114558
-0.2794692516 -0.1417109072 0.5683449507 4294180351
-0.2795285285 -0.1411093473 0.5684654713 4294114558
-0.2791567445 -0.1402909011 0.5677093863 4294048765
-0.2792154551 -0.1396895200 0.5678288341 4294245631
-0.2792739570 -0.1390877515 0.5679477453 4294114045
-0.2797632813 -0.1386993080 0.5689429045 4294114045
-0.2798213959 -0.1380958557 0.5690611005 4294179838
-0.2803105414 -0.1377038807 0.5700558424 4294114045
-0.2807996273 -0.1373096704 0.5710504651 4294048252
-0.2808572352 -0.1367032379 0.5711675882 4294114044
-0.2813461125 -0.1363054812 0.5721618533 4294114044
-0.2822665572 -0.1361136138 0.5740336776 4293982718
-0.2827554345 -0.1357104629 0.5750278831 4294048511
-0.2828124464 -0.1350988001 0.5751438141 4294114815
-0.2833011150 -0.1346921027 0.5761376023 4294114815
-0.2837896943 -0.1342831552 0.5771312118 4294049023
-0.2847102582 -0.1340754330 0.5790033340 4293983231
-0.2851988077 -0.1336610764 0.5799968839 4293916927
-0.2856872678 -0.1332444847 0.5809902549 4293785341
-0.2866079807 -0.1330263019 0.5828626752 4293719548
-0.2870964110 -0.1326043010 0.5838559270 4293061618
-0.2875847518 -0.1321800500 0.5848490596 4292601580
-0.2885055840 -0.1319513917 0.5867217183 4291877857
-0.2889938653 -0.1315217167 0.5877147317 4292338408
-0.2899147868 -0.1312857568 0.5895875692 4293522682
-0.2904029787 -0.1308506578 0.5905804038 4292798705
-0.2913239896 -0.1306073815 0.5924534202 4291614431
-0.2922450900 -0.1303599924 0.5943265557 4289115068
-0.2927331924 -0.1299162805 0.5953192711 4288522931
-0.2936543524 -0.1296615750 0.5971925855 4290166986
-0.2945756018 -0.1294027418 0.5990660787 4289574849
-0.2954969108 -0.1291397661 0.6009396911 4289311677
-0.2964182794 -0.1288726628 0.6028134227 4289706435
-0.2982065976 -0.1289763600 0.6064502597 4290627537
-0.2991282642 -0.1286990792 0.6083245873 4291811811
-0.2996163666 -0.1282321066 0.6093173027 4292798706
-0.3005380630 -0.1279474944 0.6111916900 4293588222
-0.3014598191 -0.1276587546 0.6130662560 4292929779
-0.3019478023 -0.1271831393 0.6140586138 4293061365
-0.3024356663 -0.1267052591 0.6150507927 4293258744
-0.3033574224 -0.1264059842 0.6169252992 4293390330
-0.3038451374 -0.1259226650 0.6179171801 4293325049
-0.3043327630 -0.1254370958 0.6189088225 4293456635
-0.3048202693 -0.1249492764 0.6199002266 4293456123
-0.3057419360 -0.1246362478 0.6217746139 4293456123
-0.3062292933 -0.1241429821 0.6227657199 4292929779
-0.3067165315 -0.1236474663 0.6237565875 4291548126
-0.3072036505 -0.1231496930 0.6247472167 4288982714
-0.3076906502 -0.1226496771 0.6257376075 4286285201
-0.3081775010 -0.1221474111 0.6267277002 4285627269
-0.3082295358 -0.1214715689 0.6268334985 4287272094
-0.3087160885 -0.1209657639 0.6278229356 4289180607
-0.3087676167 -0.1202882826 0.6279277802 4290101709
-0.3092538416 -0.1197789311 0.6289165616 4290628566
-0.3097399175 -0.1192673370 0.6299051046 4290957531
-0.3102259040 -0.1187534928 0.6308934093 4291154912
-0.3102765679 -0.1180718020 0.6309964657 4291681256
-0.3103269339 -0.1173897758 0.6310989261 4291682024
-0.3103770614 -0.1167074218 0.6312007904 4292076782
-0.3104268909 -0.1160247400 0.6313021779 4292076265
-0.3100409806 -0.1151799560 0.6305173635 4292471023
-0.3100901842 -0.1144975796 0.6306174397 4292865520
-0.2996166348 -0.1651630253 0.6106972098 4293587960
-0.2996850312 -0.1645220518 0.6108366251 4293193202
-0.2988967597 -0.1634124219 0.6092299223 4292798444
-0.2985361814 -0.1625391990 0.6084949970 4292535272
-0.2977467775 -0.1614351124 0.6068859696 4292535274
-0.2969567478 -0.1603342593 0.6052756310 4292666860
-0.2957374752 -0.1590062082 0.6027904749 4293258997
-0.2945174277 -0.1576832384 0.6003036499 4293390583
-0.2928677499 -0.1561367661 0.5969411731 4293587962
-0.2907881737 -0.1543695629 0.5927025080 4293719548
-0.2887074351 -0.1526111513 0.5884613991 4293851134
-0.2849092185 -0.1499581784 0.5807196498 4293916927
-0.2823965847 -0.1479961425 0.5755982399 4293916927
-0.2807411253 -0.1464927942 0.5722239614 4294048511
-0.2795140743 -0.1452195048 0.5697228909 4294048765
-0.2787156701 -0.1441735029 0.5680955648 4294114558
-0.2779166698 -0.1431308240 0.5664670467 4294114558
-0.2779763937 -0.1425320506 0.5665886998 4294114558
-0.2776061296 -0.1417135149 0.5658339858 4294180351
-0.2776652873 -0.1411148906 0.5659545660 4294180351
-0.2777242064 -0.1405158937 0.5660746694 4294179838
-0.2777829170 -0.1399165094 0.5661943555 4294245631
-0.2778413892 -0.1393167526 0.5663135052 4294179838
-0.2783298194 -0.1389313340 0.5673090816 4294114045
-0.2788181901 -0.1385436952 0.5683045387 4294114045
-0.2788761854 -0.1379409432 0.5684227347 4294179838
-0.2793643773 -0.1375497580 0.5694177747 4294114045
-0.2798525095 -0.1371563375 0.5704127550 4294114045
-0.2803406119 -0.1367606819 0.5714076161 4294179838
-0.2808286548 -0.1363627762 0.5724023581 4294179838
-0.2813166380 -0.1359626502 0.5733969808 4293982718
-0.2818045616 -0.1355602741 0.5743914843 4293982718
-0.2822924256 -0.1351556629 0.5753859282 4294049023
-0.2827802300 -0.1347488165 0.5763801932 4293983231
-0.2832679451 -0.1343397200 0.5773743391 4293785854
-0.2837556303 -0.1339283884 0.5783683062 4293654268
-0.2846745849 -0.1337174326 0.5802413821 4293522169
-0.2851622105 -0.1333006769 0.5812352896 4293193204
-0.2860812545 -0.1330824196 0.5831085443 4292074723
-0.2865688205 -0.1326602548 0.5841023326 4290956242
-0.2870563269 -0.1322358549 0.5850960016 4290693583
-0.2879754901 -0.1320071220 0.5869695544 4290430411
-0.2888947725 -0.1317742616 0.5888432264 4291417306
-0.2893822193 -0.1313412488 0.5898367763 4293062131
-0.2903015614 -0.1311010867 0.5917106867 4293062131
-0.2907889187 -0.1306626350 0.5927040577 4292930545
-0.2917083800 -0.1304151565 0.5945780873 4290628307
-0.2926279008 -0.1301635504 0.5964522958 4288259759
-0.2935474813 -0.1299078166 0.5983266830 4289443263
-0.2944671512 -0.1296479404 0.6002012491 4290495951
-0.2962518632 -0.1297627985 0.6038389206 4291285467
-0.2971718311 -0.1294927746 0.6057140827 4291614432
-0.2976592183 -0.1290310621 0.6067075133 4292799475
-0.2985792458 -0.1287536919 0.6085827351 4292799475
-0.2994993031 -0.1284721792 0.6104580760 4293061877
-0.3004194498 -0.1281865388 0.6123335361 4293127670
-0.3009066880 -0.1277129799 0.6133266687 4293390330
-0.3018268347 -0.1274199933 0.6152021885 4293258744
-0.3023139238 -0.1269409806 0.6161950231 4293587709
-0.3028009236 -0.1264597327 0.6171876192 4293456123
-0.3037210703 -0.1261561960 0.6190630794 4293522428
-0.3042079210 -0.1256694794 0.6200554371 4293588221
-0.3046946526 -0.1251805276 0.6210474968 4293192693
-0.3051812649 -0.1246893182 0.6220393777 4292534763
-0.3056677580 -0.1241958588 0.6230309606 4290692304
-0.3057205081 -0.1235249341 0.6231384873 4289047479
-0.3062067032 -0.1230279282 0.6241294742 4287732132
-0.3066927493 -0.1225286722 0.6251202226 4287666339
-0.3071787059 -0.1220271587 0.6261106730 4288785333
-0.3072305918 -0.1213520020 0.6262164712 4289903814
-0.3072822094 -0.1206765026 0.6263216734 4291285467
-0.3077676296 -0.1201701537 0.6273111105 4291548639
-0.3078188002 -0.1194930151 0.6274153590 4291483362
-0.3083038926 -0.1189831272 0.6284040809 4291943913
-0.3083545566 -0.1183043644 0.6285073757 4292207085
-0.3088393211 -0.1177909449 0.6294955015 4292470257
-0.3088895380 -0.1171105579 0.6295977831 4292470768
-0.3086528182 -0.1142248511 0.6291153431 4293851386
-0.2980019748 -0.1666748971 0.6087842584 4293589241
-0.2976437807 -0.1657989621 0.6080525517 4293259249
-0.2977122962 -0.1651613861 0.6081925035 4292930284
-0.2969261110 -0.1640512794 0.6065863967 4292535526
-0.2965666354 -0.1631795168 0.6058520079 4292403940
-0.2962067127 -0.1623091549 0.6051167846 4292535526
-0.2949913442 -0.1609736085 0.6026338935 4292864491
-0.2942027748 -0.1598755121 0.6010228992 4293193202
-0.2925581336 -0.1583177447 0.5976631641 4293456374
-0.2904846966 -0.1565363556 0.5934273601 4293851132
-0.2888379693 -0.1549933702 0.5900632739 4293785339
-0.2863342464 -0.1529999375 0.5849484801 4293916925
-0.2838291824 -0.1510171294 0.5798308849 4294048511
-0.2821791172 -0.1494987011 0.5764599442 4294114303
-0.2796714902 -0.1475353539 0.5713371634 4294114303
-0.2780192792 -0.1460327208 0.5679619312 4294048511
-0.2776515186 -0.1452093422 0.5672106147 4294114303
-0.2768547833 -0.1441642493 0.5655829906 4294114044
-0.2764860988 -0.1433447152 0.5648298264 4294114044
-0.2761170268 -0.1425266266 0.5640758276 4294245630
-0.2761763930 -0.1419304013 0.5641971231 4294245630
-0.2762355208 -0.1413338035 0.5643178821 4294114044
-0.2762944400 -0.1407368034 0.5644382238 4294179837
-0.2767822444 -0.1403570473 0.5654347539 4294179837
-0.2768408060 -0.1397583634 0.5655543804 4294114044
-0.2773284316 -0.1393750608 0.5665505528 4294114558
-0.2773866057 -0.1387746930 0.5666694641 4294180351
-0.2778740525 -0.1383878440 0.5676652193 4294114558
-0.2783614397 -0.1379987597 0.5686609149 4294048765
-0.2788487971 -0.1376074255 0.5696564913 4294114558
-0.2793360949 -0.1372138560 0.5706520081 4294114558
-0.2793934941 -0.1366079003 0.5707692504 4293982718
-0.2798805833 -0.1362107843 0.5717643499 4294114303
-0.2803676426 -0.1358114481 0.5727593303 4293982975
-0.2808546126 -0.1354098618 0.5737541914 4293917183
-0.2813415527 -0.1350060403 0.5747489333 4293785599
-0.2822586894 -0.1348054707 0.5766224861 4293982975
-0.2827455699 -0.1343962252 0.5776171684 4293193463
-0.2832323909 -0.1339847445 0.5786116719 4292272361
-0.2841496766 -0.1337737143 0.5804856420 4292535533
-0.2846364677 -0.1333568245 0.5814800262 4291680224
-0.2855538726 -0.1331384927 0.5833542347 4289640641
-0.2864713669 -0.1329160482 0.5852285624 4289311676
-0.2869580984 -0.1324905455 0.5862228870 4289509055
-0.2878757119 -0.1322607845 0.5880975127 4290364364
-0.2887934148 -0.1320269108 0.5899722576 4291482588
-0.2897112072 -0.1317889094 0.5918471813 4293258999
-0.2901978791 -0.1313516200 0.5928413868 4293719550
-0.2911157608 -0.1311063021 0.5947165489 4293390585
-0.2916023433 -0.1306635588 0.5957105756 4291352291
-0.2925203145 -0.1304109246 0.5975858569 4290102224
-0.2934383452 -0.1301541477 0.5994613171 4291351776
-0.2943564355 -0.1298932433 0.6013368964 4292470257
-0.2957063019 -0.1298177242 0.6040945053 4292930808
-0.2966246307 -0.1295475960 0.6059705019 4293325566
-0.2975429893 -0.1292733252 0.6078466773 4293325820
-0.2984614372 -0.1289949268 0.6097229719 4293062648
-0.2993799448 -0.1287123710 0.6115993261 4292996085
-0.2998664379 -0.1282408834 0.6125931740 4293061878
-0.3007849753 -0.1279509813 0.6144696474 4293127411
-0.3012713194 -0.1274740547 0.6154631972 4293193204
-0.3017575741 -0.1269948632 0.6164565682 4293258995
-0.3022437096 -0.1265134215 0.6174496412 4293258995
-0.3031622171 -0.1262097806 0.6193260550 4292995825
-0.3032156527 -0.1255437881 0.6194352508 4292206309
-0.3037014604 -0.1250555962 0.6204276681 4290955991
-0.3041871488 -0.1245651469 0.6214199066 4289705924
-0.3046727180 -0.1240724474 0.6224119067 4288850361
-0.3047253489 -0.1234022081 0.6225193739 4289047740
-0.3052106202 -0.1229059622 0.6235107183 4289837510
-0.3056957424 -0.1224074587 0.6245018244 4290692819
-0.3057477176 -0.1217342764 0.6246079803 4291284954
-0.3057993948 -0.1210607588 0.6247135401 4291482333
-0.3058508337 -0.1203868985 0.6248185635 4291877346
-0.3063352704 -0.1198822558 0.6258082390 4292140518
-0.3068195581 -0.1193753704 0.6267976165 4292337895
-0.3068703115 -0.1186985895 0.6269013286 4292666860
-0.3073543012 -0.1181881651 0.6278900504 4293127411
-0.2960326374 -0.1672968864 0.6061365008 4293719546
-0.2961015701 -0.1666622311 0.6062776446 4293193715
-0.2961702943 -0.1660271287 0.6064183116 4292733164
-0.2958125174 -0.1651536077 0.6056857705 4292469479
-0.2950279713 -0.1640444249 0.6040794253 4292535272
-0.2942428291 -0.1629384607 0.6024717689 4292732651
-0.2938835919 -0.1620709598 0.6017361879 4292995823
-0.2930972874 -0.1609705538 0.6001262069 4293258995
-0.2914568782 -0.1594065875 0.5967674851 4293522167
-0.2893886864 -0.1576170772 0.5925327539 4293785339
-0.2873192728 -0.1558363289 0.5882955790 4293916925
-0.2848216593 -0.1538337171 0.5831816196 4294048511
-0.2818955481 -0.1516120136 0.5771903396 4294048511
-0.2793951035 -0.1496315747 0.5720705986 4294114303
-0.2773205936 -0.1478896737 0.5678229928 4294048511
-0.2765271366 -0.1468374431 0.5661982894 4294048511
-0.2753055692 -0.1455624700 0.5636970997 4294048511
-0.2749383748 -0.1447428614 0.5629453063 4294048511
-0.2745707929 -0.1439247131 0.5621926188 4294180095
-0.2746305764 -0.1433312744 0.5623150468 4294179837
-0.2742622495 -0.1425151080 0.5615609288 4294114044
-0.2743214965 -0.1419218332 0.5616822243 4294179837
-0.2743805349 -0.1413281560 0.5618030429 4294179837
-0.2748674750 -0.1409536600 0.5628001094 4294114558
-0.2753543556 -0.1405769289 0.5637970567 4294048765
-0.2754129171 -0.1399802566 0.5639168620 4294048765
-0.2758996189 -0.1395999789 0.5649134517 4293982972
-0.2763863206 -0.1392174661 0.5659099817 4293982972
-0.2768729627 -0.1388327181 0.5669063926 4294180351
-0.2769308686 -0.1382317543 0.5670249462 4294180095
-0.2774173021 -0.1378434598 0.5680209398 4294114303
-0.2779037058 -0.1374529153 0.5690168738 4294114303
-0.2788190246 -0.1372713298 0.5708910227 4294048511
-0.2784473300 -0.1364548802 0.5701299310 4293982718
-0.2793625891 -0.1362678856 0.5720040202 4293916925
-0.2798487842 -0.1358684003 0.5729994774 4293917183
-0.2803349197 -0.1354666650 0.5739948750 4293851391
-0.2808209956 -0.1350626945 0.5749900937 4293719807
-0.2813070118 -0.1346564889 0.5759852529 4293522428
-0.2822225094 -0.1344526708 0.5778597593 4292338154
-0.2827084959 -0.1340410411 0.5788547993 4290956501
-0.2836241126 -0.1338299513 0.5807296038 4291219673
-0.2841100395 -0.1334128976 0.5817245841 4291088087
-0.2850258052 -0.1331945062 0.5835996270 4290298571
-0.2859416604 -0.1329719871 0.5854748487 4290693329
-0.2868576050 -0.1327453405 0.5873503089 4291153880
-0.2877736688 -0.1325145811 0.5892259479 4291351259
-0.2886897922 -0.1322796792 0.5911017656 4291614431
-0.2896060348 -0.1320406646 0.5929777622 4292930291
-0.2905223370 -0.1317975074 0.5948539376 4293390842
-0.2910082340 -0.1313559115 0.5958488584 4293259256
-0.2919246256 -0.1311054379 0.5977251530 4291746536
-0.2928410769 -0.1308508366 0.5996016860 4291417571
-0.2937576175 -0.1305920929 0.6014783382 4292864501
-0.2946742475 -0.1303292066 0.6033551097 4293588223
-0.2955909371 -0.1300621778 0.6052320600 4293456636
-0.2965076864 -0.1297910213 0.6071091294 4293259257
-0.2974244952 -0.1295157075 0.6089863181 4293127671
-0.2983413637 -0.1292362511 0.6108636856 4292930292
-0.2988270819 -0.1287668496 0.6118581891 4292996085
-0.2997440100 -0.1284800470 0.6137356162 4292930292
-0.3002296090 -0.1280051768 0.6147298813 4292995827
-0.3007151186 -0.1275280714 0.6157239676 4293061620
-0.3012005091 -0.1270487010 0.6167178154 4292930032
-0.3016857803 -0.1265670657 0.6177114844 4292272102
-0.3026026487 -0.1262633055 0.6195887327 4291087828
-0.3026560247 -0.1255970597 0.6196980476 4289903554
-0.3031409979 -0.1251086742 0.6206910610 4289113533
-0.3031939268 -0.1244407743 0.6207994223 4289376705
-0.3036785722 -0.1239488348 0.6217917800 4290166221
-0.3037310541 -0.1232792810 0.6218992472 4291153116
-0.3042154014 -0.1227837950 0.6228909492 4291877093
-0.3042674363 -0.1221125945 0.6229974627 4292206058
-0.3043191731 -0.1214410514 0.6231034398 4292403690
-0.3043706715 -0.1207691729 0.6232088804 4292469483
-0.3044219017 -0.1200969517 0.6233137250 4292995823
-0.3049053550 -0.1195940226 0.6243036389 4293258995
-0.3053886592 -0.1190888509 0.6252931952 4293456628
-0.2940679491 -0.1679064035 0.6034861207 4293522169
-0.2941369712 -0.1672751456 0.6036277413 4292996338
-0.2937806249 -0.1664026231 0.6028964520 4292601580
-0.2934238315 -0.1655314863 0.6021642685 4292339176
-0.2934919596 -0.1649007350 0.6023041010 4292404969
-0.2927089930 -0.1637933850 0.6006972194 4292864239
-0.2919253707 -0.1626892686 0.5990891457 4293127411
-0.2907155156 -0.1613521278 0.5966061950 4293390583
-0.2890790701 -0.1597847492 0.5932479501 4293587962
-0.2874416411 -0.1582242697 0.5898876190 4293719548
-0.2853772640 -0.1564372182 0.5856510997 4293851134
-0.2824596465 -0.1541937888 0.5796635151 4293916927
-0.2803927064 -0.1524261236 0.5754217505 4293982719
-0.2783245742 -0.1506672353 0.5711775422 4294114303
-0.2766816020 -0.1491469592 0.5678058267 4294114303
-0.2754640579 -0.1478625387 0.5653072000 4294114303
-0.2742457092 -0.1465832442 0.5628069043 4293982718
-0.2734532058 -0.1455361396 0.5611805320 4293982718
-0.2730867863 -0.1447184533 0.5604285598 4294048511
-0.2727199495 -0.1439022124 0.5596757531 4293982718
-0.2727796137 -0.1433117241 0.5597981811 4294114303
-0.2732660472 -0.1429441869 0.5607964396 4294048765
-0.2733253539 -0.1423519850 0.5609181523 4294048765
-0.2733844221 -0.1417594105 0.5610393882 4294048765
-0.2734433115 -0.1411664486 0.5611602068 4294048765
-0.2739292979 -0.1407927424 0.5621575713 4294114558
-0.2739878297 -0.1401980966 0.5622776747 4294048765
-0.2744736373 -0.1398208439 0.5632746816 4293982718
-0.2749594152 -0.1394413561 0.5642715693 4293982718
-0.2754451632 -0.1390596479 0.5652683973 4293982718
-0.2759308517 -0.1386756897 0.5662651658 4294048511
-0.2764164805 -0.1382894963 0.5672618151 4294048511
-0.2769020796 -0.1379010528 0.5682583451 4293982718
-0.2773876488 -0.1375103742 0.5692547560 4293916927
-0.2783012986 -0.1373287439 0.5711297393 4293916927
-0.2779303193 -0.1365119666 0.5703684688 4293851134
-0.2788439691 -0.1363249272 0.5722434521 4293653755
-0.2793292999 -0.1359252930 0.5732394457 4293851135
-0.2798145711 -0.1355234087 0.5742353201 4293522171
-0.2802997828 -0.1351192892 0.5752310753 4293456635
-0.2812136114 -0.1349186003 0.5771064758 4293456635
-0.2816987932 -0.1345090717 0.5781021714 4292206568
-0.2826127708 -0.1343010813 0.5799778104 4290166985
-0.2830978930 -0.1338861287 0.5809733868 4290232778
-0.2840119898 -0.1336708367 0.5828492641 4290956501
-0.2849261761 -0.1334514320 0.5847253799 4291680224
-0.2854112983 -0.1330278665 0.5857208967 4291680224
-0.2863255739 -0.1328011453 0.5875972509 4291351260
-0.2872399688 -0.1325703114 0.5894737244 4290824916
-0.2881544530 -0.1323353350 0.5913504362 4291088088
-0.2890690267 -0.1320962459 0.5932273269 4292667120
-0.2899836898 -0.1318529993 0.5951043963 4293325050
-0.2908984423 -0.1316056401 0.5969816446 4293127671
-0.2922430336 -0.1315475851 0.5997409821 4292403437
-0.2927281559 -0.1310984939 0.6007365584 4292403437
-0.2936431170 -0.1308387220 0.6026142836 4293061365
-0.2945581675 -0.1305748075 0.6044921279 4293324537
-0.2954732776 -0.1303067505 0.6063700914 4293258744
-0.2963884473 -0.1300345361 0.6082482338 4293192951
-0.2973036766 -0.1297581941 0.6101264954 4293390330
-0.2977886498 -0.1292908490 0.6111217737 4293324537
-0.2982735336 -0.1288212687 0.6121168137 4293324537
-0.2991887927 -0.1285343617 0.6139950752 4293127158
-0.2996735573 -0.1280593276 0.6149898767 4292732655
-0.3001581728 -0.1275820285 0.6159844995 4291877346
-0.3006427288 -0.1271024644 0.6169788837 4290824658
-0.3011271656 -0.1266206652 0.6179730296 4289969349
-0.3016114831 -0.1261366010 0.6189669371 4289574336
-0.3016647398 -0.1254710257 0.6190762520 4289640129
-0.3021487594 -0.1249834076 0.6200695634 4290166475
-0.3022015989 -0.1243161932 0.6201779246 4290955991
-0.3022541404 -0.1236486286 0.6202858090 4291877093
-0.3023064137 -0.1229807138 0.6203930974 4292535023
-0.3027897477 -0.1224869415 0.6213849783 4292930034
-0.3028415740 -0.1218173802 0.6214913726 4293258999
-0.3033246100 -0.1213200614 0.6224826574 4293653753
-0.2925318778 -0.1687480062 0.6017052531 4293193717
-0.2921770215 -0.1678755730 0.6009753346 4292536301
-0.2922458947 -0.1672472656 0.6011170149 4292273129
-0.2918902934 -0.1663766950 0.6003856063 4292207849
-0.2915342748 -0.1655074954 0.5996532440 4292471021
-0.2911778092 -0.1646396816 0.5989201069 4292865520
-0.2903963625 -0.1635341793 0.5973127484 4293194485
-0.2891896665 -0.1621937305 0.5948306918 4293653755
-0.2879821360 -0.1608583480 0.5923469067 4293785341
-0.2859240770 -0.1590553522 0.5881137848 4293851134
-0.2834399045 -0.1570256799 0.5830040574 4293851134
-0.2813793719 -0.1552410871 0.5787658095 4293851134
-0.2784673572 -0.1529981047 0.5727761388 4293982719
-0.2764042616 -0.1512328982 0.5685325861 4293982718
-0.2747653127 -0.1497082263 0.5651614666 4293982718
-0.2735508382 -0.1484213322 0.5626633763 4294114303
-0.2727610469 -0.1473694742 0.5610389113 4294048511
-0.2723963261 -0.1465498805 0.5602886677 4293982972
-0.2716054618 -0.1455036849 0.5586619377 4293851386
-0.2712397873 -0.1446879208 0.5579098463 4294048765
-0.2712996304 -0.1440998316 0.5580329299 4294114558
-0.2713592649 -0.1435113400 0.5581555963 4293917179
-0.2714186907 -0.1429224759 0.5582777858 4293982972
-0.2719040513 -0.1425566673 0.5592761040 4293917179
-0.2719631195 -0.1419661045 0.5593976378 4293917179
-0.2724483311 -0.1415967494 0.5603956580 4293982972
-0.2725070417 -0.1410044879 0.5605164170 4294048765
-0.2729920745 -0.1406315863 0.5615140796 4294114303
-0.2730504572 -0.1400376409 0.5616341233 4293982718
-0.2735353112 -0.1396611929 0.5626314878 4293982718
-0.2740201652 -0.1392824948 0.5636287332 4294048511
-0.2745049596 -0.1389015764 0.5646258593 4294180095
-0.2749896944 -0.1385184079 0.5656229258 4294048511
-0.2754743993 -0.1381330043 0.5666199327 4293851134
-0.2763862312 -0.1379586011 0.5684954524 4293785341
-0.2768709064 -0.1375677884 0.5694923997 4293851134
-0.2773555517 -0.1371747255 0.5704892278 4293851134
-0.2778401375 -0.1367794424 0.5714859962 4293785341
-0.2783246636 -0.1363818944 0.5724826455 4293719548
-0.2788091600 -0.1359821260 0.5734791160 4293522171
-0.2797212899 -0.1357877254 0.5753552914 4293522171
-0.2802057266 -0.1353825331 0.5763517618 4293456378
-0.2806901038 -0.1349750906 0.5773480535 4293127413
-0.2816024125 -0.1347702146 0.5792245269 4292798448
-0.2820867598 -0.1343573481 0.5802208185 4291745760
-0.2829991579 -0.1341451854 0.5820975304 4291153880
-0.2839116752 -0.1339288950 0.5839744806 4291285466
-0.2848243117 -0.1337084770 0.5858516693 4291219674
-0.2853086293 -0.1332838088 0.5868478417 4291022295
-0.2862213552 -0.1330560893 0.5887252688 4290759123
-0.2867056429 -0.1326259822 0.5897213221 4290364365
-0.2876184583 -0.1323909312 0.5915989280 4291088088
-0.2889600992 -0.1323481202 0.5943585038 4292798706
-0.2898731828 -0.1321038604 0.5962366462 4293390843
-0.2907863557 -0.1318554729 0.5981149077 4293127671
-0.2916995883 -0.1316029429 0.5999933481 4292535021
-0.2926129103 -0.1313462704 0.6018719673 4292995572
-0.2935263216 -0.1310854703 0.6037507057 4293192951
-0.2944397926 -0.1308205128 0.6056296229 4293127158
-0.2953533232 -0.1305514127 0.6075086594 4293127158
-0.2962669134 -0.1302781701 0.6093878150 4292995572
-0.2967511415 -0.1298129112 0.6103838086 4293127158
-0.2972352505 -0.1293454021 0.6113795638 4292929779
-0.2977192700 -0.1288756281 0.6123751402 4292666607
-0.2982032001 -0.1284036189 0.6133704782 4291679712
-0.2991167605 -0.1281134039 0.6152496338 4290692817
-0.2996005714 -0.1276359260 0.6162447333 4289837508
-0.2996543348 -0.1269740164 0.6163552999 4289509056
-0.3001378179 -0.1264929771 0.6173498034 4289838021
-0.3006212115 -0.1260096729 0.6183441281 4290495953
-0.3006743491 -0.1253447980 0.6184533834 4291351262
-0.3011574447 -0.1248579398 0.6194470525 4292008932
-0.3012101352 -0.1241914108 0.6195554733 4292732655
-0.3012625575 -0.1235245317 0.6196632385 4293522169
-0.3013147116 -0.1228573099 0.6197705269 4293851134
-0.3013665974 -0.1221897379 0.6198772788 4294113791
-0.3018488288 -0.1216954291 0.6208691597 4294179583
-0.2913517654 -0.1704541743 0.6006500721 4293194485
-0.2909984887 -0.1695809513 0.5999218225 4292602348
-0.2910678685 -0.1689546704 0.6000648141 4292207336
-0.2907138765 -0.1680832654 0.5993350148 4292207336
-0.2899361849 -0.1669695079 0.5977317095 4292404715
-0.2904279530 -0.1665874571 0.5987455249 4292799473
-0.2888023555 -0.1649935097 0.5953942537 4293259510
-0.2880229056 -0.1638884544 0.5937873125 4293391096
-0.2872428298 -0.1627866328 0.5921791196 4293587962
-0.2839195430 -0.1602529138 0.5853278637 4293587962
-0.2856808007 -0.1605926454 0.5889587998 4293982207
-0.2819311619 -0.1578390300 0.5812285542 4293982207
-0.2790276408 -0.1555743665 0.5752426982 4294047999
-0.2765467167 -0.1535576582 0.5701280236 4294047999
-0.2744886279 -0.1517861336 0.5658851266 4294113791
-0.2728537321 -0.1502570659 0.5625146031 4294179583
-0.2720667124 -0.1492004842 0.5608921051 4294179583
-0.2708545625 -0.1479153186 0.5583931208 4294113791
-0.2700662613 -0.1468662173 0.5567679405 4294113791
-0.2701268196 -0.1462803930 0.5568927526 4294113791
-0.2697623074 -0.1454651058 0.5561413169 4294048252
-0.2698223591 -0.1448794156 0.5562651157 4293982459
-0.2694571316 -0.1440661103 0.5555121899 4294245631
-0.2695166469 -0.1434805840 0.5556348562 4294245631
-0.2700011432 -0.1431200355 0.5566336513 4294048252
-0.2700603008 -0.1425328106 0.5567556620 4294245631
-0.2705446184 -0.1421687156 0.5577540994 4294048765
-0.2710289061 -0.1418024004 0.5587525368 4293982972
-0.2710876167 -0.1412121505 0.5588735342 4294048765
-0.2715717256 -0.1408422887 0.5598716140 4294114558
-0.2720558345 -0.1404701769 0.5608696342 4294048511
-0.2721140385 -0.1398769319 0.5609896779 4294048511
-0.2725979686 -0.1395012885 0.5619873405 4293982718
-0.2735078633 -0.1393404454 0.5638631582 4293982718
-0.2739918232 -0.1389593780 0.5648608208 4293982719
-0.2744756937 -0.1385760754 0.5658584237 4293785341
-0.2749595344 -0.1381905377 0.5668559074 4293719035
-0.2758697271 -0.1380160749 0.5687323213 4293719035
-0.2763535380 -0.1376251280 0.5697298050 4293653242
-0.2768373191 -0.1372319311 0.5707271695 4293521656
-0.2773210406 -0.1368364990 0.5717244148 4293521656
-0.2778047323 -0.1364388168 0.5727215409 4293653242
-0.2782883346 -0.1360388994 0.5737186074 4293522171
-0.2791988254 -0.1358444542 0.5755956173 4293456378
-0.2796823978 -0.1354390979 0.5765925646 4293324792
-0.2805930078 -0.1352373511 0.5784698725 4292995827
-0.2810765803 -0.1348265857 0.5794667602 4293061620
-0.2819873095 -0.1346175373 0.5813443661 4292074725
-0.2828981578 -0.1344043612 0.5832221508 4290692817
-0.2833817005 -0.1339849681 0.5842189789 4290034887
-0.2842926681 -0.1337644905 0.5860970616 4290232266
-0.2852037251 -0.1335398704 0.5879752636 4290824403
-0.2861148715 -0.1333111376 0.5898537040 4291746018
-0.2865983546 -0.1328799278 0.5908504725 4292009190
-0.2879374623 -0.1328412592 0.5936111808 4292338157
-0.2888488770 -0.1326001137 0.5954901576 4292930294
-0.2897603810 -0.1323548257 0.5973693132 4293127673
-0.2906719744 -0.1321054101 0.5992486477 4292996087
-0.2915836573 -0.1318518519 0.6011281610 4292995572
-0.2924953997 -0.1315941513 0.6030077934 4293258744
-0.2934072316 -0.1313323081 0.6048876047 4293192951
-0.2938906848 -0.1308755428 0.6058843732 4293061365
-0.2948025763 -0.1306063533 0.6077643037 4293390330
-0.2957145274 -0.1303330064 0.6096443534 4292995572
-0.2966265380 -0.1300555170 0.6115245223 4292337642
-0.2971098721 -0.1295868903 0.6125209928 4291613919
-0.2971642911 -0.1289299428 0.6126332283 4290429645
-0.2976473570 -0.1284577399 0.6136291027 4289705922
-0.2981303334 -0.1279832870 0.6146247387 4289311679
-0.2986131907 -0.1275065690 0.6156201959 4289706437
-0.2986668050 -0.1268453598 0.6157307625 4290561746
-0.2991493940 -0.1263650805 0.6167256236 4291614434
-0.2996318340 -0.1258825362 0.6177203059 4292338157
-0.2996848524 -0.1252183616 0.6178295612 4292930294
-0.2997376025 -0.1245538220 0.6179382801 4293587700
-0.2997900546 -0.1238889322 0.6180464625 4293982458
-0.2897498608 -0.1719016880 0.5987185240 4293260278
-0.2893980742 -0.1710285693 0.5979916453 4292668141
-0.2894678414 -0.1704052389 0.5981357694 4292141797
-0.2895374000 -0.1697814465 0.5982794762 4291944677
-0.2891845405 -0.1689106226 0.5975503922 4291944677
-0.2888312936 -0.1680411696 0.5968204737 4292470508
