VERSION 0.7
FIELDS x y z rgba
SIZE 4 4 4 4
TYPE F F F U
COUNT 1 1 1 1
WIDTH 920
HEIGHT 1
VIEWPOINT 0.0 0.0 0.0 1.0 0.0 0.0 0.0
POINTS 920
DATA ascii
-0.2623595297 -0.1030055583 0.5779328346 4289770685
-0.2624013722 -0.1023797616 0.5780249834 4288915630
-0.2624430060 -0.1017536670 0.5781166553 4288257700
-0.2624843717 -0.1011272743 0.5782077909 4287599770
-0.2625254989 -0.1005005911 0.5782983899 4287073426
-0.2629747093 -0.1000289321 0.5792879462 4286876047
-0.2630154192 -0.0994006842 0.5793775916 4286810254
-0.2626473904 -0.0986187682 0.5785669088 4286612873
-0.2626875639 -0.0979909226 0.5786553621 4286678666
-0.2631360590 -0.0975141972 0.5796433091 4286678666
-0.2631757855 -0.0968848020 0.5797308683 4286481287
-0.2632152438 -0.0962551162 0.5798178315 4286481286
-0.2632544935 -0.0956251472 0.5799041986 4286218114
-0.2632934749 -0.0949948952 0.5799900889 4286283650
-0.2633322179 -0.0943643674 0.5800754428 4286612615
-0.2633706927 -0.0937335640 0.5801602006 4286809994
-0.2638179660 -0.0932470486 0.5811454654 4287336338
-0.2638560236 -0.0926147103 0.5812293291 4288520612
-0.2634846866 -0.0918394923 0.5804113150 4289310128
-0.2635222077 -0.0912075937 0.5804939270 4289638838
-0.2635594606 -0.0905754268 0.5805760026 4288454564
-0.2640057802 -0.0900826603 0.5815591812 4286743432
-0.2636332214 -0.0893102959 0.5807384849 4285098607
-0.2636697292 -0.0886773318 0.5808188915 4284309091
-0.2637059689 -0.0880441070 0.5808987617 4284374884
-0.2637419701 -0.0874106139 0.5809780955 4285230707
-0.2633681595 -0.0866421238 0.5801545978 4286678153
-0.2629939616 -0.0858753473 0.5793303251 4287796634
-0.2630290985 -0.0852430612 0.5794077516 4288388771
-0.2634737492 -0.0847423077 0.5803872347 4289375666
-0.2635084391 -0.0841085315 0.5804636478 4290296768
-0.2631330192 -0.0833446905 0.5796366930 4291020491
-0.2627572417 -0.0825825632 0.5788089037 4291612628
-0.2627910972 -0.0819500163 0.5788834691 4291744214
-0.2628246844 -0.0813172311 0.5789574385 4291481042
-0.2628580034 -0.0806841999 0.5790308714 4291480528
-0.2628910840 -0.0800509304 0.5791037083 4290954184
-0.2625137269 -0.0792935193 0.5782724619 4290230460
-0.2621360421 -0.0785378590 0.5774405003 4289572530
-0.2621682584 -0.0779058561 0.5775114298 4288783014
-0.2622002363 -0.0772736222 0.5775818825 4288190877
-0.2622319460 -0.0766411573 0.5776517391 4288322463
-0.2626738250 -0.0761274099 0.5786251426 4288322463
-0.2627050877 -0.0754934996 0.5786940455 4288059806
-0.2627361119 -0.0748593658 0.5787622929 4288520357
-0.2627668381 -0.0742250010 0.5788300633 4289573045
-0.2636185884 -0.0738203898 0.5807062984 4290888905
-0.2640596032 -0.0732975975 0.5816777349 4292007898
-0.2611750364 -0.1002288237 0.5767346025 4289376181
-0.2612157464 -0.0996035486 0.5768244863 4288586665
-0.2616637647 -0.0991323963 0.5778138638 4287928735
-0.2612964213 -0.0983521342 0.5770026445 4287205012
-0.2613363862 -0.0977259949 0.5770909190 4286941840
-0.2617838979 -0.0972510427 0.5780791044 4286810254
-0.2622312605 -0.0967738554 0.5790669918 4286547082
-0.2622706294 -0.0961448997 0.5791539550 4286349700
-0.2623097599 -0.0955156684 0.5792403221 4286349700
-0.2627566457 -0.0950337201 0.5802271366 4286546822
-0.2623872757 -0.0942563564 0.5794115067 4286283650
-0.2624256611 -0.0936262831 0.5794962645 4285559927
-0.2624637783 -0.0929959342 0.5795804858 4285362548
-0.2629099190 -0.0925089642 0.5805656314 4286152322
-0.2625393271 -0.0917344168 0.5797472596 4286876045
-0.2625767291 -0.0911032557 0.5798298717 4288125599
-0.2626138628 -0.0904718190 0.5799118876 4289441459
-0.2630592585 -0.0899798423 0.5808953643 4289967289
-0.2626874447 -0.0892081559 0.5800743103 4289111980
-0.2627238333 -0.0885759220 0.5801547170 4287730327
-0.2627599835 -0.0879434273 0.5802345276 4286085502
-0.2623871863 -0.0871748924 0.5794113278 4285033330
-0.2624228001 -0.0865428671 0.5794899464 4285033330
-0.2620493472 -0.0857767612 0.5786652565 4285099123
-0.2620843947 -0.0851452127 0.5787426829 4286546569
-0.2625281215 -0.0846452564 0.5797225237 4287336083
-0.2621537447 -0.0838813484 0.5788958073 4287730841
-0.2617790103 -0.0831191763 0.5780683160 4288783529
-0.2618129849 -0.0824876055 0.5781433582 4289770424
-0.2618467510 -0.0818557963 0.5782178640 4290691526
-0.2618802190 -0.0812237486 0.5782918334 4291612628
-0.2619134784 -0.0805914477 0.5783652663 4291809493
-0.2615371644 -0.0798339769 0.5775342584 4291875286
-0.2615698576 -0.0792021975 0.5776064396 4291743699
-0.2611928880 -0.0784472153 0.5767740607 4291414734
-0.2612250447 -0.0778159499 0.5768449903 4290822597
-0.2612569034 -0.0771844536 0.5769153833 4290098874
-0.2616980970 -0.0766727179 0.5778896213 4289704116
-0.2617295086 -0.0760397688 0.5779590011 4289572530
-0.2617606819 -0.0754065961 0.5780278444 4288849322
-0.2617916167 -0.0747731924 0.5780961514 4288059806
-0.2618222535 -0.0741395727 0.5781638622 4287599255
-0.2618526816 -0.0735057294 0.5782309771 4287796634
-0.2618828416 -0.0728716627 0.5782976151 4288257185
-0.2623226047 -0.0723504275 0.5792687535 4288849322
-0.2623523176 -0.0717149377 0.5793343186 4290034109
-0.2623817623 -0.0710792318 0.5793992877 4291349969
-0.2624109387 -0.0704433098 0.5794637799 4292468449
-0.2603549063 -0.0982386917 0.5763370991 4289573560
-0.2603947818 -0.0976132900 0.5764253736 4288652458
-0.2604343891 -0.0969875902 0.5765130520 4287797149
-0.2608807683 -0.0965121761 0.5775011778 4287007633
-0.2609199584 -0.0958849341 0.5775879622 4286744458
-0.2609589100 -0.0952574164 0.5776742101 4286415493
-0.2614048123 -0.0947772413 0.5786612034 4286415493
-0.2614433169 -0.0941481814 0.5787464976 4286481286
-0.2614816129 -0.0935188383 0.5788312554 4286349700
-0.2615196407 -0.0928892270 0.5789154172 4286218114
-0.2615574300 -0.0922593400 0.5789991021 4286020736
-0.2615949810 -0.0916291773 0.5790821910 4285757564
-0.2616322637 -0.0909987465 0.5791647434 4286349188
-0.2616693079 -0.0903680474 0.5792467594 4286678153
-0.2617061138 -0.0897370800 0.5793281794 4287599257
-0.2617426515 -0.0891058519 0.5794091225 4288915117
-0.2617789805 -0.0884743556 0.5794894695 4289704633
-0.2618150115 -0.0878425986 0.5795692801 4289638840
-0.2614429593 -0.0870747417 0.5787456632 4288651945
-0.2614784539 -0.0864434466 0.5788242817 4287072913
-0.2611057460 -0.0856780335 0.5779991746 4285099123
-0.2611407042 -0.0850472152 0.5780765414 4284506986
-0.2611753941 -0.0844161436 0.5781533718 4284770158
-0.2612098455 -0.0837848261 0.5782296658 4286283397
-0.2608358562 -0.0830233321 0.5774017572 4287599257
-0.2608697414 -0.0823925063 0.5774767995 4287994015
-0.2609033883 -0.0817614347 0.5775513053 4288388771
-0.2609367967 -0.0811301172 0.5776252151 4289112494
-0.2609699368 -0.0804985538 0.5776985884 4290033596
-0.2605943978 -0.0797417760 0.5768672228 4291086284
-0.2606270015 -0.0791107267 0.5769394040 4291941079
-0.2602507770 -0.0783564374 0.5761066079 4291875286
-0.2602828145 -0.0777259097 0.5761775374 4291809493
-0.2607232630 -0.0772161782 0.5771525502 4291743700
-0.2607548535 -0.0765841976 0.5772224665 4291217355
-0.2607862055 -0.0759519860 0.5772918463 4290756804
-0.2608172894 -0.0753195509 0.5773606300 4289704631
-0.2608481050 -0.0746868923 0.5774288774 4289573045
-0.2604697943 -0.0739379376 0.5765914321 4289046701
-0.2600911260 -0.0731907412 0.5757531524 4288520357
-0.2601211071 -0.0725594014 0.5758195519 4288322978
-0.2609689236 -0.0721540302 0.5776963234 4287994013
-0.2609984875 -0.0715202764 0.5777617693 4287796634
-0.2614369392 -0.0709974021 0.5787323117 4287928220
-0.2614660263 -0.0703622252 0.5787967443 4288849322
-0.2619040906 -0.0698359534 0.5797665119 4289836217
-0.2619327307 -0.0691993535 0.5798298717 4291086797
-0.2619611323 -0.0685625523 0.5798926950 4292205278
-0.2595719993 -0.0956246778 0.5760202408 4289442741
-0.2600170672 -0.0951475427 0.5770078897 4288521639
-0.2600556612 -0.0945204720 0.5770935416 4287731353
-0.2600940168 -0.0938931257 0.5771786571 4286941837
-0.2601321340 -0.0932655036 0.5772632360 4286481286
-0.2601699829 -0.0926376060 0.5773472786 4286547079
-0.2602076232 -0.0920094401 0.5774307251 4286481287
-0.2602449954 -0.0913809910 0.5775136948 4286415494
-0.2602821290 -0.0907522812 0.5775960684 4286547080
-0.2607257664 -0.0902641192 0.5785805583 4286020736
-0.2607624531 -0.0896338895 0.5786619782 4285691260
-0.2607989013 -0.0890033916 0.5787428617 4286414983
-0.2604281902 -0.0882347673 0.5779201984 4287533464
-0.2604641020 -0.0876047313 0.5779998899 4288191394
-0.2604997456 -0.0869744346 0.5780789852 4288980912
-0.2605351508 -0.0863438845 0.5781575441 4289507256
-0.2605702877 -0.0857130736 0.5782355666 4288915117
-0.2601980269 -0.0849490687 0.5774094462 4287467671
-0.2602326274 -0.0843187347 0.5774862170 4285954432
-0.2598596811 -0.0835571885 0.5766586065 4285296502
-0.2598937154 -0.0829273462 0.5767341852 4285888639
-0.2595201135 -0.0821682587 0.5759050846 4287401878
-0.2595536113 -0.0815389156 0.5759794712 4288520359
-0.2595868707 -0.0809093267 0.5760532618 4288651945
-0.2596198916 -0.0802794918 0.5761264563 4288783529
-0.2596526444 -0.0796494260 0.5761991739 4288915115
-0.2592774630 -0.0788950697 0.5753666162 4289507252
-0.2593096793 -0.0782655105 0.5754380822 4290296768
-0.2597493827 -0.0777577907 0.5764138699 4291217870
-0.2601889670 -0.0772478655 0.5773893595 4291678421
-0.2598126531 -0.0764955431 0.5765542388 4291481042
-0.2598438859 -0.0758640766 0.5766236186 4291415249
-0.2598749101 -0.0752323791 0.5766924024 4291086284
-0.2599056363 -0.0746004581 0.5767606497 4291020491
-0.2595280707 -0.0738521963 0.5759227872 4290559940
-0.2595582604 -0.0732208192 0.5759897828 4290033596
-0.2595882118 -0.0725892261 0.5760562420 4289704631
-0.2592096925 -0.0718442723 0.5752162337 4289375666
-0.2596473396 -0.0713253915 0.5761874318 4288980908
-0.2596765161 -0.0706931502 0.5762521625 4288717736
-0.2601138055 -0.0701708570 0.5772225261 4288322978
-0.2601425052 -0.0695371926 0.5772863030 4287928220
-0.2601709962 -0.0689033270 0.5773494244 4287928220
-0.2601991892 -0.0682692528 0.5774120688 4288454564
-0.2602271438 -0.0676349774 0.5774741173 4289309873
-0.2602548599 -0.0670004934 0.5775355697 4290165182
-0.2602823079 -0.0663658082 0.5775964856 4291217870
-0.2599008381 -0.0656277314 0.5767499804 4292138972
-0.2587473989 -0.0936377868 0.5756090283 4289705913
-0.2587853372 -0.0930118859 0.5756934285 4288719019
-0.2588230371 -0.0923857018 0.5757772923 4288061089
-0.2592662275 -0.0919030756 0.5767632723 4287599768
-0.2593035102 -0.0912753716 0.5768461823 4287205010
-0.2593405247 -0.0906473994 0.5769285560 4286744461
-0.2593773007 -0.0900191516 0.5770103931 4286547082
-0.2598198056 -0.0895305350 0.5779947639 4286086531
-0.2594501376 -0.0887618661 0.5771723986 4286020738
-0.2594861984 -0.0881328359 0.5772525668 4285691519
-0.2595219910 -0.0875035301 0.5773321986 4285428347
-0.2595575452 -0.0868739784 0.5774112940 4286546571
-0.2595928311 -0.0862441584 0.5774898529 4287862431
-0.2596279085 -0.0856140852 0.5775678158 4288849326
-0.2592563629 -0.0848507658 0.5767412782 4289441463
-0.2588844597 -0.0840891674 0.5759139061 4289375670
-0.2589186430 -0.0834603086 0.5759900212 4288257189
-0.2585460842 -0.0827011690 0.5751612186 4286941327
-0.2585797608 -0.0820728093 0.5752360821 4286086018
-0.2586131692 -0.0814442039 0.5753104091 4286349190
-0.2586463094 -0.0808153525 0.5753841996 4287138706
-0.2586792409 -0.0801862627 0.5754573941 4287599257
-0.2587119043 -0.0795569345 0.5755300522 4287928222
-0.2587442994 -0.0789273605 0.5756021738 4288520359
-0.2583695948 -0.0781744495 0.5747685432 4288520359
-0.2592153251 -0.0777896419 0.5766499639 4288783529
-0.2592470348 -0.0771583840 0.5767205358 4289638838
-0.2592784762 -0.0765268877 0.5767905116 4290559940
-0.2589026093 -0.0757760257 0.5759543777 4291283663
-0.2589335442 -0.0751450658 0.5760231018 4291875286
-0.2589641809 -0.0745138898 0.5760913491 4292072665
-0.2585873902 -0.0737663135 0.5752530694 4292072665
-0.2586174905 -0.0731356815 0.5753200650 4291677907
-0.2586473525 -0.0725048333 0.5753864646 4291217356
-0.2586769462 -0.0718737617 0.5754523277 4290954184
-0.2591137290 -0.0713546723 0.5764239430 4290625219
-0.2591428757 -0.0707221776 0.5764887929 4290098875
-0.2591717541 -0.0700894669 0.5765531063 4289441459
-0.2592003942 -0.0694565549 0.5766168237 4289046701
-0.2592287958 -0.0688234270 0.5766799450 4288849322
-0.2592569292 -0.0681900978 0.5767425299 4288717736
-0.2592847943 -0.0675565600 0.5768045783 4288454564
-0.2593124211 -0.0669228137 0.5768660307 4288125599
-0.2585242689 -0.0660804138 0.5751126409 4288322978
-0.2585512996 -0.0654482692 0.5751727819 4288717736
-0.2581702173 -0.0647136867 0.5743250847 4289375668
-0.2594203651 -0.0643858537 0.5771061778 4290165184
-0.2582229376 -0.0634504035 0.5744423270 4291283663
-0.2594728172 -0.0631161928 0.5772228241 4292270558
-0.2579209805 -0.0916526690 0.5751917362 4290298051
-0.2579580843 -0.0910266861 0.5752745271 4289508535
-0.2579949498 -0.0904004350 0.5753567219 4288915630
-0.2584366500 -0.0899148434 0.5763417482 4288060321
-0.2584730685 -0.0892870724 0.5764229894 4287270805
-0.2585092485 -0.0886590406 0.5765036941 4286876047
-0.2581399679 -0.0878927633 0.5756801367 4286349449
-0.2581756115 -0.0872651860 0.5757596493 4285888898
-0.2586163580 -0.0867733583 0.5767425299 4285888898
-0.2586515546 -0.0861442834 0.5768210292 4285625726
-0.2582810521 -0.0853809118 0.5759947896 4285559676
-0.2583157122 -0.0847523138 0.5760720968 4286480778
-0.2579445541 -0.0839914009 0.5752443671 4287665052
-0.2579786479 -0.0833632797 0.5753204226 4288586154
-0.2576068342 -0.0826048329 0.5744912028 4288980912
-0.2576403916 -0.0819772109 0.5745660663 4288651947
-0.2576737106 -0.0813493431 0.5746403337 4287467671
-0.2577067912 -0.0807212368 0.5747141242 4286086018
-0.2577396035 -0.0800928846 0.5747873187 4285099123
-0.2577721775 -0.0794642940 0.5748599172 4284967537
-0.2578044832 -0.0788354725 0.5749319792 4286020225
-0.2578365803 -0.0782064050 0.5750035048 4287599257
-0.2578683794 -0.0775771141 0.5750744939 4288586152
-0.2583061159 -0.0770687610 0.5760506392 4288783531
-0.2583374679 -0.0764380097 0.5761206150 4288915117
-0.2579623759 -0.0756878406 0.5752840638 4289244082
-0.2579931915 -0.0750576258 0.5753528476 4290493379
-0.2580237687 -0.0744271874 0.5754209757 4291282895
-0.2580540776 -0.0737965256 0.5754886270 4292203997
-0.2576777339 -0.0730504170 0.5746493340 4292269790
-0.2577075064 -0.0724203065 0.5747157335 4291809239
-0.2577370107 -0.0717899799 0.5747815371 4291677653
-0.2577663064 -0.0711594373 0.5748468041 4291546067
-0.2582019269 -0.0706399232 0.5758183599 4291085516
-0.2582307458 -0.0700079650 0.5758826137 4290625219
-0.2582592964 -0.0693757832 0.5759462714 4290362047
-0.2578808665 -0.0686351433 0.5751023293 4290033082
-0.2579088807 -0.0680035502 0.5751647949 4289572531
-0.2579366267 -0.0673717558 0.5752266645 4289243566
-0.2579641342 -0.0667397529 0.5752879977 4289046187
-0.2579913735 -0.0661075488 0.5753487945 4288848808
-0.2572044432 -0.0652685985 0.5735938549 4288454050
-0.2572311163 -0.0646379963 0.5736532807 4288059808
-0.2576645613 -0.0641084686 0.5746199489 4288125601
-0.2580978572 -0.0635767579 0.5755861998 4288388773
-0.2564952970 -0.0625464544 0.5720123053 4288849324
-0.2565208375 -0.0619170777 0.5720693469 4289638838
-0.2585822344 -0.0617739223 0.5766664743 4290625733
-0.2565712035 -0.0606577657 0.5721816421 4291546835
-0.2570033073 -0.0601231158 0.5731452703 4292204765
-0.2570927441 -0.0896693841 0.5747684240 4290626248
-0.2571290433 -0.0890433416 0.5748494864 4289639867
-0.2567607164 -0.0882780105 0.5740260482 4288784558
-0.2567964494 -0.0876524150 0.5741059780 4288126630
-0.2568319142 -0.0870265663 0.5741852522 4287337114
-0.2572716773 -0.0865365267 0.5751684308 4286678414
-0.2573067248 -0.0859091729 0.5752467513 4286086277
-0.2569369078 -0.0851474777 0.5744199753 4285625726
-0.2569714189 -0.0845206082 0.5744971633 4285230968
-0.2570056617 -0.0838934854 0.5745737553 4285691262
-0.2566348910 -0.0831349790 0.5737448335 4286480778
-0.2566686273 -0.0825083479 0.5738201737 4287270294
-0.2567020953 -0.0818814635 0.5738949776 4288520361
-0.2567352951 -0.0812543407 0.5739692450 4289309877
-0.2567682862 -0.0806269720 0.5740429759 4289046705
-0.2568010092 -0.0799993649 0.5741161704 4287665052
-0.2568334937 -0.0793715194 0.5741887689 4286349192
-0.2572708726 -0.0788676366 0.5751665831 4285033330
-0.2573028803 -0.0782383233 0.5752382278 4284835951
-0.2573346794 -0.0776087791 0.5753092766 4285428088
-0.2573662102 -0.0769790038 0.5753797293 4286414983
-0.2573975027 -0.0763489902 0.5754497051 4287664280
-0.2570231259 -0.0755995139 0.5746127367 4288453796
-0.2570538819 -0.0749700442 0.5746814609 4288716970
-0.2570843697 -0.0743403435 0.5747496486 4289045935
-0.2571145892 -0.0737104267 0.5748172402 4289901244
-0.2571446002 -0.0730802864 0.5748842955 4291019725
-0.2567686737 -0.0723356530 0.5740438700 4291875032
-0.2567981184 -0.0717060715 0.5741097331 4292269790
-0.2572330534 -0.0711885542 0.5750820637 4292072411
-0.2572620213 -0.0705575496 0.5751468539 4291743446
-0.2572907507 -0.0699263290 0.5752110481 4291348688
-0.2573192418 -0.0692948923 0.5752747655 4291085516
-0.2569415569 -0.0685549527 0.5744303465 4290822344
-0.2565635443 -0.0678168014 0.5735852718 4290559172
-0.2565911710 -0.0671867430 0.5736470222 4290427586
-0.2566185594 -0.0665564761 0.5737082362 4290361793
-0.2566456795 -0.0659260154 0.5737689137 4289703863
-0.2558602989 -0.0650887266 0.5720130801 4288782761
-0.2558868527 -0.0644598678 0.5720723867 4288388773
-0.2555069327 -0.0637294874 0.5712230206 4288257187
-0.2551266551 -0.0630009174 0.5703729391 4288191394
-0.2559649646 -0.0625721216 0.5722470284 4288322980
-0.2551778257 -0.0617458448 0.5704872608 4288388771
-0.2552030087 -0.0611180291 0.5705435872 4288520357
-0.2564471960 -0.0607789904 0.5733251572 4288849322
-0.2560655475 -0.0600524805 0.5724719763 4289375666
-0.2552770972 -0.0592334718 0.5707092285 4290099389
-0.2561143339 -0.0587915629 0.5725809932 4290625733
-0.2565449178 -0.0582531542 0.5735436082 4291283663
-0.2537224591 -0.0569820292 0.5672336221 4291941593
-0.2565922439 -0.0569891706 0.5736494064 4292533730
-0.2557515800 -0.0894236490 0.5731933117 4292468966
-0.2557877004 -0.0887993276 0.5732741952 4292205794
-0.2554200590 -0.0880356729 0.5724502802 4291745243
-0.2558591962 -0.0875499025 0.5734344721 4290758348
-0.2558945715 -0.0869247913 0.5735137463 4290034625
-0.2559297085 -0.0862994269 0.5735925436 4289375927
-0.2559646070 -0.0856738016 0.5736707449 4288454825
-0.2555954754 -0.0849137828 0.5728434324 4287336344
-0.2556298375 -0.0842886418 0.5729204416 4286612621
-0.2556639314 -0.0836632475 0.5729968548 4285757312
-0.2556978166 -0.0830375999 0.5730727315 4285165175
-0.2553274333 -0.0822815150 0.5722426772 4284967796
-0.2553607523 -0.0816563666 0.5723173618 4285230968
-0.2557979226 -0.0811591893 0.5732971430 4286414985
-0.2558307946 -0.0805325657 0.5733708143 4287665052
-0.2558634281 -0.0799057037 0.5734439492 4288849326
-0.2563000619 -0.0794038400 0.5744225979 4289112498
-0.2563322783 -0.0787755102 0.5744947195 4288783531
-0.2563641965 -0.0781469420 0.5745663047 4287730843
-0.2563959062 -0.0775181428 0.5746373534 4285953662
-0.2564273477 -0.0768891051 0.5747078061 4284308837
-0.2560540438 -0.0761395544 0.5738711357 4284572009
-0.2560849488 -0.0755110532 0.5739403963 4285558904
-0.2561155856 -0.0748823285 0.5740091205 4287532183
-0.2561459839 -0.0742533728 0.5740772486 4288716457
-0.2561761439 -0.0736242011 0.5741447806 4289111215
-0.2562060356 -0.0729948059 0.5742118359 4288782250
-0.2558308840 -0.0722508654 0.5733710527 4289045935
-0.2558602393 -0.0716220289 0.5734368563 4290164416
-0.2562942505 -0.0711053014 0.5744095445 4291151311
-0.2563231587 -0.0704750419 0.5744742751 4291611862
-0.2563517988 -0.0698445663 0.5745385289 4291480274
-0.2559751868 -0.0691045374 0.5736944079 4291217102
-0.2560032904 -0.0684746355 0.5737574100 4291151309
-0.2556260228 -0.0677371845 0.5729118586 4291151309
-0.2552484274 -0.0670015216 0.5720655918 4291019723
-0.2552756667 -0.0663729981 0.5721266866 4290888137
-0.2553026974 -0.0657442808 0.5721872449 4290624965
-0.2549241781 -0.0650120080 0.5713388920 4290230207
-0.2549506426 -0.0643838942 0.5713981986 4289375668
-0.2545714676 -0.0636542216 0.5705484152 4289178289
-0.2545973957 -0.0630267188 0.5706065297 4288849322
-0.2542176247 -0.0622996651 0.5697553754 4288520357
-0.2542429864 -0.0616727807 0.5698122382 4288059806
-0.2546736598 -0.0611430742 0.5707774162 4287730841
-0.2546985745 -0.0605148189 0.5708332658 4287928220
-0.2543176115 -0.0597910173 0.5699794888 4288586150
-0.2543419898 -0.0591633990 0.5700340867 4288717736
-0.2543660998 -0.0585356019 0.5700881481 4288980908
-0.2543899715 -0.0579076223 0.5701416135 4289309873
-0.2544135749 -0.0572794713 0.5701945424 4289507252
-0.2544369400 -0.0566511452 0.5702468753 4289704631
-0.2548658848 -0.0561119989 0.5712082386 4290033596
-0.2532652617 -0.0551289357 0.5676209331 4290559940
-0.2549113929 -0.0548524857 0.5713102221 4291086284
-0.2561516166 -0.0544815026 0.5740898252 4291612883
-0.2565798163 -0.0539336577 0.5750495195 4292205020
-0.2541657388 -0.0527933016 0.5696390271 4292797157
-0.2545202672 -0.0873090774 0.5718570948 4292666345
-0.2545554936 -0.0866856948 0.5719362497 4292271587
-0.2545904815 -0.0860620588 0.5720148683 4291613657
-0.2542223334 -0.0853029862 0.5711877346 4290955727
-0.2542567551 -0.0846798271 0.5712651014 4290297029
-0.2542909682 -0.0840564147 0.5713419318 4289310134
-0.2543249130 -0.0834327489 0.5714182258 4288257446
-0.2543586493 -0.0828088373 0.5714939833 4287270551
-0.2543921173 -0.0821846798 0.5715692043 4286152070
-0.2544253170 -0.0815602764 0.5716438293 4285296761
-0.2544583082 -0.0809356272 0.5717179179 4284770417
-0.2544910312 -0.0803107396 0.5717914701 4284441452
-0.2549268901 -0.0798118934 0.5727707744 4285559676
-0.2553626001 -0.0793108270 0.5737497211 4286546571
-0.2553946972 -0.0786832422 0.5738218427 4288125603
-0.2554265559 -0.0780554190 0.5738933682 4288980912
-0.2554581463 -0.0774273574 0.5739644170 4288651947
-0.2554895282 -0.0767990723 0.5740348697 4287796638
-0.2551169693 -0.0760502145 0.5731977820 4286086020
-0.2551477551 -0.0754224584 0.5732670426 4284112230
-0.2551783323 -0.0747944787 0.5733357072 4284177253
-0.2552086413 -0.0741662681 0.5734037757 4285164148
-0.2552387118 -0.0735378414 0.5734713674 4286347909
-0.2552685142 -0.0729091913 0.5735383630 4287400597
-0.2552981079 -0.0722803175 0.5736047626 4288124320
-0.2553274035 -0.0716512278 0.5736706257 4288124320
-0.2553564906 -0.0710219294 0.5737359524 4288387492
-0.2549812198 -0.0702810287 0.5728927851 4289177008
-0.2550097406 -0.0696522966 0.5729568601 4290558661
-0.2550380230 -0.0690233484 0.5730203986 4291019212
-0.2550660372 -0.0683941990 0.5730834007 4291282384
-0.2542852759 -0.0675500557 0.5713291168 4291545556
-0.2543126941 -0.0669224858 0.5713908076 4291742935
-0.2539355457 -0.0661893189 0.5705433488 4291545556
-0.2539624274 -0.0655623451 0.5706037879 4291348177
-0.2531801760 -0.0647283718 0.5688462257 4291282384
-0.2528020144 -0.0640006065 0.5679965615 4290624965
-0.2536370754 -0.0635788441 0.5698727369 4290230207
-0.2532583475 -0.0628516898 0.5690218806 4290098623
-0.2536885142 -0.0623251423 0.5699883699 4289901244
-0.2537138462 -0.0616980083 0.5700452924 4289703865
-0.2529295683 -0.0608758852 0.5682831407 4289506486
-0.2529543340 -0.0602503791 0.5683388114 4289045933
-0.2533836067 -0.0597200915 0.5693033338 4289111726
-0.2530031204 -0.0589988232 0.5684483647 4288651175
-0.2526222765 -0.0582793765 0.5675927401 4288519589
-0.2526459992 -0.0576541536 0.5676460266 4288651175
-0.2522645295 -0.0569373630 0.5667889714 4288651175
-0.2526926696 -0.0564031824 0.5677509308 4288716968
-0.2527156472 -0.0557774417 0.5678024888 4289045933
-0.2531433702 -0.0552399121 0.5687635541 4289440945
-0.2539760172 -0.0547875874 0.5706343055 4289769910
-0.2519728243 -0.0537264459 0.5661334991 4290098875
-0.2540203929 -0.0535289086 0.5707340240 4290230461
-0.2544473708 -0.0529836901 0.5716933608 4290559172
-0.2532533407 -0.0521028452 0.5690105557 4290756551
-0.2540850341 -0.0516396686 0.5708792806 4290559942
-0.2565377057 -0.0514977351 0.5763899684 4290823114
-0.2545321584 -0.0504597351 0.5718839169 4291349456
-0.2561740875 -0.0501457341 0.5755729675 4291612628
-0.2570052743 -0.0496668592 0.5774404407 4292007386
-0.2574309111 -0.0491064787 0.5783967972 4292467937
-0.2529548109 -0.0838239267 0.5697616935 4291942624
-0.2529886365 -0.0832019970 0.5698378682 4291284694
-0.2530221939 -0.0825798213 0.5699134469 4290495178
-0.2530555129 -0.0819573998 0.5699884892 4289573306
-0.2530885935 -0.0813347325 0.5700629950 4288586411
-0.2531214058 -0.0807118192 0.5701369643 4287467930
-0.2535564899 -0.0802159905 0.5711168647 4286481035
-0.2539913952 -0.0797179416 0.5720965266 4285230968
-0.2540236115 -0.0790923312 0.5721690655 4284704624
-0.2540555596 -0.0784664750 0.5722410083 4284704624
-0.2540872693 -0.0778403953 0.5723124743 4285559933
-0.2541187406 -0.0772140697 0.5723833442 4287007381
-0.2541499436 -0.0765875205 0.5724536180 4288323241
-0.2541809082 -0.0759607404 0.5725234151 4288783792
-0.2538087666 -0.0752143413 0.5716851354 4288389034
-0.2538391948 -0.0745880976 0.5717536807 4287137938
-0.2538693845 -0.0739616305 0.5718216896 4285295734
-0.2538993061 -0.0733349398 0.5718891025 4283979874
-0.2539289892 -0.0727080330 0.5719559789 4284308839
-0.2543615401 -0.0721953213 0.5729302168 4285493113
-0.2543907762 -0.0715669766 0.5729960799 4286808973
-0.2544197440 -0.0709384158 0.5730613470 4287664282
-0.2544485033 -0.0703096464 0.5731260777 4287993247
-0.2536703944 -0.0694598034 0.5713734627 4288256419
-0.2536985576 -0.0688326061 0.5714368820 4288782763
-0.2537264526 -0.0682052001 0.5714997053 4289769399
-0.2533506751 -0.0674701482 0.5706533194 4290493122
-0.2529745698 -0.0667368919 0.5698061585 4290822087
-0.2530016303 -0.0661108643 0.5698671341 4291545810
-0.2530284226 -0.0654846430 0.5699275136 4291940568
-0.2526513934 -0.0647547767 0.5690782666 4291545810
-0.2518703938 -0.0639242753 0.5673191547 4291414481
-0.2523000240 -0.0634019002 0.5682868361 4291019723
-0.2523257434 -0.0627769008 0.5683447719 4290953930
-0.2515437007 -0.0619528182 0.5665832758 4290822344
-0.2515688539 -0.0613294318 0.5666399002 4290559942
-0.2524014413 -0.0609007478 0.5685152411 4290494149
-0.2516184151 -0.0600821115 0.5667515397 4290099391
-0.2520467341 -0.0595536120 0.5677163005 4289902012
-0.2520709336 -0.0589284971 0.5677707791 4289309875
-0.2520948648 -0.0583031997 0.5678247213 4289046703
-0.2521185577 -0.0576777235 0.5678780675 4288915117
-0.2521419823 -0.0570520759 0.5679308772 4288520359
-0.2517610788 -0.0563358255 0.5670728683 4288059808
-0.2513798177 -0.0556214079 0.5662141442 4287796636
-0.2514024377 -0.0549972504 0.5662650466 4287533464
-0.2514247894 -0.0543729253 0.5663154125 4287467671
-0.2522554100 -0.0539212562 0.5681863427 4287533464
-0.2522773445 -0.0532945953 0.5682356954 4287730843
-0.2527033389 -0.0527521707 0.5691952705 4288191394
-0.2523204386 -0.0520407818 0.5683327913 4288651945
-0.2527459860 -0.0514960289 0.5692913532 4288783531
-0.2543846369 -0.0511932746 0.5729823112 4288849324
-0.2544054687 -0.0505607910 0.5730292201 4288980908
-0.2552350461 -0.0500869043 0.5748977065 4289244080
-0.2532327771 -0.0490602478 0.5703877807 4288783529
-0.2536573112 -0.0485076867 0.5713440180 4289178287
-0.2556999922 -0.0482584015 0.5759450197 4289375666
-0.2536965311 -0.0472453833 0.5714323521 4289244080
-0.2537157536 -0.0466140136 0.5714756846 4289244080
-0.2537347376 -0.0459825024 0.5715184212 4289507252
-0.2537534535 -0.0453508496 0.5715605617 4290099389
-0.2541766465 -0.0447903797 0.5725138187 4290625733
-0.2541948855 -0.0441574454 0.5725548863 4291283663
-0.2554272711 -0.0437322930 0.5753306746 4292270558
-0.2517216504 -0.0817298591 0.5684060454 4292205280
-0.2517545819 -0.0811089277 0.5684804320 4291744729
-0.2521888316 -0.0806161240 0.5694609880 4290823373
-0.2522213161 -0.0799937174 0.5695343614 4289573306
-0.2526552677 -0.0794974640 0.5705142021 4288586411
-0.2526873052 -0.0788735822 0.5705866218 4287467930
-0.2527191341 -0.0782494769 0.5706584454 4286020486
-0.2527506948 -0.0776251256 0.5707297325 4284836212
-0.2527820170 -0.0770005435 0.5708004832 4284507247
-0.2528131008 -0.0763757378 0.5708706379 4285165177
-0.2528439462 -0.0757506937 0.5709402561 4286546830
-0.2528745234 -0.0751254261 0.5710093379 4287599518
-0.2529048622 -0.0744999275 0.5710778236 4289244084
-0.2529349625 -0.0738742128 0.5711457729 4289112498
-0.2529647946 -0.0732482672 0.5712131858 4287994017
-0.2529943883 -0.0726221055 0.5712800026 4286086020
-0.2534260154 -0.0721101910 0.5722546577 4284178023
-0.2534551620 -0.0714825913 0.5723204613 4283454300
-0.2530817091 -0.0707423165 0.5714771748 4284637804
-0.2531103194 -0.0701152906 0.5715417862 4286216836
-0.2531386912 -0.0694880486 0.5716058016 4287664280
-0.2527643144 -0.0687511265 0.5707604289 4287993245
-0.2527921200 -0.0681244656 0.5708232522 4288256417
-0.2524171174 -0.0673901215 0.5699764490 4288256417
-0.2524443865 -0.0667640492 0.5700380802 4288716711
-0.2520687580 -0.0660322979 0.5691898465 4289506227
-0.2516927719 -0.0653023347 0.5683408976 4290361536
-0.2521219850 -0.0647811517 0.5693100095 4291019466
-0.2513426244 -0.0639503151 0.5675501823 4291348688
-0.2513685226 -0.0633262470 0.5676087141 4291085516
-0.2513941824 -0.0627019927 0.5676666498 4291019723
-0.2510166764 -0.0619780682 0.5668141842 4290953930
-0.2506388426 -0.0612559542 0.5659610033 4290756551
-0.2506636679 -0.0606331341 0.5660170913 4290756551
-0.2510913014 -0.0601066127 0.5669826865 4290559942
-0.2511156797 -0.0594824292 0.5670377016 4290230977
-0.2511397898 -0.0588580631 0.5670921803 4289704633
-0.2511636615 -0.0582335182 0.5671460629 4289507254
-0.2511872947 -0.0576087944 0.5671994090 4289441461
-0.2504042089 -0.0568009615 0.5654311776 4289178289
-0.2504272461 -0.0561778992 0.5654832125 4288915117
-0.2504500449 -0.0555546619 0.5655346513 4288717738
-0.2504725754 -0.0549312569 0.5655855536 4288388773
-0.2504948676 -0.0543076843 0.5656359196 4288191394
-0.2513237298 -0.0538568422 0.5675075650 4287862429
-0.2513456047 -0.0532309301 0.5675569177 4287467671
-0.2509637475 -0.0525204167 0.5666946173 4287072915
-0.2505815625 -0.0518117584 0.5658316016 4286809743
-0.2526203096 -0.0515995100 0.5704353452 4286612364
-0.2498162091 -0.0503999926 0.5641034245 4286349192
-0.2526619732 -0.0503402203 0.5705294013 4286414983
-0.2502605617 -0.0492338873 0.5651068091 4286678155
-0.2518952489 -0.0489235111 0.5687980652 4286941327
-0.2519151270 -0.0482953452 0.5688429475 4287336085
-0.2519347668 -0.0476670340 0.5688872933 4287401878
-0.2507427931 -0.0468124263 0.5661957860 4287072913
-0.2523770332 -0.0464843474 0.5698859692 4286480776
-0.2523959279 -0.0458545946 0.5699286461 4285691260
-0.2524145544 -0.0452247001 0.5699707270 4285230707
-0.2524329424 -0.0445946716 0.5700122118 4284770156
-0.2544706762 -0.0443162173 0.5746135712 4285625465
-0.2528728843 -0.0434035324 0.5710056424 4287467669
-0.2536984980 -0.0429087430 0.5728698969 4291020491
-0.2512896955 -0.0798986331 0.5688573718 4292600038
-0.2517226934 -0.0794031695 0.5698375702 4292205026
-0.2517546415 -0.0787800401 0.5699099302 4291349717
-0.2517863810 -0.0781566799 0.5699816942 4290297029
-0.2518178523 -0.0775330812 0.5700529814 4289046962
-0.2518490851 -0.0769092515 0.5701236725 4287731104
-0.2518800795 -0.0762851834 0.5701938272 4286546830
-0.2519108057 -0.0756608918 0.5702634454 4285625728
-0.2519413233 -0.0750363693 0.5703324676 4285033591
-0.2515703440 -0.0742931366 0.5694926381 4285756801
-0.2516002953 -0.0736691654 0.5695604682 4287467419
-0.2516300082 -0.0730449632 0.5696277618 4288915119
-0.2524622083 -0.0726515576 0.5715116858 4289244084
-0.2524915338 -0.0720249265 0.5715780258 4288520361
-0.2525205910 -0.0713980794 0.5716438293 4286809743
-0.2521479130 -0.0706585050 0.5708001256 4284967539
-0.2521764338 -0.0700322315 0.5708647370 4284046437
-0.2522047162 -0.0694057420 0.5709287524 4284703595
-0.2522327602 -0.0687790364 0.5709921718 4285624697
-0.2514571548 -0.0679350868 0.5692364573 4286743178
-0.2514846027 -0.0673099682 0.5692985654 4287401108
-0.2515118122 -0.0666846484 0.5693601370 4287729814
-0.2507351041 -0.0658480749 0.5676019192 4287664021
-0.2511636019 -0.0653288811 0.5685718656 4287795607
-0.2511900067 -0.0647039562 0.5686316490 4288716709
-0.2504122853 -0.0638737902 0.5668711066 4289572531
-0.2504380941 -0.0632504821 0.5669295788 4290098875
-0.2500616610 -0.0625264496 0.5660774112 4290690758
-0.2496848851 -0.0618042387 0.5652244687 4291019723
-0.2497098893 -0.0611823611 0.5652810931 4291085516
-0.2501367927 -0.0606578179 0.5662474632 4290953930
-0.2497591525 -0.0599380471 0.5653926134 4290690758
-0.2497834265 -0.0593156181 0.5654475093 4290230207
-0.2502096891 -0.0587875210 0.5664125085 4290033598
-0.2502335012 -0.0581637286 0.5664663911 4289770426
-0.2502570450 -0.0575397573 0.5665197372 4289573047
-0.2502803504 -0.0569156148 0.5665724874 4289309875
-0.2503034174 -0.0562912971 0.5666246414 4289112496
-0.2503262162 -0.0556668043 0.5666762590 4288980910
-0.2499462813 -0.0549536534 0.5658161640 4288717738
-0.2499685436 -0.0543298312 0.5658665895 4288586152
-0.2499905527 -0.0537058413 0.5659164190 4288651945
-0.2496097237 -0.0529962108 0.5650542974 4288257187
-0.2504364550 -0.0525418483 0.5669258833 4287796638
-0.2504577637 -0.0519163683 0.5669740438 4287533466
-0.2500761151 -0.0512082689 0.5661101341 4287401878
-0.2509023249 -0.0507463887 0.5679804683 4287138706
-0.2509229183 -0.0501194298 0.5680270791 4287007120
-0.2509432435 -0.0494923182 0.5680730343 4287007120
-0.2497548163 -0.0486297533 0.5653827786 4286743948
-0.2497745454 -0.0480053611 0.5654274225 4286809741
-0.2497940063 -0.0473808236 0.5654714704 4286678155
-0.2502161562 -0.0468315557 0.5664271116 4287072913
-0.2514440119 -0.0464289375 0.5692067146 4287467669
-0.2506568730 -0.0456531458 0.5674248338 4287072911
-0.2506754100 -0.0450260229 0.5674667358 4286151809
-0.2510967255 -0.0444701426 0.5684204698 4284967535
-0.2515178323 -0.0439121090 0.5693737864 4283849056
-0.2519387603 -0.0433519222 0.5703266263 4283914849
-0.2523594797 -0.0427895859 0.5712790489 4286612360
-0.2539894581 -0.0424271300 0.5749689341 4290954698
-0.2504859269 -0.0773173869 0.5684670806 4292665831
-0.2505170107 -0.0766952932 0.5685376525 4291810268
-0.2505478561 -0.0760729760 0.5686076880 4290757580
-0.2505784631 -0.0754504278 0.5686771274 4289375927
-0.2506088316 -0.0748276487 0.5687460303 4288060067
-0.2506389320 -0.0742046535 0.5688143969 4286743696
-0.2506688237 -0.0735814273 0.5688821673 4285822594
-0.2506984472 -0.0729579777 0.5689494014 4285691008
-0.2511283457 -0.0724498630 0.5699250698 4286809489
-0.2511575222 -0.0718249828 0.5699912906 4288191396
-0.2511864603 -0.0711998791 0.5700569749 4288980912
-0.2512151599 -0.0705745667 0.5701220632 4288519591
-0.2508428991 -0.0698374808 0.5692772269 4287203731
-0.2508710623 -0.0692127347 0.5693411231 4285361525
-0.2508989573 -0.0685877874 0.5694044232 4284243044
-0.2509266138 -0.0679626316 0.5694672465 4284177251
-0.2505531311 -0.0672296956 0.5686196089 4284900974
-0.2501793206 -0.0664985627 0.5677713156 4286019198
-0.2506071329 -0.0659803599 0.5687421560 4287006093
-0.2502327561 -0.0652508214 0.5678924918 4287532437
-0.2502590716 -0.0646266490 0.5679522753 4287664023
-0.2498840690 -0.0638997182 0.5671011806 4287071884
-0.2499098629 -0.0632761642 0.5671597719 4287927193
-0.2495342344 -0.0625518486 0.5663073063 4288782502
-0.2491582781 -0.0618293434 0.5654540658 4289506225
-0.2487819791 -0.0611086525 0.5646001101 4289967289
-0.2488066703 -0.0604873449 0.5646561384 4290230461
-0.2488311082 -0.0598658510 0.5647115707 4290361793
-0.2484539151 -0.0591486208 0.5638555288 4290296000
-0.2492806613 -0.0587168708 0.5657318234 4290032828
-0.2493043989 -0.0580938309 0.5657856464 4289769656
-0.2493278831 -0.0574706160 0.5658389926 4289638070
-0.2493511140 -0.0568472259 0.5658916831 4289374898
-0.2493741065 -0.0562236644 0.5659438372 4289178289
-0.2489952296 -0.0555103943 0.5650840402 4289046703
-0.2490176857 -0.0548874959 0.5651350021 4288783531
-0.2490398884 -0.0542644262 0.5651853681 4288651945
-0.2490618378 -0.0536411926 0.5652351975 4288257187
-0.2482800484 -0.0528467707 0.5634609461 4288059808
-0.2495067716 -0.0524787419 0.5662449598 4287796636
-0.2491261959 -0.0517705157 0.5653812289 4287533464
-0.2491471469 -0.0511466376 0.5654287934 4287401878
-0.2491678447 -0.0505226031 0.5654757619 4287270292
-0.2491882890 -0.0498984158 0.5655221939 4287138706
-0.2492084950 -0.0492740721 0.5655680299 4286941327
-0.2492284477 -0.0486495793 0.5656132698 4286677385
-0.2492481321 -0.0480249375 0.5656579733 4286743178
-0.2492675781 -0.0474001504 0.5657021403 4286480260
-0.2500909269 -0.0469261035 0.5675706863 4286677639
-0.2501099408 -0.0462990105 0.5676137805 4287072397
-0.2501286864 -0.0456717722 0.5676563382 4287532948
-0.2501471639 -0.0450443961 0.5676982999 4287861913
-0.2505676150 -0.0444882922 0.5686525106 4287598741
-0.2509878576 -0.0439300351 0.5696062446 4286020225
-0.2506034076 -0.0432308391 0.5687336922 4284046435
-0.2526323199 -0.0429438204 0.5733382702 4283980642
-0.2514427900 -0.0421075970 0.5706386566 4286678155
-0.2522644997 -0.0416091159 0.5725035071 4290165182
-0.2526837289 -0.0410411134 0.5734549165 4292796902
-0.2492790818 -0.0746186972 0.5671578050 4292007899
-0.2493090630 -0.0739974454 0.5672260523 4291086034
-0.2493388057 -0.0733759627 0.5672937036 4289572795
-0.2497679293 -0.0728708580 0.5682700276 4287928224
-0.2497972250 -0.0722479448 0.5683366656 4286809743
-0.2498262823 -0.0716248080 0.5684027672 4286151813
-0.2498550862 -0.0710014626 0.5684683323 4286349192
-0.2498836368 -0.0703778937 0.5685333014 4287466903
-0.2499119639 -0.0697541162 0.5685977340 4288388005
-0.2495401204 -0.0690195188 0.5677517056 4288388003
-0.2495679110 -0.0683963224 0.5678149462 4287466901
-0.2495954335 -0.0677729174 0.5678775907 4286085248
-0.2496227324 -0.0671493039 0.5679396391 4284703595
-0.2500498593 -0.0666320994 0.5689114332 4284045665
-0.2496765554 -0.0659014732 0.5680621266 4284440423
-0.2493029386 -0.0651726425 0.5672121048 4285427061
-0.2489289939 -0.0644456148 0.5663613081 4286150784
-0.2489549667 -0.0638230070 0.5664203763 4287203472
-0.2489806861 -0.0632001981 0.5664789081 4287269265
-0.2486058325 -0.0624765977 0.5656260252 4287137677
-0.2486310154 -0.0618544146 0.5656833649 4287071884
-0.2482555509 -0.0611334369 0.5648290515 4287598228
-0.2482801974 -0.0605118833 0.5648851395 4288256158
-0.2479041219 -0.0597935431 0.5640295148 4288848554
-0.2483287752 -0.0592682175 0.5649956465 4289374898
-0.2483526766 -0.0586461127 0.5650500655 4289506484
-0.2487769574 -0.0581174158 0.5660153627 4289374898
-0.2483997643 -0.0574013703 0.5651571751 4289375152
-0.2484229207 -0.0567787364 0.5652098656 4289243566
-0.2484458536 -0.0561559275 0.5652620196 4289243312
-0.2484685183 -0.0555329472 0.5653136373 4289111726
-0.2480901480 -0.0548212342 0.5644527674 4288716968
-0.2481122911 -0.0541989207 0.5645031333 4288453796
-0.2481341660 -0.0535764433 0.5645529032 4288388003
-0.2481558174 -0.0529538020 0.5646021366 4288190624
-0.2485781312 -0.0524155423 0.5655630231 4287861659
-0.2485993057 -0.0517915711 0.5656111836 4287664280
-0.2482192367 -0.0510849170 0.5647464395 4287598487
-0.2486409098 -0.0505431592 0.5657058358 4287598487
-0.2482602596 -0.0498382039 0.5648397803 4287598487
-0.2486815006 -0.0492941253 0.5657982230 4287532694
-0.2487014234 -0.0486693829 0.5658435225 4287269522
-0.2487210929 -0.0480444916 0.5658882856 4287269522
-0.2487405092 -0.0474194512 0.5659324527 4286809225
-0.2495621294 -0.0469452143 0.5678018332 4286348674
-0.2495811135 -0.0463178679 0.5678449869 4286282881
-0.2495998293 -0.0456903800 0.5678876042 4287006604
-0.2496183068 -0.0450627506 0.5679296255 4288256671
-0.2500378788 -0.0445064195 0.5688841939 4288914601
-0.2500558794 -0.0438775085 0.5689251423 4288059808
-0.2500736117 -0.0432484597 0.5689654946 4286546569
-0.2508939505 -0.0427560993 0.5708319545 4284572779
-0.2513127029 -0.0421921648 0.5717846751 4283914849
-0.2517312467 -0.0416260809 0.5727369785 4286020223
-0.2521496117 -0.0410578512 0.5736888051 4290099389
-0.2484396845 -0.0726669654 0.5666800141 4292270562
-0.2484688461 -0.0720458031 0.5667465329 4291086288
-0.2484977692 -0.0714244172 0.5668125153 4289638842
-0.2485264540 -0.0708028227 0.5668779016 4287796638
-0.2485548854 -0.0701810047 0.5669427514 4286480776
-0.2485830635 -0.0695589781 0.5670070648 4286151811
-0.2486110181 -0.0689367428 0.5670707822 4286349190
-0.2486387044 -0.0683142990 0.5671339631 4287599257
-0.2486661673 -0.0676916465 0.5671966076 4288256417
-0.2486933768 -0.0670687854 0.5672586560 4287795866
-0.2487203330 -0.0664457232 0.5673201680 4286677385
-0.2491463274 -0.0659281164 0.5682918429 4285164146
-0.2487735152 -0.0651989952 0.5674414635 4284177251
-0.2487997413 -0.0645753369 0.5675013065 4284045665
-0.2480269223 -0.0637461767 0.5657384992 4284506216
-0.2480525672 -0.0631241277 0.5657970309 4285361525
-0.2476784885 -0.0624012351 0.5649437308 4286414467
-0.2481031269 -0.0618794523 0.5659123063 4286809225
-0.2477284670 -0.0611581914 0.5650577545 4286677639
-0.2477530986 -0.0605363883 0.5651139021 4286546053
-0.2477774620 -0.0599143989 0.5651695132 4286677385
-0.2474019229 -0.0591965951 0.5643129349 4287269522
-0.2478254735 -0.0586698763 0.5652790070 4287993245
-0.2478491068 -0.0580473468 0.5653329492 4288059038
-0.2478725016 -0.0574246384 0.5653862953 4288256671
-0.2478956282 -0.0568017550 0.5654390454 4288388257
-0.2475186586 -0.0560880862 0.5645791888 4288651429
-0.2475412488 -0.0554658659 0.5646307468 4288717222
-0.2475636154 -0.0548434705 0.5646817088 4288322210
-0.2471857369 -0.0541333184 0.5638198256 4288190624
-0.2472075671 -0.0535115972 0.5638695955 4288059040
-0.2472291440 -0.0528897122 0.5639188290 4287795868
-0.2476505488 -0.0523522422 0.5648800135 4287598487
-0.2476716638 -0.0517290309 0.5649281740 4287466901
-0.2480926812 -0.0511882231 0.5658885241 4287269522
-0.2473129630 -0.0504005775 0.5641099811 4286940557
-0.2477335036 -0.0498584509 0.5650692582 4286677385
-0.2477536201 -0.0492346138 0.5651150942 4286677385
-0.2481737584 -0.0486891605 0.5660734773 4286940557
-0.2481934130 -0.0480640158 0.5661182404 4287072143
-0.2486131489 -0.0475152396 0.5670756698 4287401362
-0.2486323118 -0.0468887910 0.5671194196 4288059292
-0.2490516454 -0.0463366993 0.5680758357 4288980394
-0.2490703464 -0.0457089581 0.5681185126 4290033082
-0.2490887940 -0.0450810753 0.5681605935 4290494149
-0.2495074868 -0.0445245244 0.5691156387 4290559942
-0.2499259859 -0.0439658165 0.5700702071 4288717736
-0.2495431751 -0.0432660580 0.5691969991 4287401876
-0.2503618002 -0.0427734964 0.5710642934 4286743948
-0.2503790557 -0.0421419106 0.5711036325 4287401878
-0.2515979707 -0.0417094417 0.5738839507 4288257185
-0.2508134842 -0.0409437530 0.5720945597 4289770424
-0.2472005635 -0.0706039593 0.5652857423 4292336353
-0.2472288758 -0.0699838996 0.5653504729 4290888907
-0.2472569346 -0.0693636239 0.5654146075 4289244082
-0.2472847551 -0.0687431395 0.5654782057 4287533464
-0.2477105707 -0.0682321489 0.5664519668 4286480776
-0.2473396510 -0.0675015524 0.5656037927 4285888639
-0.2473667413 -0.0668804497 0.5656657219 4286612362
-0.2477919608 -0.0663658381 0.5666381121 4287533464
-0.2478185892 -0.0657433271 0.5666990280 4287665050
-0.2474465221 -0.0650159270 0.5658481717 4286941327
-0.2474726290 -0.0643940195 0.5659078360 4285691260
-0.2470999360 -0.0636692271 0.5650556087 4284506216
-0.2471255064 -0.0630479306 0.5651140809 4284045665
-0.2471508384 -0.0624264479 0.5651720166 4284309091
-0.2471759170 -0.0618047751 0.5652293563 4284835435
-0.2468020469 -0.0610842295 0.5643743873 4285624951
-0.2468265891 -0.0604631826 0.5644305348 4286282881
-0.2468508929 -0.0598419495 0.5644861460 4286282627
-0.2472737879 -0.0593162067 0.5654531717 4286414213
-0.2472976297 -0.0586936101 0.5655077100 4286282627
-0.2473212332 -0.0580708310 0.5655616522 4286414213
-0.2473445833 -0.0574478768 0.5656150579 4286611846
-0.2469687164 -0.0567330904 0.5647555590 4286940811
-0.2469915301 -0.0561107919 0.5648077130 4287401362
-0.2470141053 -0.0554883219 0.5648593307 4287598741
-0.2466373444 -0.0547770448 0.5639978051 4287335569
-0.2462602705 -0.0540676117 0.5631355047 4287203983
-0.2466811836 -0.0535332747 0.5640980005 4287335317
-0.2471019328 -0.0529967584 0.5650601387 4287006352
-0.2471232563 -0.0523734577 0.5651089549 4286940559
-0.2471443415 -0.0517499968 0.5651571751 4287466903
-0.2467658818 -0.0510437824 0.5642917156 4288059038
-0.2467864305 -0.0504210144 0.5643386841 4288388003
-0.2468067408 -0.0497980900 0.5643851161 4288783533
-0.2476255894 -0.0493341535 0.5662576556 4289638842
-0.2480448782 -0.0487874709 0.5672164559 4289902014
-0.2480645329 -0.0481610708 0.5672613978 4290230979
-0.2480839342 -0.0475345179 0.5673057437 4290757321
-0.2481030822 -0.0469078235 0.5673495531 4290954700
-0.2481219769 -0.0462809801 0.5673927665 4291020491
-0.2481406331 -0.0456539989 0.5674353838 4291020491
-0.2485586405 -0.0450993814 0.5683912635 4290757321
-0.2485768050 -0.0444711074 0.5684328675 4290494149
-0.2493940592 -0.0439836718 0.5703017116 4290230975
-0.2494117916 -0.0433531068 0.5703422427 4290691526
-0.2494292557 -0.0427224077 0.5703821778 4290757321
-0.2498462349 -0.0421590321 0.5713356733 4290099391
-0.2506627738 -0.0416599475 0.5732029676 4289178287
-0.2502797544 -0.0409603938 0.5723270774 4290165182
-0.2459612638 -0.0685493201 0.5638839006 4291941593
-0.2463860959 -0.0680401325 0.5648579001 4290559940
-0.2464133501 -0.0674199834 0.5649203658 4288849322
-0.2464403510 -0.0667996407 0.5649822354 4287336083
-0.2464671135 -0.0661790892 0.5650436282 4286349190
-0.2464936376 -0.0655583367 0.5651044250 4286217604
-0.2465199083 -0.0649373904 0.5651646256 4287072913
-0.2465459406 -0.0643162429 0.5652242899 4287928222
-0.2461740226 -0.0635921583 0.5643716455 4287336083
-0.2461995184 -0.0629716292 0.5644301176 4286151809
-0.2462247759 -0.0623508990 0.5644879937 4284901742
-0.2462497801 -0.0617299788 0.5645453334 4283849054
-0.2462745458 -0.0611088760 0.5646021366 4283191126
-0.2455032617 -0.0602921471 0.5628339052 4283322712
-0.2455274463 -0.0596726760 0.5628893971 4284441193
-0.2459493726 -0.0591487363 0.5638566613 4285428088
-0.2463711351 -0.0586226024 0.5648235679 4286480006
-0.2459966093 -0.0579068847 0.5639649630 4286282627
-0.2464179546 -0.0573783852 0.5649309158 4285624697
-0.2464409918 -0.0567560121 0.5649837255 4284966767
-0.2460656166 -0.0560427830 0.5641231537 4285361525
-0.2460881174 -0.0554210730 0.5641747713 4286348420
-0.2461103797 -0.0547991879 0.5642257929 4286743180
-0.2461324036 -0.0541771390 0.5642762184 4286808973
-0.2465524673 -0.0536415838 0.5652393103 4287270294
-0.2461756766 -0.0529325455 0.5643754601 4287928224
-0.2465953231 -0.0523946472 0.5653375387 4289112498
-0.2466163784 -0.0517709367 0.5653858185 4290296772
-0.2462387532 -0.0510644391 0.5645200610 4291152079
-0.2462592721 -0.0504414216 0.5645671487 4291546837
-0.2466780543 -0.0498988591 0.5655272007 4291415253
-0.2466981262 -0.0492745265 0.5655732155 4290757323
-0.2467179298 -0.0486500412 0.5656186342 4290165186
-0.2471361011 -0.0481029898 0.5665773153 4289704635
-0.2471554428 -0.0474771969 0.5666216612 4289441461
-0.2471745312 -0.0468512587 0.5666654110 4288849324
-0.2471933812 -0.0462251753 0.5667086244 4288125599
-0.2476107031 -0.0456724986 0.5676653385 4288191392
-0.2476290762 -0.0450451225 0.5677074790 4289573047
-0.2476471961 -0.0444176085 0.5677490234 4291020493
-0.2480638772 -0.0438604727 0.5687043071 4290888907
-0.2484803647 -0.0433011837 0.5696591139 4289902012
-0.2492955327 -0.0428082272 0.5715279579 4288915630
-0.2485149503 -0.0420411676 0.5697383881 4288586665
-0.2485318631 -0.0414109677 0.5697771907 4289244595
-0.2493464351 -0.0409115553 0.5716446638 4291678936
-0.2451184094 -0.0666109249 0.5633861423 4291547348
-0.2455417216 -0.0660989210 0.5643591285 4289836730
-0.2451714426 -0.0653731450 0.5635080338 4288126112
-0.2451975942 -0.0647539496 0.5635681748 4286876045
-0.2452235073 -0.0641345605 0.5636277199 4286218115
-0.2448523343 -0.0634122044 0.5627745986 4286809739
-0.2448777109 -0.0627934337 0.5628328919 4287862427
