VERSION 0.7
FIELDS x y z rgba
SIZE 4 4 4 4
TYPE F F F U
COUNT 1 1 1 1
WIDTH 920
HEIGHT 1
VIEWPOINT 0.0 0.0 0.0 1.0 0.0 0.0 0.0
POINTS 920
DATA ascii
-0.3027224839 -0.2170127034 0.6114904881 4287929251
-0.3028094471 -0.2163954526 0.6116661429 4287534493
-0.3024731576 -0.2154762894 0.6109868884 4287402391
-0.3025596142 -0.2148588300 0.6111614704 4286941840
-0.3026458621 -0.2142408341 0.6113356948 4286744461
-0.3027319014 -0.2136223167 0.6115095019 4286810254
-0.3028177619 -0.2130032778 0.6116829515 4286941327
-0.3033270538 -0.2126807421 0.6127116680 4286875534
-0.3034126163 -0.2120597810 0.6128845215 4286875532
-0.3034979701 -0.2114382982 0.6130569577 4286941325
-0.3031591475 -0.2105218470 0.6123725176 4287007633
-0.3032439649 -0.2099001706 0.6125438809 4286941840
-0.3033286035 -0.2092779875 0.6127148271 4286876047
-0.3034130335 -0.2086552829 0.6128854156 4286876047
-0.3034972548 -0.2080320567 0.6130555272 4287073426
-0.3035812974 -0.2074083090 0.6132252216 4287468184
-0.3036651015 -0.2067840397 0.6133945584 4288060321
-0.3033238947 -0.2058709264 0.6127052903 4288520872
-0.3034071624 -0.2052465081 0.6128735542 4289113009
-0.3034902513 -0.2046215832 0.6130413413 4289705146
-0.3035731018 -0.2039961368 0.6132087111 4290231490
-0.3036557734 -0.2033701688 0.6133757234 4290560455
-0.3037382066 -0.2027437091 0.6135422587 4290560455
-0.3038204610 -0.2021167278 0.6137083769 4290231490
-0.3039024770 -0.2014892399 0.6138740778 4289770939
-0.3035585582 -0.2005799264 0.6131793261 4289441974
-0.3036400378 -0.1999523044 0.6133439541 4288915119
-0.3037213385 -0.1993241757 0.6135081053 4288915119
-0.3033763170 -0.1984168738 0.6128112078 4288586154
-0.3034570515 -0.1977886111 0.6129742861 4288388775
-0.3035375774 -0.1971598715 0.6131369472 4288454568
-0.3031914532 -0.1962545812 0.6124377847 4288388775
-0.3028449118 -0.1953505725 0.6117377877 4287599005
-0.3024979234 -0.1944478452 0.6110368371 4286743696
-0.3021504879 -0.1935463846 0.6103350520 4287533212
-0.3013757169 -0.1923737228 0.6087700725 4289112244
-0.3014543056 -0.1917473078 0.6089287996 4289704381
-0.3011055589 -0.1908497065 0.6082243323 4289046451
-0.3003291488 -0.1896835566 0.6066560149 4287927971
-0.2999794185 -0.1887894124 0.6059495807 4287270041
-0.2987743914 -0.1873604953 0.6035154462 4287467420
-0.2992786467 -0.1870050281 0.6045340300 4287927971
-0.2984999716 -0.1858485341 0.6029611230 4288848305
-0.2977206111 -0.1846951246 0.6013868451 4289111477
-0.2969406247 -0.1835447997 0.5998112559 4288190375
-0.2953040004 -0.1818704307 0.5965054035 4287400859
-0.2953786552 -0.1812534779 0.5966562033 4286808722
-0.2963095009 -0.1811596453 0.5985364318 4285558655
-0.2950990200 -0.1797572821 0.5960913301 4284571760
-0.2951729298 -0.1791398376 0.5962405801 4283913830
-0.2952466011 -0.1785219163 0.5963894129 4283979621
-0.2957486808 -0.1781617403 0.5974036455 4284374379
-0.2953933179 -0.1772847027 0.5966857672 4284703087
-0.2967528403 -0.1774346381 0.5994319916 4284900466
-0.2981127799 -0.1775787026 0.6021790504 4284966259
-0.2986150384 -0.1772076935 0.6031935811 4284637294
-0.2995464504 -0.1770881414 0.6050750017 4284439915
-0.2996195257 -0.1764588952 0.6052225828 4284571501
-0.2996923923 -0.1758292019 0.6053698063 4284768880
-0.2997650206 -0.1751990467 0.6055164933 4284966259
-0.2994078696 -0.1743183285 0.6047950387 4284768880
-0.2990502715 -0.1734389663 0.6040727496 4284571501
-0.2969731688 -0.1715678126 0.5998769999 4284242535
-0.2970441580 -0.1709421575 0.6000204682 4283716191
-0.2968256474 -0.1688178927 0.5995790362 4283321942
-0.2973259389 -0.1684351265 0.6005896330 4283256149
-0.2961739898 -0.1664531231 0.5982627273 4283124817
-0.2958125174 -0.1655860841 0.5975325704 4283190610
-0.2950199544 -0.1644802988 0.5959315896 4283256403
-0.2933651507 -0.1628993005 0.5925889611 4283059023
-0.2930020094 -0.1620400548 0.5918554068 4282861644
-0.2926384211 -0.1611822098 0.5911210179 4283059024
-0.2935676873 -0.1610351652 0.5929980278 4283059024
-0.2936347425 -0.1604129374 0.5931335092 4283519575
-0.2932702601 -0.1595556289 0.5923972726 4283980126
-0.2946308851 -0.1596346349 0.5951457024 4284045665
-0.2955603898 -0.1594749242 0.5970233083 4284308837
-0.2969216406 -0.1595430076 0.5997729301 4284178021
-0.3004415631 -0.1607600600 0.6068831086 4284901744
-0.3000769019 -0.1598914713 0.6061465144 4285954432
-0.3018711209 -0.1601699889 0.6097707748 4286020225
-0.3032339215 -0.1602125168 0.6125235558 4286349703
-0.3041650057 -0.1600218117 0.6144043207 4286415496
-0.3046640754 -0.1596006006 0.6154124141 4286152070
-0.3051630855 -0.1591771245 0.6164204478 4285428347
-0.3052296937 -0.1585268378 0.6165549755 4285231222
-0.3052960932 -0.1578761339 0.6166890860 4284704878
-0.3053622246 -0.1572249979 0.6168226600 4283915362
-0.3054281175 -0.1565734446 0.6169557571 4283323225
-0.3054937422 -0.1559214592 0.6170883775 4282928467
-0.3055591583 -0.1552690566 0.6172204614 4283191639
-0.3056243062 -0.1546162516 0.6173520684 4284112741
-0.3056892157 -0.1539630145 0.6174831986 4284507499
-0.3053207994 -0.1530922204 0.6167389750 4284704624
-0.3053851128 -0.1524390876 0.6168689132 4285888898
-0.3054491878 -0.1517855376 0.6169983149 4286020227
-0.3055129945 -0.1511315703 0.6171272397 4286546571
-0.3055765629 -0.1504772156 0.6172556877 4287796384
-0.3056398928 -0.1498224288 0.6173835993 4289507002
-0.3061366081 -0.1493788362 0.6183868647 4291217620
-0.3006376326 -0.2180314958 0.6086446047 4289837763
-0.3007247150 -0.2174182087 0.6088209748 4289574591
-0.3008116186 -0.2168044001 0.6089968681 4289311419
-0.3008983135 -0.2161900550 0.6091724634 4289047732
-0.3014069796 -0.2158775330 0.6102021933 4288587181
-0.3010711372 -0.2149597853 0.6095223427 4287995044
-0.3011572659 -0.2143438458 0.6096966863 4287402907
-0.3012431860 -0.2137273997 0.6098706126 4287073426
-0.3013288975 -0.2131104022 0.6100441217 4286941840
-0.3018371463 -0.2127909213 0.6110731363 4286876047
-0.3019225895 -0.2121720165 0.6112461090 4286744461
-0.3024308085 -0.2118488699 0.6122750044 4286744461
-0.3016697764 -0.2106372118 0.6107342243 4286876047
-0.3017545044 -0.2100175917 0.6109057665 4287007118
-0.3018389940 -0.2093974650 0.6110768318 4286941325
-0.3019233048 -0.2087768167 0.6112475395 4286875532
-0.3020074368 -0.2081556469 0.6114178300 4286941325
-0.3016676307 -0.2072428912 0.6107299328 4286941325
-0.3017512262 -0.2066215575 0.6108991504 4287072911
-0.3018345833 -0.2059997022 0.6110678911 4287270292
-0.3019177616 -0.2053773403 0.6112362742 4287533464
-0.3020007312 -0.2047544718 0.6114042401 4287270292
-0.3020834923 -0.2041310817 0.6115717888 4287533464
-0.3021660447 -0.2035071701 0.6117389202 4287862429
-0.3026728928 -0.2031677067 0.6127650738 4288257187
-0.3027551472 -0.2025419027 0.6129315495 4288586152
-0.3028371632 -0.2019155920 0.6130976677 4288849324
-0.3029190004 -0.2012887746 0.6132633090 4288980910
-0.3030006289 -0.2006614506 0.6134285927 4288849324
-0.3026569486 -0.1997530609 0.6127328277 4289178548
-0.3023128510 -0.1988459378 0.6120361686 4289112755
-0.3023936152 -0.1982188523 0.6121996641 4289178548
-0.3024741411 -0.1975912750 0.6123626828 4289178548
-0.3021289408 -0.1966861635 0.6116638184 4288915378
-0.3022089601 -0.1960584670 0.6118258238 4288520620
-0.3018629849 -0.1951550245 0.6111254096 4288060069
-0.3019424677 -0.1945272088 0.6112862825 4287533725
-0.3015957177 -0.1936254352 0.6105843186 4286875282
-0.3008224666 -0.1924523264 0.6090188622 4287270040
-0.3004747331 -0.1915539950 0.6083148718 4288914866
-0.3001265824 -0.1906569451 0.6076100469 4290033347
-0.2997779846 -0.1897611916 0.6069043279 4288980659
-0.2990024388 -0.1885976791 0.6053341627 4286414732
-0.2986528575 -0.1877053976 0.6046264768 4284901493
-0.2983028591 -0.1868144274 0.6039178371 4285625216
-0.2979524136 -0.1859247535 0.6032083631 4287006101
-0.2976015210 -0.1850363761 0.6024979949 4288585133
-0.2968231440 -0.1838847399 0.6009221673 4289966784
-0.2964712679 -0.1829998791 0.6002098322 4291545816
-0.2956916988 -0.1818535477 0.5986315608 4292598504
-0.2954131067 -0.1803532392 0.5980675817 4290295749
-0.2954871655 -0.1797337681 0.5982174277 4288321959
-0.2951332331 -0.1788546294 0.5975009799 4286084997
-0.2952067256 -0.1782351434 0.5976497531 4284505965
-0.2957079709 -0.1778725982 0.5986644626 4283979621
-0.2962091565 -0.1775078028 0.5996791720 4283782242
-0.2971385121 -0.1773963571 0.6015606523 4283914083
-0.2976398170 -0.1770261377 0.6025755405 4284572013
-0.2977127433 -0.1763998270 0.6027231812 4284834672
-0.2977854311 -0.1757730693 0.6028703451 4284768879
-0.2978579104 -0.1751458645 0.6030170918 4284571501
-0.2979301512 -0.1745181829 0.6031633615 4284900466
-0.2975734174 -0.1736398488 0.6024410725 4284505965
-0.2976450920 -0.1730121821 0.6025862694 4284177000
-0.2968586087 -0.1718872637 0.6009939313 4284045669
-0.2965005636 -0.1710129976 0.6002690792 4283782497
-0.2970004678 -0.1706332564 0.6012811661 4283585116
-0.2966417372 -0.1697599143 0.6005549431 4283190358
-0.2967120111 -0.1691327095 0.6006971598 4283256149
-0.2967820466 -0.1685050577 0.6008389592 4283058770
-0.2968518436 -0.1678769588 0.6009802818 4282861645
-0.2960620224 -0.1667643338 0.5993812680 4282795852
-0.2952715755 -0.1656549126 0.5977810025 4282861645
-0.2940506041 -0.1643084884 0.5953091383 4282861645
-0.2919687927 -0.1624884754 0.5910944939 4282795851
-0.2937566638 -0.1628227085 0.5947140455 4282664265
-0.2921034992 -0.1612493396 0.5913672447 4283124563
-0.2926008105 -0.1608657092 0.5923740268 4283124563
-0.2935284972 -0.1607154608 0.5942521095 4283321942
-0.2935953438 -0.1600916535 0.5943874717 4283848286
-0.2940925360 -0.1597012579 0.5953940749 4283914849
-0.2971738577 -0.1607060283 0.6016321778 4285033330
-0.2955176532 -0.1591456532 0.5982791781 4285164916
-0.2964457273 -0.1589786410 0.6001580954 4285757053
-0.3003907800 -0.1604186147 0.6081449389 4286547082
-0.3017508984 -0.1604662091 0.6108984947 4287468184
-0.3026801944 -0.1602795571 0.6127798557 4288586665
-0.3018845916 -0.1591791958 0.6111690998 4289376181
-0.3032451272 -0.1592144817 0.6139235497 4289245111
-0.3033116460 -0.1585671306 0.6140582561 4289113525
-0.3033779263 -0.1579193771 0.6141924262 4289442490
-0.3034439385 -0.1572711915 0.6143260598 4289047732
-0.3035097420 -0.1566225737 0.6144592762 4288257700
-0.3035752773 -0.1559735388 0.6145919561 4287336598
-0.3036406040 -0.1553240865 0.6147241592 4285888898
-0.3037056327 -0.1546742171 0.6148558855 4284507245
-0.3037704527 -0.1540239304 0.6149870753 4284112230
-0.3034028411 -0.1531550586 0.6142428517 4283849058
-0.3034670651 -0.1525048763 0.6143728495 4283914851
-0.3030986488 -0.1516379565 0.6136270165 4284901746
-0.3031623065 -0.1509878635 0.6137558818 4284901492
-0.3032256961 -0.1503373682 0.6138842106 4285033078
-0.3032888472 -0.1496864706 0.6140120625 4285296250
-0.3033517599 -0.1490351707 0.6141394377 4285427836
-0.3038472235 -0.1485951245 0.6151425242 4285625215
-0.3039097190 -0.1479420811 0.6152690649 4286546317
-0.3039719760 -0.1472886354 0.6153950691 4288520108
-0.3049001694 -0.1470525414 0.6172742248 4290559691
-0.3053952754 -0.1466043890 0.6182765365 4291745245
-0.2995856106 -0.2150565833 0.6078816652 4289574591
-0.2996715903 -0.2144427150 0.6080561280 4289179320
-0.2997573614 -0.2138283104 0.6082301736 4288718769
-0.2998429537 -0.2132133842 0.6084038615 4288192423
-0.2999283373 -0.2125979215 0.6085771322 4287863458
-0.3004354835 -0.2122800946 0.6096061468 4287731102
-0.3005205989 -0.2116627246 0.6097788811 4287402137
-0.3006055057 -0.2110448182 0.6099511385 4287204758
-0.3006902337 -0.2104264051 0.6101230383 4287204758
-0.3003523052 -0.2095127851 0.6094373465 4287139217
-0.3004364967 -0.2088941932 0.6096081734 4287007631
-0.3005204797 -0.2082750946 0.6097785830 4287007118
-0.3001814783 -0.2073633969 0.6090907454 4287138704
-0.3002649248 -0.2067441195 0.6092600822 4287270290
-0.2999251783 -0.2058340162 0.6085706353 4287533462
-0.3004312515 -0.2055040300 0.6095975637 4287928735
-0.3000908494 -0.2045946419 0.6089068055 4288389286
-0.3001733720 -0.2039741725 0.6090742946 4288915630
-0.3006791770 -0.2036400288 0.6101006269 4289178802
-0.3007614017 -0.2030176669 0.6102674603 4289573047
-0.3012671769 -0.2026798576 0.6112936735 4289967805
-0.3013491035 -0.2020556033 0.6114599109 4290230977
-0.3014308214 -0.2014308423 0.6116257906 4290428356
-0.3015123308 -0.2008055747 0.6117911935 4290560455
-0.3015936613 -0.2001798004 0.6119561195 4290363076
-0.3016747534 -0.1995535195 0.6121206880 4289704892
-0.3009068072 -0.1983671635 0.6105625033 4289112755
-0.3009872437 -0.1977416277 0.6107257009 4288717997
-0.3010675013 -0.1971156001 0.6108885407 4288389032
-0.3011475205 -0.1964890808 0.6110509038 4287796895
-0.3012273312 -0.1958620548 0.6112128496 4287270551
-0.3008819520 -0.1949591637 0.6105120778 4287007381
-0.3005361259 -0.1940575391 0.6098103523 4286875795
-0.3001898825 -0.1931572109 0.6091077924 4286020486
-0.3006938100 -0.1928035617 0.6101303101 4285099384
-0.2994960845 -0.1913603693 0.6076999903 4285757315
-0.2991485298 -0.1904638857 0.6069948077 4287599519
-0.2988005280 -0.1895686984 0.6062886715 4288783793
-0.2984520793 -0.1886747926 0.6055817008 4287533726
-0.2981032133 -0.1877821833 0.6048737764 4284967799
-0.2977539301 -0.1868908852 0.6041650176 4284178283
-0.2974041700 -0.1860008836 0.6034554243 4284571758
-0.2970540226 -0.1851121932 0.6027448773 4285032309
-0.2967033982 -0.1842247993 0.6020334959 4286413962
-0.2963523567 -0.1833387315 0.6013212204 4289177268
-0.2955743968 -0.1821910739 0.5997425914 4292072160
-0.2960756123 -0.1818325520 0.6007596254 4293848571
-0.2957233787 -0.1809495389 0.6000449657 4294177791
-0.2953707278 -0.1800678521 0.5993293524 4293585654
-0.2950176299 -0.1791874915 0.5986129045 4292598759
-0.2950911522 -0.1785668880 0.5987620950 4290690762
-0.2951644659 -0.1779458076 0.5989108682 4289045937
-0.2956648171 -0.1775808930 0.5999261141 4287269526
-0.2961651683 -0.1772137135 0.6009413600 4286019459
-0.2966654897 -0.1768442839 0.6019565463 4285558908
-0.2967382371 -0.1762186587 0.6021041274 4284703599
-0.2968107462 -0.1755925864 0.6022512913 4284243048
-0.2968830466 -0.1749660522 0.6023979783 4283913571
-0.2969551384 -0.1743390560 0.6025442481 4283781985
-0.2970269620 -0.1737115979 0.6026900411 4283782497
-0.2970986068 -0.1730836928 0.6028353572 4283848290
-0.2967417836 -0.1722068489 0.6021113992 4283716704
-0.2963845730 -0.1713313460 0.6013865471 4283453532
-0.2964553237 -0.1707039028 0.6015300751 4283518810
-0.2965258360 -0.1700760126 0.6016731262 4283518810
-0.2965961099 -0.1694476604 0.6018157601 4283519321
-0.2966661751 -0.1688188761 0.6019579172 4283190356
-0.2967360318 -0.1681896299 0.6020996571 4282927438
-0.2959478199 -0.1670756787 0.6005002856 4282795852
-0.2943009436 -0.1654824615 0.5971586704 4282927438
-0.2956568301 -0.1655783206 0.5999099016 4283124817
-0.2922917604 -0.1630348116 0.5930819511 4283387988
-0.2940765917 -0.1633673757 0.5967034698 4283651160
-0.2924267352 -0.1617915779 0.5933557749 4283716700
-0.2924938798 -0.1611693054 0.5934920311 4284374630
-0.2934200168 -0.1610181183 0.5953711867 4284835181
-0.2934868932 -0.1603931785 0.5955069065 4285558904
-0.2944131494 -0.1602356434 0.5973863602 4285757053
-0.2944797575 -0.1596080065 0.5975215435 4287270292
-0.2971261144 -0.1603724658 0.6028911471 4287007120
-0.2959025502 -0.1590449810 0.6004084945 4286875534
-0.2989800870 -0.1600250751 0.6066530347 4287336344
-0.2999072969 -0.1598452330 0.6085343957 4289441720
-0.3016954064 -0.1601181030 0.6121625900 4290362822
-0.3021926284 -0.1597007215 0.6131715178 4290494408
-0.3022592068 -0.1590544879 0.6133066416 4290495178
-0.3023255765 -0.1584078223 0.6134412885 4290166213
-0.3019609451 -0.1575360149 0.6127014160 4290232006
-0.3020267189 -0.1568894237 0.6128348708 4290626764
-0.3020922542 -0.1562424153 0.6129678488 4290823373
-0.3021575511 -0.1555949897 0.6131003499 4290691787
-0.3022226095 -0.1549471468 0.6132323146 4290231236
-0.3018561900 -0.1540787667 0.6124888659 4289244341
-0.3019206524 -0.1534310132 0.6126196384 4287994274
-0.3015534580 -0.1525645703 0.6118746400 4286349449
-0.3016173542 -0.1519169211 0.6120042801 4284507247
-0.3016810119 -0.1512688547 0.6121333838 4283849317
-0.3013127148 -0.1504049003 0.6113861203 4283388253
-0.3013758063 -0.1497569382 0.6115140915 4283651425
-0.3014385998 -0.1491085738 0.6116415858 4284309355
-0.3015011847 -0.1484598070 0.6117685437 4284769906
-0.3015635014 -0.1478106380 0.6118949652 4285033079
-0.3016255796 -0.1471610665 0.6120209098 4285164665
-0.3021196127 -0.1467209905 0.6130234003 4285362044
-0.3026135862 -0.1462786645 0.6140257120 4285822595
-0.3031075001 -0.1458340585 0.6150278449 4286810002
-0.3031688333 -0.1451801062 0.6151523590 4288389034
-0.3036625087 -0.1447319090 0.6161540151 4290231238
-0.3037234247 -0.1440762281 0.6162776351 4291941856
-0.2983599305 -0.2133121938 0.6067621112 4289771457
-0.2984451950 -0.2126987875 0.6069355011 4289376697
-0.2985302508 -0.2120848745 0.6071084738 4289047732
-0.2990362942 -0.2117686868 0.6081376076 4288587181
-0.2991210818 -0.2111528516 0.6083099842 4288060837
-0.2992056608 -0.2105364949 0.6084820032 4287731102
-0.2992900312 -0.2099196166 0.6086536050 4287402137
-0.2989525795 -0.2090074271 0.6079673171 4287270805
-0.2990364432 -0.2083903700 0.6081378460 4286941840
-0.2991200984 -0.2077728063 0.6083080173 4286875534
-0.2987815440 -0.2068625242 0.6076195240 4287007120
-0.2988646924 -0.2062447965 0.6077886224 4287204499
-0.2989476323 -0.2056265473 0.6079572439 4287533464
-0.2990303636 -0.2050077915 0.6081255078 4288126114
-0.2986904085 -0.2040998191 0.6074342132 4288784044
-0.2987726331 -0.2034809142 0.6076014042 4289178802
-0.2992773354 -0.2031484246 0.6086277962 4289639353
-0.2993592620 -0.2025276124 0.6087943912 4290099391
-0.2998639047 -0.2021914721 0.6098206639 4290296770
-0.2999455333 -0.2015687674 0.6099866629 4289967805
-0.3000269234 -0.2009455562 0.6101521850 4289375668
-0.3001081347 -0.2003218383 0.6103173494 4288652458
-0.3001891375 -0.1996975988 0.6104820371 4287862942
-0.3002699018 -0.1990728825 0.6106463671 4287270805
-0.2999268472 -0.1981677413 0.6099486947 4286810254
-0.2995833755 -0.1972638667 0.6092501879 4286481289
-0.2996633053 -0.1966394037 0.6094127297 4286283910
-0.2997430265 -0.1960144341 0.6095748544 4286086277
-0.2998225093 -0.1953889579 0.6097365022 4285888898
-0.2999018133 -0.1947629899 0.6098977327 4286086277
-0.2995565832 -0.1938619316 0.6091957092 4286283656
-0.2996353507 -0.1932358593 0.6093558669 4286481037
-0.2992893457 -0.1923364848 0.6086522341 4286546830
-0.2989429533 -0.1914383918 0.6079477668 4287007382
-0.2985960841 -0.1905415803 0.6072423458 4287467933
-0.2982487977 -0.1896460503 0.6065360904 4288454828
-0.2974761128 -0.1884825677 0.6049646735 4289507516
-0.2971278429 -0.1875905246 0.6042564511 4288454828
-0.2972043157 -0.1869672686 0.6044119596 4286217866
-0.2968552709 -0.1860769391 0.6037021875 4284571758
-0.2969312370 -0.1854536235 0.6038566232 4284505965
-0.2965814471 -0.1845650226 0.6031452417 4284703599
-0.2962312102 -0.1836777180 0.6024330258 4284966771
-0.2954548299 -0.1825287342 0.6008541584 4286348424
-0.2955294847 -0.1819070876 0.6010059118 4289243316
-0.2956039011 -0.1812849790 0.6011573076 4291677657
-0.2948260009 -0.1801417470 0.5995753407 4292730345
-0.2948997915 -0.1795204878 0.5997253656 4294111485
-0.2949733436 -0.1788987666 0.5998749733 4294374655
-0.2950466871 -0.1782765687 0.6000241041 4294111483
-0.2955462933 -0.1779106408 0.6010401249 4293124588
-0.2956192791 -0.1772866249 0.6011885405 4292335072
-0.2961187661 -0.1769170761 0.6022043228 4291677142
-0.2961914241 -0.1762912273 0.6023520827 4290163903
-0.2958369851 -0.1754118055 0.6016312838 4288255906
-0.2959090769 -0.1747859567 0.6017779112 4286216326
-0.2964080870 -0.1744109541 0.6027927399 4284834673
-0.2964798510 -0.1737832725 0.6029387116 4284111462
-0.2965514064 -0.1731551439 0.6030842066 4283979876
-0.2961953282 -0.1722779721 0.6023600698 4283453532
-0.2966938317 -0.1718975306 0.6033738256 4283256153
-0.2963370979 -0.1710212529 0.6026483774 4283584603
-0.2959799469 -0.1701463461 0.6019219756 4283781982
-0.2960501611 -0.1695177704 0.6020647883 4283782493
-0.2961201370 -0.1688887626 0.6022071242 4283321942
-0.2957618833 -0.1680161506 0.6014785767 4282992977
-0.2962594330 -0.1676293910 0.6024904251 4283124563
-0.2941876650 -0.1657923907 0.5982770920 4283387989
-0.2955411971 -0.1658874154 0.6010297537 4283585368
-0.2926109135 -0.1635814756 0.5950705409 4283980126
-0.2935356796 -0.1634352058 0.5969511867 4284374884
-0.2927461267 -0.1623341292 0.5953455567 4285032560
-0.2928133905 -0.1617098153 0.5954823494 4285624697
-0.2928804457 -0.1610850543 0.5956187248 4285757051
-0.2933761775 -0.1606948227 0.5966268778 4286612360
-0.2943008840 -0.1605363339 0.5985074043 4286941327
-0.2965130508 -0.1610730588 0.6030061841 4288980910
-0.2957215607 -0.1599748880 0.6013965607 4289639099
-0.2966466248 -0.1598050445 0.6032778025 4290165443
-0.3008716404 -0.1539230943 0.6118700504 4290757580
-0.3009359539 -0.1532760262 0.6120008230 4290625994
-0.3005693853 -0.1524101794 0.6112554073 4290428615
-0.3006331325 -0.1517632157 0.6113850474 4289244343
-0.3002658188 -0.1508993208 0.6106380224 4287928483
-0.3003289700 -0.1502524614 0.6107664704 4285625728
-0.3003918827 -0.1496051848 0.6108944416 4284112489
-0.3000234962 -0.1487437934 0.6101452112 4283125594
-0.3000858128 -0.1480966359 0.6102719903 4283322973
-0.3001478910 -0.1474490762 0.6103982329 4284046696
-0.2997784019 -0.1465902030 0.6096467972 4284638833
-0.2994084954 -0.1457327902 0.6088945270 4285033591
-0.2999011576 -0.1452949494 0.6098964214 4285362556
-0.3003937602 -0.1448548585 0.6108982563 4285559935
-0.3008863032 -0.1444125026 0.6118998528 4285823107
-0.3009469807 -0.1437616199 0.6120232940 4286217865
-0.3010074198 -0.1431103498 0.6121461987 4287204760
-0.3014995456 -0.1426630765 0.6131470203 4288981171
-0.3015595675 -0.1420100927 0.6132690907 4290757582
-0.3016193509 -0.1413567215 0.6133906245 4292140005
-0.2971346080 -0.2115712464 0.6056382060 4289903041
-0.2972191572 -0.2109583467 0.6058105230 4289508283
-0.2973034680 -0.2103449106 0.6059823632 4289047732
-0.2973876297 -0.2097309530 0.6061539054 4288521388
-0.2974715531 -0.2091164887 0.6063249707 4287995044
-0.2975552976 -0.2085014880 0.6064956784 4287468184
-0.2972178459 -0.2075919360 0.6058078408 4287007633
-0.2973010540 -0.2069767863 0.6059774756 4286744461
-0.2973840833 -0.2063611001 0.6061466932 4286678668
-0.2974669039 -0.2057449222 0.6063154936 4286678668
-0.2975495160 -0.2051282078 0.6064838767 4286612875
-0.2976319194 -0.2045109868 0.6066518426 4286941840
-0.2977141440 -0.2038932592 0.6068194509 4287402391
-0.2977961600 -0.2032750249 0.6069865823 4287533977
-0.2978779674 -0.2026562691 0.6071532965 4287731356
-0.2983815968 -0.2023231834 0.6081798673 4287665309
-0.2984631062 -0.2017025352 0.6083459854 4287467930
-0.2985444069 -0.2010813802 0.6085117459 4287336344
-0.2986254990 -0.2004597187 0.6086770296 4287270551
-0.2987063825 -0.1998375505 0.6088418961 4287138965
-0.2987870574 -0.1992148757 0.6090063453 4286875793
-0.2988675535 -0.1985916942 0.6091703773 4286678666
-0.2989478111 -0.1979680210 0.6093339324 4286810252
-0.2986049056 -0.1970647126 0.6086350679 4287007633
-0.2982615829 -0.1961626559 0.6079352498 4287270805
-0.2983409762 -0.1955392510 0.6080970764 4287599770
-0.2984201610 -0.1949153394 0.6082584858 4288191907
-0.2984991670 -0.1942909211 0.6084194779 4288915630
-0.2985779345 -0.1936660260 0.6085800529 4289507767
-0.2982328534 -0.1927668154 0.6078767180 4290165443
-0.2983111143 -0.1921418011 0.6080362201 4290691787
-0.2979652882 -0.1912442744 0.6073313355 4291151827
-0.2976190150 -0.1903480291 0.6066255569 4291480792
-0.2972723246 -0.1894530803 0.6059188843 4291480793
-0.2969251871 -0.1885594130 0.6052113771 4291480793
-0.2965776324 -0.1876670569 0.6045029163 4291283414
-0.2966540456 -0.1870435774 0.6046586633 4290428105
-0.2963057160 -0.1861529201 0.6039486527 4288782252
-0.2963815629 -0.1855293810 0.6041033268 4285821567
-0.2956077754 -0.1843755543 0.6025261283 4284439914
-0.2952581644 -0.1834888309 0.6018134952 4284505707
-0.2953330576 -0.1828665435 0.6019661427 4284242535
-0.2949826717 -0.1819815636 0.6012519598 4284176742
-0.2950570285 -0.1813592315 0.6014035344 4285229430
-0.2951311469 -0.1807364225 0.6015546322 4287005841
-0.2947796881 -0.1798536181 0.6008382440 4289045422
-0.2948532701 -0.1792307794 0.6009882689 4291019212
-0.2949266434 -0.1786074638 0.6011378169 4291940314
-0.2949998081 -0.1779836863 0.6012868881 4292927209
-0.2950727344 -0.1773594618 0.6014355421 4293914104
-0.2955713272 -0.1769897789 0.6024518013 4293979897
-0.2956439257 -0.1763637215 0.6025997996 4293782518
-0.2957162857 -0.1757372022 0.6027473211 4293190381
-0.2957884371 -0.1751102209 0.6028943658 4292203489
-0.2958603799 -0.1744827777 0.6030409336 4290821836
-0.2959320843 -0.1738548726 0.6031870842 4289967039
-0.2960035503 -0.1732265204 0.6033328176 4289111730
-0.2965014279 -0.1728464216 0.6043475866 4288124835
-0.2957191169 -0.1717206538 0.6027530432 4287795870
-0.2957898080 -0.1710918546 0.6028971672 4287137425
-0.2958602905 -0.1704625934 0.6030408144 4285953151
-0.2959305346 -0.1698328853 0.6031839848 4285229428
-0.2960005701 -0.1692027301 0.6033266783 4284637291
-0.2956431210 -0.1683288813 0.6025981307 4284177251
-0.2941407263 -0.1654750854 0.5995358229 4284440423
-0.2937814593 -0.1646076739 0.5988035798 4284440677
-0.2938495278 -0.1639803350 0.5989423394 4284572263
-0.2930617034 -0.1628770083 0.5973365307 4285296502
-0.2927011847 -0.1620137691 0.5966016650 4285954432
-0.2927682400 -0.1613878757 0.5967383981 4286414981
-0.2932631969 -0.1609965861 0.5977472663 4287796634
-0.2937581539 -0.1606030315 0.5987560749 4287994015
-0.2942530215 -0.1602072269 0.5997647643 4290033598
-0.2995862067 -0.1522555351 0.6106352210 4290889936
-0.2996498048 -0.1516092569 0.6107648015 4290757580
-0.2997131348 -0.1509625465 0.6108939052 4290560201
-0.2993461192 -0.1500997841 0.6101458669 4290033857
-0.2989787161 -0.1492384523 0.6093969345 4288717997
-0.2990411222 -0.1485923976 0.6095241904 4287073172
-0.2986729443 -0.1477330476 0.6087737083 4285362554
-0.2987347841 -0.1470871121 0.6088997722 4284244075
-0.2983658314 -0.1462297589 0.6081477404 4284244075
-0.2984271049 -0.1455839425 0.6082726121 4284704626
-0.2980574071 -0.1447286010 0.6075190902 4285099384
-0.2985488772 -0.1442911327 0.6085208654 4284704114
-0.2986094058 -0.1436441392 0.6086441875 4285625216
-0.2986696959 -0.1429967582 0.6087670922 4286415245
-0.2987297177 -0.1423489749 0.6088894010 4286283659
-0.2987895012 -0.1417008042 0.6090112925 4285954693
-0.2988490164 -0.1410522461 0.6091325879 4286415244
-0.2989082932 -0.1404033005 0.6092534065 4287862690
-0.2989673316 -0.1397539675 0.6093737483 4289704894
-0.2990261018 -0.1391042620 0.6094935536 4291811038
-0.2954899371 -0.2095361650 0.6036524773 4289837250
-0.2955736220 -0.2089246213 0.6038234234 4289376699
-0.2956570983 -0.2083125561 0.6039940119 4288916148
-0.2957403958 -0.2076999694 0.6041641831 4288586411
-0.2958235145 -0.2070868760 0.6043339372 4288125860
-0.2959063947 -0.2064732611 0.6045032740 4287467930
-0.2959890962 -0.2058591247 0.6046721935 4286941586
-0.2960715890 -0.2052444816 0.6048407555 4286744207
-0.2961538732 -0.2046293169 0.6050088406 4286744207
-0.2962359786 -0.2040136456 0.6051765680 4286678414
-0.2967387736 -0.2036863863 0.6062037349 4286415242
-0.2968205810 -0.2030688077 0.6063708663 4286481035
-0.2969021797 -0.2024507374 0.6065375209 4286744207
-0.2974048257 -0.2021184266 0.6075643897 4286810000
-0.2974861562 -0.2014984637 0.6077305079 4286810000
-0.2975672483 -0.2008779794 0.6078962088 4286810000
-0.2976481318 -0.2002569884 0.6080614328 4286744207
-0.2977288365 -0.1996354908 0.6082262993 4286875793
-0.2973874807 -0.1987316012 0.6075289845 4287270551
-0.2974676490 -0.1981099844 0.6076927185 4287665309
-0.2975476086 -0.1974878609 0.6078560352 4288191653
-0.2976273298 -0.1968652308 0.6080189347 4288783792
-0.2977068722 -0.1962421089 0.6081814170 4289441722
-0.2973638177 -0.1953410059 0.6074805856 4290165445
-0.2974427938 -0.1947177649 0.6076419950 4290823375
-0.2975215912 -0.1940940320 0.6078029275 4291415253
-0.2971774340 -0.1931949854 0.6070998907 4291612632
-0.2972556949 -0.1925711632 0.6072597504 4292007390
-0.2969107926 -0.1916737854 0.6065551639 4292336355
-0.2974115908 -0.1913220137 0.6075781584 4292467687
-0.2966428399 -0.1901541799 0.6060077548 4292138722
-0.2967200279 -0.1895301640 0.6061654091 4291743964
-0.2963736057 -0.1886361837 0.6054577231 4291349206
-0.2960267663 -0.1877434999 0.6047491431 4290624967
-0.2956794798 -0.1868521124 0.6040396690 4289901244
-0.2957554758 -0.1862288266 0.6041949391 4288519332
-0.2958312631 -0.1856050789 0.6043497324 4286940300
-0.2954828739 -0.1847158223 0.6036380529 4285163889
-0.2951340973 -0.1838278770 0.6029255390 4284176994
-0.2947848439 -0.1829412580 0.6022120714 4283848029
-0.2948594391 -0.1823182851 0.6023644805 4283782236
-0.2949338257 -0.1816948354 0.6025164127 4283584857
-0.2950079739 -0.1810709089 0.6026679277 4283124306
-0.2946573496 -0.1801868826 0.6019515991 4283650650
-0.2947309613 -0.1795629263 0.6021019816 4284242787
-0.2948043644 -0.1789384931 0.6022519469 4285229939
-0.2944526374 -0.1780566722 0.6015334129 4286677385
-0.2949505150 -0.1776882410 0.6025505066 4288322210
-0.2950232327 -0.1770624220 0.6026991010 4289835449
-0.2950957716 -0.1764361411 0.6028472185 4290822344
-0.2951680720 -0.1758093983 0.6029949188 4291151309
-0.2952401340 -0.1751821935 0.6031421423 4291085518
-0.2953119874 -0.1745545268 0.6032889485 4290559174
-0.2953836024 -0.1739263982 0.6034352779 4290164416
-0.2954550087 -0.1732978225 0.6035811305 4289440693
-0.2959520221 -0.1729175895 0.6045964956 4288716970
-0.2955971658 -0.1720393002 0.6038715243 4288585384
-0.2956678867 -0.1714093685 0.6040160060 4287993247
-0.2953122556 -0.1705328971 0.6032894850 4286545801
-0.2958086729 -0.1701481342 0.6043035984 4285558904
-0.2954523861 -0.1692725867 0.6035757661 4285229939
-0.2955220938 -0.1686417609 0.6037181616 4284966767
-0.2951650620 -0.1677680463 0.6029887795 4284966767
-0.2948075831 -0.1668957025 0.6022585034 4285295732
-0.2944496870 -0.1660247594 0.6015273333 4285295732
-0.2928108275 -0.1644360721 0.5981794000 4285099123
-0.2937326133 -0.1642870009 0.6000624299 4285559674
-0.2929463983 -0.1631823331 0.5984563231 4286151811
-0.2930138111 -0.1625548154 0.5985940695 4286809741
-0.2930810153 -0.1619268656 0.5987313390 4287533464
-0.2931479812 -0.1612984836 0.5988681316 4288125601
-0.2936421633 -0.1609038860 0.5998776555 4288915630
-0.2941362858 -0.1605070233 0.6008871198 4290099904
-0.2983641624 -0.1499468535 0.6095241904 4291481305
-0.2979973853 -0.1490861326 0.6087749004 4290823375
-0.2980596423 -0.1484407485 0.6089020967 4290691789
-0.2976921201 -0.1475819945 0.6081512570 4290362824
-0.2973241508 -0.1467247158 0.6073995233 4288652206
-0.2973854840 -0.1460799873 0.6075248718 4286152072
-0.2974466085 -0.1454348713 0.6076497436 4284770419
-0.2970775664 -0.1445801109 0.6068958044 4284638833
-0.2971380949 -0.1439351290 0.6070194840 4285559171
-0.2971983850 -0.1432897598 0.6071426272 4286019722
-0.2972584069 -0.1426439881 0.6072652936 4286020235
-0.2968879342 -0.1417923421 0.6065084338 4286020235
-0.2969473898 -0.1411467195 0.6066299081 4286480784
-0.2965761721 -0.1402970999 0.6058714986 4286743956
-0.2966350317 -0.1396516562 0.6059917808 4286415245
-0.2966936827 -0.1390058249 0.6061115861 4286086280
-0.2967520654 -0.1383596063 0.6062308550 4287336346
-0.2963793874 -0.1375131458 0.6054695845 4289112757
-0.2964372039 -0.1368671060 0.6055876613 4291152340
-0.2943488657 -0.2071927935 0.6026889086 4289705662
-0.2944316268 -0.2065812498 0.6028583646 4289310904
-0.2945142090 -0.2059691697 0.6030274034 4288718767
-0.2945965827 -0.2053565830 0.6031960845 4288258216
-0.2946787477 -0.2047434896 0.6033643484 4287863458
-0.2947607338 -0.2041298747 0.6035321951 4287600286
-0.2952625155 -0.2038056552 0.6045596004 4287402137
-0.2953442037 -0.2031901479 0.6047268510 4287073172
-0.2954256833 -0.2025741339 0.6048936844 4287007379
-0.2955069542 -0.2019575983 0.6050601006 4287073172
-0.2960084975 -0.2016269714 0.6060870886 4287138965
-0.2960895002 -0.2010085434 0.6062529087 4287138965
-0.2961702943 -0.2003896087 0.6064183116 4287204758
-0.2962508798 -0.1997701824 0.6065832973 4287270551
-0.2963312566 -0.1991502345 0.6067478657 4287467930
-0.2959903777 -0.1982477903 0.6060499549 4287731102
-0.2960702181 -0.1976277232 0.6062133908 4288520618
-0.2961498499 -0.1970071495 0.6063764691 4289441720
-0.2962293029 -0.1963860840 0.6065391302 4290166213
-0.2963085175 -0.1957645267 0.6067013144 4290889936
-0.2959659398 -0.1948648691 0.6059998870 4291547098
-0.2960446179 -0.1942431927 0.6061609983 4291941856
-0.2961231172 -0.1936210245 0.6063216925 4292402405
-0.2962013781 -0.1929983497 0.6064819694 4292665577
-0.2958573997 -0.1921011657 0.6057776213 4292731113
-0.2959351242 -0.1914784014 0.6059368253 4292665320
-0.2960126698 -0.1908551455 0.6060955524 4291941856
-0.2956675887 -0.1899600327 0.6053889990 4290823375
-0.2957445979 -0.1893366873 0.6055466533 4289770174
-0.2953987718 -0.1884432733 0.6048385501 4288585900
-0.2950524986 -0.1875511557 0.6041296124 4287270294
-0.2951286435 -0.1869281381 0.6042854786 4286349192
-0.2952045500 -0.1863046587 0.6044409275 4286150530
-0.2952802479 -0.1856806874 0.6045959592 4285689979
-0.2949326038 -0.1847911030 0.6038841009 4285163635
-0.2945845127 -0.1839028448 0.6031713486 4284637291
-0.2946593463 -0.1832792312 0.6033245921 4284110947
-0.2947339714 -0.1826551408 0.6034774184 4283716189
-0.2948083878 -0.1820305735 0.6036297679 4283321944
-0.2948825657 -0.1814055294 0.6037816405 4283058772
-0.2945327461 -0.1805202812 0.6030654311 4283519323
-0.2946063876 -0.1798952073 0.6032161713 4283256151
-0.2942558229 -0.1790117174 0.6024984121 4282927186
-0.2943289280 -0.1783866137 0.6026480794 4282664014
-0.2948260307 -0.1780171692 0.6036658883 4282861393
-0.2948988080 -0.1773902327 0.6038148999 4283387737
-0.2945469320 -0.1765084863 0.6030943990 4283979874
-0.2946191430 -0.1758815199 0.6032422781 4284374632
-0.2946911454 -0.1752540916 0.6033896804 4284769392
-0.2947629094 -0.1746262014 0.6035366654 4284900978
-0.2948344648 -0.1739978641 0.6036831737 4285098357
-0.2953307331 -0.1736188680 0.6046993136 4285098357
-0.2954019606 -0.1729886979 0.6048451066 4285033332
-0.2946226597 -0.1718620956 0.6032494903 4285428090
-0.2955437005 -0.1717270166 0.6051353216 4285625469
-0.2951888740 -0.1708493084 0.6044088602 4285296504
-0.2956845164 -0.1704635024 0.6054236889 4285099125
-0.2953290641 -0.1695867181 0.6046958566 4284967539
-0.2949731648 -0.1687113047 0.6039671302 4284835953
-0.2950425744 -0.1680798084 0.6041092873 4284506988
-0.2946859300 -0.1672062278 0.6033790708 4284441193
-0.2943288684 -0.1663340330 0.6026479006 4284441193
-0.2943973839 -0.1657030284 0.6027882695 4284901744
-0.2936134338 -0.1645938009 0.6011830568 4285822846
-0.2928288281 -0.1634877920 0.5995765328 4286283656
-0.2928962708 -0.1628591418 0.5997146368 4286941586
-0.2929635048 -0.1622300446 0.5998523235 4287665563
-0.2930305004 -0.1616005152 0.5999894738 4288257700
-0.2935239077 -0.1612048596 0.6009997725 4289178802
-0.2971409559 -0.1476437598 0.6084057689 4291349719
-0.2963448465 -0.1465740204 0.6067757010 4290889168
-0.2968350053 -0.1461411715 0.6077793241 4290428617
-0.2964670062 -0.1452855468 0.6070258617 4288981171
-0.2965277433 -0.1446407139 0.6071501970 4287204760
-0.2961589992 -0.1437871009 0.6063951850 4285230206
-0.2957898378 -0.1429349631 0.6056392789 4285756550
-0.2958496511 -0.1422908157 0.6057617664 4286809238
-0.2954797149 -0.1414407045 0.6050043702 4287203996
-0.2955389619 -0.1407967210 0.6051256061 4286743699
-0.2951682806 -0.1399486363 0.6043666601 4286875285
-0.2943674624 -0.1388992667 0.6027269363 4287007382
-0.2944256961 -0.1382569373 0.6028462052 4286612624
-0.2940537632 -0.1374133378 0.6020846963 4287138967
-0.2941114306 -0.1367711872 0.6022027135 4286810002
-0.2941688299 -0.1361286491 0.6023202538 4286744209
-0.2942259908 -0.1354857534 0.6024372578 4287994276
-0.2947131395 -0.1350396127 0.6034347415 4290297029
-0.2956305146 -0.1347874254 0.6053131223 4292205026
-0.2932065427 -0.2048534900 0.6017183661 4289705664
-0.2932884097 -0.2042419314 0.6018863320 4289310904
-0.2933700681 -0.2036298811 0.6020538807 4288850353
-0.2934515178 -0.2030172944 0.6022210717 4288389802
-0.2939521074 -0.2026933730 0.6032483578 4288060837
-0.2940332592 -0.2020788938 0.6034148932 4287731102
-0.2941142321 -0.2014639229 0.6035810709 4287599516
-0.2941949964 -0.2008484304 0.6037468314 4287402137
-0.2946953475 -0.2005180866 0.6047736406 4287270551
-0.2947758138 -0.1999007016 0.6049388051 4287204758
-0.2948560715 -0.1992828250 0.6051034927 4287204758
-0.2949361503 -0.1986644417 0.6052678227 4287402137
-0.2950159907 -0.1980455518 0.6054316759 4287533723
-0.2946752906 -0.1971449256 0.6047324538 4287863456
-0.2947545946 -0.1965259165 0.6048952937 4288455593
-0.2948337197 -0.1959064156 0.6050576568 4289245111
-0.2949126363 -0.1952864081 0.6052196026 4290232006
-0.2949913442 -0.1946658939 0.6053811312 4291153108
-0.2950698435 -0.1940449029 0.6055421829 4291679452
-0.2947270870 -0.1931474805 0.6048387885 4292007647
-0.2948050797 -0.1925263852 0.6049988270 4291876061
-0.2944615483 -0.1916306317 0.6042938828 4291744475
-0.2945390046 -0.1910094321 0.6044527888 4291349717
-0.2946162224 -0.1903877556 0.6046112776 4290099652
-0.2946932316 -0.1897655725 0.6047692895 4288389034
-0.2943483293 -0.1888723224 0.6040614843 4286941588
-0.2944248021 -0.1882500648 0.6042184830 4286086279
-0.2945010662 -0.1876273304 0.6043749452 4285888641
-0.2941550910 -0.1867361963 0.6036649346 4285888641
-0.2942308187 -0.1861133724 0.6038203835 4285690492
-0.2943063378 -0.1854900867 0.6039753556 4285690492
-0.2943816483 -0.1848663092 0.6041298509 4285361527
-0.2940342724 -0.1839777231 0.6034169793 4284769390
-0.2941090167 -0.1833538860 0.6035704017 4284177253
-0.2941835821 -0.1827295870 0.6037234068 4283716702
-0.2942579091 -0.1821048111 0.6038759351 4283453530
-0.2943319976 -0.1814795434 0.6040279865 4283453530
-0.2939828932 -0.1805939823 0.6033115983 4282927186
-0.2940564752 -0.1799686849 0.6034625769 4282927186
-0.2937066257 -0.1790848672 0.6027445793 4282729807
-0.2937796414 -0.1784595400 0.6028944254 4282598221
-0.2938524485 -0.1778337359 0.6030438542 4282532430
-0.2939250469 -0.1772074699 0.6031928062 4282532430
-0.2939974070 -0.1765807569 0.6033413410 4282532430
-0.2940695584 -0.1759535670 0.6034893990 4282598223
-0.2937176526 -0.1750732809 0.6027671695 4282401358
-0.2937892377 -0.1744460762 0.6029141545 4282467151
-0.2942846417 -0.1740692407 0.6039308310 4282401358
-0.2943558991 -0.1734402180 0.6040770411 4282138186
-0.2944269478 -0.1728107333 0.6042228341 4281940807
-0.2944977582 -0.1721807867 0.6043681502 4281743428
-0.2945683300 -0.1715504080 0.6045129895 4281809221
-0.2946386933 -0.1709195673 0.6046573520 4282072393
-0.2947088182 -0.1702882648 0.6048012972 4282138440
-0.2947787344 -0.1696565300 0.6049447656 4282006854
-0.2944235504 -0.1687807739 0.6042158604 4282270026
-0.2944929004 -0.1681490541 0.6043581963 4282796370
-0.2941369712 -0.1672751456 0.6036277413 4283520350
-0.2942057550 -0.1666434407 0.6037689447 4284375659
-0.2929985821 -0.1652915925 0.6012915373 4285165175
-0.2926412821 -0.1644227505 0.6005582809 4286020484
-0.2922835350 -0.1635553092 0.5998241305 4286546828
-0.2923509181 -0.1629264206 0.5999624133 4287138965
-0.2928437293 -0.1625333279 0.6009737849 4287796895
-0.2929107547 -0.1619026512 0.6011112928 4288454825
-0.2929775417 -0.1612715423 0.6012483835 4289441720
-0.2954275310 -0.1457797438 0.6062762141 4291613659
-0.2950600982 -0.1449256539 0.6055221558 4290758352
-0.2951205671 -0.1442824453 0.6056463122 4289903043
-0.2947523892 -0.1434303671 0.6048907042 4289638591
-0.2948122919 -0.1427873075 0.6050136089 4287862180
-0.2944433689 -0.1419372410 0.6042565107 4286019976
-0.2940739989 -0.1410886645 0.6034985185 4286348941
-0.2941330075 -0.1404463053 0.6036195755 4287796385
-0.2937628925 -0.1395997554 0.6028600931 4288125350
-0.2929634452 -0.1385518610 0.6012194157 4287599006
-0.2934504747 -0.1381130815 0.6022189260 4287533213
-0.2926501036 -0.1370690912 0.6005764008 4287467932
-0.2927075028 -0.1364285797 0.6006942391 4287862690
-0.2927646935 -0.1357876807 0.6008115411 4287665311
-0.2928216159 -0.1351464093 0.6009284258 4287007381
-0.2928783000 -0.1345047653 0.6010447145 4286744209
-0.2933642566 -0.1340590417 0.6020420194 4287599518
-0.2938501537 -0.1336110532 0.6030391455 4289770685
-0.2947656214 -0.1333552003 0.6049178839 4291941854
-0.2920629978 -0.2025182992 0.6007408500 4289837250
-0.2921439409 -0.2019067705 0.6009073257 4289574078
-0.2922246754 -0.2012947202 0.6010733247 4289376697
-0.2927239835 -0.2009696960 0.6021003723 4289047732
-0.2928044200 -0.2003557533 0.6022658348 4288783790
-0.2928846478 -0.1997413188 0.6024308801 4288389032
-0.2929646969 -0.1991263777 0.6025955081 4288125860
-0.2930445373 -0.1985109448 0.6027597189 4287928481
-0.2931241691 -0.1978949904 0.6029235125 4287796895
-0.2932035923 -0.1972785443 0.6030868888 4287731102
-0.2932828367 -0.1966615915 0.6032498479 4287863456
-0.2933618426 -0.1960441470 0.6034123898 4288652972
-0.2934406400 -0.1954261959 0.6035745144 4289442488
-0.2935192585 -0.1948077530 0.6037361622 4290166211
-0.2940176725 -0.1944666207 0.6047613621 4290626762
-0.2936758399 -0.1935693771 0.6040582657 4290824141
-0.2937538326 -0.1929494441 0.6042186618 4290955213
-0.2934112549 -0.1920538694 0.6035140157 4290757834
-0.2934886813 -0.1914338470 0.6036733389 4290494408
-0.2931453586 -0.1905399561 0.6029670835 4289441720
-0.2932222784 -0.1899198443 0.6031253338 4287928481
-0.2932989895 -0.1892992258 0.6032831073 4286744207
-0.2933754921 -0.1886781454 0.6034404635 4286283656
-0.2934517562 -0.1880565584 0.6035973430 4286283656
-0.2931067050 -0.1871655881 0.6028876305 4286349192
-0.2931824625 -0.1865439415 0.6030434370 4286349192
-0.2932580113 -0.1859218031 0.6031988263 4286151811
-0.2933333218 -0.1852991879 0.6033537388 4285888639
-0.2934084535 -0.1846760958 0.6035082340 4285493881
-0.2934833467 -0.1840525270 0.6036623120 4284967537
-0.2935580313 -0.1834284812 0.6038159132 4284572781
-0.2936325073 -0.1828039587 0.6039690971 4284309609
-0.2937067449 -0.1821789593 0.6041218042 4284046437
-0.2937807739 -0.1815534830 0.6042740941 4283914851
-0.2934323847 -0.1806675941 0.6035575271 4283848288
-0.2935058773 -0.1800420731 0.6037086844 4283585116
-0.2931567430 -0.1791579425 0.6029905081 4283256153
-0.2932296693 -0.1785323918 0.6031405926 4283058774
-0.2928797901 -0.1776500195 0.6024208665 4283058774
-0.2929521799 -0.1770244390 0.6025698185 4282992981
-0.2930243909 -0.1763983965 0.6027182937 4282861395
-0.2930963337 -0.1757718921 0.6028662920 4282861395
-0.2927450538 -0.1748921871 0.6021437049 4282401358
-0.2928164601 -0.1742656678 0.6022906303 4282664530
-0.2933109105 -0.1738896221 0.6033076644 4282532944
-0.2933819890 -0.1732612699 0.6034538150 4282467151
-0.2934528589 -0.1726324856 0.6035996079 4282664530
-0.2935234904 -0.1720032245 0.6037448645 4282664530
-0.2935938835 -0.1713735163 0.6038897038 4282730323
-0.2936640680 -0.1707433611 0.6040340662 4283190874
-0.2937340140 -0.1701127440 0.6041779518 4283059799
-0.2938037515 -0.1694816947 0.6043213606 4283257178
-0.2938732505 -0.1688501835 0.6044643521 4283586143
-0.2939425409 -0.1682182252 0.6046068072 4284046694
-0.2931630611 -0.1671021730 0.6030035615 4284704624
-0.2936560512 -0.1667120606 0.6040175557 4285230968
-0.2928756475 -0.1655996889 0.6024123430 4285823105
-0.2925191522 -0.1647296101 0.6016790867 4286546828
-0.2921622396 -0.1638609320 0.6009449363 4286810000
-0.2922296524 -0.1632308960 0.6010836363 4287402137
-0.2927216887 -0.1628367603 0.6020956635 4287928481
-0.2927887440 -0.1622049361 0.6022335887 4288520618
-0.2928555608 -0.1615726799 0.6023710370 4289639869
-0.2942035198 -0.1434903443 0.6051436067 4291086548
-0.2938356400 -0.1426393986 0.6043869853 4290165446
-0.2938951552 -0.1419966370 0.6045093536 4289639102
-0.2935265601 -0.1411477327 0.6037511826 4288652207
-0.2935854793 -0.1405051202 0.6038724184 4287270554
-0.2932161093 -0.1396582574 0.6031126380 4287402140
-0.2928463519 -0.1388128698 0.6023520827 4288520620
-0.2924761474 -0.1379689872 0.6015906334 4288981171
-0.2929621339 -0.1375287175 0.6025902629 4288652206
-0.2921628952 -0.1364858299 0.6009463072 4287994276
-0.2917915285 -0.1356454939 0.6001824737 4287599518
-0.2914197743 -0.1348066777 0.5994178057 4287928483
-0.2914762199 -0.1341666728 0.5995339155 4287994276
-0.2915324569 -0.1335262954 0.5996495485 4287533725
-0.2915883958 -0.1328855455 0.5997646451 4287270553
-0.2925018966 -0.1326333880 0.6016436219 4287665311
-0.2925575376 -0.1319900155 0.6017580032 4289244341
-0.2930419743 -0.1315388680 0.6027544737 4291152338
-0.2914962769 -0.1992496550 0.6009479761 4289705664
-0.2915759981 -0.1986362785 0.6011123657 4289441720
-0.2916555107 -0.1980223954 0.6012762785 4289112755
-0.2917348444 -0.1974080056 0.6014398336 4288717997
-0.2918139398 -0.1967931092 0.6016029119 4288454825
-0.2918928564 -0.1961777210 0.6017656326 4288455593
-0.2919715643 -0.1955618411 0.6019278765 4289047730
-0.2920500636 -0.1949454546 0.6020897031 4289705660
-0.2921283543 -0.1943285763 0.6022511125 4290297797
-0.2926256955 -0.1939891130 0.6032764316 4290560969
-0.2927036881 -0.1933703572 0.6034371853 4290429383
-0.2923620045 -0.1924749613 0.6027328372 4290297283
-0.2920199037 -0.1915808469 0.6020275354 4289836732
-0.2920970619 -0.1909623742 0.6021865606 4289112755
-0.2925937772 -0.1906169057 0.6032106280 4288191653
-0.2922507226 -0.1897239983 0.6025033593 4287138965
-0.2923272550 -0.1891040653 0.6026611328 4286612621
-0.2924035490 -0.1884836555 0.6028184295 4286546828
-0.2920594215 -0.1875928342 0.6021089554 4286678414
-0.2921351790 -0.1869723499 0.6022651792 4286481035
-0.2922107577 -0.1863513887 0.6024209857 4286217863
-0.2922860980 -0.1857299358 0.6025763154 4286480776
-0.2923612297 -0.1851079911 0.6027312279 4286151811
-0.2924361527 -0.1844855845 0.6028856635 4285691260
-0.2925108671 -0.1838627011 0.6030397415 4285296502
-0.2925853729 -0.1832393259 0.6031932831 4285164916
-0.2926596403 -0.1826154888 0.6033464074 4285099123
-0.2927337289 -0.1819911748 0.6034991145 4284835953
-0.2928075492 -0.1813663840 0.6036513448 4284572781
-0.2928811908 -0.1807411313 0.6038031578 4284704367
-0.2925330997 -0.1798562258 0.6030855179 4284309609
-0.2926061749 -0.1792309284 0.6032361984 4284046437
-0.2922573090 -0.1783478111 0.6025170088 4283980644
-0.2923298776 -0.1777224690 0.6026665568 4283980390
-0.2924022079 -0.1770966798 0.6028156877 4283980390
-0.2920522690 -0.1762157679 0.6020942330 4283848804
-0.2921240628 -0.1755899489 0.6022422314 4283717218
-0.2926178575 -0.1752164960 0.6032602787 4283783011
-0.2926893234 -0.1745888442 0.6034075618 4283980390
-0.2927605510 -0.1739607453 0.6035544276 4283848804
-0.2928315401 -0.1733321846 0.6037008166 4283651425
-0.2924796641 -0.1724539548 0.6029753685 4283914597
-0.2925501168 -0.1718253791 0.6031206250 4283980390
-0.2930431962 -0.1714437455 0.6041371822 4283914597
-0.2931133211 -0.1708133668 0.6042817235 4284046183
-0.2931832075 -0.1701825261 0.6044257879 4284178280
-0.2932528555 -0.1695512533 0.6045693755 4284375659
-0.2933222950 -0.1689195186 0.6047125459 4284638831
-0.2930369973 -0.1674127728 0.6041243672 4285625726
-0.2931056619 -0.1667806059 0.6042659283 4286152070
-0.2931740880 -0.1661480069 0.6044069529 4286546828
-0.2928863764 -0.1646431983 0.6038138866 4287270551
-0.2929540277 -0.1640101820 0.6039533019 4287862688
-0.2930214405 -0.1633767337 0.6040922999 4288126630
-0.2935127616 -0.1629783660 0.6051052213 4288718767
-0.2935798168 -0.1623431295 0.6052434444 4289903041
-0.2933462858 -0.1420559734 0.6047619581 4291152340
-0.2929784060 -0.1412067413 0.6040035486 4290757582
-0.2926101089 -0.1403589845 0.6032443047 4290297031
-0.2926686406 -0.1397166848 0.6033650041 4289046964
-0.2922995985 -0.1388709694 0.6026041508 4287862690
-0.2919301689 -0.1380267441 0.6018425226 4287402139
-0.2915602922 -0.1371840239 0.6010800004 4288192425
-0.2907624245 -0.1361425966 0.5994350910 4288718769
