VERSION 0.7
FIELDS x y z rgba
SIZE 4 4 4 4
TYPE F F F U
COUNT 1 1 1 1
WIDTH 920
HEIGHT 1
VIEWPOINT 0.0 0.0 0.0 1.0 0.0 0.0 0.0
POINTS 920
DATA ascii
-0.2761223018 -0.1478176415 0.5443256497 4289376708
-0.2757450044 -0.1470116973 0.5435819030 4289246149
-0.2758071721 -0.1464407444 0.5437044501 4288982977
-0.2754291296 -0.1456367671 0.5429592133 4288982981
-0.2754907906 -0.1450659633 0.5430807471 4287996086
-0.2755522132 -0.1444947720 0.5432018638 4283259000
-0.2756134272 -0.1439232081 0.5433225036 4281022038
-0.2756744325 -0.1433512568 0.5434427857 4281548395
-0.2757351995 -0.1427789181 0.5435625911 4281416809
-0.2753552198 -0.1419790536 0.5428134799 4281417069
-0.2754154503 -0.1414068788 0.5429322720 4281482862
-0.2754755020 -0.1408343315 0.5430505872 4281417580
-0.2755353153 -0.1402614117 0.5431684852 4281417580
-0.2755949199 -0.1396881193 0.5432860255 4281417835
-0.2756542861 -0.1391144693 0.5434030294 4281286249
-0.2757134438 -0.1385404319 0.5435196757 4281482353
-0.2757723927 -0.1379660219 0.5436358452 4281548146
-0.2758311033 -0.1373912543 0.5437516570 4281417584
-0.2758896053 -0.1368161291 0.5438669324 4281483377
-0.2759478986 -0.1362406164 0.5439818501 4281286512
-0.2760059536 -0.1356647611 0.5440962911 4281418098
-0.2756220996 -0.1348723918 0.5433396101 4281680502
-0.2756796181 -0.1342967153 0.5434529781 4281219951
-0.2757369280 -0.1337206960 0.5435659289 4283785082
-0.2757939994 -0.1331443042 0.5436784625 4290101210
-0.2762929201 -0.1327800155 0.5446619987 4290691779
-0.2763496339 -0.1322019994 0.5447738171 4290889158
-0.2764061391 -0.1316236109 0.5448852181 4291151562
-0.2764624059 -0.1310448796 0.5449961424 4291217355
-0.2765184641 -0.1304657906 0.5451065898 4291151812
-0.2770167887 -0.1300941706 0.5460889935 4291349191
-0.2766298652 -0.1293065697 0.5453262329 4290691263
-0.2771279514 -0.1289324015 0.5463081002 4289243817
-0.2771831751 -0.1283509880 0.5464169979 4289046436
-0.2772381604 -0.1277692318 0.5465254188 4288717471
-0.2772929370 -0.1271871179 0.5466333628 4289046436
-0.2777905464 -0.1268069148 0.5476142764 4289835952
-0.2778449357 -0.1262231916 0.5477215648 4290493884
-0.2778991163 -0.1256391257 0.5478283167 4289770161
-0.2779530585 -0.1250547171 0.5479346514 4289835954
-0.2788935602 -0.1248670071 0.5497887135 4289967540
-0.2789472044 -0.1242800578 0.5498944521 4290362298
-0.2790006399 -0.1236927658 0.5499997735 4291151814
-0.2790538073 -0.1231051385 0.5501046181 4291151814
-0.2795504928 -0.1227119640 0.5510837436 4291020228
-0.2800471187 -0.1223165765 0.5520627499 4291086021
-0.2800997794 -0.1217260733 0.5521665215 4291480779
-0.2805961668 -0.1213272214 0.5531451106 4291480779
-0.2802043855 -0.1205440834 0.5523727536 4291678158
-0.2811446190 -0.1203327850 0.5542262197 4292007123
-0.2811964750 -0.1197390929 0.5543285012 4292204502
-0.2816924155 -0.1193332896 0.5553061962 4292204502
-0.2817439139 -0.1187380031 0.5554076433 4292336088
-0.2822396159 -0.1183287278 0.5563848615 4292401881
-0.2827352583 -0.1179172546 0.5573619008 4292204502
-0.2832308114 -0.1175035760 0.5583388209 4292533467
-0.2837262750 -0.1170876920 0.5593155622 4292467674
-0.2842216790 -0.1166696027 0.5602921247 4292533213
-0.2847169638 -0.1162493080 0.5612685084 4292204248
-0.2852121890 -0.1158268154 0.5622447729 4292205018
-0.2857073247 -0.1154021099 0.5632207990 4292731362
-0.2862023711 -0.1149752066 0.5641967058 4291941846
-0.2871424854 -0.1147239581 0.5660499930 4291086537
-0.2880826890 -0.1144686192 0.5679033995 4290889671
-0.2890229523 -0.1142091826 0.5697569847 4291547601
-0.2899632454 -0.1139456555 0.5716106296 4292271840
-0.2909036279 -0.1136780232 0.5734643936 4292863977
-0.2922895849 -0.1135794371 0.5761966109 4292798184
-0.3177918494 -0.1942157894 0.6278443933 4289442237
-0.3170016408 -0.1930370182 0.6262832284 4290166734
-0.3166463375 -0.1921255887 0.6255812049 4289179839
-0.3154192269 -0.1906886697 0.6231569052 4287404200
-0.3124481738 -0.1882066429 0.6172871590 4287733165
-0.3064241707 -0.1839053929 0.6053858399 4287206568
-0.2956010103 -0.1767608374 0.5840031505 4287469740
-0.2895692885 -0.1725184023 0.5720865726 4285166733
-0.2865877450 -0.1701129973 0.5661960840 4284706182
-0.2849134505 -0.1684937477 0.5628882647 4284575111
-0.2836744785 -0.1671383530 0.5604404807 4284969869
-0.2828711867 -0.1660441458 0.5588535070 4286877866
-0.2820672691 -0.1649530828 0.5572652221 4285890971
-0.2812627256 -0.1638651788 0.5556756854 4286286243
-0.2808943689 -0.1630339921 0.5549479723 4285365141
-0.2805255949 -0.1622041762 0.5542194247 4285956762
-0.2797193527 -0.1611239910 0.5526266098 4285430418
-0.2789124846 -0.1600469798 0.5510324836 4284048502
-0.2794167995 -0.1597230136 0.5520288348 4284048502
-0.2786089778 -0.1586496681 0.5504328609 4286613659
-0.2782379985 -0.1578276753 0.5496999621 4285889936
-0.2778666317 -0.1570070684 0.5489662290 4283850095
-0.2774948180 -0.1561878622 0.5482316613 4287205538
-0.2771226168 -0.1553700566 0.5474963188 4287336861
-0.2767499685 -0.1545536369 0.5467601418 4283191902
-0.2768149078 -0.1539822817 0.5468884110 4285626498
-0.2764415443 -0.1531677842 0.5461508036 4287731874
-0.2765059769 -0.1525965184 0.5462780595 4287666341
-0.2765702009 -0.1520248652 0.5464049578 4287468962
-0.2761957943 -0.1512127966 0.5456652641 4285956752
-0.2758209705 -0.1504021287 0.5449247360 4286614682
-0.2758843601 -0.1498311013 0.5450499654 4287733676
-0.2755088210 -0.1490223855 0.5443080068 4287273125
-0.2755716741 -0.1484514773 0.5444322228 4288916414
-0.2756342888 -0.1478801817 0.5445559621 4289376965
-0.2756967247 -0.1473084986 0.5446792841 4289443783
-0.2753198445 -0.1465027630 0.5439347029 4289377990
-0.2753817439 -0.1459312141 0.5440569520 4289377996
-0.2750041187 -0.1451274455 0.5433109403 4288720066
-0.2750654817 -0.1445560455 0.5434321761 4283522172
-0.2751266360 -0.1439842582 0.5435529947 4281022038
-0.2751875818 -0.1434120983 0.5436733961 4281482602
-0.2752483189 -0.1428395510 0.5437933803 4281482602
-0.2748690248 -0.1420393586 0.5430440307 4281351789
-0.2749292254 -0.1414669752 0.5431630015 4281351789
-0.2749892175 -0.1408942044 0.5432814956 4281220203
-0.2750489712 -0.1403210759 0.5433995128 4281285996
-0.2751085162 -0.1397475600 0.5435171723 4281351787
-0.2751678526 -0.1391736865 0.5436344147 4281351787
-0.2752269506 -0.1385994256 0.5437511802 4281482351
-0.2752858400 -0.1380248070 0.5438675284 4281548144
-0.2753444910 -0.1374498159 0.5439833999 4281351791
-0.2754029632 -0.1368744671 0.5440989137 4281417584
-0.2754611671 -0.1362987459 0.5442139506 4281286512
-0.2755191922 -0.1357226521 0.5443285108 4281352305
-0.2755769789 -0.1351462156 0.5444427133 4281614709
-0.2756345272 -0.1345693916 0.5445563793 4281219951
-0.2756918669 -0.1339922249 0.5446696877 4283785080
-0.2757489979 -0.1334147006 0.5447825193 4290232794
-0.2758058906 -0.1328368038 0.5448949337 4290757572
-0.2758625448 -0.1322585493 0.5450069308 4290823365
-0.2759189904 -0.1316799521 0.5451184511 4291151562
-0.2759752274 -0.1311009973 0.5452294946 4291348941
-0.2760312259 -0.1305216849 0.5453401208 4291283398
-0.2760869861 -0.1299420297 0.5454503298 4291283398
-0.2765843570 -0.1295689940 0.5464329720 4291217607
-0.2766397893 -0.1289876997 0.5465424061 4290493884
-0.2766949534 -0.1284060627 0.5466514230 4290559677
-0.2767499089 -0.1278240681 0.5467600226 4290559677
-0.2768046260 -0.1272417307 0.5468680859 4290888642
-0.2773014009 -0.1268613935 0.5478495359 4291414986
-0.2773557603 -0.1262774318 0.5479569435 4291875537
-0.2774098814 -0.1256931424 0.5480638742 4291414986
-0.2774637640 -0.1251085103 0.5481703281 4291546572
-0.2784026563 -0.1249207333 0.5500252247 4291743951
-0.2784562707 -0.1243335456 0.5501311421 4291809744
-0.2785096467 -0.1237460226 0.5502365828 4291875537
-0.2790056467 -0.1233539656 0.5512165427 4291809744
-0.2790586352 -0.1227648407 0.5513212085 4291941330
-0.2791113853 -0.1221753731 0.5514254570 4292007123
-0.2796070278 -0.1217785701 0.5524046421 4292072916
-0.2801025808 -0.1213795543 0.5533837080 4292138709
-0.2801548243 -0.1207872257 0.5534868836 4292072916
-0.2806501687 -0.1203847378 0.5544655323 4292270295
-0.2807019949 -0.1197908074 0.5545678735 4292270295
-0.2811971009 -0.1193848476 0.5555461049 4292072916
-0.2812485397 -0.1187893152 0.5556476712 4292204502
-0.2817434072 -0.1183798909 0.5566254258 4292467674
-0.2822382152 -0.1179682538 0.5576030016 4292467674
-0.2827329636 -0.1175544113 0.5585803986 4292073430
-0.2832275927 -0.1171383709 0.5595576167 4291876051
-0.2837221622 -0.1167201176 0.5605347157 4291547086
-0.2842166424 -0.1162996590 0.5615116358 4291020742
-0.2847110331 -0.1158769950 0.5624883771 4291086535
-0.2852053344 -0.1154521257 0.5634649396 4291678672
-0.2856995463 -0.1150250509 0.5644413233 4291612879
-0.2866380811 -0.1147737205 0.5662955046 4291349707
-0.2875766456 -0.1145182848 0.5681498051 4291810773
-0.2885152996 -0.1142587513 0.5700042844 4292600289
-0.2894540131 -0.1139951274 0.5718588233 4292863461
-0.2903927565 -0.1137273982 0.5737134218 4292468703
-0.2917763591 -0.1136287823 0.5764469504 4292665828
-0.3159226477 -0.1934980452 0.6255241036 4289376444
-0.3155682683 -0.1925867498 0.6248223782 4290232527
-0.3147786558 -0.1914123744 0.6232589483 4289114046
-0.3135534525 -0.1899775714 0.6208330989 4287469223
-0.3110224307 -0.1877598166 0.6158216596 4287863981
-0.3050089777 -0.1834586114 0.6039150953 4287140775
-0.2946401238 -0.1765737087 0.5833848715 4287469740
-0.2890543938 -0.1725903600 0.5723251700 4285035147
-0.2860782444 -0.1701839864 0.5664324164 4284837768
-0.2844069600 -0.1685640961 0.5631232858 4284640649
-0.2831702530 -0.1672081798 0.5606746078 4284969614
-0.2823684514 -0.1661135405 0.5590870380 4286943404
-0.2815660238 -0.1650220454 0.5574982762 4285824923
-0.2803269923 -0.1636791676 0.5550449491 4286154657
-0.2808313966 -0.1633558869 0.5560436845 4285365141
-0.2800272703 -0.1622720957 0.5544515252 4285694106
-0.2792225182 -0.1611914933 0.5528581142 4285101969
-0.2784171104 -0.1601140648 0.5512634516 4284048506
-0.2789205909 -0.1597899944 0.5522603393 4284048506
-0.2776776552 -0.1584670693 0.5497993231 4286811293
-0.2777440250 -0.1578939259 0.5499306917 4285955984
-0.2773733437 -0.1570730060 0.5491967797 4283784554
-0.2770022452 -0.1562534869 0.5484620333 4287403169
-0.2761937380 -0.1551898122 0.5468611717 4287863205
-0.2762588263 -0.1546186358 0.5469900370 4282928730
-0.2763237357 -0.1540470719 0.5471185446 4285889928
-0.2759510875 -0.1532322615 0.5463806987 4287929511
-0.2760154307 -0.1526607871 0.5465081334 4287864230
-0.2760795951 -0.1520889252 0.5466351509 4287272093
-0.2757059038 -0.1512765288 0.5458952785 4284706937
-0.2753318250 -0.1504655629 0.5451545715 4285299074
-0.2753951252 -0.1498943269 0.5452799201 4287075744
-0.2754582465 -0.1493226886 0.5454049110 4285825677
-0.2750830948 -0.1485141665 0.5446621180 4288390325
-0.2751456797 -0.1479426622 0.5447860360 4289245634
-0.2752080560 -0.1473707557 0.5449095368 4289312195
-0.2748318911 -0.1465647221 0.5441647172 4289246402
-0.2748937309 -0.1459929496 0.5442871451 4289180871
-0.2749553621 -0.1454208046 0.5444091558 4288917699
-0.2745781243 -0.1446172595 0.5436623096 4283324793
-0.2746392488 -0.1440452635 0.5437832475 4280824659
-0.2747001350 -0.1434728801 0.5439038277 4281416809
-0.2747607827 -0.1429001093 0.5440239310 4281416809
-0.2748212516 -0.1423269659 0.5441436768 4281285996
-0.2744423747 -0.1415270120 0.5433934927 4281285996
-0.2745023072 -0.1409540325 0.5435121655 4281089133
-0.2745620012 -0.1403806806 0.5436303616 4281089133
-0.2746214867 -0.1398069561 0.5437481403 4281089133
-0.2746807635 -0.1392328590 0.5438655019 4281220719
-0.2747398317 -0.1386583745 0.5439824462 4281482351
-0.2747986615 -0.1380835474 0.5440989137 4281548144
-0.2748572826 -0.1375083327 0.5442149639 4281351791
-0.2749156654 -0.1369327605 0.5443305969 4281417584
-0.2749738395 -0.1363568157 0.5444457531 4281286766
-0.2750318050 -0.1357805133 0.5445605516 4281352559
-0.2750895321 -0.1352038383 0.5446748137 4281614963
-0.2751470208 -0.1346268058 0.5447887182 4281285998
-0.2752043307 -0.1340494156 0.5449021459 4284244861
-0.2752613723 -0.1334716529 0.5450150967 4290363610
-0.2753182352 -0.1328935474 0.5451276898 4290691779
-0.2753748596 -0.1323150694 0.5452398062 4290823365
-0.2754312456 -0.1317362487 0.5453514457 4291085769
-0.2754874229 -0.1311570555 0.5454626679 4291217355
-0.2755433619 -0.1305775195 0.5455734134 4291283398
-0.2760400474 -0.1302056313 0.5465568304 4291283398
-0.2756545842 -0.1294173896 0.5457936525 4291348939
-0.2761509717 -0.1290429533 0.5467765331 4291283146
-0.2762061059 -0.1284610778 0.5468856692 4291349193
-0.2762610018 -0.1278788596 0.5469943881 4291414986
-0.2767570913 -0.1274996549 0.5479766130 4291612365
-0.2768116295 -0.1269158125 0.5480845571 4291546572
-0.2768659294 -0.1263316274 0.5481920838 4291743697
-0.2773616612 -0.1259476542 0.5491736531 4291480525
-0.2778573334 -0.1255614758 0.5501551032 4291612111
-0.2779111266 -0.1249744073 0.5502615571 4291480525
-0.2779646814 -0.1243869886 0.5503675938 4291678158
-0.2784599960 -0.1239960566 0.5513483286 4291743951
-0.2785131633 -0.1234070286 0.5514536500 4291875537
-0.2790082991 -0.1230126172 0.5524339676 4291875537
-0.2790610790 -0.1224219799 0.5525384545 4292007123
-0.2791136503 -0.1218310148 0.5526425242 4292204502
-0.2796083689 -0.1214318499 0.5536221266 4292270295
-0.2801030576 -0.1210304797 0.5546015501 4292007123
-0.2801550627 -0.1204366386 0.5547045469 4292138709
-0.2802068591 -0.1198424697 0.5548070669 4292336088
-0.2807011306 -0.1194363534 0.5557857752 4292336088
-0.2811953425 -0.1190280318 0.5567643046 4292336088
-0.2812465727 -0.1184310019 0.5568657517 4292072916
-0.2817405462 -0.1180192083 0.5578438044 4291612365
-0.2826775312 -0.1177898347 0.5596989989 4291349707
-0.2827282548 -0.1171889976 0.5597994924 4291547086
-0.2832219899 -0.1167705879 0.5607770681 4291086535
-0.2837156653 -0.1163499653 0.5617545247 4290297019
-0.2842092216 -0.1159271374 0.5627317429 4290625984
-0.2847026885 -0.1155021042 0.5637088418 4291612879
-0.2856396139 -0.1152538285 0.5655639172 4292270809
-0.2861329913 -0.1148234308 0.5665408373 4292468188
-0.2870699763 -0.1145679057 0.5683960319 4292665569
-0.2880069911 -0.1143082827 0.5702513456 4292928741
-0.2889440954 -0.1140445545 0.5721067786 4292533983
-0.2903251648 -0.1139509678 0.5748412609 4291876053
-0.2912624180 -0.1136780828 0.5766970515 4292731621
-0.3144911826 -0.1930458099 0.6240621805 4289375930
-0.3137033880 -0.1918705851 0.6224988699 4290297807
-0.3133489192 -0.1909629256 0.6217954755 4289047740
-0.3121257722 -0.1895293444 0.6193683147 4287469223
-0.3091648519 -0.1870497912 0.6134928465 4287929774
-0.3027275503 -0.1824876815 0.6007189751 4287140005
-0.2932457030 -0.1761253625 0.5819035769 4287468970
-0.2881043255 -0.1724022180 0.5717012882 4284969354
-0.2855680883 -0.1702549160 0.5666684508 4285035147
-0.2838998437 -0.1686343849 0.5633580685 4284509063
-0.2826654017 -0.1672779322 0.5609084964 4284969614
-0.2818650901 -0.1661828607 0.5593203902 4286943404
-0.2810641527 -0.1650909632 0.5577310324 4285956509
-0.2798273563 -0.1637475491 0.5552768707 4286220450
-0.2803309262 -0.1634241641 0.5562760830 4285365141
-0.2795282900 -0.1623399556 0.5546833873 4285430934
-0.2787250280 -0.1612589359 0.5530894399 4285101969
-0.2783567607 -0.1604321450 0.5523586273 4284179838
-0.2779880464 -0.1596067548 0.5516269803 4284114045
-0.2771831155 -0.1585334688 0.5500296950 4286811291
-0.2768134773 -0.1577117443 0.5492962003 4285758603
-0.2768794298 -0.1571388841 0.5494270921 4283652453
-0.2765090764 -0.1563190520 0.5486921668 4287534240
-0.2765745223 -0.1557462662 0.5488220453 4288126377
-0.2762034237 -0.1549283266 0.5480856299 4282994523
-0.2762683630 -0.1543556452 0.5482144952 4285889928
-0.2758965194 -0.1535396129 0.5474766493 4287929511
-0.2755242884 -0.1527249962 0.5467380285 4287930277
-0.2755883932 -0.1521529108 0.5468651652 4287403933
-0.2752154171 -0.1513402164 0.5461251140 4284443762
-0.2752789855 -0.1507682502 0.5462512374 4284838520
-0.2749052942 -0.1499574780 0.5455096960 4287009949
-0.2749683261 -0.1493856311 0.5456348062 4285167745
-0.2750311792 -0.1488133967 0.5457594991 4288456116
-0.2746564448 -0.1480050832 0.5450158715 4289508804
-0.2747187614 -0.1474329680 0.5451395512 4289312447
-0.2743433118 -0.1466266215 0.5443944931 4289246654
-0.2744050920 -0.1460546404 0.5445170999 4289049025
-0.2744666636 -0.1454822719 0.5446392894 4289049025
-0.2745280266 -0.1449095309 0.5447610617 4283127414
-0.2745891511 -0.1443364024 0.5448823571 4281022038
-0.2742120326 -0.1435336024 0.5441340208 4281351017
-0.2742726505 -0.1429606229 0.5442543030 4281351017
-0.2743330598 -0.1423872709 0.5443741679 4281285483
-0.2743932307 -0.1418135315 0.5444936156 4281351276
-0.2744531929 -0.1412394196 0.5446125865 4281285998
-0.2745129466 -0.1406649351 0.5447311401 4281285998
-0.2745724618 -0.1400900632 0.5448492765 4281285744
-0.2746317983 -0.1395148337 0.5449669361 4281285744
-0.2746908665 -0.1389392167 0.5450842381 4281482349
-0.2747497559 -0.1383632421 0.5452010632 4281482349
-0.2743694186 -0.1375667900 0.5444463491 4281351789
-0.2744277418 -0.1369909942 0.5445621014 4281483375
-0.2744858861 -0.1364148259 0.5446774364 4281286766
-0.2745437622 -0.1358383000 0.5447922945 4281286766
-0.2746014595 -0.1352614164 0.5449067950 4281614963
-0.2746589184 -0.1346841604 0.5450208187 4281285998
-0.2747161388 -0.1341065317 0.5451343656 4284508033
-0.2747731507 -0.1335285604 0.5452474952 4290232024
-0.2748299539 -0.1329502314 0.5453602076 4290691779
-0.2753263414 -0.1325833201 0.5463451743 4290954951
-0.2753827572 -0.1320033520 0.5464571714 4291019976
-0.2754389644 -0.1314230114 0.5465686917 4291019976
-0.2754949629 -0.1308423281 0.5466797948 4291151812
-0.2755507231 -0.1302612871 0.5467904806 4291283398
-0.2756062448 -0.1296798885 0.5469006300 4291217353
-0.2756615579 -0.1290981472 0.5470104218 4291348939
-0.2761570811 -0.1287213415 0.5479936600 4291283146
-0.2762120068 -0.1281379759 0.5481027365 4291348939
-0.2762667239 -0.1275542527 0.5482112765 4291546318
-0.2767619193 -0.1271726936 0.5491939187 4291480525
-0.2768162489 -0.1265873462 0.5493017435 4291546318
-0.2768703699 -0.1260016561 0.5494090915 4291546318
-0.2773652077 -0.1256153435 0.5503910780 4291546572
-0.2774189413 -0.1250280291 0.5504977107 4291678158
-0.2774724662 -0.1244403869 0.5506038666 4291809744
-0.2779669464 -0.1240493059 0.5515851378 4291875537
-0.2780200839 -0.1234600469 0.5516905189 4292138709
-0.2785143554 -0.1230654791 0.5526713729 4292007123
-0.2785671055 -0.1224746108 0.5527760386 4292204502
-0.2786196172 -0.1218834147 0.5528802276 4292270295
-0.2791135311 -0.1214840934 0.5538603067 4291810260
-0.2796073556 -0.1210825741 0.5548402667 4292073432
-0.2796593308 -0.1204884946 0.5549433827 4292073432
-0.2797110677 -0.1198940873 0.5550460815 4291810260
-0.2802045345 -0.1194878221 0.5560252666 4291612881
-0.2806979120 -0.1190793440 0.5570043325 4291349709
-0.2811912000 -0.1186686531 0.5579832196 4290757570
-0.2816844285 -0.1182557642 0.5589619279 4290297019
-0.2821775973 -0.1178406626 0.5599405169 4290297019
-0.2826706469 -0.1174233481 0.5609189272 4291415500
-0.2827211916 -0.1168210134 0.5610192418 4291678672
-0.2832140028 -0.1164002270 0.5619971752 4291152328
-0.2837067544 -0.1159772351 0.5629749298 4291810258
-0.2846420705 -0.1157320216 0.5648309588 4292533981
-0.2851347029 -0.1153036654 0.5658084750 4292731360
-0.2860700786 -0.1150512025 0.5676646233 4292599774
-0.2865626216 -0.1146174818 0.5686419606 4292731362
-0.2874980271 -0.1143577620 0.5704981685 4292533983
-0.2884335220 -0.1140939370 0.5723544955 4291810260
-0.2898121774 -0.1140003279 0.5750902891 4292073432
-0.2911910713 -0.1139007136 0.5778264403 4293324012
-0.3126291335 -0.1923266947 0.6217374802 4289046965
-0.3122755885 -0.1914191842 0.6210343242 4290297807
-0.3114883602 -0.1902483553 0.6194687486 4288916154
-0.3102671504 -0.1888168901 0.6170400977 4287469223
-0.3073112667 -0.1863390207 0.6111616492 4287929774
-0.3008852303 -0.1817777306 0.5983819366 4287140005
-0.2922874093 -0.1759375632 0.5812830925 4287403177
-0.2871551812 -0.1722137928 0.5710764527 4285100942
-0.2850572765 -0.1703257710 0.5669043064 4285166735
-0.2833921015 -0.1687045991 0.5635926723 4284311684
-0.2821599245 -0.1673476100 0.5611422062 4284903821
-0.2813611031 -0.1662521362 0.5595535636 4286943404
-0.2809959352 -0.1654154658 0.5588273406 4286219681
-0.2801959515 -0.1643254161 0.5572363734 4286483623
-0.2793953419 -0.1632385105 0.5556441545 4285299349
-0.2785940766 -0.1621547937 0.5540506840 4285167762
-0.2782269418 -0.1613263041 0.5533205271 4285036176
-0.2778593600 -0.1604992151 0.5525895357 4284377217
-0.2774913907 -0.1596734971 0.5518577099 4284179838
-0.2771229744 -0.1588491797 0.5511250496 4286876571
-0.2767541409 -0.1580262333 0.5503915548 4285823883
-0.2759496570 -0.1569571346 0.5487916470 4283783525
-0.2760152519 -0.1563845426 0.5489220619 4287665312
-0.2756451964 -0.1555657983 0.5481861234 4287994023
-0.2757102847 -0.1549933106 0.5483155251 4283059548
-0.2757751346 -0.1544204205 0.5484445095 4285823622
-0.2754040360 -0.1536040753 0.5477064848 4287665826
-0.2754683793 -0.1530312747 0.5478344560 4287732898
-0.2755325139 -0.1524580866 0.5479620099 4287338140
-0.2751603723 -0.1516441703 0.5472218990 4284377969
-0.2747878134 -0.1508316547 0.5464810133 4284641141
-0.2744148374 -0.1500205845 0.5457392335 4287272864
-0.2749142051 -0.1496861130 0.5467323661 4285430660
-0.2745406032 -0.1488760710 0.5459893346 4288653747
-0.2746031582 -0.1483032256 0.5461137891 4289706435
-0.2742288411 -0.1474951208 0.5453693271 4289509309
-0.2742908895 -0.1469224095 0.5454927087 4289575102
-0.2739158273 -0.1461162716 0.5447468758 4289114816
-0.2739773393 -0.1455436945 0.5448691845 4289114816
-0.2740386426 -0.1449707299 0.5449911356 4282930035
-0.2740997374 -0.1443973780 0.5451126099 4281219417
-0.2741605937 -0.1438236535 0.5452336669 4281416809
-0.2737838924 -0.1430210769 0.5444844961 4281351016
-0.2738442421 -0.1424475014 0.5446044803 4281285483
-0.2739043534 -0.1418735534 0.5447240472 4281285483
-0.2739642859 -0.1412992328 0.5448431969 4281351276
-0.2740239501 -0.1407245249 0.5449619293 4281417069
-0.2740834355 -0.1401494443 0.5450801849 4281351537
-0.2741426826 -0.1395739913 0.5451980233 4281285744
-0.2742017210 -0.1389981508 0.5453154445 4281482349
-0.2742605507 -0.1384219527 0.5454323888 4281482349
-0.2738809288 -0.1376251876 0.5446774364 4281351789
-0.2739392221 -0.1370491683 0.5447933674 4281483375
-0.2739972770 -0.1364727914 0.5449088812 4281352559
-0.2740551233 -0.1358960420 0.5450239182 4281352559
-0.2741127610 -0.1353189349 0.5451384783 4281680243
-0.2741701603 -0.1347414553 0.5452526808 4281351278
-0.2742273510 -0.1341636181 0.5453664064 4284508033
-0.2742843032 -0.1335854083 0.5454796553 4290166231
-0.2743410468 -0.1330068558 0.5455924869 4290692292
-0.2748365998 -0.1326398253 0.5465779901 4290889671
-0.2748929858 -0.1320596188 0.5466901660 4290954183
-0.2749491334 -0.1314790696 0.5468018055 4291283148
-0.2750050724 -0.1308981478 0.5469130278 4291414984
-0.2750607729 -0.1303168833 0.5470238328 4291349191
-0.2751162648 -0.1297352612 0.5471341610 4291283146
-0.2751715183 -0.1291532964 0.5472440720 4291283146
-0.2756662071 -0.1287763566 0.5482278466 4291283146
-0.2757210732 -0.1281927526 0.5483370423 4291151560
-0.2757757604 -0.1276088059 0.5484457612 4291480525
-0.2762700915 -0.1272270977 0.5494288802 4291546318
-0.2763243914 -0.1266415268 0.5495368242 4291678158
-0.2768185437 -0.1262563467 0.5505195856 4291678158
-0.2768724561 -0.1256691515 0.5506268144 4291546572
-0.2769261599 -0.1250816137 0.5507336259 4291941330
-0.2774199545 -0.1246916577 0.5517156720 4291875537
-0.2774732709 -0.1241025031 0.5518216491 4291743951
-0.2775263488 -0.1235130131 0.5519272089 4291809744
-0.2780197859 -0.1231182963 0.5529085398 4291809744
-0.2780724764 -0.1225271970 0.5530133843 4291809744
-0.2785657048 -0.1221290007 0.5539942384 4291612365
-0.2786180377 -0.1215362921 0.5540983081 4291020744
-0.2791110277 -0.1211346164 0.5550787449 4292007639
-0.2791629732 -0.1205403060 0.5551820397 4291810260
-0.2796557546 -0.1201351508 0.5561620593 4290691779
-0.2797072828 -0.1195392385 0.5562645197 4290099642
-0.2801998258 -0.1191306040 0.5572440624 4289902263
-0.2806923091 -0.1187197566 0.5582234859 4290033847
-0.2807432711 -0.1181209758 0.5583248734 4290494398
-0.2816770077 -0.1178914383 0.5601817966 4290889156
-0.2821692526 -0.1174739674 0.5611607432 4291941844
-0.2826614082 -0.1170542836 0.5621395111 4292402395
-0.2831534743 -0.1166323945 0.5631181002 4292205016
-0.2836454511 -0.1162082925 0.5640965104 4292862946
-0.2841373384 -0.1157819852 0.5650748014 4292797153
-0.2850711346 -0.1155325770 0.5669317842 4292402395
-0.2855629027 -0.1151009053 0.5679098368 4292139223
-0.2864967287 -0.1148442477 0.5697669983 4291941846
-0.2874306142 -0.1145834848 0.5716242194 4292402397
-0.2883645594 -0.1143186167 0.5734816194 4292139738
-0.2892985344 -0.1140496433 0.5753390789 4292666082
-0.2911174595 -0.1141234413 0.5789563656 4293587184
-0.3112032413 -0.1918733269 0.6202718616 4288784307
-0.3104178607 -0.1907016486 0.6187064052 4290298320
-0.3096317649 -0.1895330548 0.6171396971 4288850874
-0.3088450432 -0.1883675307 0.6155716181 4287468968
-0.3054616749 -0.1856275201 0.6088280678 4287797933
-0.2986141145 -0.1808050126 0.5951799154 4287205800
-0.2913300097 -0.1757494658 0.5806616545 4287337386
-0.2866399288 -0.1722853333 0.5713136792 4285298321
-0.2845458388 -0.1703965515 0.5671399236 4285232528
-0.2828837037 -0.1687747538 0.5638269782 4284311684
-0.2816537917 -0.1674172282 0.5613756180 4284969614
-0.2808564603 -0.1663213372 0.5597864389 4286877611
-0.2800585032 -0.1652285904 0.5581960082 4286219681
-0.2796935439 -0.1643938720 0.5574685335 4286680487
-0.2788943946 -0.1633065641 0.5558757782 4285496213
-0.2785284817 -0.1624754965 0.5551464558 4285101969
-0.2777282000 -0.1613936275 0.5535513759 4285101969
-0.2769272923 -0.1603149325 0.5519550443 4284574080
-0.2774282396 -0.1599905640 0.5529535413 4284310908
-0.2766264081 -0.1589155495 0.5513553023 4286876573
-0.2762582898 -0.1580923051 0.5506216288 4285955471
-0.2758897841 -0.1572704464 0.5498871207 4283849834
-0.2755208313 -0.1564499885 0.5491517782 4287863207
-0.2751514912 -0.1556309313 0.5484156013 4287862691
-0.2752164900 -0.1550582349 0.5485451818 4283257181
-0.2752813101 -0.1544851214 0.5486743450 4286021001
-0.2753458917 -0.1539116204 0.5488030910 4287665826
-0.2749752104 -0.1530954689 0.5480642319 4287863973
-0.2750392854 -0.1525220573 0.5481919646 4287403422
-0.2746678591 -0.1517078280 0.5474516749 4284245616
-0.2742960155 -0.1508950144 0.5467105508 4284377202
-0.2743592560 -0.1503222287 0.5468365550 4287075231
-0.2739866972 -0.1495113522 0.5460940003 4285364613
-0.2740494013 -0.1489386857 0.5462189913 4288719027
-0.2741118968 -0.1483656317 0.5463435650 4289640129
-0.2741741836 -0.1477921754 0.5464677215 4289443001
-0.2738002837 -0.1469842941 0.5457224846 4289574587
-0.2738620639 -0.1464109719 0.5458455682 4289377470
-0.2734874189 -0.1456050426 0.5450989008 4289245884
-0.2735486627 -0.1450318694 0.5452209711 4282601068
-0.2736096978 -0.1444583088 0.5453425646 4281219415
-0.2732340097 -0.1436548829 0.5445938110 4281351016
-0.2732945085 -0.1430814713 0.5447143912 4281351016
-0.2733547986 -0.1425076872 0.5448345542 4281416810
-0.2734148800 -0.1419335157 0.5449542999 4281482603
-0.2734747231 -0.1413589716 0.5450735688 4281351276
-0.2735343575 -0.1407840550 0.5451924205 4281351276
-0.2735937834 -0.1402087510 0.5453108549 4281285745
-0.2736529708 -0.1396330893 0.5454288721 4281285745
-0.2737119496 -0.1390570402 0.5455464125 4281416556
-0.2733334005 -0.1382594109 0.5447918773 4281482349
-0.2733918428 -0.1376835406 0.5449084044 4281351791
-0.2734500766 -0.1371072978 0.5450244546 4281483377
-0.2735080719 -0.1365306973 0.5451400876 4281352559
-0.2735658586 -0.1359537244 0.5452552438 4281418352
-0.2736234367 -0.1353763938 0.5453699827 4281746036
-0.2736808062 -0.1347987056 0.5454843044 4281351278
-0.2737379074 -0.1342206448 0.5455981493 4284508033
-0.2742328942 -0.1338560432 0.5465847254 4290297817
-0.2742896676 -0.1332763433 0.5466979146 4290823878
-0.2743462324 -0.1326962709 0.5468106270 4290429120
-0.2744025588 -0.1321158409 0.5469228625 4290559425
-0.2744586468 -0.1315350682 0.5470346808 4291348941
-0.2745145261 -0.1309539229 0.5471460819 4291414984
-0.2745701969 -0.1303724349 0.5472570062 4291414984
-0.2746256292 -0.1297905892 0.5473675132 4291151814
-0.2751196027 -0.1294147968 0.5483520627 4291086021
-0.2751746774 -0.1288313121 0.5484618545 4291612365
-0.2752295136 -0.1282474846 0.5485711098 4291086021
-0.2757231891 -0.1278669238 0.5495550632 4291414986
-0.2757776380 -0.1272814721 0.5496636629 4291414986
-0.2758318782 -0.1266956627 0.5497717261 4291414986
-0.2758859098 -0.1261095107 0.5498794317 4291414986
-0.2763790786 -0.1257229000 0.5508623719 4291283400
-0.2764327228 -0.1251351386 0.5509693027 4291217607
-0.2764861286 -0.1245470271 0.5510757565 4290954435
-0.2769789398 -0.1241556555 0.5520579815 4291612365
-0.2770319879 -0.1235659271 0.5521637201 4291020228
-0.2775245905 -0.1231710687 0.5531455278 4290099126
-0.2775772512 -0.1225797310 0.5532504916 4290099126
-0.2780696452 -0.1221813858 0.5542318821 4290230712
-0.2781218886 -0.1215884462 0.5543360710 4290165433
-0.2786140740 -0.1211866140 0.5553170443 4291415500
-0.2786659598 -0.1205920652 0.5554203987 4291481293
-0.2791579068 -0.1201867536 0.5564009547 4290625984
-0.2796497643 -0.1197792366 0.5573813319 4290428605
-0.2797010839 -0.1191818118 0.5574836135 4290823363
-0.2801927328 -0.1187708080 0.5584635139 4291415500
-0.2806842923 -0.1183575988 0.5594432950 4292073430
-0.2811757922 -0.1179421768 0.5604228973 4292336602
-0.2816672027 -0.1175245419 0.5614023209 4292533981
-0.2821585238 -0.1171046942 0.5623816252 4292600287
-0.2826497555 -0.1166826412 0.5633606911 4292205529
-0.2831408978 -0.1162583753 0.5643396378 4292402908
-0.2836319506 -0.1158318967 0.5653184056 4291613392
-0.2845641077 -0.1155824065 0.5671762824 4291087048
-0.2850550711 -0.1151505634 0.5681548715 4291152841
-0.2859872878 -0.1148938090 0.5700128675 4291416015
-0.2869195640 -0.1146329492 0.5718710423 4292863461
-0.2874103785 -0.1141925752 0.5728493333 4292929254
-0.2892258167 -0.1142733768 0.5764676929 4292731875
-0.2905999422 -0.1141727641 0.5792065859 4292995047
-0.3102112412 -0.1916860342 0.6196663976 4288587183
-0.3094272017 -0.1905148178 0.6181002259 4290232529
-0.3082108498 -0.1890818328 0.6156705022 4288850876
-0.3069936037 -0.1876537353 0.6132389307 4287468968
-0.3040479124 -0.1851783395 0.6073548198 4287666347
-0.2972125709 -0.1803556532 0.5937007070 4287271593
-0.2903735042 -0.1755610853 0.5800392628 4287140007
-0.2861240208 -0.1723567992 0.5715506673 4285364114
-0.2840337753 -0.1704672724 0.5673753023 4285232528
-0.2823746800 -0.1688448340 0.5640611053 4284508550
-0.2811470628 -0.1674867868 0.5616088510 4285298066
-0.2803512216 -0.1663904637 0.5600191355 4286877098
-0.2795547247 -0.1652972996 0.5584281087 4286153375
-0.2791904807 -0.1644622684 0.5577005148 4286483108
-0.2783928514 -0.1633745432 0.5561071634 4285496213
-0.2780276537 -0.1625431627 0.5553776622 4285430420
-0.2772288620 -0.1614608765 0.5537820458 4285233041
-0.2768627405 -0.1606331468 0.5530506372 4284442490
-0.2764961720 -0.1598068178 0.5523184538 4284179318
-0.2761291862 -0.1589818597 0.5515853763 4286811038
-0.2757618129 -0.1581583023 0.5508515239 4285824143
-0.2753939927 -0.1573361307 0.5501167774 4283521130
-0.2750257850 -0.1565153599 0.5493812561 4287929261
-0.2746571600 -0.1556959897 0.5486449003 4287402654
-0.2747220993 -0.1551230848 0.5487746000 4283191902
-0.2747868598 -0.1545497775 0.5489039421 4286283658
-0.2744171917 -0.1537328064 0.5481655002 4287731104
-0.2744814157 -0.1531595886 0.5482938290 4288192170
-0.2741110027 -0.1523445398 0.5475538969 4287665826
-0.2741747200 -0.1517714262 0.5476811528 4284311157
-0.2742381990 -0.1511979252 0.5478079915 4284508536
-0.2743014693 -0.1506240219 0.5479344130 4287272612
-0.2739297450 -0.1498119235 0.5471917987 4285430408
-0.2735575736 -0.1490012407 0.5464484096 4288785332
-0.2736200392 -0.1484279782 0.5465731621 4289706434
-0.2736822665 -0.1478543133 0.5466974974 4289509305
-0.2737442851 -0.1472802609 0.5468213558 4289509305
-0.2733707726 -0.1464725733 0.5460752845 4289509056
-0.2734322846 -0.1458986700 0.5461981297 4289377470
-0.2730580568 -0.1450929493 0.5454505682 4282601070
-0.2731190324 -0.1445191801 0.5455723405 4281285210
-0.2731797695 -0.1439450234 0.5456936955 4281351017
-0.2728045285 -0.1431418210 0.5449441075 4281416810
-0.2728647590 -0.1425678134 0.5450644493 4281416810
-0.2729247510 -0.1419934332 0.5451843143 4281482603
-0.2729845643 -0.1414186656 0.5453037620 4281417069
-0.2730441391 -0.1408435255 0.5454227924 4281417069
-0.2731035054 -0.1402680129 0.5455413461 4281285745
-0.2731626332 -0.1396921277 0.5456594825 4281285745
-0.2732215524 -0.1391158551 0.5457772017 4281482349
-0.2732802629 -0.1385392249 0.5458944440 4281548142
-0.2729021311 -0.1377418339 0.5451390743 4281417584
-0.2729603052 -0.1371653825 0.5452553034 4281483377
-0.2730182409 -0.1365885586 0.5453710556 4281287025
-0.2730759978 -0.1360113621 0.5454863906 4281418611
-0.2731335163 -0.1354338080 0.5456013083 4281811829
-0.2731907964 -0.1348558962 0.5457157493 4281417071
-0.2732478678 -0.1342776120 0.5458297729 4284639873
-0.2737420201 -0.1339128762 0.5468168259 4290429657
-0.2737987339 -0.1333329529 0.5469301343 4290823878
-0.2738552392 -0.1327526569 0.5470430255 4290034362
-0.2739115059 -0.1321720183 0.5471554399 4289835702
-0.2744052112 -0.1318012178 0.5481415987 4290362046
-0.2744611204 -0.1312189251 0.5482532978 4290493880
-0.2745168209 -0.1306362748 0.5483645201 4291414982
-0.2745722830 -0.1300532818 0.5484753251 4290625470
-0.2746275365 -0.1294699311 0.5485857129 4290559677
-0.2746825516 -0.1288862228 0.5486955643 4291612111
-0.2747373283 -0.1283021718 0.5488049984 4290362044
-0.2752301395 -0.1279214621 0.5497894883 4290164665
-0.2752845585 -0.1273357719 0.5498982072 4289835700
-0.2753387690 -0.1267497391 0.5500064492 4289638575
-0.2753927112 -0.1261633635 0.5501142144 4289638575
-0.2758850753 -0.1257766187 0.5510976911 4289638575
-0.2759386599 -0.1251886189 0.5512047410 4289572782
-0.2764307857 -0.1247983724 0.5521878004 4289769907
-0.2764839828 -0.1242087558 0.5522941351 4291480525
-0.2765369713 -0.1236187965 0.5523999333 4290493630
-0.2770287395 -0.1232237890 0.5533822775 4289572528
-0.2770813406 -0.1226322204 0.5534873605 4290164919
-0.2775729001 -0.1222337261 0.5544692874 4290691263
-0.2776251137 -0.1216405481 0.5545735955 4290691777
-0.2781164646 -0.1212385669 0.5555550456 4291349707
-0.2781682909 -0.1206437796 0.5556585789 4291810258
-0.2786594033 -0.1202383116 0.5566396117 4291744465
-0.2791504562 -0.1198306382 0.5576205254 4291810258
-0.2796414196 -0.1194207445 0.5586012602 4292336602
-0.2796925306 -0.1188218147 0.5587033629 4292665567
-0.2801832557 -0.1184084490 0.5596836209 4292599774
-0.2806739211 -0.1179928631 0.5606637597 4292402908
-0.2811644971 -0.1175750718 0.5616436601 4292073943
-0.2816549838 -0.1171550602 0.5626234412 4292073943
-0.2821453810 -0.1167328432 0.5636031032 4291087048
-0.2826356888 -0.1163084134 0.5645825267 4290955462
-0.2831259370 -0.1158817708 0.5655617714 4290560704
-0.2840564549 -0.1156321838 0.5674206018 4290889669
-0.2845465839 -0.1152001694 0.5683996677 4291350220
-0.2854771614 -0.1149433255 0.5702585578 4292271324
-0.2864078283 -0.1146823764 0.5721175671 4293060840
-0.2868978083 -0.1142418236 0.5730963945 4292995047
-0.2887100577 -0.1143226773 0.5767164230 4292402910
-0.2900817692 -0.1142220348 0.5794565678 4292600289
-0.3083587587 -0.1909650266 0.6173356175 4288324009
-0.3080066442 -0.1900618523 0.6166306734 4290035150
-0.3067923486 -0.1886301041 0.6141995788 4288850876
-0.3055771291 -0.1872032285 0.6117667556 4287600554
-0.3026366234 -0.1847286373 0.6058798432 4287600554
-0.2953822315 -0.1796435267 0.5913565159 4287337386
-0.2894178927 -0.1753724217 0.5794159174 4287008421
-0.2851760685 -0.1721677333 0.5709236860 4285298321
-0.2830895483 -0.1702783555 0.5667464733 4285100942
-0.2818650305 -0.1689148396 0.5642950535 4284574343
-0.2806396782 -0.1675562710 0.5618418455 4285429652
-0.2798453271 -0.1664595306 0.5602515936 4286877098
-0.2790503502 -0.1653659344 0.5586600304 4286021789
-0.2786867917 -0.1645306051 0.5579321980 4286416802
-0.2783228457 -0.1636966318 0.5572035313 4285693079
-0.2775261700 -0.1626107544 0.5556086302 4285627799
-0.2767288983 -0.1615280509 0.5540124774 4285167248
-0.2767959535 -0.1609515101 0.5541467071 4284377720
-0.2764302194 -0.1601239592 0.5534145236 4284180341
-0.2756313682 -0.1590481102 0.5518152118 4286942624
-0.2752647102 -0.1582242399 0.5510811210 4285889936
-0.2748976350 -0.1574017555 0.5503462553 4283323751
-0.2749631405 -0.1568276435 0.5504773855 4288060847
-0.2745953202 -0.1560070664 0.5497410297 4287402909
-0.2742270827 -0.1551878750 0.5490038395 4283323743
-0.2742917836 -0.1546143591 0.5491333604 4286217863
-0.2739228308 -0.1537970752 0.5483946800 4287467930
-0.2739869952 -0.1532236487 0.5485231280 4288126379
-0.2740509510 -0.1526498199 0.5486511588 4287534242
-0.2736809552 -0.1518349797 0.5479104519 4284113780
-0.2737443745 -0.1512612551 0.5480374694 4284508538
-0.2738075852 -0.1506871432 0.5481640100 4287273125
-0.2738706172 -0.1501126289 0.5482901335 4285299335
-0.2739334106 -0.1495377123 0.5484158397 4288785333
-0.2735617459 -0.1487263292 0.5476718545 4289772228
-0.2736240327 -0.1481515467 0.5477964878 4289575098
-0.2736860812 -0.1475763619 0.5479207635 4289311926
-0.2733134031 -0.1467674673 0.5471746325 4289312447
-0.2733749449 -0.1461924165 0.5472978354 4289115068
-0.2734362483 -0.1456169933 0.5474206209 4282469484
-0.2726277411 -0.1445799917 0.5458019376 4281153624
-0.2726884186 -0.1440056115 0.5459234118 4281416810
-0.2727489173 -0.1434308589 0.5460445285 4281482603
-0.2723740637 -0.1426278800 0.5452941060 4281285737
-0.2724340260 -0.1420532763 0.5454141498 4281285737
-0.2724937797 -0.1414783001 0.5455337167 4281417069
-0.2725532949 -0.1409029514 0.5456528664 4281482862
-0.2726126015 -0.1403272152 0.5457715988 4281220468
-0.2726716697 -0.1397511065 0.5458899140 4281352054
-0.2727305591 -0.1391746253 0.5460077524 4281482349
-0.2727892101 -0.1385977715 0.5461251736 4281548142
-0.2724117637 -0.1378000677 0.5453695655 4281351791
-0.2729058564 -0.1374429464 0.5463587046 4281417584
-0.2725277841 -0.1366463453 0.5456018448 4281287025
-0.2725854814 -0.1360689402 0.5457172990 4281418611
-0.2730791569 -0.1357079595 0.5467057228 4281811827
-0.2735728323 -0.1353447437 0.5476939678 4281417069
-0.2736300230 -0.1347643882 0.5478085279 4284771459
-0.2736870050 -0.1341836751 0.5479226112 4290495450
-0.2737437785 -0.1336026043 0.5480362177 4290823878
-0.2738003135 -0.1330211610 0.5481494069 4289836983
-0.2738566101 -0.1324393600 0.5482621193 4289375151
-0.2739126980 -0.1318572015 0.5483744144 4289177772
-0.2739685774 -0.1312746853 0.5484862924 4289243813
-0.2740241885 -0.1306918114 0.5485976338 4291283396
-0.2740796208 -0.1301085800 0.5487086177 4289572782
-0.2741348147 -0.1295250058 0.5488190651 4289572782
-0.2741897702 -0.1289410740 0.5489290953 4291217353
-0.2746818960 -0.1285615116 0.5499143600 4289638321
-0.2747364938 -0.1279759407 0.5500236750 4289440942
-0.2747908533 -0.1273900419 0.5501325130 4289243563
-0.2748450041 -0.1268037707 0.5502408743 4289375403
-0.2748989165 -0.1262171715 0.5503488183 4289704368
-0.2753904164 -0.1258302778 0.5513328314 4289177770
-0.2754439414 -0.1252420396 0.5514400005 4290033079
-0.2759352326 -0.1248516515 0.5524235964 4290493630
-0.2759884000 -0.1242618039 0.5525299907 4291875283
-0.2764795125 -0.1238679215 0.5535131693 4290427839
-0.2765322924 -0.1232764572 0.5536188483 4290625218
-0.2770231664 -0.1228790879 0.5546015501 4291875283
-0.2770755589 -0.1222860068 0.5547064543 4291875283
-0.2775662243 -0.1218851507 0.5556887984 4291810258
-0.2776182294 -0.1212904602 0.5557929277 4291876051
-0.2781086564 -0.1208861172 0.5567747355 4292336602
-0.2781602740 -0.1202898249 0.5568780899 4292205016
-0.2786504924 -0.1198819876 0.5578594804 4291547086
-0.2791406214 -0.1194719449 0.5588407516 4291612879
-0.2796306610 -0.1190596819 0.5598218441 4291810771
-0.2796815932 -0.1184592471 0.5599237680 4291481806
-0.2801713943 -0.1180435047 0.5609043837 4290626497
-0.2806611359 -0.1176255494 0.5618848205 4291021255
-0.2811507881 -0.1172053814 0.5628651381 4291810773
-0.2816403508 -0.1167829931 0.5638452172 4290889671
-0.2821298242 -0.1163583994 0.5648251772 4290889671
-0.2826192379 -0.1159315929 0.5658049583 4291350222
-0.2831085324 -0.1155025661 0.5667845607 4292271324
-0.2840374410 -0.1152497381 0.5686442256 4292797668
-0.2854061723 -0.1151702553 0.5713843703 4293126633
-0.2858954370 -0.1147317514 0.5723639131 4292600289
-0.2872644067 -0.1146421507 0.5751046538 4292402910
-0.2881936133 -0.1143719330 0.5769649148 4292337117
-0.2895629406 -0.1142712608 0.5797063112 4293192426
-0.3073700368 -0.1907769293 0.6167275310 4288455597
-0.3070185483 -0.1898743063 0.6160222292 4289969096
-0.3053762615 -0.1881778687 0.6127270460 4288916408
-0.3037329018 -0.1864880770 0.6094296575 4287337637
-0.3003671169 -0.1837519258 0.6026763916 4287666602
-0.2935559154 -0.1789306849 0.5890099406 4287140007
-0.2880326807 -0.1749219894 0.5779277682 4286942628
-0.2842290103 -0.1719783843 0.5702958107 4285494928
-0.2821462154 -0.1700891554 0.5661167502 4285165963
-0.2809238732 -0.1687260121 0.5636641979 4284640391
-0.2801316679 -0.1676256955 0.5620746017 4285364114
-0.2793388069 -0.1665285230 0.5604838133 4286811818
-0.2785453200 -0.1654345244 0.5588917136 4286153888
-0.2781825066 -0.1645988673 0.5581637025 4286417315
-0.2778192461 -0.1637645811 0.5574348569 4285430420
-0.2770240903 -0.1626782864 0.5558393598 4285890456
-0.2762283087 -0.1615951657 0.5542426705 4285232526
-0.2762953043 -0.1610184163 0.5543770790 4284311676
-0.2759302855 -0.1601905525 0.5536447167 4284180090
-0.2755648494 -0.1593640745 0.5529114604 4287008419
-0.2751989961 -0.1585389972 0.5521774292 4285692559
-0.2744006217 -0.1574673206 0.5505754948 4283521388
-0.2744660676 -0.1568930000 0.5507068038 4287600554
-0.2740989625 -0.1560721099 0.5499702096 4287600809
-0.2741639018 -0.1554978788 0.5501005054 4283258471
-0.2737960815 -0.1546788812 0.5493624806 4286153361
-0.2734278440 -0.1538612843 0.5486236811 4287469221
-0.2734919488 -0.1532876492 0.5487522483 4288060586
-0.2735558450 -0.1527136117 0.5488804579 4287797414
-0.2736195028 -0.1521391869 0.5490082502 4284310383
-0.2732499540 -0.1513245255 0.5482667089 4284639348
-0.2733131051 -0.1507501900 0.5483934283 4287468960
-0.2733760476 -0.1501754671 0.5485197306 4285692549
-0.2734387815 -0.1496003419 0.5486455560 4288982199
-0.2735013068 -0.1490248293 0.5487710238 4289508543
-0.2731300592 -0.1482136548 0.5480261445 4289639871
-0.2731920779 -0.1476382613 0.5481505394 4289376699
-0.2728201151 -0.1468290538 0.5474042296 4289574589
-0.2728815973 -0.1462537944 0.5475276113 4289377210
-0.2729428411 -0.1456781477 0.5476505160 4282338666
-0.2721358240 -0.1446407437 0.5460312963 4281022806
-0.2721964717 -0.1440661550 0.5461529493 4281220973
-0.2722568810 -0.1434911788 0.5462741852 4281220973
-0.2723171115 -0.1429158300 0.5463949442 4281155437
-0.2719426751 -0.1421130747 0.5456436872 4281155437
-0.2720023692 -0.1415378898 0.5457634330 4281417331
-0.2720618248 -0.1409623176 0.5458827615 4281351538
-0.2721210718 -0.1403863579 0.5460016131 4281482351
-0.2721801102 -0.1398100406 0.5461201072 4281482351
-0.2722389102 -0.1392333359 0.5462380648 4281548144
-0.2722975016 -0.1386562586 0.5463556647 4281548144
-0.2723558843 -0.1380788237 0.5464727879 4281417582
-0.2724140286 -0.1375010014 0.5465894938 4281417582
-0.2720367312 -0.1367041022 0.5458323956 4281352559
-0.2720943391 -0.1361264735 0.5459480286 4281549938
-0.2725872099 -0.1357653439 0.5469369292 4281680756
-0.2730800211 -0.1354020089 0.5479257107 4281220205
-0.2731371522 -0.1348214447 0.5480403900 4284969608
-0.2731940746 -0.1342404932 0.5481545925 4290430427
-0.2732507885 -0.1336591989 0.5482683778 4290823874
-0.2733072639 -0.1330775321 0.5483816862 4289836979
-0.2733635306 -0.1324955076 0.5484945774 4289506989
-0.2734195590 -0.1319131255 0.5486070514 4289375403
-0.2734753788 -0.1313303858 0.5487189889 4289638571
-0.2735309601 -0.1307472885 0.5488305092 4291151810
-0.2735863328 -0.1301638335 0.5489416122 4289902261
-0.2736414671 -0.1295800358 0.5490522385 4289836468
-0.2736963630 -0.1289958805 0.5491624475 4290823363
-0.2741876543 -0.1286161691 0.5501481891 4290428605
-0.2742421925 -0.1280303895 0.5502576232 4290231226
-0.2742965221 -0.1274442375 0.5503665805 4290297019
-0.2743506134 -0.1268577576 0.5504751205 4290757570
-0.2744044662 -0.1262709200 0.5505831838 4290560191
-0.2748951316 -0.1258838773 0.5515676737 4289902261
-0.2749486268 -0.1252954155 0.5516750216 4290823363
-0.2754390836 -0.1249048859 0.5526590943 4291744978
-0.2754921913 -0.1243148074 0.5527656674 4291876564
-0.2759824395 -0.1239207759 0.5537493229 4291416015
-0.2760351598 -0.1233290806 0.5538551211 4291613394
-0.2765251994 -0.1229315549 0.5548384190 4292008152
-0.2765775621 -0.1223382503 0.5549434423 4291744980
-0.2770673633 -0.1219372377 0.5559262633 4291481293
-0.2775571346 -0.1215340123 0.5569089055 4291612879
-0.2776089311 -0.1209378168 0.5570128560 4291810258
-0.2780984640 -0.1205310971 0.5579950809 4291152328
-0.2781498730 -0.1199332997 0.5580982566 4290560191
-0.2786391675 -0.1195230931 0.5590800047 4291218121
-0.2791284025 -0.1191106737 0.5600615740 4291481293
-0.2796175182 -0.1186960414 0.5610430241 4290494398
-0.2796682417 -0.1180940941 0.5611447692 4290362814
-0.2801571488 -0.1176759824 0.5621257424 4290954951
-0.2806459665 -0.1172556505 0.5631065369 4291810773
-0.2811346948 -0.1168331057 0.5640871525 4292008152
-0.2816233337 -0.1164083406 0.5650675893 4292008152
-0.2825506330 -0.1161617413 0.5669282079 4292534496
-0.2830391824 -0.1157316044 0.5679084659 4292797668
-0.2835276425 -0.1152992547 0.5688885450 4292534496
-0.2848939598 -0.1152197570 0.5716300011 4292402656
-0.2853823602 -0.1147810817 0.5726100206 4291744726
-0.2867489457 -0.1146914661 0.5753520131 4291678933
-0.2881157398 -0.1145958304 0.5780943632 4292929000
-0.2890434265 -0.1143204495 0.5799558163 4293521137
-0.3059530854 -0.1903215945 0.6152555346 4288455597
-0.3056020737 -0.1894204319 0.6145496368 4289837510
-0.3052505851 -0.1885205507 0.6138428450 4288850615
-0.3036103845 -0.1868292093 0.6105445027 4287337637
-0.2985327244 -0.1830376238 0.6003336310 4287666602
-0.2925929427 -0.1787420660 0.5883890390 4287074212
-0.2875094414 -0.1749942154 0.5781663656 4286942626
-0.2815634012 -0.1707460284 0.5662091970 4285429135
-0.2837836742 -0.1714583784 0.5706740022 4285165963
-0.2804137468 -0.1687957793 0.5638972521 4284771207
-0.2796230316 -0.1676950455 0.5623071790 4285560723
-0.2788316607 -0.1665974557 0.5607157946 4286811560
-0.2780396640 -0.1655030251 0.5591231585 4286219423
-0.2776775658 -0.1646670699 0.5583949685 4286679972
-0.2773150504 -0.1638324708 0.5576659441 4285429905
-0.2769520879 -0.1629992574 0.5569360852 4286153882
-0.2761579156 -0.1619148254 0.5553389788 4285035401
-0.2757940292 -0.1610852629 0.5546072721 4284245883
-0.2754297256 -0.1602570862 0.5538746715 4284311676
-0.2750650048 -0.1594302952 0.5531412363 4287008417
-0.2746998668 -0.1586049050 0.5524069667 4285495178
-0.2743343413 -0.1577809006 0.5516718626 4283324009
-0.2739683688 -0.1569582969 0.5509359837 4287403175
-0.2736020088 -0.1561370790 0.5501992106 4287600809
-0.2732352018 -0.1553172767 0.5494616032 4283192678
-0.2732997537 -0.1547433436 0.5495914221 4286152848
-0.2733640969 -0.1541689932 0.5497208238 4287600294
-0.2729962766 -0.1533515900 0.5489811301 4288257965
-0.2730601132 -0.1527773440 0.5491095185 4287731621
-0.2731237411 -0.1522026956 0.5492374301 4284310383
-0.2727548778 -0.1513877362 0.5484957099 4284836727
-0.2728179693 -0.1508131921 0.5486225486 4287468960
-0.2728808522 -0.1502382606 0.5487490296 4285560963
-0.2729435265 -0.1496629268 0.5488750935 4289179065
-0.2730059922 -0.1490871906 0.5490006804 4289639616
-0.2726354897 -0.1482757032 0.5482556224 4289704894
