VERSION 0.7
FIELDS x y z rgba
SIZE 4 4 4 4
TYPE F F F U
COUNT 1 1 1 1
WIDTH 920
HEIGHT 1
VIEWPOINT 0.0 0.0 0.0 1.0 0.0 0.0 0.0
POINTS 920
DATA ascii
-0.3020981550 -0.1047089994 0.5497897267 4279512445
-0.3026208878 -0.1042782590 0.5507410169 4279512445
-0.3031434715 -0.1038453728 0.5516920686 4279512445
-0.3031907678 -0.1032485068 0.5517781377 4279446652
-0.3037130833 -0.1028122529 0.5527287126 4279446652
-0.3042352796 -0.1023738459 0.5536790490 4279380859
-0.3042819202 -0.1017742753 0.5537639260 4278855026
-0.3048038185 -0.1013325080 0.5547137260 4279118198
-0.3053255975 -0.1008885950 0.5556633472 4279380861
-0.3058472872 -0.1004425362 0.5566127300 4280301963
-0.3063688278 -0.0999943241 0.5575619340 4281484929
-0.3068902493 -0.0995439664 0.5585108399 4282471824
-0.3078874350 -0.0992448479 0.5603256226 4288651428
-0.3084086776 -0.0987892523 0.5612742305 4290691011
-0.3089298010 -0.0983315110 0.5622226596 4290426800
-0.3064813614 -0.1592261791 0.5588964224 4287270543
-0.3051516712 -0.1579170823 0.5564715862 4287731094
-0.3042878211 -0.1568535119 0.5548962951 4288783782
-0.3034233153 -0.1557931006 0.5533198118 4289244335
-0.3020912707 -0.1544970721 0.5508906841 4288849577
-0.3016923666 -0.1536817998 0.5501632690 4288849577
-0.3012930453 -0.1528679281 0.5494350791 4288981163
-0.2994916141 -0.1513471156 0.5461499691 4289046954
-0.3004931211 -0.1512443721 0.5479763150 4289112747
-0.3000924885 -0.1504347026 0.5472457409 4289178538
-0.2992238998 -0.1493930221 0.5456618071 4289046952
-0.2988223135 -0.1485870630 0.5449294448 4289177513
-0.2979525626 -0.1475508809 0.5433433652 4289243306
-0.2984856963 -0.1472101361 0.5443155766 4289111720
-0.2980829179 -0.1464075297 0.5435810685 4289045927
-0.2976797223 -0.1456063539 0.5428457856 4289178024
-0.2972760797 -0.1448065937 0.5421097279 4289046438
-0.2973402739 -0.1442354172 0.5422267914 4289243556
-0.2969358861 -0.1434376091 0.5414893627 4287532938
-0.2965310514 -0.1426412463 0.5407511592 4282927164
-0.2970629334 -0.1422951967 0.5417210460 4282071855
-0.2966574430 -0.1414999068 0.5409816504 4282070563
-0.2967203259 -0.1409287006 0.5410962701 4282925872
-0.2963140905 -0.1401353776 0.5403554440 4284504383
-0.2963763773 -0.1395643502 0.5404691100 4284438590
-0.2959694266 -0.1387730241 0.5397269130 4282661662
-0.2960311472 -0.1382021755 0.5398395061 4282727455
-0.2956234217 -0.1374128610 0.5390959978 4283843362
-0.2956846356 -0.1368422061 0.5392075777 4284172327
-0.2948067188 -0.1358385831 0.5376065969 4285090347
-0.2953367829 -0.1354844272 0.5385732651 4285156140
-0.2949275374 -0.1346991360 0.5378270149 4284889372
-0.2949876189 -0.1341288835 0.5379365683 4284099856
-0.2950474918 -0.1335582882 0.5380457044 4285018650
-0.2951070964 -0.1329873502 0.5381544232 4285610787
-0.2946964800 -0.1322052181 0.5374056101 4285742119
-0.2947555184 -0.1316344887 0.5375133157 4286005291
-0.2948143482 -0.1310634315 0.5376205444 4286269233
-0.2948729396 -0.1304920167 0.5377274156 4286400819
-0.2944609225 -0.1297130734 0.5369760394 4286137899
-0.2945189476 -0.1291418970 0.5370818973 4285677348
-0.2945767641 -0.1285703927 0.5371872783 4288637001
-0.2946343124 -0.1279985458 0.5372923017 4289492310
-0.2946916521 -0.1274263561 0.5373968482 4287651896
-0.2947487533 -0.1268538535 0.5375009775 4287586103
-0.2948056161 -0.1262810081 0.5376046300 4286204193
-0.2948622406 -0.1257078350 0.5377079248 4284493575
-0.2949186265 -0.1251343191 0.5378107429 4283769088
-0.2949748039 -0.1245604903 0.5379131436 4285084941
-0.2950307131 -0.1239863336 0.5380151272 4286992679
-0.2950863838 -0.1234118491 0.5381166339 4287716402
-0.2951418459 -0.1228370368 0.5382177830 4288374330
-0.2947254777 -0.1220665947 0.5374584794 4289098053
-0.2952519953 -0.1216864437 0.5384186506 4287717166
-0.2948350012 -0.1209172010 0.5376582146 4287190822
-0.2948893905 -0.1203420237 0.5377573967 4287717934
-0.2949435711 -0.1197665259 0.5378561616 4287388969
-0.2949974835 -0.1191907153 0.5379545093 4286599710
-0.2950511575 -0.1186145917 0.5380523801 4287783984
-0.2951045930 -0.1180381551 0.5381498337 4288770101
-0.2956300378 -0.1176493391 0.5391080379 4288967480
-0.2956830859 -0.1170713529 0.5392047763 4289495095
-0.2957358956 -0.1164930537 0.5393010974 4290087232
-0.2957884371 -0.1159144491 0.5393969417 4290414164
-0.2958407700 -0.1153355390 0.5394923091 4290611543
-0.2958928347 -0.1147563159 0.5395872593 4290414414
-0.2959446609 -0.1141767874 0.5396817923 4289690691
-0.2959962487 -0.1135969609 0.5397758484 4288443189
-0.2960475683 -0.1130168289 0.5398694873 4287653673
-0.2960986495 -0.1124363989 0.5399626493 4288058001
-0.2961495221 -0.1118556634 0.5400553346 4291545030
-0.2966732681 -0.1114523858 0.5410104990 4291348418
-0.2967236936 -0.1108701304 0.5411024690 4289966765
-0.2972472012 -0.1104634702 0.5420570970 4280630135
-0.2977706492 -0.1100546643 0.5430116057 4279774826
-0.2978204787 -0.1094696596 0.5431025028 4279578238
-0.2978700995 -0.1088843644 0.5431929827 4279578238
-0.2983930707 -0.1084709540 0.5441467166 4279578238
-0.2989159822 -0.1080553904 0.5451002717 4279512445
-0.2989649773 -0.1074673608 0.5451896191 4279512445
-0.2994875908 -0.1070484221 0.5461426377 4279512445
-0.3000101447 -0.1066273376 0.5470955372 4279446652
-0.3005325496 -0.1062040925 0.5480482578 4279446652
-0.3005807996 -0.1056121141 0.5481361747 4279512445
-0.3011029363 -0.1051855013 0.5490883589 4279512445
-0.3016249835 -0.1047567353 0.5500403643 4279512445
-0.3021469116 -0.1043258160 0.5509921908 4279512445
-0.3026687503 -0.1038927436 0.5519437790 4279512445
-0.3027159870 -0.1032956168 0.5520299077 4279380859
-0.3032375276 -0.1028591841 0.5529810190 4279380859
-0.3037589490 -0.1024205908 0.5539318919 4279380859
-0.3042802811 -0.1019798517 0.5548825264 4279052405
-0.3043267131 -0.1013788059 0.5549672246 4279183991
-0.3048477173 -0.1009347066 0.5559173226 4279643517
-0.3053686023 -0.1004884541 0.5568671823 4280893584
-0.3058893681 -0.1000400484 0.5578168631 4281813621
-0.3064100444 -0.0995894969 0.5587663651 4282800516
-0.3074056804 -0.0992902592 0.5605819821 4289111708
-0.3079261780 -0.0988344699 0.5615311265 4290295982
-0.3084465265 -0.0983765274 0.5624800324 4290426792
-0.3069971204 -0.1591945440 0.5609731674 4287204752
-0.3052033186 -0.1576447189 0.5576953292 4287994268
-0.3043405712 -0.1565811932 0.5561188459 4288981163
-0.3034771681 -0.1555208415 0.5545411706 4288783784
-0.3021468222 -0.1542256773 0.5521102548 4289111979
-0.3012820482 -0.1531725675 0.5505300164 4289309358
-0.3008830845 -0.1523588747 0.5498009920 4289046186
-0.3000170887 -0.1513112485 0.5482186079 4289177772
-0.2996171713 -0.1505012512 0.5474878550 4289375149
-0.2987500131 -0.1494591385 0.5459032655 4289243563
-0.2983491123 -0.1486528516 0.5451707244 4289177773
-0.2979477942 -0.1478479803 0.5444374084 4289177773
-0.2980131507 -0.1472753733 0.5445567966 4289046186
-0.2976110578 -0.1464724392 0.5438221097 4289046186
-0.2972085476 -0.1456709355 0.5430865884 4289177770
-0.2972730398 -0.1450989991 0.5432044268 4289046184
-0.2968697548 -0.1442994475 0.5424675345 4289178020
-0.2964660823 -0.1435013115 0.5417298675 4287270023
-0.2960619628 -0.1427046210 0.5409914255 4282137648
-0.2965930402 -0.1423584521 0.5419618487 4282400820
-0.2961882651 -0.1415628344 0.5412222147 4281808160
-0.2962510586 -0.1409913898 0.5413370132 4282466090
-0.2958455384 -0.1401977539 0.5405959487 4284768066
-0.2959077954 -0.1396264881 0.5407097340 4285689168
-0.2959698439 -0.1390548646 0.5408231020 4284964415
-0.2955632210 -0.1382637620 0.5400800705 4284372278
-0.2951562107 -0.1374741197 0.5393363237 4283646754
-0.2952173352 -0.1369032264 0.5394480824 4283317789
-0.2948095798 -0.1361155957 0.5387029648 4284366624
-0.2948701680 -0.1355449110 0.5388136506 4285287726
-0.2944616377 -0.1347592920 0.5380671620 4285809959
-0.2945216894 -0.1341888160 0.5381768942 4284823064
-0.2945814729 -0.1336179823 0.5382861495 4285083669
-0.2946410477 -0.1330468059 0.5383949876 4285281048
-0.2942311466 -0.1322643459 0.5376459360 4285543968
-0.2942901552 -0.1316933930 0.5377538204 4285872933
-0.2943489254 -0.1311220974 0.5378612280 4286005291
-0.2944074869 -0.1305504590 0.5379682183 4285413154
-0.2944658101 -0.1299784780 0.5380747914 4284755992
-0.2945238948 -0.1294061691 0.5381809473 4283966476
-0.2945817411 -0.1288335025 0.5382866263 4285874727
-0.2941694558 -0.1280559450 0.5375332832 4287585345
-0.2942267358 -0.1274835318 0.5376379490 4285876255
-0.2947539091 -0.1271135211 0.5386012197 4285678876
-0.2943406403 -0.1263377070 0.5378460288 4284625418
-0.2943972349 -0.1257642955 0.5379494429 4283967488
-0.2944535613 -0.1251905560 0.5380524397 4284229633
-0.2945096791 -0.1246164888 0.5381549597 4284690184
-0.2945655584 -0.1240420938 0.5382570624 4285216270
-0.2946211994 -0.1234673709 0.5383587480 4285874200
-0.2946766317 -0.1228923202 0.5384600163 4286729507
-0.2947317958 -0.1223169491 0.5385608077 4286729507
-0.2947867215 -0.1217412502 0.5386611819 4285085191
-0.2943704128 -0.1209716797 0.5379004478 4285150984
-0.2944247723 -0.1203962639 0.5379998088 4285809937
-0.2949500680 -0.1200122461 0.5389596820 4286204695
-0.2950040400 -0.1194352731 0.5390582681 4287257640
-0.2950577736 -0.1188579872 0.5391564369 4289034051
-0.2951112688 -0.1182803810 0.5392541885 4289692235
-0.2951644957 -0.1177024618 0.5393515229 4289692235
-0.2952175140 -0.1171242371 0.5394483805 4289495873
-0.2952702641 -0.1165456995 0.5395447612 4288903736
-0.2953228056 -0.1159668490 0.5396407247 4288309048
-0.2953750789 -0.1153876930 0.5397362709 4286993188
-0.2958990335 -0.1149916276 0.5406937003 4286072078
-0.2959509194 -0.1144109294 0.5407884717 4285479941
-0.2960025370 -0.1138299331 0.5408828259 4285744391
-0.2960539162 -0.1132486239 0.5409767032 4286468114
-0.2961050570 -0.1126670241 0.5410701632 4288058771
-0.2961559594 -0.1120851114 0.5411631465 4291611593
-0.2962065935 -0.1115029082 0.5412557125 4291151293
-0.2967295051 -0.1110973135 0.5422112346 4289440675
-0.2972522974 -0.1106895581 0.5431665182 4280235628
-0.2973023653 -0.1101046056 0.5432580113 4279906663
-0.2978249192 -0.1096934676 0.5442128778 4279709824
-0.2978745699 -0.1091069952 0.5443035960 4279644031
-0.2983968556 -0.1086924821 0.5452579856 4279512445
-0.2984460890 -0.1081044897 0.5453479290 4279446652
-0.2989681065 -0.1076866016 0.5463017821 4279446652
-0.2990169227 -0.1070970967 0.5463909507 4279446652
-0.2995386720 -0.1066758335 0.5473443866 4279446652
-0.3000603020 -0.1062524095 0.5482975841 4279512445
-0.3001084924 -0.1056601778 0.5483856201 4279512445
-0.3006298840 -0.1052333862 0.5493383408 4279512445
-0.3011511564 -0.1048044413 0.5502908230 4279512445
-0.3016723096 -0.1043733433 0.5512431860 4279578238
-0.3021933734 -0.1039400846 0.5521953106 4279512445
-0.3027143180 -0.1035046801 0.5531471968 4279380859
-0.3027613461 -0.1029060856 0.5532331467 4279315066
-0.3032819927 -0.1024673060 0.5541844964 4279315066
-0.3038025200 -0.1020263806 0.5551356673 4279118198
-0.3038489223 -0.1014250740 0.5552204847 4278986612
-0.3043691516 -0.1009807810 0.5561711192 4279642475
-0.3053634465 -0.1006906927 0.5579879284 4280826749
-0.3058835268 -0.1002411619 0.5589382648 4283786109
-0.3068777621 -0.0999439508 0.5607550740 4285957278
-0.3073976636 -0.0994891748 0.5617050529 4289505686
-0.3079174459 -0.0990322530 0.5626548529 4290492581
-0.3084370792 -0.0985731706 0.5636043549 4290623140
-0.3092287779 -0.1613069624 0.5662001371 4288783784
-0.3079043031 -0.1599896699 0.5637750030 4288191647
-0.3051832914 -0.1579549462 0.5587928295 4288125854
-0.3043220639 -0.1568900943 0.5572159290 4287599510
-0.3029947877 -0.1555894166 0.5547856092 4287336338
-0.3016666174 -0.1542937011 0.5523537993 4287796119
-0.3012689054 -0.1534773856 0.5516255498 4288519842
-0.3008707464 -0.1526624560 0.5508965254 4288914598
-0.3000063002 -0.1516135037 0.5493137240 4289375149
-0.2986752689 -0.1503332257 0.5468766093 4289309356
-0.2982755005 -0.1495252103 0.5461446047 4289177770
-0.2992737889 -0.1494168043 0.5479724407 4289243566
-0.2979409397 -0.1481452435 0.5455320477 4289111980
-0.2975399792 -0.1473405659 0.5447978973 4289046956
-0.2976050675 -0.1467673481 0.5449170470 4288981163
-0.2972033620 -0.1459646225 0.5441814661 4289046954
-0.2968012094 -0.1451633126 0.5434451699 4288981161
-0.2963986397 -0.1443634331 0.5427080393 4289047204
-0.2959956527 -0.1435649842 0.5419701934 4287073414
-0.2960591912 -0.1429935098 0.5420865417 4281940782
-0.2956554294 -0.1421970278 0.5413472652 4282269747
-0.2957184315 -0.1416257173 0.5414626002 4281940003
-0.2957811952 -0.1410540491 0.5415775180 4282532140
-0.2953763902 -0.1402600855 0.5408362746 4284833859
-0.2954385877 -0.1396885961 0.5409502387 4286083926
-0.2955005765 -0.1391167343 0.5410637259 4285952078
-0.2955623269 -0.1385445297 0.5411767960 4286478422
-0.2951561213 -0.1377536505 0.5404329896 4285094459
-0.2947494388 -0.1369642168 0.5396884084 4283910185
-0.2948103249 -0.1363927573 0.5397998691 4284367137
-0.2944029272 -0.1356053352 0.5390539169 4285419825
-0.2944632471 -0.1350340694 0.5391643643 4286862901
-0.2945233285 -0.1344624609 0.5392743945 4286402350
-0.2945832014 -0.1338904947 0.5393840075 4285807649
-0.2941744030 -0.1331062317 0.5386354327 4285018133
-0.2937651873 -0.1323234290 0.5378861427 4284886038
-0.2938241363 -0.1317522526 0.5379941463 4284754452
-0.2938829064 -0.1311807185 0.5381017327 4284755224
-0.2939414084 -0.1306088567 0.5382088423 4284294673
-0.2939997017 -0.1300366372 0.5383155942 4284032784
-0.2940577269 -0.1294640899 0.5384218693 4283638026
-0.2941155434 -0.1288911998 0.5385277271 4284822814
-0.2937039435 -0.1281133294 0.5377740860 4287059776
-0.2937612236 -0.1275406778 0.5378789306 4287388724
-0.2942875922 -0.1271705180 0.5388427377 4287717689
-0.2943444550 -0.1265962869 0.5389468670 4287256880
-0.2939315736 -0.1258207262 0.5381908417 4286204192
-0.2939878702 -0.1252467483 0.5382939577 4285216268
-0.2940439582 -0.1246724501 0.5383966565 4284821510
-0.2940998077 -0.1240978166 0.5384988785 4284952583
-0.2941554189 -0.1235228553 0.5386006832 4285742099
-0.2942107618 -0.1229475662 0.5387020707 4287847729
-0.2942658961 -0.1223719567 0.5388029814 4288703038
-0.2943207920 -0.1217960194 0.5389035344 4288637502
-0.2943754494 -0.1212197691 0.5390036106 4289098053
-0.2939595282 -0.1204504743 0.5382420421 4289164875
-0.2940136194 -0.1198744997 0.5383410454 4288901703
-0.2945379615 -0.1194890887 0.5393011570 4288507458
-0.2945916653 -0.1189115569 0.5393995047 4287783735
-0.2946451008 -0.1183337122 0.5394973755 4287061303
-0.2946983278 -0.1177555546 0.5395947695 4286863924
-0.2947512865 -0.1171770841 0.5396917462 4285878308
-0.2948040366 -0.1165983006 0.5397883058 4284562448
-0.2948565185 -0.1160192117 0.5398843884 4284756744
-0.2949087620 -0.1154398099 0.5399800539 4285480467
-0.2949607372 -0.1148601025 0.5400753021 4287190818
-0.2954837680 -0.1144626439 0.5410329103 4288309299
-0.2955353558 -0.1138814017 0.5411273837 4289559871
-0.2955867052 -0.1132998541 0.5412214398 4289296699
-0.2956378162 -0.1127180010 0.5413150191 4288914598
-0.2956886888 -0.1121358499 0.5414081216 4291283146
-0.2962109745 -0.1117313132 0.5423644185 4291019453
-0.2962614000 -0.1111476347 0.5424568057 4289440421
-0.2967834473 -0.1107397079 0.5434126258 4280235374
-0.2968334854 -0.1101545095 0.5435042381 4279972202
-0.2973552644 -0.1097432002 0.5444596410 4279644031
-0.2974048555 -0.1091564819 0.5445504785 4279578238
-0.2979263663 -0.1087417975 0.5455053449 4279512445
-0.2984477878 -0.1083249524 0.5464600921 4279446652
-0.2984968126 -0.1077354923 0.5465498567 4279446652
-0.2990179658 -0.1073152721 0.5475040674 4279446652
-0.2990665436 -0.1067242920 0.5475930572 4279446652
-0.2995874286 -0.1063006967 0.5485467315 4279446652
-0.2996355891 -0.1057082117 0.5486349463 4279512445
-0.3001561761 -0.1052812412 0.5495881438 4279512445
-0.3006766737 -0.1048521176 0.5505411625 4279512445
-0.3011970520 -0.1044208333 0.5514940023 4279512445
-0.3017173409 -0.1039873958 0.5524466038 4279512445
-0.3022375107 -0.1035518125 0.5533990860 4279446652
-0.3027575612 -0.1031140685 0.5543512702 4279315066
-0.3028043807 -0.1025139913 0.5544369817 4279249273
-0.3033241332 -0.1020728797 0.5553886890 4279183734
-0.3033705056 -0.1014713123 0.5554735661 4279052148
-0.3043633103 -0.1011841968 0.5572914481 4280364886
-0.3048827052 -0.1007366255 0.5582424998 4283654536
-0.3054020107 -0.1002869010 0.5591933131 4288783790
-0.3063947558 -0.0999895707 0.5610110164 4289968064
-0.3073875010 -0.0996882021 0.5628287196 4290096534
-0.3079065681 -0.0992301404 0.5637791753 4290754464
-0.3088992834 -0.0989216417 0.5655968189 4290557346
-0.3147710264 -0.1645326316 0.5775225163 4289112494
-0.3060201406 -0.1593346745 0.5614669323 4289112494
-0.3037676811 -0.1575426608 0.5573343039 4288849322
-0.3015139699 -0.1557591558 0.5531992316 4287862682
-0.3029764295 -0.1558970362 0.5558825135 4287204752
-0.3007209897 -0.1541234702 0.5517443419 4286809476
-0.3003238440 -0.1533077061 0.5510157347 4287204234
-0.2994612753 -0.1522569358 0.5494331121 4287796371
-0.2990631759 -0.1514448673 0.5487027168 4288256922
-0.2991298437 -0.1508688480 0.5488250256 4288190875
-0.2978003621 -0.1495912373 0.5463857651 4288914598
-0.2974664271 -0.1482107192 0.5457731485 4288980908
-0.2975318134 -0.1476367563 0.5458930731 4289112749
-0.2971312106 -0.1468322724 0.5451580882 4288981163
-0.2967301905 -0.1460292190 0.5444223285 4289046954
-0.2963287532 -0.1452275813 0.5436857939 4289046954
-0.2959268987 -0.1444273740 0.5429484248 4288981411
-0.2959907055 -0.1438551396 0.5430655479 4287007621
-0.2955880761 -0.1430568993 0.5423268676 4282796090
-0.2956513762 -0.1424848288 0.5424429178 4282993469
-0.2952480018 -0.1416885555 0.5417028666 4282663467
-0.2953107059 -0.1411166489 0.5418179035 4282466088
-0.2953732014 -0.1405443996 0.5419325829 4283978549
-0.2949687541 -0.1397506446 0.5411905050 4284899651
-0.2950307131 -0.1391785592 0.5413041711 4284635702
-0.2950924039 -0.1386061311 0.5414174199 4285622597
-0.2951538861 -0.1380333304 0.5415301919 4285619774
-0.2947480381 -0.1372426748 0.5407855511 4284830258
-0.2943417728 -0.1364534646 0.5400401354 4285221933
-0.2944023609 -0.1358814240 0.5401513577 4286077242
-0.2939953506 -0.1350942403 0.5394045711 4287126332
-0.2940554023 -0.1345223933 0.5395147204 4286928953
-0.2941152155 -0.1339501888 0.5396245122 4286860854
-0.2941747904 -0.1333776563 0.5397338271 4286268717
-0.2937663794 -0.1325936168 0.5389844775 4285347362
-0.2933575213 -0.1318110675 0.5382343531 4284557846
-0.2938841879 -0.1314486265 0.5392006636 4284360213
-0.2934747040 -0.1306672096 0.5384493470 4284623385
-0.2935329378 -0.1300947666 0.5385561585 4285413925
-0.2935909629 -0.1295219809 0.5386626124 4286269234
-0.2936487198 -0.1289488524 0.5387685895 4286862397
-0.2937062681 -0.1283753961 0.5388742089 4288112464
-0.2937635779 -0.1278015971 0.5389793515 4288768326
-0.2938206494 -0.1272274703 0.5390840173 4288702533
-0.2938774824 -0.1266530007 0.5391883254 4288505407
-0.2939340770 -0.1260782033 0.5392921567 4288308028
-0.2939904332 -0.1255030781 0.5393955708 4288176694
-0.2940465808 -0.1249276176 0.5394985676 4288308280
-0.2941024601 -0.1243518293 0.5396010876 4288110899
-0.2941581309 -0.1237757131 0.5397032499 4288505657
-0.2942135334 -0.1231992692 0.5398048759 4288900674
-0.2942687273 -0.1226224974 0.5399061441 4289098053
-0.2943236530 -0.1220454052 0.5400069356 4288704073
-0.2939088643 -0.1212742627 0.5392459035 4288177729
-0.2939632237 -0.1206974462 0.5393456817 4287455299
-0.2940173745 -0.1201203167 0.5394449830 4286534197
-0.2940712571 -0.1195428595 0.5395438671 4285021219
-0.2941249311 -0.1189650893 0.5396423340 4283573773
-0.2941783369 -0.1183870062 0.5397403240 4283115027
-0.2947015464 -0.1179967970 0.5407002568 4283772957
-0.2947545648 -0.1174171641 0.5407975316 4285418810
-0.2948073447 -0.1168372184 0.5408943295 4286800463
-0.2948598564 -0.1162569523 0.5409907103 4288244803
-0.2949121594 -0.1156763881 0.5410866737 4288573768
-0.2949641943 -0.1150955111 0.5411821604 4289297475
-0.2950159907 -0.1145143285 0.5412772298 4289297475
-0.2950675786 -0.1139328331 0.5413718224 4289493824
-0.2951188684 -0.1133510396 0.5414659381 4289296445
-0.2956407070 -0.1129487976 0.5424233675 4288586914
-0.2956916094 -0.1123654768 0.5425167680 4291087048
-0.2957422733 -0.1117818430 0.5426097512 4291348932
-0.2957926989 -0.1111979187 0.5427021980 4289440935
-0.2963139415 -0.1107898280 0.5436586142 4280301170
-0.2963639498 -0.1102043763 0.5437503457 4279972205
-0.2973561883 -0.1099671796 0.5455708504 4279578238
-0.2974058390 -0.1093792766 0.5456619263 4279578238
-0.2979266346 -0.1089634895 0.5466175079 4279578238
-0.2979758680 -0.1083740592 0.5467078090 4279512445
-0.2984964252 -0.1079548895 0.5476628542 4279512445
-0.2985452414 -0.1073639542 0.5477524400 4279512445
-0.2985937893 -0.1067727208 0.5478415489 4279512445
-0.2991138995 -0.1063489467 0.5487957597 4279512445
-0.2996338904 -0.1059230193 0.5497497916 4279578238
-0.2996818423 -0.1053290591 0.5498377681 4279578238
-0.3002015352 -0.1048997566 0.5507913232 4279578238
-0.3007211387 -0.1044682935 0.5517446399 4279512445
-0.3012406528 -0.1040346771 0.5526977777 4279512445
-0.3017600477 -0.1035989076 0.5536507368 4279446652
-0.3022793233 -0.1031609774 0.5546035171 4279380859
-0.3027984798 -0.1027208939 0.5555559993 4279249273
-0.3028450906 -0.1021193489 0.5556415319 4279249527
-0.3033639491 -0.1016758904 0.5565934777 4278788976
-0.3038826883 -0.1012302861 0.5575453043 4281877070
-0.3044013381 -0.1007825211 0.5584968328 4287930026
-0.3053925931 -0.1004881635 0.5603155494 4291018937
-0.3063838780 -0.1001897678 0.5621342659 4289966249
-0.3073751628 -0.0998873338 0.5639530420 4290424472
-0.3078935146 -0.0994281396 0.5649040937 4290885023
-0.3088847697 -0.0991185755 0.5667227507 4290491553
-0.3064579666 -0.1598884463 0.5634183288 4288652456
-0.3042787015 -0.1575083733 0.5594118237 4289244333
-0.3015641570 -0.1554871947 0.5544211268 4288783782
-0.3025605083 -0.1553828716 0.5562528968 4287862932
-0.3007721305 -0.1538500488 0.5529649854 4287402381
-0.2999112010 -0.1527970433 0.5513821840 4287335818
-0.2990496159 -0.1517472416 0.5497982502 4287072646
-0.2986519039 -0.1509353667 0.5490670204 4287138441
-0.2982537150 -0.1501248926 0.5483349562 4289046438
-0.2978551090 -0.1493158340 0.5476021171 4289112494
-0.2969913185 -0.1482761353 0.5460140705 4288915115
-0.2975215018 -0.1479330957 0.5469887853 4289112749
-0.2966567278 -0.1468971521 0.5453989506 4288981163
-0.2962564230 -0.1460937560 0.5446629524 4289112745
-0.2958556712 -0.1452918053 0.5439261794 4289112745
-0.2959197760 -0.1447188109 0.5440440774 4288915617
-0.2955182791 -0.1439188123 0.5433059335 4287139206
-0.2951163650 -0.1431202441 0.5425669551 4282927676
-0.2956451774 -0.1427727789 0.5435392261 4283388227
-0.2947769165 -0.1417513490 0.5419428945 4282334502
-0.2948395908 -0.1411792189 0.5420581698 4282334502
-0.2949020565 -0.1406067312 0.5421729684 4283649325
-0.2949642837 -0.1400338858 0.5422873497 4283517739
-0.2945601940 -0.1392403543 0.5415444970 4282925084
-0.2946218550 -0.1386676729 0.5416578650 4283188256
-0.2946833074 -0.1380946487 0.5417708158 4284698159
-0.2942781448 -0.1373036653 0.5410259366 4284237608
-0.2938725650 -0.1365141422 0.5402802825 4285155626
-0.2943997085 -0.1361576468 0.5412493944 4286274107
-0.2939934731 -0.1353692263 0.5405025482 4287192386
-0.2935868204 -0.1345822811 0.5397549272 4286995007
-0.2936466038 -0.1340098530 0.5398648381 4287190593
-0.2937061489 -0.1334370822 0.5399743319 4286993214
-0.2932984233 -0.1326527297 0.5392247438 4286071605
-0.2933574021 -0.1320801675 0.5393331647 4285479468
-0.2934161723 -0.1315072626 0.5394411683 4285018145
-0.2934746742 -0.1309340149 0.5395488143 4284623387
-0.2930655777 -0.1301528513 0.5387966037 4284427030
-0.2931235433 -0.1295798272 0.5389031768 4285545511
-0.2931812704 -0.1290064752 0.5390093327 4286203953
-0.2932387590 -0.1284327805 0.5391150713 4286664504
-0.2932960391 -0.1278587580 0.5392203331 4287516980
-0.2933530807 -0.1272843778 0.5393251777 4287845945
-0.2934098542 -0.1267096847 0.5394296050 4287780402
-0.2934664190 -0.1261346489 0.5395336151 4287846195
-0.2935227454 -0.1255592853 0.5396371484 4288175922
-0.2935788333 -0.1249835864 0.5397402644 4288504887
-0.2936346829 -0.1244075596 0.5398429632 4287913519
-0.2936903238 -0.1238312051 0.5399451852 4288176691
-0.2937456965 -0.1232545227 0.5400470495 4287191085
-0.2938008308 -0.1226775199 0.5401483774 4286401569
-0.2938557267 -0.1221001893 0.5402493477 4285810472
-0.2939104140 -0.1215225384 0.5403498411 4284955163
-0.2934959829 -0.1207516640 0.5395879149 4285219121
-0.2935500741 -0.1201742887 0.5396873951 4286140223
-0.2936039567 -0.1195966005 0.5397863984 4285219901
-0.2936575711 -0.1190185919 0.5398849845 4283377697
-0.2937109470 -0.1184402630 0.5399831533 4283116069
-0.2942333519 -0.1180499047 0.5409435630 4283510827
-0.2942863405 -0.1174700260 0.5410409570 4286011735
-0.2943390608 -0.1168898344 0.5411379337 4288248697
-0.2943915725 -0.1163093299 0.5412344337 4289495383
-0.2944438159 -0.1157285199 0.5413305163 4289034832
-0.2944958508 -0.1151473969 0.5414261818 4289298243
-0.2945476174 -0.1145659685 0.5415213108 4288903485
-0.2945991158 -0.1139842346 0.5416160226 4289494078
-0.2946504056 -0.1134021953 0.5417103171 4289625664
-0.2951714694 -0.1129997894 0.5426682830 4288719270
-0.2952223420 -0.1124162227 0.5427618027 4291087818
-0.2952729464 -0.1118323430 0.5428548455 4291151299
-0.2953233421 -0.1112481728 0.5429474711 4288848544
-0.2958438098 -0.1108399183 0.5439043641 4280037746
-0.2963641882 -0.1104295030 0.5448610783 4280235125
-0.2968844771 -0.1100169271 0.5458176136 4279644031
-0.2974046767 -0.1096021906 0.5467740297 4279578238
-0.2974541187 -0.1090128124 0.5468649268 4279512445
-0.2979740500 -0.1085946932 0.5478208065 4279512445
-0.2980231047 -0.1080037951 0.5479109287 4279512445
-0.2980718613 -0.1074125990 0.5480006337 4279512445
-0.2981203794 -0.1068211198 0.5480898619 4279578238
-0.2986397147 -0.1063971743 0.5490446091 4279578238
-0.2991589308 -0.1059710607 0.5499991775 4279578238
-0.2996780276 -0.1055428013 0.5509535074 4279644031
-0.2997257710 -0.1049473658 0.5510413051 4279644031
-0.3002445996 -0.1045157239 0.5519951582 4279578238
-0.3007633090 -0.1040819287 0.5529488325 4279512445
-0.3012819290 -0.1036459729 0.5539022684 4279446652
-0.3018004298 -0.1032078564 0.5548555255 4279380859
-0.3023188114 -0.1027675867 0.5558085442 4279380859
-0.3028370738 -0.1023251638 0.5567613840 4279446906
-0.3028834462 -0.1017221436 0.5568466783 4278723183
-0.3038732708 -0.1014338508 0.5586664677 4284836965
-0.3043912053 -0.1009849608 0.5596186519 4289837233
-0.3053810000 -0.1006895378 0.5614383817 4290885799
-0.3063708246 -0.1003900766 0.5632581711 4291148971
-0.3073606789 -0.1000865847 0.5650779605 4290818460
-0.3078783154 -0.0996262431 0.5660296679 4291542183
-0.3093403876 -0.0994674712 0.5687176585 4290425761
-0.3773647547 -0.2003751993 0.6951989532 4288981169
-0.3917918205 -0.2072338015 0.7217772007 4288849583
-0.3105952144 -0.1623785496 0.5721929669 4287731094
-0.3069624007 -0.1598509997 0.5655004382 4287994266
-0.3042538464 -0.1578177512 0.5605106354 4289243817
-0.3010805845 -0.1555555016 0.5546647310 4289572782
-0.3025387228 -0.1556895971 0.5573509336 4289310126
-0.3002899587 -0.1539177150 0.5532081723 4289244333
-0.2994304597 -0.1528642774 0.5516247749 4288848805
-0.2985703349 -0.1518140286 0.5500402451 4287927703
-0.2991007566 -0.1514715105 0.5510173440 4287467152
-0.2977758348 -0.1501910239 0.5485765338 4288848805
-0.2973779142 -0.1493816376 0.5478435159 4289046187
-0.2965155542 -0.1483415216 0.5462548137 4289309359
-0.2970449626 -0.1479983628 0.5472301245 4289178289
-0.2966458797 -0.1471923292 0.5464949012 4289046703
-0.2962463498 -0.1463877112 0.5457588434 4288916910
-0.2958464026 -0.1455845237 0.5450220704 4288719531
-0.2954460382 -0.1447827667 0.5442844629 4288916130
-0.2950452268 -0.1439824253 0.5435460806 4286942340
-0.2946439981 -0.1431835294 0.5428069234 4282597425
-0.2951720357 -0.1428359598 0.5437796712 4283715906
-0.2947701514 -0.1420381218 0.5430393219 4282728492
-0.2943678498 -0.1412417442 0.5422981977 4282728492
-0.2944302559 -0.1406690180 0.5424131751 4282991141
-0.2944924533 -0.1400959492 0.5425277352 4282991141
-0.2945543826 -0.1395225078 0.5426418781 4284303656
-0.2941506803 -0.1387291849 0.5418981314 4283711519
-0.2942120731 -0.1381559372 0.5420112610 4284366108
-0.2938076258 -0.1373646259 0.5412661433 4285155624
-0.2938684821 -0.1367915571 0.5413782001 4286075184
-0.2934632897 -0.1360022724 0.5406317711 4286667321
-0.2935235798 -0.1354294121 0.5407428145 4287322684
-0.2931176126 -0.1346421242 0.5399949551 4287322684
-0.2931773663 -0.1340694726 0.5401049852 4287189819
-0.2932368517 -0.1334964633 0.5402145982 4286597682
-0.2928298414 -0.1327117831 0.5394647717 4285873705
-0.2928887904 -0.1321389973 0.5395733714 4285281568
-0.2929475009 -0.1315658689 0.5396815538 4284822047
-0.2930059731 -0.1309923828 0.5397893190 4284295703
-0.2930642366 -0.1304185688 0.5398966074 4283968794
-0.2931222618 -0.1298443973 0.5400034785 4283705622
-0.2931800485 -0.1292698979 0.5401099324 4283378200
-0.2927706540 -0.1284901202 0.5393557549 4283443993
-0.2928278744 -0.1279158592 0.5394611955 4283641364
-0.2928848565 -0.1273412555 0.5395661592 4283772950
-0.2929416299 -0.1267663240 0.5396707654 4284100891
-0.2929981351 -0.1261910498 0.5397748351 4283903512
-0.2930544317 -0.1256154478 0.5398785472 4284428827
-0.2931104898 -0.1250395179 0.5399818420 4284626206
-0.2931663096 -0.1244632527 0.5400846601 4285282849
-0.2932218611 -0.1238866672 0.5401870012 4285282849
-0.2932772040 -0.1233097464 0.5402889848 4285085468
-0.2933323085 -0.1227325052 0.5403904915 4285940777
-0.2929192483 -0.1219601110 0.5396295190 4286402617
-0.2929737866 -0.1213831380 0.5397300124 4286994754
-0.2930280864 -0.1208058447 0.5398300290 4288311647
-0.2930821478 -0.1202282310 0.5399296284 4288443233
-0.2931359708 -0.1196503043 0.5400288105 4286798671
-0.2931895554 -0.1190720499 0.5401275158 4284430123
-0.2932429016 -0.1184934825 0.5402258039 4283114527
-0.2932960093 -0.1179146022 0.5403236151 4283311906
-0.2938174903 -0.1175228506 0.5412842631 4284825648
-0.2938701808 -0.1169424132 0.5413813591 4288049505
-0.2939226329 -0.1163616702 0.5414780378 4290088810
-0.2944437265 -0.1159652695 0.5424379706 4289167708
-0.2944957912 -0.1153829843 0.5425338745 4289101389
-0.2945475876 -0.1148003861 0.5426293015 4289364561
-0.2945991755 -0.1142174751 0.5427243114 4289691984
-0.2946504951 -0.1136342660 0.5428189039 4289165640
-0.2947015762 -0.1130507514 0.5429129601 4289243045
-0.2947523892 -0.1124669313 0.5430066586 4291545800
-0.2952724099 -0.1120609716 0.5439646244 4291217355
-0.2953228354 -0.1114756167 0.5440575480 4288519842
-0.2953730226 -0.1108899713 0.5441499949 4280037746
-0.2958926260 -0.1104793847 0.5451071858 4280103539
-0.2968818843 -0.1102410704 0.5469296575 4279383166
-0.2969315350 -0.1096517369 0.5470211506 4279317373
-0.2974508703 -0.1092346683 0.5479778647 4279578502
-0.2975001335 -0.1086438149 0.5480685830 4279578502
-0.2980191708 -0.1082233638 0.5490248203 4279644033
-0.2980679870 -0.1076309830 0.5491147637 4279644033
-0.2981165648 -0.1070383191 0.5492042303 4279513469
-0.2981648743 -0.1064453572 0.5492932796 4279513469
-0.2986833155 -0.1060190722 0.5502483249 4279513220
-0.2992016375 -0.1055906340 0.5512032509 4279513220
-0.2992493510 -0.1049949452 0.5512911081 4279446656
-0.2997673750 -0.1045631245 0.5522454977 4279709828
-0.2998146713 -0.1039659306 0.5523325801 4279643768
-0.3008031547 -0.1036930010 0.5541536212 4279643768
-0.3013208807 -0.1032547057 0.5551073551 4279709561
-0.3018384874 -0.1028142497 0.5560609102 4279643768
-0.3023559749 -0.1023716405 0.5570142865 4278724984
-0.3028733432 -0.1019268706 0.5579674244 4278922363
-0.3033906221 -0.1014799476 0.5589203238 4287728237
-0.3043789268 -0.1011875048 0.5607410669 4290557336
-0.3053672612 -0.1008910239 0.5625618696 4291082659
-0.3063556254 -0.1005904973 0.5643826723 4291280038
-0.3073440194 -0.1002859399 0.5662034750 4290623140
-0.3083324134 -0.0999773294 0.5680243373 4290359968
-0.3093208075 -0.0996646881 0.5698452592 4289769636
-0.3827596307 -0.2036564946 0.7065833807 4290099650
-0.3819248974 -0.2024289966 0.7050424814 4288915376
-0.3760082424 -0.1985218227 0.6941202283 4288981421
-0.3747088909 -0.1970672607 0.6917215586 4287862940
-0.3724843562 -0.1951333284 0.6876149774 4287665301
-0.3087798357 -0.1611271352 0.5700149536 4287138957
-0.3046891987 -0.1583676040 0.5624635220 4288125850
-0.3019837737 -0.1563420296 0.5574692488 4288783780
-0.3011271060 -0.1552809030 0.5558878779 4289310126
-0.3002698123 -0.1542229503 0.5543052554 4289507505
-0.2994118929 -0.1531681865 0.5527215004 4289441712
-0.2976275384 -0.1516449302 0.5494275689 4289244333
-0.2972311080 -0.1508332938 0.5486957431 4288848805
-0.2968342304 -0.1500230730 0.5479630828 4289243563
-0.2969657481 -0.1488713473 0.5482058525 4289243566
-0.2961044014 -0.1478322148 0.5466157794 4289309359
-0.2961694002 -0.1472572088 0.5467357635 4289309359
-0.2957705855 -0.1464522630 0.5459995270 4288982444
-0.2953713238 -0.1456487477 0.5452625155 4288719272
-0.2954354584 -0.1450744122 0.5453808904 4289047203
-0.2950354517 -0.1442728490 0.5446424484 4287007620
-0.2946350276 -0.1434727311 0.5439032912 4282925620
-0.2942341566 -0.1426740438 0.5431632996 4283780929
-0.2942970693 -0.1421009302 0.5432794690 4283583029
-0.2943597734 -0.1415274441 0.5433951616 4283911994
-0.2939578295 -0.1407312751 0.5426532030 4283911214
-0.2940199673 -0.1401579678 0.5427678823 4283648042
-0.2940818965 -0.1395843029 0.5428822041 4284828204
-0.2936788797 -0.1387906671 0.5421382189 4284828204
-0.2937402427 -0.1382171810 0.5422514677 4285484328
-0.2933364809 -0.1374255419 0.5415061712 4286273844
-0.2933972776 -0.1368522495 0.5416184068 4286864954
-0.2929928005 -0.1360626221 0.5408716798 4286799161
-0.2930530310 -0.1354895383 0.5409829021 4286599990
-0.2926478088 -0.1347019374 0.5402348042 4286205232
-0.2927074730 -0.1341290474 0.5403450131 4285480745
-0.2927669585 -0.1335558146 0.5404547453 4284625436
-0.2923606336 -0.1327708066 0.5397046804 4284033047
-0.2924195230 -0.1321977824 0.5398134589 4283967254
-0.2924782038 -0.1316244155 0.5399217606 4284033562
-0.2925366461 -0.1310507059 0.5400296450 4283573011
-0.2925948501 -0.1304766536 0.5401371121 4283376660
-0.2926528454 -0.1299022585 0.5402441025 4283771418
-0.2927105725 -0.1293275207 0.5403507352 4283575581
-0.2923018932 -0.1285474300 0.5395963192 4283246616
-0.2923590839 -0.1279729307 0.5397018790 4283246356
-0.2924160361 -0.1273980886 0.5398069620 4282720012
-0.2929392159 -0.1270251870 0.5407727957 4282720012
-0.2925292253 -0.1262474209 0.5400159359 4283114770
-0.2925854921 -0.1256715804 0.5401197672 4283245584
-0.2926414907 -0.1250954121 0.5402231812 4282850826
-0.2926972806 -0.1245189086 0.5403261781 4283508497
-0.2927528024 -0.1239420846 0.5404286981 4284100634
-0.2928081155 -0.1233649254 0.5405307412 4284297759
-0.2928631604 -0.1227874458 0.5406324267 4284692517
-0.2924508154 -0.1220147312 0.5398712158 4284693547
-0.2925053239 -0.1214375198 0.5399718285 4285812028
-0.2925595939 -0.1208599880 0.5400719643 4287523161
-0.2926136255 -0.1202821359 0.5401717424 4287720540
-0.2926673889 -0.1197039634 0.5402709842 4287194453
-0.2927209437 -0.1191254780 0.5403698683 4285418042
-0.2927742600 -0.1185466722 0.5404682755 4283838760
-0.2928273082 -0.1179675460 0.5405662060 4282851865
-0.2933479846 -0.1175756305 0.5415273905 4283246616
-0.2934006453 -0.1169949621 0.5416246057 4285023027
-0.2934530973 -0.1164139733 0.5417214036 4288641881
-0.2939733863 -0.1160174161 0.5426818728 4288773467
-0.2940253913 -0.1154348776 0.5427778959 4288377929
-0.2940771878 -0.1148520410 0.5428735018 4289299031
-0.2941287160 -0.1142688841 0.5429686308 4289889627
-0.2941800058 -0.1136854291 0.5430632830 4289100111
-0.2942310572 -0.1131016687 0.5431575179 4289440170
-0.2942818403 -0.1125176102 0.5432513356 4291479753
-0.2943323851 -0.1119332388 0.5433446169 4291151560
-0.2948514521 -0.1115258783 0.5443028212 4288388254
-0.2953704596 -0.1111163571 0.5452609062 4280169330
-0.2954204082 -0.1105292365 0.5453531742 4280235123
-0.2964081466 -0.1102908328 0.5471765399 4279514237
-0.2964577675 -0.1097012460 0.5472681522 4279448444
-0.2969763279 -0.1092840061 0.5482254028 4279578499
-0.2970255315 -0.1086928993 0.5483162403 4279578499
-0.2975437939 -0.1082722694 0.5492729545 4279578751
-0.2975925803 -0.1076796427 0.5493630171 4279644544
-0.2976411283 -0.1070867255 0.5494526029 4279579516
-0.2981589437 -0.1066614836 0.5504085422 4279645309
-0.2982070446 -0.1060670540 0.5504973531 4279578499
-0.2987245917 -0.1056384295 0.5514527559 4279644292
-0.2987722754 -0.1050424874 0.5515407324 4279578240
-0.2992895246 -0.1046104878 0.5524956584 4279512447
-0.2998066843 -0.1041763201 0.5534502864 4279643768
-0.2998537421 -0.1035776511 0.5535371900 4279841147
-0.3008406758 -0.1033015177 0.5553590655 4279578492
-0.3013575077 -0.1028608829 0.5563131571 4279446906
-0.3018741906 -0.1024180874 0.5572670102 4279119483
-0.3023908138 -0.1019731313 0.5582206249 4279908999
-0.3029072881 -0.1015260145 0.5591740608 4288977788
-0.3038940728 -0.1012334526 0.5609956980 4291017371
-0.3048808873 -0.1009368524 0.5628173947 4290819230
-0.3063382804 -0.1007910296 0.5655077696 4291082402
-0.3073251843 -0.1004853994 0.5673296452 4290886314
-0.3083121181 -0.1001757234 0.5691515207 4290425763
-0.3766101301 -0.2007962018 0.6966596842 4290560969
-0.3748534024 -0.1990891397 0.6934100389 4288389800
-0.3740178645 -0.1978766769 0.6918644905 4289178800
-0.3722590804 -0.1961810738 0.6886110306 4288981421
-0.3700377643 -0.1942499131 0.6845020056 4288060570
-0.3050512075 -0.1595084965 0.5642887354 4286942089
-0.3023512661 -0.1574753076 0.5592944026 4286612611
-0.3005732894 -0.1559315175 0.5560054779 4287467920
-0.2992560565 -0.1546331048 0.5535687804 4288849573
-0.2988618016 -0.1538151354 0.5528395176 4289178538
-0.2980051041 -0.1527617276 0.5512547493 4289178540
-0.2971477509 -0.1517115235 0.5496688485 4289310126
-0.2972142398 -0.1511346102 0.5497918129 4289440942
-0.2968181372 -0.1503231525 0.5490591526 4289375149
-0.2964216471 -0.1495131105 0.5483256578 4289178287
-0.2960247099 -0.1487044841 0.5475913882 4289112494
-0.2965526283 -0.1483601779 0.5485679507 4289177773
-0.2956922948 -0.1473220438 0.5469765067 4289243566
-0.2957569957 -0.1467464268 0.5470962524 4288981674
-0.2953585684 -0.1459416896 0.5463591814 4288850088
-0.2949596941 -0.1451383680 0.5456213355 4289309861
-0.2945604026 -0.1443364918 0.5448827147 4287072899
-0.2941606641 -0.1435360312 0.5441432595 4282332970
-0.2942238450 -0.1429621577 0.5442602038 4282925107
-0.2938233912 -0.1421636790 0.5435193777 4283845172
-0.2938860357 -0.1415899694 0.5436352491 4284371516
-0.2934848070 -0.1407934725 0.5428930521 4284566834
-0.2935468853 -0.1402199417 0.5430079103 4284830006
-0.2936087549 -0.1396460533 0.5431223512 4286010935
-0.2932064533 -0.1388520896 0.5423781872 4286471486
-0.2932677567 -0.1382783651 0.5424915552 4287062332
-0.2928647101 -0.1374864131 0.5417460203 4287062332
-0.2924612463 -0.1366959065 0.5409996510 4286798648
-0.2929860055 -0.1363390088 0.5419703722 4285943339
-0.2925818861 -0.1355496198 0.5412228107 4285218594
-0.2926418483 -0.1349759400 0.5413337350 4284626457
-0.2922369838 -0.1341885775 0.5405848622 4284165144
-0.2922964096 -0.1336151212 0.5406947732 4283901972
-0.2923555970 -0.1330412924 0.5408042073 4283967769
-0.2919496596 -0.1322565377 0.5400533080 4284362527
-0.2920082808 -0.1316829324 0.5401617885 4285218093
-0.2920666933 -0.1311089993 0.5402697921 4285415472
-0.2921248674 -0.1305347085 0.5403774381 4285284657
-0.2921828032 -0.1299600750 0.5404846072 4286074173
-0.2922405005 -0.1293851137 0.5405912995 4286074430
-0.2918325365 -0.1286046803 0.5398366451 4285482293
-0.2918896675 -0.1280299574 0.5399423838 4284232998
-0.2919465899 -0.1274548918 0.5400476456 4283311896
-0.2924689651 -0.1270818412 0.5410139561 4283904544
-0.2920596898 -0.1263037473 0.5402568579 4285154611
-0.2921158969 -0.1257276684 0.5403608680 4284036129
-0.2921718657 -0.1251512617 0.5404644012 4283049234
-0.2922276258 -0.1245745271 0.5405675173 4283641371
-0.2922831178 -0.1239974648 0.5406701565 4283838750
-0.2923383713 -0.1234200746 0.5407723784 4282654479
-0.2919270694 -0.1226464286 0.5400115252 4282917651
-0.2924481928 -0.1222643107 0.5409755111 4283312670
-0.2920362353 -0.1214918643 0.5402134657 4283444256
-0.2920904458 -0.1209140942 0.5403137803 4284102954
-0.2921444178 -0.1203360036 0.5404136181 4284826677
-0.2921981812 -0.1197575927 0.5405130386 4285747777
-0.2922516763 -0.1191788614 0.5406120420 4285418812
-0.2923049629 -0.1185998172 0.5407105684 4284628528
-0.2923579812 -0.1180204526 0.5408086181 4283641633
-0.2924107611 -0.1174407750 0.5409063101 4282918162
-0.2929305136 -0.1170474663 0.5418677330 4282786576
-0.2929828763 -0.1164662391 0.5419645905 4286470971
-0.2935023904 -0.1160695255 0.5429255962 4288510554
-0.2935543656 -0.1154867411 0.5430217385 4287457090
-0.2936061323 -0.1149036586 0.5431174636 4288641364
-0.2936576307 -0.1143202633 0.5432127118 4289889887
-0.2937088609 -0.1137365624 0.5433075428 4288837199
-0.2937598825 -0.1131525561 0.5434018970 4289703342
-0.2942785025 -0.1127474979 0.5443612337 4291413960
-0.2943291068 -0.1121619567 0.5444548726 4291217607
-0.2943794429 -0.1115761101 0.5445479751 4288125336
-0.2948976457 -0.1111664176 0.5455065370 4280169071
-0.2949475944 -0.1105790436 0.5455989242 4280169071
-0.2959337831 -0.1103405505 0.5474231839 4279776128
-0.2959833741 -0.1097507179 0.5475149751 4279710335
-0.2965011299 -0.1093333066 0.5484727025 4279644546
-0.2965503037 -0.1087419465 0.5485636592 4279578753
-0.2970677912 -0.1083211526 0.5495209098 4279578749
-0.2971165478 -0.1077282727 0.5496110916 4279644542
-0.2971650362 -0.1071350947 0.5497008562 4279644796
-0.2976820767 -0.1067096815 0.5506572723 4279710589
-0.2981990278 -0.1062821075 0.5516135097 4279644544
-0.2982469201 -0.1056861952 0.5517020822 4279578751
-0.2987635732 -0.1052552387 0.5526578426 4279710078
-0.2988110185 -0.1046578139 0.5527455807 4279512699
-0.2993274033 -0.1042234749 0.5537008047 4279578490
-0.2998436689 -0.1037869677 0.5546557903 4279710076
-0.3003598154 -0.1033483073 0.5556105971 4279644546
-0.3008758426 -0.1029074788 0.5565651655 4279710339
-0.3013917804 -0.1024644971 0.5575194955 4279578490
-0.3019075990 -0.1020193547 0.5584737062 4280236420
-0.3028928936 -0.1017297730 0.5602962971 4288977527
-0.3034085333 -0.1012793705 0.5612501502 4290622352
-0.3043938279 -0.1009826437 0.5630727410 4290884505
-0.3058489263 -0.1008367762 0.5657644272 4291476642
-0.3068343103 -0.1005310193 0.5675871968 4291083180
-0.3078196943 -0.1002212167 0.5694099665 4291083180
-0.3092751205 -0.1000594348 0.5721022487 4289967528
-0.3727788329 -0.1991626769 0.6909921765 4291678936
-0.3728655875 -0.1984410882 0.6911529303 4288915630
-0.3715707362 -0.1969867200 0.6887527704 4288718248
-0.3698144555 -0.1952939928 0.6854972839 4289047213
-0.3100154996 -0.1630764902 0.5746524334 4288981672
-0.3022538424 -0.1583711654 0.5602653027 4288455328
-0.3050881326 -0.1592279077 0.5655189753 4288389022
-0.3010089993 -0.1564790457 0.5579577684 4287928471
-0.3006162941 -0.1556557715 0.5572298765 4288257436
-0.2993008196 -0.1543582231 0.5547914505 4287862678
-0.2984457612 -0.1533025950 0.5532065034 4287533715
-0.2975900769 -0.1522501558 0.5516203642 4287665301
-0.2971952260 -0.1514360756 0.5508884788 4288717219
-0.2963383496 -0.1503891498 0.5493001938 4289177770
-0.2959425449 -0.1495787799 0.5485665202 4288784041
-0.2955463231 -0.1487698257 0.5478320122 4289113006
-0.2960734367 -0.1484254003 0.5488091111 4289177772
-0.2952145338 -0.1473868340 0.5472170711 4289177772
-0.2952792346 -0.1468109936 0.5473369360 4288981159
-0.2948814631 -0.1460059285 0.5465996861 4288915366
-0.2949455976 -0.1454302371 0.5467185378 4289309859
-0.2945471108 -0.1446271241 0.5459798574 4286941311
-0.2936856747 -0.1435993016 0.5443831086 4282463527
-0.2937488258 -0.1430252045 0.5445001721 4283055664
-0.2933490574 -0.1422263980 0.5437591076 4284106032
-0.2934116423 -0.1416524649 0.5438751578 4284434997
-0.2930111289 -0.1408556402 0.5431327224 4284959793
-0.2930731773 -0.1402818710 0.5432477593 4286012481
-0.2931349874 -0.1397077441 0.5433623195 4287390535
-0.2927334011 -0.1389134675 0.5426179171 4287522121
-0.2927946746 -0.1383395195 0.5427314639 4287258428
-0.2923923135 -0.1375472397 0.5419856906 4286468912
-0.2919895649 -0.1367564201 0.5412391424 4285613604
-0.2925135195 -0.1363993883 0.5422103405 4284889881
-0.2921100855 -0.1356096715 0.5414625406 4284955165
-0.2921700180 -0.1350357533 0.5415736437 4284626200
-0.2922297418 -0.1344615072 0.5416843295 4284691482
-0.2918252349 -0.1336743683 0.5409345627 4285349412
-0.2918843925 -0.1331003308 0.5410441756 4284625436
-0.2919433117 -0.1325259358 0.5411533713 4286270261
-0.2915377617 -0.1317414045 0.5404016376 4287915599
-0.2915961146 -0.1311672330 0.5405098200 4288244564
-0.2916542292 -0.1305927187 0.5406175852 4287652684
-0.2917121351 -0.1300178617 0.5407248735 4288705372
-0.2917698026 -0.1294426471 0.5408317447 4288837728
-0.2918272316 -0.1288671046 0.5409381986 4288179798
-0.2914196253 -0.1280869395 0.5401827097 4287785299
-0.2914764881 -0.1275116354 0.5402880907 4286864197
-0.2915331423 -0.1269360036 0.5403930545 4286667072
-0.2915895283 -0.1263600290 0.5404976010 4287653967
-0.2916457057 -0.1257837117 0.5406017303 4286930244
-0.2917016447 -0.1252070814 0.5407054424 4286864451
-0.2917573154 -0.1246301085 0.5408086777 4287785553
-0.2918127775 -0.1240528077 0.5409114361 4288048725
-0.2918680012 -0.1234751716 0.5410138369 4284891179
-0.2914574146 -0.1227012128 0.5402526855 4284628007
-0.2919777334 -0.1223189384 0.5412172079 4285220404
-0.2915664911 -0.1215461642 0.5404549241 4283509786
-0.2916206717 -0.1209681556 0.5405553579 4282852885
-0.2916746140 -0.1203898266 0.5406553745 4283905573
-0.2917283177 -0.1198111773 0.5407549143 4284366124
-0.2917817831 -0.1192322150 0.5408540368 4284431917
-0.2918350399 -0.1186529249 0.5409526825 4284563503
-0.2918880284 -0.1180733219 0.5410509109 4284892468
-0.2919407487 -0.1174934059 0.5411486626 4284562987
-0.2924597263 -0.1170999408 0.5421106219 4283247127
-0.2925120592 -0.1165184677 0.5422076583 4284234270
-0.2930307686 -0.1161215901 0.5431691408 4288181850
-0.2930827439 -0.1155385673 0.5432654619 4287392073
-0.2931344211 -0.1149552390 0.5433613062 4287260487
-0.2931858897 -0.1143715978 0.5434566736 4289627746
-0.2932371199 -0.1137876585 0.5435516238 4288443472
-0.2932880819 -0.1132034063 0.5436460972 4289901747
-0.2938059270 -0.1127981842 0.5446059704 4291283400
-0.2938564718 -0.1122123897 0.5446996689 4291152328
-0.2939067781 -0.1116263047 0.5447929502 4287665299
-0.2939568758 -0.1110399142 0.5448857546 4280169071
-0.2944740951 -0.1106288284 0.5458445549 4280103278
-0.2954587638 -0.1103902385 0.5476697087 4279841410
-0.2955083251 -0.1098001599 0.5477615595 4279841410
-0.2960252762 -0.1093825772 0.5487198830 4279710337
-0.2960744202 -0.1087909639 0.5488109589 4279578751
-0.2965911329 -0.1083699912 0.5497687459 4279512956
-0.2966398597 -0.1077768654 0.5498590469 4279512956
-0.2966883183 -0.1071834415 0.5499488711 4279579003
-0.2972045839 -0.1067578495 0.5509058237 4279579003
-0.2977207303 -0.1063300967 0.5518625379 4279710078
-0.2982367873 -0.1059001759 0.5528191328 4279512699
-0.2982844412 -0.1053027883 0.5529075265 4279644285
-0.2988002300 -0.1048694849 0.5538635254 4279710078
-0.2988474667 -0.1042705923 0.5539510846 4279578749
-0.2993629277 -0.1038339064 0.5549066067 4279447163
-0.2998782992 -0.1033950523 0.5558618903 4279776645
-0.3003935516 -0.1029540449 0.5568169951 4280105610
-0.3009087145 -0.1025108770 0.5577718616 4280826749
-0.3014237285 -0.1020655483 0.5587265491 4280826749
-0.3024075031 -0.1017758474 0.5605500937 4289437307
-0.3033912778 -0.1014821082 0.5623736382 4290950546
-0.3048440814 -0.1013402268 0.5650665760 4290818452
-0.3058279753 -0.1010374501 0.5668903589 4291739554
-0.3068118989 -0.1007306278 0.5687141418 4291412398
-0.3077958226 -0.1004197598 0.5705379844 4291675570
-0.3092490137 -0.1002569720 0.5732316971 4290494125
-0.3659109771 -0.1943864226 0.6796609759 4288323490
