VERSION 0.7
FIELDS x y z rgba
SIZE 4 4 4 4
TYPE F F F U
COUNT 1 1 1 1
WIDTH 920
HEIGHT 1
VIEWPOINT 0.0 0.0 0.0 1.0 0.0 0.0 0.0
POINTS 920
DATA ascii
-0.3571581244 -0.1544139385 0.5527842641 4283848805
-0.3577605486 -0.1540591866 0.5537166595 4283980391
-0.3573058546 -0.1532489508 0.5530129075 4284177770
-0.3573793471 -0.1526659131 0.5531266928 4284177770
-0.3574526012 -0.1520825028 0.5532400608 4284111977
-0.3564678431 -0.1510505229 0.5517159104 4283980391
-0.3565403819 -0.1504681408 0.5518281460 4284177255
-0.3571417630 -0.1501077861 0.5527589321 4284308841
-0.3561554849 -0.1490807980 0.5512324572 4284308841
-0.3551685214 -0.1480569094 0.5497049093 4284374634
-0.3536514640 -0.1468163580 0.5473569036 4284440427
-0.3526630700 -0.1457995623 0.5458271503 4284572013
-0.3516739905 -0.1447859108 0.5442962646 4284703599
-0.3517436981 -0.1442097276 0.5444042087 4284769392
-0.3507534862 -0.1432005912 0.5428715944 4284900978
-0.3518823683 -0.1430563629 0.5446188450 4284966771
-0.3514212966 -0.1422646046 0.5439051986 4285033078
-0.3509597480 -0.1414742321 0.5431908369 4285098871
-0.3515582383 -0.1411109418 0.5441171527 4285033078
-0.3516263664 -0.1405336112 0.5442225933 4285033078
-0.3516941965 -0.1399559379 0.5443276167 4285098871
-0.3512312472 -0.1391677111 0.5436110497 4285033078
-0.3523598015 -0.1390089393 0.5453577638 4285033078
-0.3524269760 -0.1384294033 0.5454617739 4284967285
-0.3524939120 -0.1378495395 0.5455653667 4284901492
-0.3520296216 -0.1370625943 0.5448467731 4284901492
-0.3520959616 -0.1364829391 0.5449494123 4284900978
-0.3521620333 -0.1359029561 0.5450516343 4284637806
-0.3522278368 -0.1353226602 0.5451534986 4284637804
-0.3517620265 -0.1345387846 0.5444325209 4284703597
-0.3518272042 -0.1339587122 0.5445334315 4284243044
-0.3518921435 -0.1333783120 0.5446339250 4283979872
-0.3519568145 -0.1327975839 0.5447340608 4283914079
-0.3520212471 -0.1322165430 0.5448337793 4283914079
-0.3520854115 -0.1316351742 0.5449330807 4283716954
-0.3521493077 -0.1310535073 0.5450319648 4283716954
-0.3522129357 -0.1304714978 0.5451304913 4283782747
-0.3523394465 -0.1293065697 0.5453262329 4283651675
-0.3524022996 -0.1287236363 0.5454235673 4283717468
-0.3524649143 -0.1281403899 0.5455204248 4283717468
-0.3525272310 -0.1275568306 0.5456169248 4283717468
-0.3525893092 -0.1269729584 0.5457129478 4283651675
-0.3526511192 -0.1263887882 0.5458086133 4283651675
-0.3527126610 -0.1258043051 0.5459038615 4283849054
-0.3527739346 -0.1252195239 0.5459987521 4283849054
-0.3528349698 -0.1246344298 0.5460931659 4283914847
-0.3528957069 -0.1240490377 0.5461872220 4283914847
-0.3534893692 -0.1236498430 0.5471060276 4283914847
-0.3535496593 -0.1230629608 0.5471993685 4283914847
-0.3536097109 -0.1224757805 0.5472922921 4283914847
-0.3536694944 -0.1218883023 0.5473847985 4283980640
-0.3542625308 -0.1214834824 0.5483026505 4283980640
-0.3537882566 -0.1207124516 0.5475686193 4283914847
-0.3538472354 -0.1201240867 0.5476598740 4284045919
-0.3539059162 -0.1195354238 0.5477507710 4283980126
-0.3539643586 -0.1189464703 0.5478411913 4284045919
-0.3540225327 -0.1183572263 0.5479311943 4284045919
-0.3540804386 -0.1177676916 0.5480208397 4284111712
-0.3536038995 -0.1170011312 0.5472832918 4284177505
-0.3536611795 -0.1164119169 0.5473719239 4284309091
-0.3537181914 -0.1158224046 0.5474601388 4284374884
-0.3543093204 -0.1154066846 0.5483750701 4284243812
-0.3549003303 -0.1149888933 0.5492898226 4284178019
-0.3554912508 -0.1145690456 0.5502043962 4284309605
-0.3571513891 -0.1144899055 0.5527738333 4284506984
-0.3550685644 -0.1132116392 0.5495502353 4284638570
-0.3588678837 -0.1138059050 0.5554305315 4284704363
-0.3600492775 -0.1129422411 0.5572589636 4284901742
-0.3601047099 -0.1123403832 0.5573447943 4285428086
-0.3606950343 -0.1119042784 0.5582584739 4286086016
-0.3612852693 -0.1114661098 0.5591719747 4286809739
-0.3602693975 -0.1105331555 0.5575996637 4287533462
-0.3596478403 -0.1619534045 0.5575962067 4283848035
-0.3607784510 -0.1618410498 0.5593490601 4284045414
-0.3592752814 -0.1605478525 0.5570185781 4283979621
-0.3577711582 -0.1592594236 0.5546866059 4284111207
-0.3578472137 -0.1586768478 0.5548045039 4284242793
-0.3579230011 -0.1580938995 0.5549219847 4284111207
-0.3574713171 -0.1572785974 0.5542216897 4284111207
-0.3570939898 -0.1558823287 0.5536366701 4284308586
-0.3566409945 -0.1550702304 0.5529344082 4284440172
-0.3567892015 -0.1539054662 0.5531641245 4284440172
-0.3568629324 -0.1533225328 0.5532784462 4284242793
-0.3569363952 -0.1527392417 0.5533924103 4284177000
-0.3570096195 -0.1521555930 0.5535058975 4284505965
-0.3560261428 -0.1511231512 0.5519811511 4284834930
-0.3560986519 -0.1505405158 0.5520935655 4284769906
-0.3561709225 -0.1499575227 0.5522055626 4284769906
-0.3551858366 -0.1489309371 0.5506783128 4284769906
-0.3542000651 -0.1479074508 0.5491499901 4284704113
-0.3537423909 -0.1471069753 0.5484403968 4284769906
-0.3522264957 -0.1458698362 0.5460901856 4284901492
-0.3501807749 -0.1444194019 0.5429185033 4285033078
-0.3497211635 -0.1436274201 0.5422059298 4285033078
-0.3503194749 -0.1432696879 0.5431335568 4285098871
-0.3503884673 -0.1426943243 0.5432404876 4285098871
-0.3499278128 -0.1419039369 0.5425263047 4285427836
-0.3499962091 -0.1413287669 0.5426323414 4285625215
-0.3505939245 -0.1409661919 0.5435590148 4285559422
-0.3511916101 -0.1406015456 0.5444856882 4285625215
-0.3496700227 -0.1393900365 0.5421266556 4285822594
-0.3513270020 -0.1394453645 0.5446956158 4285756801
-0.3513943255 -0.1388667822 0.5447999835 4285888388
-0.3514614105 -0.1382878572 0.5449039936 4285822595
-0.3509980142 -0.1375008970 0.5441855192 4285691009
-0.3510644734 -0.1369221807 0.5442885756 4285691009
-0.3511306643 -0.1363431513 0.5443912148 4285559422
-0.3511966169 -0.1357637793 0.5444934368 4285230457
-0.3512623012 -0.1351840943 0.5445953012 4285098871
-0.3513277471 -0.1346040815 0.5446967483 4284967285
-0.3513929248 -0.1340237409 0.5447977781 4284703597
-0.3514578342 -0.1334430873 0.5448984504 4284440425
-0.3515225053 -0.1328621060 0.5449987054 4284308837
-0.3515869081 -0.1322807968 0.5450985432 4284177251
-0.3516510427 -0.1316991746 0.5451980233 4283979872
-0.3517149389 -0.1311172396 0.5452970266 4283848286
-0.3517785668 -0.1305349916 0.5453956723 4283848286
-0.3519678712 -0.1287863255 0.5456892252 4283849054
-0.3520304561 -0.1282028258 0.5457862020 4283783261
-0.3520927727 -0.1276189983 0.5458828211 4283849054
-0.3521548212 -0.1270348728 0.5459790230 4283849054
-0.3522166014 -0.1264504343 0.5460748672 4283849054
-0.3522781432 -0.1258656979 0.5461702347 4283980640
-0.3523394167 -0.1252806485 0.5462652445 4284046433
-0.3524004221 -0.1246952862 0.5463597775 4283980640
-0.3529935777 -0.1242971048 0.5472794175 4284046433
-0.3530541360 -0.1237102598 0.5473732948 4284046435
-0.3531144261 -0.1231231093 0.5474668145 4284046435
-0.3521090746 -0.1221660227 0.5459080935 4284112228
-0.3532342017 -0.1219479218 0.5476525426 4284178021
-0.3532937169 -0.1213598773 0.5477447510 4284112228
-0.3528199792 -0.1205893755 0.5470103025 4284112228
-0.3528788388 -0.1200016290 0.5471015573 4284177505
-0.3524042964 -0.1192332059 0.5463658571 4284177505
-0.3529957831 -0.1188252494 0.5472828746 4284045919
-0.3530538380 -0.1182366312 0.5473728776 4284045919
-0.3531116545 -0.1176477149 0.5474625230 4284045919
-0.3521021903 -0.1167048588 0.5458974242 4284111712
-0.3521592617 -0.1161171496 0.5459859371 4283980640
-0.3527497351 -0.1157042012 0.5469014049 4284046433
-0.3528063595 -0.1151150316 0.5469892025 4284046433
-0.3533965647 -0.1146988347 0.5479042530 4284046433
-0.3539866507 -0.1142805815 0.5488191247 4284112226
-0.3551106155 -0.1140317321 0.5505617261 4284178019
-0.3562346697 -0.1137790307 0.5523044467 4284178019
-0.3574144542 -0.1129244789 0.5541335344 4283717981
-0.3590728343 -0.1128299013 0.5567047000 4283586395
-0.3591281772 -0.1122286618 0.5567905307 4283388503
-0.3597177565 -0.1117932573 0.5577045679 4283783261
-0.3597726226 -0.1111905649 0.5577896833 4284046433
-0.3603619039 -0.1107519194 0.5587032437 4284375398
-0.3604162931 -0.1101477891 0.5587875843 4285164914
-0.3604704142 -0.1095433757 0.5588715076 4286020223
-0.3605242372 -0.1089387015 0.5589549541 4287072911
-0.3579156995 -0.1633042395 0.5558678508 4283585633
-0.3632502854 -0.1651114076 0.5641528368 4283783012
-0.3606998920 -0.1633297354 0.5601919293 4284111977
-0.3571730256 -0.1605000794 0.5547145009 4283914597
-0.3561972678 -0.1594469547 0.5531990528 4283914597
-0.3552207947 -0.1583968997 0.5516825318 4284046183
-0.3558227420 -0.1580513120 0.5526173711 4284375148
-0.3558981717 -0.1574706882 0.5527345538 4284309355
-0.3559733629 -0.1568897069 0.5528513193 4284177769
-0.3555216193 -0.1560771316 0.5521497130 4284177769
-0.3561230302 -0.1557266265 0.5530837178 4284243562
-0.3556705713 -0.1549150348 0.5523810387 4284572527
-0.3562716842 -0.1545620859 0.5533146262 4284835700
-0.3563456535 -0.1539792717 0.5534294844 4284967286
-0.3564193547 -0.1533960998 0.5535439253 4284967286
-0.3559654355 -0.1525865048 0.5528389812 4284901493
-0.3560385406 -0.1520034671 0.5529525280 4284967286
-0.3555838168 -0.1511957496 0.5522463322 4285098872
-0.3551286459 -0.1503894031 0.5515393615 4285296764
-0.3552007675 -0.1498070210 0.5516514182 4285296764
-0.3542168736 -0.1487808377 0.5501233339 4285362557
-0.3532322943 -0.1477577537 0.5485941768 4285362557
-0.3522470295 -0.1467377990 0.5470640063 4285494143
-0.3507328928 -0.1455018222 0.5447124839 4285823108
-0.3486895263 -0.1440524459 0.5415390134 4286086280
-0.3482303619 -0.1432618648 0.5408259034 4286217866
-0.3488278091 -0.1429057121 0.5417537689 4286217866
-0.3488965631 -0.1423318386 0.5418605208 4286217866
-0.3489650786 -0.1417576224 0.5419669151 4286678417
-0.3490333259 -0.1411830783 0.5420729518 4286875796
-0.3475145102 -0.1399690509 0.5397140980 4286612624
-0.3496981263 -0.1402451247 0.5431054235 4286678417
-0.3497657478 -0.1396686882 0.5432104468 4286744724
-0.3503623605 -0.1393023580 0.5441370010 4286678931
-0.3510259688 -0.1383547634 0.5451676250 4286744210
-0.3510927558 -0.1377752572 0.5452713370 4286481038
-0.3506296277 -0.1369884908 0.5445521474 4286415245
-0.3507617414 -0.1358295679 0.5447573066 4285822595
-0.3508274257 -0.1352496296 0.5448592901 4285493629
-0.3514229059 -0.1348727793 0.5457841158 4285296250
-0.3509580195 -0.1340887547 0.5450620651 4284901492
-0.3510875404 -0.1329265982 0.5452632904 4284572527
-0.3511519432 -0.1323450357 0.5453633070 4284506734
-0.3512160778 -0.1317631602 0.5454628468 4284375402
-0.3512799442 -0.1311809570 0.5455620885 4284112230
-0.3513435423 -0.1305984408 0.5456608534 4283980644
-0.3516576588 -0.1276811659 0.5461487174 4284112230
-0.3511883914 -0.1269047856 0.5454199314 4284178021
-0.3512500823 -0.1263209581 0.5455157161 4284112228
-0.3513115048 -0.1257368326 0.5456110835 4284178021
-0.3513726592 -0.1251524091 0.5457060933 4284243814
-0.3514335454 -0.1245676726 0.5458006263 4284375400
-0.3514941931 -0.1239826307 0.5458948016 4284441193
-0.3521465957 -0.1229974478 0.5469080210 4284572009
-0.3522064984 -0.1224106252 0.5470011234 4284572009
-0.3522661626 -0.1218234971 0.5470937490 4284506216
-0.3523255587 -0.1212360710 0.5471860170 4284506216
-0.3518523872 -0.1204661056 0.5464510918 4284506216
-0.3513787389 -0.1196976155 0.5457155704 4284440423
-0.3519696295 -0.1192915514 0.5466332436 4284440423
-0.3520278633 -0.1187038422 0.5467236638 4284440423
-0.3520858288 -0.1181158349 0.5468136668 4284374630
-0.3516107798 -0.1173497364 0.5460758805 4284309607
-0.3516681194 -0.1167620495 0.5461649299 4284309607
-0.3517251909 -0.1161740646 0.5462535620 4284243814
-0.3523149788 -0.1157609299 0.5471695662 4284178021
-0.3523716033 -0.1151714921 0.5472574830 4284178021
-0.3529611230 -0.1147551164 0.5481730700 4284243814
-0.3535505235 -0.1143366694 0.5490884781 4284309607
-0.3541398346 -0.1139161587 0.5500037074 4284243814
-0.3552624881 -0.1136642396 0.5517472625 4284243814
-0.3547846377 -0.1128991544 0.5510051250 4283980642
-0.3569743335 -0.1129799709 0.5544058681 4283585884
-0.3580970466 -0.1127173826 0.5561495423 4283388505
-0.3581523001 -0.1121167615 0.5562353134 4283060053
-0.3587411344 -0.1116820499 0.5571498275 4283323225
-0.3587959111 -0.1110799760 0.5572348833 4283191637
-0.3593844175 -0.1106420308 0.5581488609 4283060051
-0.3594387174 -0.1100385115 0.5582332015 4283256917
-0.3594927490 -0.1094347164 0.5583171248 4283585882
-0.3595464826 -0.1088306531 0.5584005713 4284112226
-0.3595999479 -0.1082263216 0.5584836006 4284770156
-0.3601875305 -0.1077816337 0.5593961477 4285822844
-0.3602404892 -0.1071758643 0.5594784617 4287401876
-0.3569436073 -0.1631421149 0.5553160310 4284112490
-0.3538710177 -0.1611260921 0.5505357981 4284243822
-0.3544728160 -0.1607873738 0.5514720678 4284243822
-0.3541002274 -0.1593942195 0.5508924723 4284178283
-0.3541761637 -0.1588161886 0.5510106087 4284178283
-0.3542518616 -0.1582377851 0.5511283278 4284309869
-0.3548530042 -0.1578929275 0.5520635843 4284704627
-0.3549283147 -0.1573129147 0.5521807075 4284902006
-0.3550033569 -0.1567325443 0.5522974730 4285033592
-0.3550781906 -0.1561518013 0.5524138808 4285362557
-0.3551527560 -0.1555707008 0.5525298715 4286086026
-0.3552270532 -0.1549892277 0.5526455045 4286480784
-0.3553011417 -0.1544073820 0.5527607799 4286809749
-0.3553749621 -0.1538251787 0.5528756380 4286941335
-0.3554485440 -0.1532426178 0.5529900789 4287007128
-0.3549951613 -0.1524335295 0.5522847772 4287007128
-0.3550681472 -0.1518511176 0.5523982644 4287138714
-0.3546139598 -0.1510438919 0.5516916513 4287336093
-0.3546863198 -0.1504616290 0.5518042445 4287336865
-0.3542312980 -0.1496562958 0.5510963202 4287468451
-0.3527213335 -0.1484086663 0.5487472415 4287665060
-0.3517378271 -0.1473868638 0.5472171307 4287730853
-0.3507536650 -0.1463681757 0.5456860065 4287796644
-0.3492412567 -0.1451333761 0.5433331132 4287928230
-0.3482556343 -0.1441217959 0.5417997241 4287863209
-0.3472693563 -0.1431133598 0.5402652621 4287929002
-0.3473381400 -0.1425413042 0.5403722525 4287731623
-0.3468786776 -0.1417531669 0.5396574736 4287665830
-0.3480030298 -0.1416110843 0.5414066911 4287994793
-0.3459584415 -0.1401810795 0.5382258296 4288126379
-0.3481390476 -0.1404628903 0.5416182876 4287863207
-0.3487350643 -0.1401005536 0.5425455570 4287731621
-0.3488025367 -0.1395247430 0.5426505804 4287863207
-0.3483411968 -0.1387380660 0.5419328213 4287731621
-0.3494654596 -0.1385817677 0.5436818600 4287599265
-0.3495322764 -0.1380040944 0.5437858701 4287401886
-0.3501277566 -0.1376339793 0.5447122455 4287072921
-0.3501941860 -0.1370547563 0.5448155999 4286875542
-0.3502603471 -0.1364752203 0.5449185371 4286612370
-0.3503262699 -0.1358953416 0.5450210571 4286151819
-0.3503919244 -0.1353151351 0.5451232195 4285888647
-0.3504573107 -0.1347346157 0.5452249646 4285559682
-0.3510519564 -0.1343564093 0.5461500883 4285428096
-0.3505873382 -0.1335725784 0.5454272628 4285164924
-0.3506519496 -0.1329910755 0.5455278158 4285164924
-0.3507163227 -0.1324092597 0.5456279516 4285230717
-0.3507804275 -0.1318271309 0.5457276702 4285033338
-0.3508442938 -0.1312446743 0.5458270311 4284835959
-0.3509078920 -0.1306618899 0.5459259152 4284704627
-0.3515013754 -0.1302752942 0.5468492508 4284507248
-0.3515645564 -0.1296910048 0.5469475389 4284506988
-0.3510970771 -0.1289116740 0.5462203026 4284441195
-0.3516900837 -0.1285214871 0.5471428633 4284309609
-0.3512219191 -0.1277433038 0.5464144945 4284309609
-0.3512839377 -0.1271586418 0.5465109944 4284309609
-0.3508149683 -0.1263824850 0.5457813740 4284309609
-0.3508763611 -0.1257980913 0.5458769202 4284375402
-0.3509375155 -0.1252133995 0.5459720492 4284375402
-0.3509984016 -0.1246284023 0.5460667610 4284374632
-0.3510589898 -0.1240430996 0.5461610556 4284440425
-0.3511193395 -0.1234574914 0.5462549329 4284440425
-0.3511794209 -0.1228715852 0.5463483930 4284572011
-0.3512392640 -0.1222853810 0.5464414358 4284637804
-0.3512988091 -0.1216988787 0.5465341210 4284637804
-0.3513580859 -0.1211120710 0.5466263294 4284637802
-0.3508854508 -0.1203426346 0.5458910465 4284769388
-0.3514758646 -0.1199375764 0.5468095541 4284506988
-0.3510025144 -0.1191693321 0.5460731387 4284638574
-0.3510606587 -0.1185822412 0.5461636186 4284770160
-0.3511185050 -0.1179948524 0.5462536216 4284901746
-0.3506440222 -0.1172292903 0.5455154181 4284967539
-0.3507012427 -0.1166422218 0.5456044674 4284901746
-0.3507582247 -0.1160548627 0.5456930995 4284770160
-0.3513472378 -0.1156424358 0.5466094613 4284638574
-0.3508713245 -0.1148792952 0.5458690524 4284770160
-0.3519925177 -0.1146379486 0.5476133823 4284835953
-0.3520485759 -0.1140476689 0.5477005839 4284770158
-0.3531697392 -0.1138003990 0.5494447947 4284638572
-0.3537581861 -0.1133785248 0.5503603220 4284441193
-0.3543465137 -0.1129545793 0.5512756109 4284243814
-0.3560006320 -0.1128664911 0.5538489819 4283849056
-0.3576549590 -0.1127727553 0.5564227104 4283454298
-0.3577102125 -0.1121718511 0.5565086603 4283191639
-0.3577651680 -0.1115706712 0.5565941930 4283323225
-0.3583531082 -0.1111345962 0.5575088859 4283191639
-0.3584075868 -0.1105319634 0.5575936437 4282994260
-0.3584617972 -0.1099290624 0.5576779842 4282928467
-0.3585157394 -0.1093258858 0.5577619076 4282796881
-0.3591029644 -0.1088842303 0.5586754680 4282796881
-0.3591564298 -0.1082796156 0.5587586164 4283060053
-0.3586758375 -0.1075147390 0.5580109358 4283849569
-0.3597962856 -0.1072286665 0.5597540736 4284178534
-0.3593150675 -0.1064641550 0.5590054393 4285099636
-0.3593673706 -0.1058584750 0.5590867996 4286612875
-0.3537204564 -0.1631737798 0.5512541533 4284375148
-0.3529033959 -0.1609636545 0.5499808192 4284572530
-0.3508819640 -0.1594340801 0.5468305349 4284769909
-0.3520070016 -0.1593357623 0.5485838056 4284770936
-0.3515580893 -0.1585238278 0.5478842258 4284968315
-0.3521583676 -0.1581847221 0.5488197207 4285231487
-0.3527586460 -0.1578435302 0.5497552156 4285626245
-0.3533588648 -0.1575002521 0.5506906509 4286547349
-0.3539591134 -0.1571548879 0.5516260266 4287205279
-0.3540340364 -0.1565751284 0.5517427921 4287665830
-0.3541087210 -0.1559950113 0.5518592000 4288389553
-0.3541831374 -0.1554145217 0.5519751906 4289047483
-0.3542573452 -0.1548336595 0.5520908237 4288850104
-0.3543312848 -0.1542524397 0.5522060394 4288520885
-0.3544049561 -0.1536708474 0.5523208976 4288652471
-0.3544784188 -0.1530888975 0.5524353981 4289376194
-0.3540255725 -0.1522803158 0.5517296195 4290363089
-0.3540984094 -0.1516985148 0.5518431664 4291086812
-0.3536447585 -0.1508918107 0.5511361361 4291547363
-0.3531906307 -0.1500864774 0.5504283905 4292073708
-0.3527360260 -0.1492825150 0.5497199297 4292271087
-0.3512278199 -0.1480360627 0.5473694801 4292533744
-0.3497187197 -0.1467944384 0.5450176001 4292731123
-0.3487355113 -0.1457778960 0.5434853435 4292731637
-0.3477516472 -0.1447644681 0.5419520736 4292600051
-0.3472941220 -0.1439726502 0.5412390232 4292271086
-0.3468361199 -0.1431822330 0.5405252576 4292205293
-0.3463776708 -0.1423932016 0.5398107767 4292073707
-0.3459187448 -0.1416055709 0.5390955806 4291810535
-0.3454594016 -0.1408193558 0.5383797288 4291744996
-0.3460546136 -0.1404627711 0.5393073559 4291613410
-0.3450669348 -0.1394643635 0.5377680659 4291284445
-0.3467172086 -0.1395310014 0.5403399467 4291021273
-0.3473122120 -0.1391690671 0.5412672162 4290824151
-0.3468512893 -0.1383837759 0.5405489206 4290560979
-0.3479740024 -0.1382291913 0.5422986150 4290429136
-0.3485687375 -0.1378618777 0.5432254672 4290165964
-0.3491634429 -0.1374924928 0.5441522598 4289705413
-0.3492297530 -0.1369138956 0.5442556143 4289310655
-0.3492957950 -0.1363349706 0.5443585515 4288981690
-0.3493615985 -0.1357557178 0.5444610715 4288521139
-0.3499557674 -0.1353806257 0.5453870893 4288126381
-0.3494924009 -0.1345962286 0.5446649790 4287863209
-0.3506150842 -0.1344214827 0.5464146137 4287336865
-0.3501511216 -0.1336373091 0.5456915498 4286876314
-0.3502157331 -0.1330555528 0.5457922220 4286744728
-0.3502801061 -0.1324734688 0.5458925366 4286678935
-0.3503441811 -0.1318910718 0.5459923744 4286349200
-0.3504080176 -0.1313083619 0.5460918546 4286020235
-0.3510009944 -0.1309227943 0.5470160246 4285757063
-0.3510644138 -0.1303385645 0.5471148491 4285493891
-0.3511275649 -0.1297540069 0.5472132564 4285559676
-0.3511904478 -0.1291691512 0.5473112464 4285230711
-0.3512530625 -0.1285839677 0.5474088192 4284835953
-0.3513154387 -0.1279984862 0.5475060344 4284638574
-0.3513775170 -0.1274126768 0.5476028323 4284506988
-0.3514393568 -0.1268265694 0.5476991534 4284441195
-0.3509707749 -0.1260497421 0.5469688773 4284506988
-0.3510319889 -0.1254639030 0.5470643044 4284441195
-0.3505626023 -0.1246891171 0.5463327765 4284637804
-0.3506231904 -0.1241035461 0.5464271903 4284572011
-0.3506835103 -0.1235176772 0.5465212464 4284506216
-0.3507435918 -0.1229315102 0.5466148257 4284572009
-0.3502726555 -0.1221599430 0.5458809733 4284637802
-0.3503321111 -0.1215740591 0.5459735990 4284637802
-0.3498604000 -0.1208045632 0.5452384353 4284572009
-0.3499192297 -0.1202189773 0.5453301072 4284703595
-0.3499777913 -0.1196330935 0.5454213619 4284835699
-0.3495049179 -0.1188662648 0.5446844101 4284967285
-0.3495628536 -0.1182806864 0.5447747111 4284967285
-0.3501518369 -0.1178736836 0.5456926823 4284967285
-0.3502093256 -0.1172866374 0.5457822680 4285033078
-0.3497350514 -0.1165222079 0.5450431108 4285098871
-0.3497919142 -0.1159354746 0.5451316833 4285099125
-0.3498485088 -0.1153484583 0.5452198982 4285099125
-0.3499048352 -0.1147611514 0.5453076959 4285164918
-0.3510245979 -0.1145205945 0.5470528007 4285164918
-0.3516125083 -0.1141035631 0.5479689837 4285099125
-0.3516682684 -0.1135127321 0.5480558872 4284967539
-0.3527879715 -0.1132632867 0.5498009324 4284835953
-0.3549721539 -0.1133498698 0.5532048345 4284704367
-0.3534307778 -0.1122456938 0.5508027077 4284441193
-0.3566798568 -0.1126599610 0.5558661819 4284112228
-0.3572674394 -0.1122269258 0.5567818880 4283455327
-0.3573223948 -0.1116254702 0.5568675399 4283389534
-0.3579096496 -0.1111891940 0.5577827692 4283192155
-0.3579641283 -0.1105862856 0.5578677058 4282994776
-0.3580183387 -0.1099831015 0.5579521656 4282994006
-0.3580722511 -0.1093796492 0.5580361485 4282862420
-0.3581258655 -0.1087759212 0.5581197739 4282796627
-0.3587122262 -0.1083328947 0.5590335727 4282928213
-0.3582322896 -0.1075676531 0.5582855940 4282731088
-0.3588182628 -0.1071222872 0.5591987967 4282796881
-0.3583376110 -0.1063583195 0.5584496856 4282731088
-0.3589231372 -0.1059106216 0.5593622327 4283191639
-0.3584417701 -0.1051479205 0.5586120486 4284836464
-0.3584934175 -0.1045423225 0.5586925745 4286876047
-0.3502125442 -0.1612282097 0.5467336178 4284179060
-0.3445294499 -0.1580142677 0.5378614664 4284310646
-0.3487941921 -0.1593652368 0.5445193648 4284837503
-0.3483460844 -0.1585562676 0.5438197255 4285955984
-0.3494693041 -0.1584613472 0.5455732942 4287073952
-0.3500686884 -0.1581259221 0.5465090275 4287731882
-0.3506680727 -0.1577884108 0.5474447012 4287600294
-0.3507431448 -0.1572138071 0.5475619435 4287271329
-0.3518667519 -0.1571071297 0.5493160486 4287402658
-0.3524660766 -0.1567633450 0.5502516627 4287402658
-0.3530653715 -0.1564174891 0.5511872768 4287665828
-0.3526152074 -0.1556064188 0.5504844785 4288389551
-0.3526893854 -0.1550274044 0.5506002903 4289442239
-0.3527633250 -0.1544480175 0.5507157445 4289771204
-0.3533620834 -0.1540972441 0.5516505241 4291218650
-0.3534356654 -0.1535162777 0.5517653227 4292271338
-0.3535089791 -0.1529349387 0.5518798232 4293587196
-0.3530566394 -0.1521268636 0.5511736870 4294376703
-0.3526038826 -0.1513201594 0.5504668355 4294574079
-0.3526762426 -0.1507394761 0.5505797863 4294574079
-0.3522226214 -0.1499346644 0.5498716235 4294705151
-0.3512427509 -0.1489083022 0.5483419299 4294442239
-0.3497362733 -0.1476629972 0.5459901094 4294705151
-0.3482289314 -0.1464225501 0.5436368585 4294639615
-0.3467206955 -0.1451869756 0.5412822962 4294442239
-0.3457377851 -0.1441756934 0.5397478342 4294179070
-0.3458069265 -0.1436046958 0.5398557782 4293126130
-0.3453493714 -0.1428156644 0.5391414762 4292468200
-0.3448913395 -0.1420280188 0.5384263992 4291810271
-0.3444328606 -0.1412417889 0.5377106667 4291020755
-0.3439739347 -0.1404569596 0.5369942188 4290559950
-0.3445682824 -0.1401019692 0.5379220843 4290099399
-0.3430547118 -0.1388915181 0.5355591774 4289441471
-0.3452297747 -0.1391732991 0.5389547348 4288980920
-0.3458238542 -0.1388129592 0.5398822427 4288586164
-0.3453633785 -0.1380290687 0.5391633511 4288125613
-0.3464845717 -0.1378761679 0.5409137011 4287862691
-0.3470784426 -0.1375104636 0.5418407917 4287402140
-0.3476722538 -0.1371426731 0.5427678227 4287072921
-0.3477383256 -0.1365655661 0.5428709984 4286612370
-0.3483319283 -0.1361944973 0.5437976718 4286217612
-0.3483976126 -0.1356158704 0.5439001918 4286151819
-0.3495189846 -0.1354461014 0.5456508398 4286217612
-0.3495843410 -0.1348650604 0.5457528830 4285954440
-0.3501776159 -0.1344865412 0.5466790795 4285822854
-0.3502425551 -0.1339039803 0.5467804670 4285625475
-0.3503072560 -0.1333210766 0.5468814373 4285559684
-0.3503716886 -0.1327378601 0.5469820499 4285493891
-0.3504358530 -0.1321543306 0.5470821857 4285428098
-0.3504997492 -0.1315704733 0.5471819639 4285296512
-0.3505634069 -0.1309863031 0.5472813845 4285164924
-0.3506899476 -0.1298169941 0.5474788547 4284967535
-0.3508154154 -0.1286464334 0.5476747751 4284901742
-0.3508777618 -0.1280606836 0.5477721095 4284770156
-0.3509398401 -0.1274746209 0.5478690267 4284704365
-0.3504722416 -0.1266968548 0.5471390486 4284572779
-0.3505336940 -0.1261110604 0.5472349524 4284441193
-0.3500653207 -0.1253353357 0.5465037227 4284441193
-0.3495964706 -0.1245610863 0.5457717776 4284309607
-0.3496569395 -0.1239761412 0.5458662510 4284309607
-0.3497171700 -0.1233908907 0.5459602475 4284308839
-0.3497771323 -0.1228053421 0.5460538268 4284243046
-0.3493067622 -0.1220343113 0.5453195572 4284374632
-0.3493660986 -0.1214490533 0.5454121828 4284440425
-0.3488949537 -0.1206800863 0.5446766019 4284243816
-0.3489536643 -0.1200951263 0.5447682738 4284178023
-0.3490121067 -0.1195098609 0.5448595285 4284572009
-0.3485397995 -0.1187435687 0.5441222191 4284637802
-0.3485976458 -0.1181586161 0.5442124605 4284637802
-0.3486551940 -0.1175733656 0.5443023443 4284703595
-0.3481817245 -0.1168097705 0.5435631871 4284900974
-0.3482386768 -0.1162248403 0.5436521173 4285032560
-0.3488262892 -0.1158159003 0.5445694327 4285098353
-0.3488827944 -0.1152295023 0.5446576476 4285229939
-0.3500573635 -0.1144030616 0.5464913249 4285098353
-0.3506444991 -0.1139867306 0.5474079251 4284900976
-0.3507001698 -0.1133965254 0.5474948287 4284900976
-0.3518184721 -0.1131478697 0.5492407084 4285098355
-0.3502791822 -0.1120452434 0.5468376279 4284966769
-0.3545868695 -0.1128081158 0.5535625219 4284703597
-0.3557054102 -0.1125469878 0.5553087592 4284703597
-0.3562922478 -0.1121146530 0.5562248826 4284046435
-0.3568789661 -0.1116802543 0.5571408272 4283783263
-0.3569336236 -0.1110782400 0.5572261810 4283388507
-0.3575200140 -0.1106405929 0.5581416488 4283125335
-0.3575741947 -0.1100371331 0.5582262278 4282927956
-0.3576281071 -0.1094333977 0.5583103895 4282598991
-0.3576817214 -0.1088293865 0.5583940744 4282533198
-0.3577350676 -0.1082251072 0.5584773421 4282796370
-0.3572556973 -0.1074604094 0.5577290058 4282401869
-0.3578408957 -0.1070157439 0.5586425662 4282730834
-0.3578933775 -0.1064106598 0.5587245226 4281941572
-0.3579455912 -0.1058053076 0.5588060617 4282533709
-0.3579975367 -0.1051996946 0.5588871241 4282467662
-0.3575163484 -0.1044381708 0.5581359267 4283191385
-0.3575676382 -0.1038329378 0.5582159758 4286020486
-0.3492485881 -0.1610636860 0.5461757183 4285363075
-0.3461872935 -0.1590504050 0.5413883328 4286284177
-0.3473088741 -0.1589622200 0.5431423187 4287271331
-0.3463379741 -0.1579160541 0.5416239500 4287797675
-0.3474595249 -0.1578237116 0.5433779359 4287600296
-0.3480578959 -0.1574907303 0.5443136692 4287008159
-0.3481327295 -0.1569196880 0.5444307327 4286152850
-0.3492545784 -0.1568185091 0.5461851358 4286152850
-0.3503766358 -0.1567135155 0.5479398370 4286942364
-0.3499273658 -0.1559045464 0.5472372770 4287929259
-0.3510494828 -0.1557945311 0.5489920974 4289442752
-0.3521718085 -0.1556806862 0.5507472754 4290890198
-0.3517217934 -0.1548706293 0.5500435233 4291942373
-0.3517956138 -0.1542918682 0.5501589179 4293192440
-0.3523935974 -0.1539418101 0.5510940552 4293981951
-0.3524670303 -0.1533614546 0.5512089133 4293981951
-0.3525401950 -0.1527807415 0.5513233542 4294508287
-0.3520884216 -0.1519731730 0.5506168604 4294574079
-0.3516361713 -0.1511669904 0.5499095917 4294310911
-0.3511834443 -0.1503621638 0.5492016077 4293981951
-0.3507302701 -0.1495587230 0.5484929085 4293718267
-0.3492263258 -0.1483106017 0.5461409688 4293257716
-0.3471962512 -0.1468451768 0.5429661870 4292402407
-0.3462157845 -0.1458289325 0.5414328575 4291349719
-0.3447091877 -0.1445953846 0.5390767455 4290428617
-0.3437272906 -0.1435862631 0.5375412107 4289704894
-0.3427447081 -0.1425802708 0.5360046029 4288849586
-0.3428130448 -0.1420130432 0.5361114740 4288060070
-0.3428811431 -0.1414454728 0.5362179279 4287270554
-0.3424229920 -0.1406614929 0.5355014801 4286941589
-0.3419643939 -0.1398789287 0.5347843170 4286941589
-0.3425577581 -0.1395264119 0.5357121825 4287073175
-0.3410458267 -0.1383180171 0.5333477855 4287007382
-0.3437443376 -0.1388151646 0.5375678539 4286941589
-0.3443375528 -0.1384564191 0.5384955406 4286809749
-0.3428242803 -0.1372522712 0.5361289978 4286546577
-0.3449971378 -0.1375227422 0.5395270586 4286612621
-0.3455901146 -0.1371586323 0.5404544473 4286415242
-0.3461830616 -0.1367924362 0.5413816571 4286349451
-0.3467759490 -0.1364241689 0.5423088670 4286349451
-0.3468416333 -0.1358473599 0.5424116254 4286283658
-0.3474343121 -0.1354757994 0.5433384776 4286349451
-0.3480269313 -0.1351021677 0.5442652702 4286217865
-0.3486194909 -0.1347264498 0.5451919436 4285888900
-0.3486844897 -0.1341457069 0.5452935696 4285888900
-0.3492768109 -0.1337666959 0.5462198853 4285625728
-0.3493413925 -0.1331844181 0.5463208556 4285296764
-0.3494057059 -0.1326018274 0.5464214683 4285165178
-0.3499976695 -0.1322183460 0.5473471880 4285033338
-0.3500615656 -0.1316342205 0.5474470854 4284901752
-0.3501251936 -0.1310497820 0.5475466251 4284704627
-0.3501885533 -0.1304650307 0.5476457477 4284638834
-0.3502516747 -0.1298799664 0.5477444530 4284835953
-0.3503145278 -0.1292945743 0.5478427410 4284770160
-0.3503771126 -0.1287088841 0.5479406118 4284638574
-0.3504394293 -0.1281228662 0.5480380654 4284506988
-0.3505015075 -0.1275365353 0.5481351614 4284572781
-0.3505633175 -0.1269499063 0.5482317805 4284506988
-0.3500960171 -0.1261723638 0.5475009680 4284441195
-0.3496282399 -0.1253962815 0.5467694998 4284441195
-0.3491600454 -0.1246216744 0.5460372567 4284375402
-0.3486914039 -0.1238485351 0.5453043580 4284309609
-0.3487515152 -0.1232639104 0.5453983545 4284243816
-0.3482820690 -0.1224928200 0.5446642041 4284178023
-0.3478121758 -0.1217232123 0.5439293981 4284111976
-0.3468123376 -0.1207707003 0.5423657894 4284046183
-0.3474006057 -0.1203719229 0.5432857871 4283848804
-0.3474591374 -0.1197884679 0.5433772802 4283651425
-0.3475174010 -0.1192047223 0.5434684157 4283585886
-0.3470455408 -0.1184398606 0.5427305102 4283520093
-0.3471031785 -0.1178564206 0.5428206325 4283717472
-0.3471605480 -0.1172726899 0.5429103374 4284046437
-0.3466875553 -0.1165105179 0.5421706438 4284178023
-0.3467443287 -0.1159271002 0.5422593951 4284112230
-0.3468008041 -0.1153433993 0.5423477888 4284243816
-0.3473874032 -0.1149348915 0.5432651043 4284441195
-0.3474434316 -0.1143497229 0.5433527231 4284572781
-0.3485602736 -0.1141116545 0.5450993180 4284770160
-0.3491465747 -0.1136969328 0.5460162163 4284967539
-0.3497327566 -0.1132801324 0.5469329357 4284967539
-0.3508496284 -0.1130322739 0.5486795306 4285033332
-0.3519665599 -0.1127805486 0.5504263043 4285164918
-0.3536145091 -0.1126941741 0.5530034304 4285033332
-0.3547316492 -0.1124338284 0.5547505021 4284901746
-0.3553177118 -0.1120022014 0.5556669831 4284835953
-0.3559036851 -0.1115685031 0.5565833449 4284572781
-0.3564895093 -0.1111327335 0.5574995279 4283980644
-0.3565438986 -0.1105301604 0.5575845838 4283520093
-0.3571294248 -0.1100911424 0.5585002303 4283388507
-0.3571833074 -0.1094871312 0.5585845113 4283125335
-0.3567053080 -0.1087208092 0.5578370094 4282796627
-0.3567585349 -0.1081171557 0.5579202771 4282730834
-0.3568115234 -0.1075132191 0.5580030680 4282270283
-0.3563323617 -0.1067496985 0.5572537780 4282401869
-0.3569166064 -0.1063045561 0.5581674576 4282665041
-0.3564367294 -0.1055423021 0.5574169755 4282599248
-0.3564884961 -0.1049382091 0.5574979186 4282072906
-0.3554756641 -0.1040224060 0.5559139848 4281612355
-0.3565911651 -0.1037292331 0.5576584935 4282796629
-0.3555774689 -0.1028165221 0.5560732484 4287073174
-0.3456744552 -0.1596927792 0.5415269136 4287073691
-0.3441832960 -0.1584048271 0.5391908288 4286613140
-0.3421688080 -0.1568821073 0.5360350013 4286284688
-0.3443332314 -0.1572751552 0.5394257903 4286153102
-0.3449304700 -0.1569475681 0.5403614044 4286021775
-0.3455277085 -0.1566178948 0.5412970185 4286613912
-0.3456020653 -0.1560500562 0.5414134860 4287534503
-0.3467221260 -0.1559522897 0.5431681871 4288455605
-0.3478423953 -0.1558507234 0.5449231267 4289508293
-0.3484396636 -0.1555118412 0.5458588004 4290560981
-0.3495602310 -0.1554035246 0.5476142764 4291218909
-0.3501575887 -0.1550596058 0.5485500693 4291547874
-0.3507549167 -0.1547136009 0.5494858623 4291744994
-0.3508285880 -0.1541354656 0.5496012568 4291481822
-0.3509020209 -0.1535569578 0.5497162938 4291152857
-0.3509752154 -0.1529780775 0.5498309731 4290823892
-0.3510481715 -0.1523988396 0.5499452353 4290296778
-0.3505968153 -0.1515926570 0.5492381454 4289902020
-0.3501449823 -0.1507878304 0.5485303402 4289638848
-0.3491684198 -0.1497595310 0.5470004678 4289375676
-0.3481911719 -0.1487343311 0.5454695225 4287863209
-0.3461642563 -0.1472659856 0.5422942042 4287468451
-0.3441362679 -0.1458042264 0.5391172171 4286876312
-0.3426318765 -0.1445704699 0.5367604494 4287007898
-0.3406018019 -0.1431210488 0.5335801840 4287336093
-0.3417201042 -0.1429961771 0.5353320837 4287401886
-0.3396884799 -0.1415547580 0.5321493745 4287994277
-0.3397562802 -0.1409916431 0.5322555900 4288389035
-0.3398238420 -0.1404281855 0.5323614478 4289046964
-0.3398911357 -0.1398643851 0.5324668884 4289046964
-0.3394327760 -0.1390849501 0.5317487717 4289441720
-0.3400250375 -0.1387357861 0.5326765776 4289836478
-0.3374633789 -0.1371032149 0.5286635756 4289836478
-0.3412094116 -0.1380312443 0.5345320702 4289704892
-0.3418015540 -0.1376758367 0.5354596972 4289573306
-0.3392379284 -0.1360527575 0.5314435959 4289441720
-0.3429856896 -0.1369588077 0.5373147130 4288980910
-0.3435776830 -0.1365971863 0.5382421017 4288651945
-0.3441696167 -0.1362334639 0.5391694903 4288191396
-0.3442351818 -0.1356602460 0.5392721295 4287796638
-0.3448269069 -0.1352932453 0.5401991606 4287270551
-0.3454186022 -0.1349241734 0.5411260724 4286875793
-0.3465369046 -0.1347578019 0.5428779721 4286612621
-0.3471285701 -0.1343836933 0.5438048840 4286349449
-0.3477202058 -0.1340074837 0.5447317362 4286152072
-0.3483117819 -0.1336292028 0.5456584692 4286020486
-0.3483762145 -0.1330475509 0.5457594395 4285823108
-0.3484404087 -0.1324655861 0.5458599925 4285757315
-0.3490315974 -0.1320828050 0.5467861295 4285691522
-0.3496227264 -0.1316979527 0.5477121472 4285428350
-0.3496863246 -0.1311132610 0.5478118062 4285165178
-0.3497496843 -0.1305282414 0.5479110479 4285099385
-0.3498127759 -0.1299429089 0.5480099320 4285164664
-0.3498755991 -0.1293572634 0.5481083393 4285033078
-0.3504659832 -0.1289655268 0.5490332246 4285032564
-0.3500005007 -0.1281850338 0.5483039618 4284900978
-0.3500625491 -0.1275984347 0.5484011769 4284638320
-0.3495962322 -0.1268199682 0.5476706624 4284572527
-0.3496576548 -0.1262336522 0.5477669239 4284506734
-0.3486622870 -0.1252674162 0.5462075472 4284440941
-0.3481946290 -0.1244933382 0.5454749465 4284440941
-0.3482549787 -0.1239087507 0.5455694795 4284309355
-0.3477865458 -0.1231367216 0.5448356271 4284309355
-0.3473176360 -0.1223661751 0.5441010594 4284309355
-0.3468483090 -0.1215970963 0.5433658361 4284309355
-0.3447920382 -0.1202760786 0.5401445031 4284440941
-0.3459082842 -0.1200633869 0.5418931842 4284375661
-0.3454376161 -0.1192987561 0.5411558747 4284178282
-0.3454955816 -0.1187174097 0.5412467122 4284244075
-0.3450241387 -0.1179548651 0.5405080914 4283980903
-0.3450814784 -0.1173738316 0.5405979753 4283849317
-0.3451385796 -0.1167925149 0.5406873822 4283849317
-0.3451954126 -0.1162109002 0.5407764316 4283651938
-0.3447224498 -0.1154516637 0.5400354862 4283520352
-0.3447786570 -0.1148703694 0.5401235819 4283520352
-0.3453643024 -0.1144643575 0.5410410166 4283520352
-0.3459498584 -0.1140562743 0.5419583321 4283717729
-0.3465353251 -0.1136461198 0.5428755283 4283849315
-0.3476506472 -0.1134067699 0.5446227193 4284178280
-0.3482359946 -0.1129915863 0.5455397367 4284375659
-0.3445802331 -0.1112056375 0.5398126841 4284441452
-0.3509969711 -0.1126655638 0.5498650670 4284638831
-0.3526428342 -0.1125800610 0.5524434447 4284770417
-0.3537585437 -0.1123204976 0.5541912913 4284770417
-0.3543438613 -0.1118895710 0.5551082492 4284901492
-0.3554596007 -0.1116231754 0.5568560958 4284901492
-0.3555141389 -0.1110215038 0.5569415689 4284638833
-0.3560991287 -0.1105843633 0.5578579903 4284375661
-0.3561531901 -0.1099812388 0.5579426885 4284309868
-0.3562069833 -0.1093778387 0.5580269694 4284046696
-0.3562605083 -0.1087741703 0.5581107736 4283388766
-0.3563137352 -0.1081702337 0.5581941605 4282796629
-0.3563666642 -0.1075660214 0.5582771301 4282796629
-0.3564193547 -0.1069615409 0.5583596230 4282467664
-0.3554092348 -0.1060397848 0.5567771792 4282599251
-0.3554611802 -0.1054365709 0.5568585992 4282204493
-0.3549814522 -0.1046764031 0.5561070442 4282467664
-0.3534382880 -0.1036061719 0.5536895394 4281546562
-0.3545522094 -0.1033155769 0.5554346442 4281283390
-0.3535396159 -0.1024051383 0.5538482666 4286152072
-0.3446394205 -0.1600930393 0.5408464670 4285363071
-0.3426291645 -0.1585618258 0.5376917720 4285363071
-0.3411393762 -0.1572775692 0.5353537798 4285165692
-0.3417356014 -0.1569565982 0.5362894535 4285231487
-0.3386788964 -0.1549621373 0.5314925313 4286218382
-0.3424060941 -0.1560704857 0.5373416543 4287272096
-0.3424800932 -0.1555070728 0.5374578238 4288258991
-0.3430760801 -0.1551794857 0.5383930802 4288916154
-0.3436720371 -0.1548498124 0.5393283367 4288718775
-0.3447903991 -0.1547525376 0.5410833955 4288389810
-0.3453864455 -0.1544178426 0.5420187712 4288324017
-0.3465050757 -0.1543138027 0.5437743068 4288192172
-0.3476239443 -0.1542059630 0.5455301404 4287994793
-0.3476972878 -0.1536322385 0.5456452370 4287205277
-0.3482933640 -0.1532883346 0.5465806723 4286415761
-0.3483663499 -0.1527130306 0.5466951728 4285954694
-0.3484390676 -0.1521373689 0.5468093157 4285954694
-0.3479882777 -0.1513337791 0.5461018682 4285691268
-0.3470136225 -0.1503048539 0.5445722938 4285888647
-0.3460382521 -0.1492790431 0.5430417061 4285691268
-0.3445386291 -0.1480313689 0.5406883359 4285559682
-0.3430381119 -0.1467885375 0.5383335352 4286546577
-0.3404890299 -0.1451040953 0.5343332291 4287665058
-0.3395104706 -0.1440950781 0.5327975750 4288783539
-0.3380072117 -0.1428676993 0.5304384828 4289638848
-0.3370271921 -0.1418658346 0.5289005041 4290033860
-0.3365707695 -0.1410868615 0.5281842351 4289968067
-0.3361138999 -0.1403092891 0.5274673104 4289770687
-0.3361810446 -0.1397511512 0.5275726914 4289375929
-0.3362479508 -0.1391926855 0.5276776552 4288717740
-0.3363146186 -0.1386338770 0.5277822614 4287994017
-0.3363810480 -0.1380747259 0.5278865099 4287401878
-0.3374969661 -0.1379443258 0.5296377540 4287072913
-0.3344132304 -0.1361008286 0.5247983932 4286612360
-0.3381541073 -0.1370336860 0.5306689739 4286151809
-0.3387450278 -0.1366825104 0.5315963626 4285691258
-0.3356589377 -0.1348520219 0.5267533064 4285362293
-0.3399268091 -0.1359739453 0.5334509015 4285428088
-0.3405176103 -0.1356165409 0.5343780518 4285230709
-0.3405827880 -0.1350486577 0.5344803333 4285164918
-0.3411733806 -0.1346879750 0.5354071856 4284967539
-0.3422897458 -0.1345318556 0.5371590853 4284638574
-0.3428803682 -0.1341661364 0.5380859375 4284441195
-0.3439969122 -0.1340032369 0.5398381948 4284440941
-0.3451136053 -0.1338364929 0.5415906310 4284440941
-0.3457042575 -0.1334627718 0.5425175428 4284375661
-0.3462948203 -0.1330869794 0.5434443355 4284309868
-0.3468853533 -0.1327090859 0.5443710685 4284244076
-0.3474758267 -0.1323291212 0.5452976823 4284244076
-0.3480662107 -0.1319470704 0.5462241769 4284178283
-0.3486565650 -0.1315629333 0.5471506119 4284112490
-0.3466129899 -0.1301874518 0.5439436436 4284046697
-0.3493101597 -0.1305914372 0.5481763482 4284112490
-0.3493732512 -0.1300058514 0.5482752919 4284308841
-0.3494360447 -0.1294199377 0.5483738780 4284440427
-0.3500257432 -0.1290280372 0.5492992997 4284572013
-0.3463974595 -0.1270865649 0.5436053872 4284637806
-0.3496229351 -0.1276603192 0.5486671329 4284440941
-0.3491572738 -0.1268814951 0.5479363799 4284375148
-0.3486911654 -0.1261041313 0.5472049117 4284375148
-0.3482246101 -0.1253282279 0.5464727283 4284440941
-0.3477576077 -0.1245537996 0.5457398891 4284309355
-0.3467623591 -0.1235927194 0.5441780090 4284243562
-0.3462943733 -0.1228221133 0.5434436202 4284177769
-0.3458259404 -0.1220529824 0.5427084565 4284177769
-0.3453570604 -0.1212853342 0.5419726968 4284178282
-0.3438314199 -0.1201500371 0.5395784974 4284309868
-0.3438897133 -0.1195707992 0.5396699905 4284309868
-0.3413060904 -0.1180773601 0.5356154442 4284178282
-0.3434771299 -0.1182295531 0.5390225053 4284309869
-0.3430060446 -0.1174693331 0.5382832289 4284441455
-0.3430631161 -0.1168907061 0.5383727551 4284507248
-0.3431199491 -0.1163117960 0.5384619236 4284441455
-0.3431765139 -0.1157326028 0.5385506749 4284441455
-0.3427039385 -0.1149756834 0.5378090739 4284375662
-0.3427598774 -0.1143968105 0.5378968716 4284112490
-0.3433445692 -0.1139932945 0.5388144851 4283783525
-0.3439292014 -0.1135877147 0.5397319198 4283651938
-0.3445137143 -0.1131800637 0.5406492352 4283388766
-0.3450981379 -0.1127703413 0.5415663719 4283388766
-0.3467412293 -0.1127026752 0.5441448689 4283586145
-0.3478550911 -0.1124581918 0.5458928347 4283717731
-0.3494985402 -0.1123801172 0.5484719276 4283915110
-0.3511422276 -0.1122963801 0.5510514379 4284441454
-0.3527861536 -0.1122069880 0.5536312461 4284902005
-0.3533706963 -0.1117767617 0.5545485616 4284836213
-0.3544850051 -0.1115111560 0.5562972426 4284836213
-0.3550693989 -0.1110758856 0.5572143793 4284770419
-0.3551236689 -0.1104736552 0.5572994947 4284573040
-0.3551776409 -0.1098711565 0.5573841929 4284375661
-0.3552313447 -0.1092683822 0.5574684739 4284309868
-0.3552847505 -0.1086653322 0.5575523376 4284112489
-0.3553378880 -0.1080620065 0.5576357245 4283717731
-0.3553907573 -0.1074584201 0.5577186346 4283257181
-0.3554433286 -0.1068545580 0.5578011870 4282862423
-0.3554956317 -0.1062504351 0.5578832626 4282730837
-0.3539556265 -0.1051729992 0.5554665327 4282401872
-0.3534764051 -0.1044142693 0.5547144413 4282138700
-0.3524658978 -0.1035012081 0.5531286597 4281743942
-0.3519856930 -0.1027464718 0.5523750782 4283059801
-0.3520360589 -0.1021473557 0.5524541140 4286810002
-0.3414470255 -0.1600798219 0.5367721915 4285626498
-0.3462081850 -0.1617072821 0.5442569852 4284836727
-0.3369114995 -0.1567765027 0.5296421051 4284310383
-0.3395898640 -0.1574296951 0.5338526368 4284968313
-0.3386224210 -0.1563897431 0.5323317647 4285494657
-0.3386964202 -0.1558323354 0.5324481130 4286152587
-0.3387702107 -0.1552745700 0.5325641036 4287336861
-0.3388437629 -0.1547164321 0.5326797366 4288126890
-0.3389171064 -0.1541579366 0.5327950120 4287732132
-0.3395116925 -0.1538353860 0.5337297916 4287008409
-0.3401791453 -0.1529494524 0.5347790122 4286876312
-0.3412954807 -0.1528552473 0.5365339518 4286613140
-0.3418900371 -0.1525243670 0.5374686122 4286152589
-0.3430066705 -0.1524233967 0.5392240286 4286021003
-0.3436012864 -0.1520874798 0.5401588082 4285823108
-0.3436736166 -0.1515192091 0.5402724743 4285954694
-0.3432232738 -0.1507211775 0.5395645499 4285823107
-0.3432950079 -0.1501530558 0.5396773219 4285625728
-0.3428438604 -0.1493569016 0.5389680862 4285756801
-0.3413468003 -0.1481084973 0.5366145968 4286217352
-0.3403716683 -0.1470908821 0.5350816846 4286612111
-0.3388729095 -0.1458512992 0.5327255726 4288125350
-0.3373732865 -0.1446165890 0.5303680897 4289046451
-0.3348264396 -0.1429400444 0.5263643265 4288849072
-0.3359412253 -0.1428291649 0.5281167626 4288322728
-0.3339158893 -0.1413848400 0.5249328613 4287401626
-0.3329364359 -0.1403885931 0.5233931541 4286743950
-0.3324799240 -0.1396153718 0.5226754546 4286414985
-0.3320229650 -0.1388435513 0.5219570994 4285888639
-0.3326131701 -0.1385093927 0.5228849053 4285362295
-0.3326794207 -0.1379559040 0.5229890943 4285427318
-0.3327454329 -0.1374020875 0.5230928659 4285493111
-0.3333353400 -0.1370634586 0.5240201950 4286019709
-0.3344494104 -0.1369373798 0.5257715583 4286480260
-0.3350393176 -0.1365937144 0.5266989470 4286348674
-0.3319582641 -0.1347577721 0.5218554139 4286019709
-0.3356945515 -0.1356881559 0.5277289748 4285888122
-0.3326118886 -0.1338611841 0.5228828788 4285756536
-0.3363491893 -0.1347777843 0.5287581682 4285427318
-0.3374635279 -0.1346348822 0.5305099487 4285229939
-0.3375281990 -0.1340711266 0.5306115746 4285229939
-0.3381176293 -0.1337146759 0.5315381885 4285229939
-0.3387070000 -0.1333561540 0.5324647427 4284835953
-0.3398215771 -0.1332014352 0.5342168808 4284704367
-0.3409362733 -0.1330428720 0.5359692574 4284638574
-0.3415257037 -0.1326763481 0.5368958712 4284441195
-0.3421150744 -0.1323077530 0.5378224254 4284506734
-0.3432300091 -0.1321394295 0.5395751595 4284440941
-0.3438193798 -0.1317657828 0.5405016541 4284440941
-0.3444086611 -0.1313900650 0.5414280295 4284506734
-0.3449978828 -0.1310122609 0.5423543453 4284375662
-0.3455870748 -0.1306323707 0.5432805419 4284244076
-0.3467652202 -0.1298663467 0.5451326370 4283915111
-0.3468278944 -0.1292840242 0.5452311635 4284111207
-0.3468903005 -0.1287014037 0.5453293324 4284242793
-0.3469524682 -0.1281184554 0.5454270244 4284243563
-0.3470143676 -0.1275351942 0.5455243587 4284309356
-0.3470759988 -0.1269516200 0.5456212163 4284309356
-0.3434500396 -0.1250254363 0.5399210453 4284243563
-0.3456179202 -0.1252109408 0.5433290601 4284177770
-0.3451515436 -0.1244391203 0.5425959229 4284177770
-0.3436306417 -0.1232905760 0.5402049422 4284243563
-0.3442174792 -0.1228998825 0.5411275029 4284243563
-0.3432225287 -0.1219451651 0.5395634174 4284178283
-0.3427543044 -0.1211801246 0.5388273001 4284112490
-0.3422856331 -0.1204165667 0.5380905271 4284046697
-0.3418165147 -0.1196544915 0.5373530388 4283980904
-0.3413469493 -0.1188938990 0.5366148353 4283849317
-0.3404065073 -0.1173771843 0.5351364613 4283652455
-0.3404634893 -0.1168021560 0.5352259874 4283652455
-0.3405201733 -0.1162268445 0.5353151560 4283718248
-0.3405766487 -0.1156512350 0.5354039073 4283718248
-0.3406328261 -0.1150753498 0.5354922414 4283915627
-0.3401605487 -0.1143216565 0.5347498059 4284113006
-0.3402161300 -0.1137460917 0.5348371863 4284376176
-0.3407998383 -0.1133459806 0.5357547402 4284573555
-0.3413834274 -0.1129437909 0.5366722345 4284310383
-0.3419669271 -0.1125395373 0.5375894904 4284244590
-0.3420217037 -0.1119601727 0.5376756191 4284047211
-0.3420762122 -0.1113805249 0.5377613306 4283849832
-0.3447744548 -0.1116568670 0.5420030951 4283718246
-0.3469443619 -0.1117536128 0.5454142690 4283455074
-0.3485856950 -0.1116734445 0.5479945540 4283323743
-0.3502272666 -0.1115876138 0.5505751967 4283323743
-0.3518690765 -0.1114961132 0.5531561971 4284244076
-0.3524526656 -0.1110654250 0.5540736318 4284244076
-0.3535654247 -0.1107985228 0.5558229685 4284573040
-0.3541488945 -0.1103627831 0.5567401648 4284770419
-0.3542027771 -0.1097608954 0.5568248630 4284638833
-0.3542563617 -0.1091587394 0.5569091439 4284507247
-0.3543096781 -0.1085563153 0.5569929481 4284441454
-0.3543627262 -0.1079536155 0.5570763350 4284244075
-0.3544155061 -0.1073506474 0.5571593046 4283849318
-0.3544679880 -0.1067474037 0.5572417974 4283322974
