VERSION 0.7
FIELDS x y z rgba
SIZE 4 4 4 4
TYPE F F F U
COUNT 1 1 1 1
WIDTH 920
HEIGHT 1
VIEWPOINT 0.0 0.0 0.0 1.0 0.0 0.0 0.0
POINTS 920
DATA ascii
-0.2586765289 -0.2005463988 0.5615760088 4289958954
-0.2583549619 -0.1996739209 0.5608779192 4289958954
-0.2584311962 -0.1991094947 0.5610434413 4290024745
-0.2585072517 -0.1985445470 0.5612085462 4290024745
-0.2581847310 -0.1976740658 0.5605083704 4290024745
-0.2582603395 -0.1971089989 0.5606724620 4289893159
-0.2579371035 -0.1962401420 0.5599707365 4289958952
-0.2580122352 -0.1956749558 0.5601338744 4290090538
-0.2576883137 -0.1948077381 0.5594306588 4290090027
-0.2573640049 -0.1939417571 0.5587265491 4290024234
-0.2574383914 -0.1933768541 0.5588880777 4290090029
-0.2575125992 -0.1928114593 0.5590491891 4290221615
-0.2575866580 -0.1922455728 0.5592099428 4289893931
-0.2572610378 -0.1913820356 0.5585030913 4289959724
-0.2573346198 -0.1908160597 0.5586628318 4290025774
-0.2570083141 -0.1899541765 0.5579544306 4290091567
-0.2570814192 -0.1893881112 0.5581131577 4290026028
-0.2563545108 -0.1882342398 0.5565350056 4289960235
-0.2564270496 -0.1876689792 0.5566924810 4289959721
-0.2564994097 -0.1871032268 0.5568495393 4289828135
-0.2561713159 -0.1862459928 0.5561373234 4289894182
-0.2562431991 -0.1856801808 0.5562933683 4289828389
-0.2563149035 -0.1851138771 0.5564490557 4289959975
-0.2559858263 -0.1842587590 0.5557346344 4290025768
-0.2560570538 -0.1836924106 0.5558892488 4289893928
-0.2561281323 -0.1831255704 0.5560435057 4289762342
-0.2557980418 -0.1822725832 0.5553269982 4289696549
-0.2558686435 -0.1817056984 0.5554802418 4289630756
-0.2555378973 -0.1808544397 0.5547621846 4289630756
-0.2556079924 -0.1802875102 0.5549143553 4289696549
-0.2556779385 -0.1797201037 0.5550661683 4289433631
-0.2557476759 -0.1791522503 0.5552176237 4289302045
-0.2558172345 -0.1785839200 0.5553686619 4289302043
-0.2558866143 -0.1780151427 0.5555192828 4289302043
-0.2559558153 -0.1774458885 0.5556694865 4289433627
-0.2556229234 -0.1765985042 0.5549467206 4289565213
-0.2556916177 -0.1760292351 0.5550959110 4289499420
-0.2557601631 -0.1754595041 0.5552447438 4289433627
-0.2558284998 -0.1748893112 0.5553930998 4289433629
-0.2554943264 -0.1740445644 0.5546675920 4289367836
-0.2555621862 -0.1734743714 0.5548149347 4289104923
-0.2556298673 -0.1729037017 0.5549618602 4289104923
-0.2556973696 -0.1723325998 0.5551083684 4289170716
-0.2557646632 -0.1717610210 0.5552545190 4289236509
-0.2558318079 -0.1711890101 0.5554002523 4289235482
-0.2558987141 -0.1706165522 0.5555455089 4289301275
-0.2559654713 -0.1700436324 0.5556904078 4289367068
-0.2564352155 -0.1697371602 0.5567102432 4289696033
-0.2565016747 -0.1691624373 0.5568545461 4289761828
-0.2565679550 -0.1685872823 0.5569983721 4289827621
-0.2566340268 -0.1680116802 0.5571418405 4290024998
-0.2566999197 -0.1674356312 0.5572848916 4290090791
-0.2567656338 -0.1668591499 0.5574275255 4290090791
-0.2568311095 -0.1662822068 0.5575697422 4290024998
-0.2568964362 -0.1657048315 0.5577115417 4290024996
-0.2569615543 -0.1651270241 0.5578528643 4289827617
-0.2570264637 -0.1645487696 0.5579938293 4289498654
-0.2570911944 -0.1639700830 0.5581343174 4289432861
-0.2571557164 -0.1633909494 0.5582744479 4289367068
-0.2572200596 -0.1628113985 0.5584141016 4289301275
-0.2572841942 -0.1622314006 0.5585533381 4289432859
-0.2573481202 -0.1616509706 0.5586921573 4289564445
-0.2570071518 -0.1608168483 0.5579518676 4289498652
-0.2574754059 -0.1604888141 0.5589684844 4289432859
-0.2571338415 -0.1596556604 0.5582268834 4289432859
-0.2571968734 -0.1590744257 0.5583637357 4289827617
-0.2572597265 -0.1584927589 0.5585002303 4289959457
-0.2573223710 -0.1579106748 0.5586361885 4290222629
-0.2573848069 -0.1573281586 0.5587717891 4290551594
-0.2582579255 -0.1572389156 0.5606672764 4290748973
-0.2583201528 -0.1566537172 0.5608024001 4290815535
-0.2583822012 -0.1560681015 0.5609370470 4290815535
-0.2584440410 -0.1554820538 0.5610712767 4290815535
-0.2585056722 -0.1548956037 0.5612050891 4290815535
-0.2585670948 -0.1543087214 0.5613384843 4290947121
-0.2586283386 -0.1537214220 0.5614714026 4291144500
-0.2586893439 -0.1531337053 0.5616038442 4290815792
-0.2587501705 -0.1525455713 0.5617358685 4291078964
-0.2588107586 -0.1519570351 0.5618674755 4291276086
-0.2592775524 -0.1516057104 0.5628808737 4291144500
-0.2593378425 -0.1510154158 0.5630117655 4290947378
-0.2598045170 -0.1506604850 0.5640248656 4290618413
-0.2598644793 -0.1500684470 0.5641550422 4290815793
-0.2599242628 -0.1494759917 0.5642848015 4290947379
-0.2603906691 -0.1491161287 0.5652973652 4290750000
-0.2600431442 -0.1482898742 0.5645428896 4290289449
-0.2605093122 -0.1479273438 0.5655549169 4290355242
-0.2605683208 -0.1473323405 0.5656830668 4290815793
-0.2610343695 -0.1469662040 0.5666947961 4291144760
-0.2610930502 -0.1463694572 0.5668221712 4291144760
-0.2615589201 -0.1459997296 0.5678336024 4291078967
-0.2616172731 -0.1454012543 0.5679602623 4291078967
-0.2620829940 -0.1450279355 0.5689713359 4291209788
-0.2621410191 -0.1444277316 0.5690972805 4291078202
-0.2626065910 -0.1440508068 0.5701079965 4291012409
-0.2626642585 -0.1434488595 0.5702332258 4291012409
-0.2631296515 -0.1430683434 0.5712435842 4291144249
-0.2631869912 -0.1424646825 0.5713680387 4291210042
-0.2632440925 -0.1418606192 0.5714920163 4290946868
-0.2633009851 -0.1412561685 0.5716155171 4290815282
-0.2637659609 -0.1408693939 0.5726249814 4290354479
-0.2642308772 -0.1404803544 0.5736343265 4290486065
-0.2642872930 -0.1398728639 0.5737567544 4290551607
-0.2647520304 -0.1394802183 0.5747657418 4290617400
-0.2652167380 -0.1390853226 0.5757745504 4290748988
-0.2656813860 -0.1386881471 0.5767832994 4290880574
-0.2657371759 -0.1380762756 0.5769044161 4291012410
-0.2657927275 -0.1374640316 0.5770249963 4291078203
-0.2658480704 -0.1368514001 0.5771451592 4290946870
-0.2663122416 -0.1364479810 0.5781528354 4290946870
-0.2667763829 -0.1360422969 0.5791604519 4290946870
-0.2672404647 -0.1356343329 0.5801679492 4290881077
-0.2672951519 -0.1350173503 0.5802866817 4290683444
-0.2677590251 -0.1346058100 0.5812937021 4290288686
-0.2678133249 -0.1339871138 0.5814116001 4289631018
-0.2682769895 -0.1335719824 0.5824182034 4289236260
-0.2683309317 -0.1329516023 0.5825353265 4288577829
-0.2687943876 -0.1325328648 0.5835414529 4287985692
-0.2688479424 -0.1319107860 0.5836577415 4287853352
-0.2693111598 -0.1314884722 0.5846633911 4287721766
-0.2693643570 -0.1308647096 0.5847788453 4287063852
-0.2694172859 -0.1302405745 0.5848937631 4286405922
-0.2698801458 -0.1298133433 0.5858986378 4285747489
-0.2699327171 -0.1291875243 0.5860127211 4285418524
-0.2699850202 -0.1285613477 0.5861263275 4284499994
-0.2700371146 -0.1279347986 0.5862393975 4284302615
-0.2704994380 -0.1275013536 0.5872430801 4284303138
-0.2705511451 -0.1268731356 0.5873553157 4284566310
-0.2706026137 -0.1262445450 0.5874670744 4284698163
-0.2706538439 -0.1256156117 0.5875782967 4285027128
-0.2711156011 -0.1251759678 0.5885807276 4285158973
-0.2711664438 -0.1245453581 0.5886911154 4285158973
-0.2716279626 -0.1241021454 0.5896930695 4285291587
-0.2716783881 -0.1234698743 0.5898025632 4285225794
-0.2721396685 -0.1230230853 0.5908039808 4285161032
-0.2721897066 -0.1223891526 0.5909125805 4285489997
-0.2722394764 -0.1217548773 0.5910206437 4285556051
-0.2722890377 -0.1211202443 0.5911282301 4285687637
-0.2727497220 -0.1206672788 0.5921283364 4286082140
-0.2727988660 -0.1200309992 0.5922350287 4286608484
-0.2728477716 -0.1193943769 0.5923411846 4287267447
-0.2606161535 -0.2145113498 0.5671544075 4284765743
-0.2606969476 -0.2139475048 0.5673302412 4284502312
-0.2607775629 -0.2133831382 0.5675056577 4284304933
-0.2604627907 -0.2124957889 0.5668206811 4284041244
-0.2605429888 -0.2119312286 0.5669951439 4283843865
-0.2606230080 -0.2113661617 0.5671693087 4283975443
-0.2607028484 -0.2108005583 0.5673430562 4284172822
-0.2603867948 -0.2099154145 0.5666552782 4285158937
-0.2604662180 -0.2093496472 0.5668280721 4285816867
-0.2609414160 -0.2091006488 0.5678622127 4286343201
-0.2602284253 -0.2079000920 0.5663106441 4286606373
-0.2599110007 -0.2070180625 0.5656198263 4287132452
-0.2595931590 -0.2061372250 0.5649281740 4287329831
-0.2596713603 -0.2055714726 0.5650983453 4287724074
-0.2593528330 -0.2046922147 0.5644052029 4288118832
-0.2590339184 -0.2038141638 0.5637111068 4288578595
-0.2591113746 -0.2032486051 0.5638796687 4288841767
-0.2587917447 -0.2023721486 0.5631841421 4289170985
-0.2588687539 -0.2018064409 0.5633516908 4289170985
-0.2589455843 -0.2012402266 0.5635188818 4289302053
-0.2586249709 -0.2003657371 0.5628212094 4289433639
-0.2583039701 -0.1994924843 0.5621225834 4289696552
-0.2579825521 -0.1986204535 0.5614231229 4289893931
-0.2580583394 -0.1980548501 0.5615880489 4290091310
-0.2577362359 -0.1971844435 0.5608870983 4289828138
-0.2578115761 -0.1966187209 0.5610510707 4289827114
-0.2578867376 -0.1960524917 0.5612146258 4289958700
-0.2575636506 -0.1951840967 0.5605114698 4290024493
-0.2576383352 -0.1946177632 0.5606740713 4290090286
-0.2573145628 -0.1937510073 0.5599694252 4290221872
-0.2573888004 -0.1931845695 0.5601310134 4290353458
-0.2574628592 -0.1926176250 0.5602921844 4290222894
-0.2571380734 -0.1917529106 0.5595853925 4290157101
-0.2572116852 -0.1911858767 0.5597455502 4290157103
-0.2568862140 -0.1903228313 0.5590372682 4290157103
-0.2569593489 -0.1897557080 0.5591964722 4290222896
-0.2566331923 -0.1888943315 0.5584866405 4290222896
-0.2555081546 -0.1874484569 0.5560383797 4290157103
-0.2563790083 -0.1874674261 0.5579335093 4290091310
-0.2564511895 -0.1869001389 0.5580906272 4290091308
-0.2565232217 -0.1863323748 0.5582473278 4290025515
-0.2565950453 -0.1857641339 0.5584036708 4290025515
-0.2562669218 -0.1849069446 0.5576896071 4290025515
-0.2563382983 -0.1843386441 0.5578449368 4289893931
-0.2564094961 -0.1837698519 0.5579998493 4289762345
-0.2560803592 -0.1829147935 0.5572835803 4289630759
-0.2557508647 -0.1820610464 0.5565665364 4289564966
-0.2558212876 -0.1814926118 0.5567197800 4289498656
-0.2558915317 -0.1809237301 0.5568726659 4289498656
-0.2559615970 -0.1803543717 0.5570251346 4289301275
-0.2560314536 -0.1797845364 0.5571771860 4289235482
-0.2561011612 -0.1792142540 0.5573288798 4289301273
-0.2561706603 -0.1786434948 0.5574800968 4289235480
-0.2562400103 -0.1780722737 0.5576310158 4289235480
-0.2563091516 -0.1775005907 0.5577814579 4289235480
-0.2555756569 -0.1763746738 0.5561852455 4289038873
-0.2556442320 -0.1758038551 0.5563344359 4288841494
-0.2557125986 -0.1752325892 0.5564832687 4288709654
-0.2557807863 -0.1746608466 0.5566316247 4288709654
-0.2558487654 -0.1740886569 0.5567796230 4288775447
-0.2559165955 -0.1735160202 0.5569272041 4288775447
-0.2559842169 -0.1729429215 0.5570743680 4288709654
-0.2560516596 -0.1723693609 0.5572211146 4288512275
-0.2561188936 -0.1717953533 0.5573674440 4288841240
-0.2561859488 -0.1712208986 0.5575133562 4288775447
-0.2562528253 -0.1706459969 0.5576589108 4288775448
-0.2563194931 -0.1700706333 0.5578039885 4289038620
-0.2567884624 -0.1697609127 0.5588245988 4289170208
-0.2568548620 -0.1691837460 0.5589690804 4289170208
-0.2569210827 -0.1686061472 0.5591131449 4289301792
-0.2569870949 -0.1680281013 0.5592568517 4289367585
-0.2570529282 -0.1674495935 0.5594000816 4289367584
-0.2567155361 -0.1666091084 0.5586658716 4289499170
-0.2567808628 -0.1660306305 0.5588080287 4289761828
-0.2568460107 -0.1654517204 0.5589497685 4289761828
-0.2569109499 -0.1648723632 0.5590910912 4289630242
-0.2569756806 -0.1642925590 0.5592319965 4289564449
-0.2570402324 -0.1637123227 0.5593724847 4289564194
-0.2571046054 -0.1631316543 0.5595125556 4289432608
-0.2571687698 -0.1625505537 0.5596521497 4289498656
-0.2572327256 -0.1619690210 0.5597913861 4289696035
-0.2572964728 -0.1613870412 0.5599301457 4289761828
-0.2573600411 -0.1608046293 0.5600684285 4289696035
-0.2578275502 -0.1604733318 0.5610858202 4289827619
-0.2578907907 -0.1598891467 0.5612235069 4290156584
-0.2579538822 -0.1593045294 0.5613607168 4290223147
-0.2580167353 -0.1587194949 0.5614975095 4290354733
-0.2584839165 -0.1583818793 0.5625142455 4290420524
-0.2585464716 -0.1577950716 0.5626503825 4290617903
-0.2582041323 -0.1569618136 0.5619053245 4290881073
-0.2590757906 -0.1568652838 0.5638023019 4291012659
-0.2591378391 -0.1562762707 0.5639373064 4291012659
-0.2591997087 -0.1556868553 0.5640718937 4291012659
-0.2592613399 -0.1550970078 0.5642060637 4291078707
-0.2593227923 -0.1545067281 0.5643397570 4291144500
-0.2589787245 -0.1536755562 0.5635910034 4291210551
-0.2590396702 -0.1530853659 0.5637236238 4291078965
-0.2591003776 -0.1524947733 0.5638557673 4291275831
-0.2591609061 -0.1519037634 0.5639874935 4291210038
-0.2596268654 -0.1515491307 0.5650015473 4291144245
-0.2596870661 -0.1509563625 0.5651325583 4290815280
-0.2601529360 -0.1505981386 0.5661463141 4291078967
-0.2602128088 -0.1500036269 0.5662766099 4290947381
-0.2606784999 -0.1496417820 0.5672900677 4290881588
-0.2607380450 -0.1490455270 0.5674197078 4290815795
-0.2612036169 -0.1486800909 0.5684328675 4291012661
-0.2612628341 -0.1480820775 0.5685617328 4291341626
-0.2613218427 -0.1474836767 0.5686901212 4291473212
-0.2613806427 -0.1468848586 0.5688180923 4291407419
-0.2618457973 -0.1465131342 0.5698304176 4291407419
-0.2619042695 -0.1459125876 0.5699576139 4291473212
-0.2623692751 -0.1455372721 0.5709695816 4291539003
-0.2624273896 -0.1449349821 0.5710960627 4291473210
-0.2624852955 -0.1443322897 0.5712220669 4291539005
-0.2629500329 -0.1439520419 0.5722334385 4291275833
-0.2630076110 -0.1433476210 0.5723586679 4291144247
-0.2634721696 -0.1429637671 0.5733696818 4291078454
-0.2635293901 -0.1423576176 0.5734941959 4290947121
-0.2635863721 -0.1417510808 0.5736182332 4291078707
-0.2640506327 -0.1413622946 0.5746285319 4291144249
-0.2641072869 -0.1407540292 0.5747517943 4291275835
-0.2645713687 -0.1403616518 0.5757617354 4291341127
-0.2646276653 -0.1397516578 0.5758842826 4291077955
-0.2654993832 -0.1395700723 0.5777813196 4290814530
-0.2659633160 -0.1391708851 0.5787909627 4290551358
-0.2660191953 -0.1385569125 0.5789125562 4290354232
-0.2664829493 -0.1381541193 0.5799217820 4290288439
-0.2665384710 -0.1375384331 0.5800426006 4290353197
-0.2665937841 -0.1369223595 0.5801629424 4290221611
-0.2670571804 -0.1365146488 0.5811713934 4289892656
-0.2671121061 -0.1358968765 0.5812909603 4289563691
-0.2675753236 -0.1354855597 0.5822989941 4288840235
-0.2676298916 -0.1348660737 0.5824177265 4287984926
-0.2676841915 -0.1342462152 0.5825359225 4286999063
-0.2681470513 -0.1338299811 0.5835432410 4286472719
-0.2682010233 -0.1332084239 0.5836606026 4286144023
-0.2682547271 -0.1325864941 0.5837775469 4285815058
-0.2687172294 -0.1321653426 0.5847840309 4285223703
-0.2687705755 -0.1315417141 0.5849001408 4284960531
-0.2692328691 -0.1311169863 0.5859061480 4284829210
-0.2692858279 -0.1304916590 0.5860213637 4284763417
-0.2693385482 -0.1298659742 0.5861361623 4284763930
-0.2698004544 -0.1294363290 0.5871413350 4285092895
-0.2694433033 -0.1286135018 0.5863640904 4285421617
-0.2694953382 -0.1279867142 0.5864773393 4285553203
-0.2699567676 -0.1275531203 0.5874814987 4285685054
-0.2603257298 -0.2128985524 0.5678949952 4284962611
-0.2600113750 -0.2120112479 0.5672092438 4284633646
-0.2600912750 -0.2114460170 0.5673835874 4284567339
-0.2601710260 -0.2108802497 0.5675575137 4284633132
-0.2602506280 -0.2103139609 0.5677311420 4284172577
-0.2603300214 -0.2097471654 0.5679044127 4283975198
-0.2596189678 -0.2085449994 0.5663532019 4283909397
-0.2600930929 -0.2082954347 0.5673875213 4284106776
-0.2593810856 -0.2070965618 0.5658342838 4284567060
-0.2594594955 -0.2065302730 0.5660052896 4284830232
-0.2595376968 -0.2059634775 0.5661759377 4285225239
-0.2592200041 -0.2050830722 0.5654829144 4285751583
-0.2589018941 -0.2042038739 0.5647889972 4286605593
-0.2589793801 -0.2036372721 0.5649579763 4286934558
-0.2586605847 -0.2027596682 0.5642625690 4287460639
-0.2587376237 -0.2021929324 0.5644305944 4287658018
-0.2588144839 -0.2016256750 0.5645982027 4287724061
-0.2588911653 -0.2010579258 0.5647655129 4287921440
-0.2585710883 -0.2001826316 0.5640673041 4288381727
-0.2582506239 -0.1993085891 0.5633682013 4288644899
-0.2579297423 -0.1984357685 0.5626682043 4289105190
-0.2576084435 -0.1975642145 0.5619673133 4288907811
-0.2576838136 -0.1969974339 0.5621317029 4288907295
-0.2577590048 -0.1964301616 0.5622957349 4289104674
-0.2578340173 -0.1958623976 0.5624593496 4289367585
-0.2579088509 -0.1952941418 0.5626226068 4289499171
-0.2587785423 -0.1953254640 0.5645198226 4289630756
-0.2580580115 -0.1941561252 0.5629479885 4289762342
-0.2577345669 -0.1932881027 0.5622424483 4290090791
-0.2578085959 -0.1927187443 0.5624039769 4290024998
-0.2574844956 -0.1918523759 0.5616968870 4290025000
-0.2575580478 -0.1912829131 0.5618573427 4290090793
-0.2568350434 -0.1901234537 0.5602801442 4290156333
-0.2569080293 -0.1895547807 0.5604393482 4290287919
-0.2565824091 -0.1886926293 0.5597290397 4290353712
-0.2566549182 -0.1881238818 0.5598871708 4290353712
-0.2563285828 -0.1872634143 0.5591753721 4290222896
-0.2564006448 -0.1866945922 0.5593324900 4290157103
-0.2564724982 -0.1861252785 0.5594892502 4290287917
-0.2561452091 -0.1852669120 0.5587752461 4290287917
-0.2562165856 -0.1846975386 0.5589309931 4290287919
-0.2562878132 -0.1841276884 0.5590863824 4290156333
-0.2563588321 -0.1835573614 0.5592412949 4289828138
-0.2560302615 -0.1827015430 0.5585245490 4289696552
-0.2561008036 -0.1821311563 0.5586784482 4289630242
-0.2557715476 -0.1812770516 0.5579601526 4289432863
-0.2558416426 -0.1807066202 0.5581130385 4289235484
-0.2559115291 -0.1801357269 0.5582655072 4289235484
-0.2559812367 -0.1795643568 0.5584176183 4289235484
-0.2560507953 -0.1789925247 0.5585693121 4289103898
-0.2561201453 -0.1784202158 0.5587205887 4288906264
-0.2561892867 -0.1778474599 0.5588714480 4288577299
-0.2562582791 -0.1772742271 0.5590219498 4288380438
-0.2563270628 -0.1767005324 0.5591720343 4288314645
-0.2555944324 -0.1755759865 0.5575737953 4288183059
-0.2556626499 -0.1750031710 0.5577226281 4288183059
-0.2557306588 -0.1744299084 0.5578709841 4288248852
-0.2557984889 -0.1738561690 0.5580189824 4288314645
-0.2558661401 -0.1732819825 0.5581665039 4288446485
-0.2559336126 -0.1727073342 0.5583136678 4288446485
-0.2560008764 -0.1721322387 0.5584604144 4288578071
-0.2560679615 -0.1715566963 0.5586067438 4288446485
-0.2561348379 -0.1709806919 0.5587526560 4288314899
-0.2566031218 -0.1706713289 0.5597741604 4288643864
-0.2566697299 -0.1700935215 0.5599194765 4288972575
-0.2567361295 -0.1695152670 0.5600643754 4289038368
-0.2568023801 -0.1689365655 0.5602088571 4289170208
-0.2568683922 -0.1683574170 0.5603529215 4289236001
-0.2569342554 -0.1677778214 0.5604965687 4289038620
-0.2569999099 -0.1671977788 0.5606397986 4289235999
-0.2570653558 -0.1666172892 0.5607825518 4289367585
-0.2571306229 -0.1660363674 0.5609249473 4289367585
-0.2567931712 -0.1651960611 0.5601888299 4289498403
-0.2568579614 -0.1646151692 0.5603300929 4289432610
-0.2569225132 -0.1640338302 0.5604709983 4289366817
-0.2569868863 -0.1634520441 0.5606114268 4289366817
-0.2570510805 -0.1628698260 0.5607514381 4289367584
-0.2575180531 -0.1625415534 0.5617701411 4289696549
-0.2575819492 -0.1619575471 0.5619094968 4290157100
-0.2576456368 -0.1613731235 0.5620484352 4290222893
-0.2577091157 -0.1607882529 0.5621869564 4290486319
-0.2577724159 -0.1602029651 0.5623250008 4290749491
-0.2578355074 -0.1596172303 0.5624626279 4290946870
-0.2583019733 -0.1592799425 0.5634802580 4290946870
-0.2583647668 -0.1586924493 0.5636172295 4290946868
-0.2588311434 -0.1583515555 0.5646346211 4291078454
-0.2588936090 -0.1577622741 0.5647708774 4291275831
-0.2589558959 -0.1571725756 0.5649067163 4291407417
-0.2590179741 -0.1565824449 0.5650421381 4291276343
-0.2590798438 -0.1559918970 0.5651771426 4291144757
-0.2595457733 -0.1556433588 0.5661935806 4291013171
-0.2592029572 -0.1548095196 0.5654457211 4291013171
-0.2592642009 -0.1542177051 0.5655792952 4291407419
-0.2593252659 -0.1536254734 0.5657125115 4291275833
-0.2593860924 -0.1530328244 0.5658451915 4291407932
-0.2594467402 -0.1524397582 0.5659775138 4291210553
-0.2595071495 -0.1518462598 0.5661092997 4291407932
-0.2603772581 -0.1517242938 0.5680074096 4291342139
-0.2604374588 -0.1511281282 0.5681387186 4291539003
-0.2609025836 -0.1507656574 0.5691533685 4291341624
-0.2609624565 -0.1501677483 0.5692839622 4291539003
-0.2610220909 -0.1495694071 0.5694141388 4291670589
-0.2610815465 -0.1489706784 0.5695438385 4291736382
-0.2615462840 -0.1486019194 0.5705576539 4291604796
-0.2616054118 -0.1480014324 0.5706865788 4291407417
-0.2616643012 -0.1474005431 0.5708150864 4291275831
-0.2621287704 -0.1470268369 0.5718283057 4291144245
-0.2621873319 -0.1464242041 0.5719560981 4291210038
-0.2626516521 -0.1460469067 0.5729689598 4291145011
-0.2627098858 -0.1454425305 0.5730959773 4291079218
-0.2627678812 -0.1448377520 0.5732225180 4291144760
-0.2628256977 -0.1442325711 0.5733485818 4290881588
-0.2632895708 -0.1438490003 0.5743605494 4290552369
-0.2633470297 -0.1432420909 0.5744858980 4290354990
-0.2638107538 -0.1428548992 0.5754975080 4290223658
-0.2638678551 -0.1422462612 0.5756220818 4290421037
-0.2643314004 -0.1418554783 0.5766332746 4290157614
-0.2647948861 -0.1414624155 0.5776444077 4290091821
-0.2648515105 -0.1408507079 0.5777679086 4289828148
-0.2649078965 -0.1402386278 0.5778909326 4289367597
-0.2653710842 -0.1398406327 0.5789013505 4288774957
-0.2658342123 -0.1394403577 0.5799116492 4288248613
-0.2658901215 -0.1388252228 0.5800336003 4287919394
-0.2659457922 -0.1382097006 0.5801550746 4287656222
-0.2664085925 -0.1378044933 0.5811646581 4286867981
-0.2664639056 -0.1371872574 0.5812853575 4286473223
-0.2669265270 -0.1367784590 0.5822945237 4286012429
-0.2669814527 -0.1361595094 0.5824143291 4285551878
-0.2674438655 -0.1357471049 0.5834230781 4285091084
-0.2674984336 -0.1351264566 0.5835421085 4284827912
-0.2675527930 -0.1345054209 0.5836606622 4284697359
-0.2680148482 -0.1340880990 0.5846686363 4284828945
-0.2680688202 -0.1334653497 0.5847863555 4284829208
-0.2681225538 -0.1328422427 0.5849035978 4285223966
-0.2681760490 -0.1322187483 0.5850203633 4285553454
-0.2686375976 -0.1317951828 0.5860272050 4285750833
-0.2686907351 -0.1311700046 0.5861430764 4285817145
-0.2593239844 -0.2100741267 0.5670837164 4284764981
-0.2594031692 -0.2095080167 0.5672568679 4284567602
-0.2590878606 -0.2086238414 0.5665673614 4284370474
-0.2591665983 -0.2080575675 0.5667395592 4284238888
-0.2588506043 -0.2071749568 0.5660485029 4283976219
-0.2589288950 -0.2066085041 0.5662196875 4283581461
-0.2590070069 -0.2060415447 0.5663905740 4283580942
-0.2590849698 -0.2054740638 0.5665610433 4283778321
-0.2587676942 -0.2045937181 0.5658671856 4284369170
-0.2584500015 -0.2037145942 0.5651724935 4284500756
-0.2585272193 -0.2031473219 0.5653413534 4284698386
-0.2586042583 -0.2025795430 0.5655098557 4284829972
-0.2582855821 -0.2017023712 0.5648129582 4285158927
-0.2583621740 -0.2011344433 0.5649804473 4285553685
-0.2584385872 -0.2005660087 0.5651475787 4286276882
-0.2585148513 -0.1999970824 0.5653142929 4286605847
-0.2585909069 -0.1994276345 0.5654806495 4287000338
-0.2578745782 -0.1982486397 0.5639141798 4287066131
-0.2575538158 -0.1973762959 0.5632127523 4287329039
-0.2576290369 -0.1968079805 0.5633772016 4287658004
-0.2577040792 -0.1962391585 0.5635412931 4288118549
-0.2577789128 -0.1956698447 0.5637050271 4288315928
-0.2574568987 -0.1947998852 0.5630008578 4288447512
-0.2579281330 -0.1945297420 0.5640312433 4288644891
-0.2576055229 -0.1936605424 0.5633258224 4288775196
-0.2568854988 -0.1924950927 0.5617512465 4288972575
-0.2577534318 -0.1925192326 0.5636492968 4289236001
-0.2574298680 -0.1916520745 0.5629416704 4289433380
-0.2575032711 -0.1910810769 0.5631021857 4289630759
-0.2571789920 -0.1902155876 0.5623930693 4289762345
-0.2572519183 -0.1896445006 0.5625525713 4289893929
-0.2573246956 -0.1890729219 0.5627116561 4289959722
-0.2569994330 -0.1882095039 0.5620003939 4290091308
-0.2566737831 -0.1873473823 0.5612882972 4290025515
-0.2567457557 -0.1867761314 0.5614457130 4290025514
-0.2564194202 -0.1859157085 0.5607320666 4290091307
-0.2564909458 -0.1853443682 0.5608884692 4290419503
-0.2565622628 -0.1847725660 0.5610444546 4290419503
-0.2562349439 -0.1839142591 0.5603286624 4290157103
-0.2563058138 -0.1833423823 0.5604836345 4290091310
-0.2563765049 -0.1827700436 0.5606381893 4290025515
-0.2560481727 -0.1819138676 0.5599202514 4289828136
-0.2561183870 -0.1813414693 0.5600737929 4289630759
-0.2561884224 -0.1807686090 0.5602269173 4289696552
-0.2562582493 -0.1801952720 0.5603796840 4289696300
-0.2563279271 -0.1796214581 0.5605319738 4289433128
-0.2563973963 -0.1790471822 0.5606839061 4288972836
-0.2564666867 -0.1784724444 0.5608354807 4288380699
-0.2565357983 -0.1778972447 0.5609865785 4287656979
-0.2566047311 -0.1773215830 0.5611373186 4287196428
-0.2562736571 -0.1764701456 0.5604133606 4286538498
-0.2563421130 -0.1758944392 0.5605629683 4286341120
-0.2564103603 -0.1753182858 0.5607122779 4286604291
-0.2560783029 -0.1744690537 0.5599861145 4286735877
-0.2561460733 -0.1738928854 0.5601342916 4286604289
-0.2562136650 -0.1733162552 0.5602821112 4286406912
-0.2562810481 -0.1727391630 0.5604295135 4287327750
-0.2563482523 -0.1721616238 0.5605764389 4287393543
-0.2564152777 -0.1715836227 0.5607230067 4287656717
-0.2564820945 -0.1710051745 0.5608690977 4288380440
-0.2569495738 -0.1706925631 0.5618914366 4288972577
-0.2570161223 -0.1701122969 0.5620369315 4289104163
-0.2570824623 -0.1695315987 0.5621820092 4289104161
-0.2571486235 -0.1689504385 0.5623267293 4289169954
-0.2572146058 -0.1683688313 0.5624709725 4289235747
-0.2572803795 -0.1677867770 0.5626147985 4289367333
-0.2573459446 -0.1672042906 0.5627582073 4289367333
-0.2574113309 -0.1666213423 0.5629011989 4289367333
-0.2570748329 -0.1657789350 0.5621653199 4289433126
-0.2571397424 -0.1651960164 0.5623072386 4289564712
-0.2572044432 -0.1646126509 0.5624487400 4289696298
-0.2572689354 -0.1640288532 0.5625897646 4289893677
-0.2573332191 -0.1634446084 0.5627303720 4290223147
-0.2573973238 -0.1628599465 0.5628705621 4290486319
-0.2578635216 -0.1625283808 0.5638899803 4290946870
-0.2579273283 -0.1619419307 0.5640295148 4290881077
-0.2579909265 -0.1613550335 0.5641686320 4291078454
-0.2580543458 -0.1607677042 0.5643072724 4291210040
-0.2581175566 -0.1601799428 0.5644454956 4291276346
-0.2581805587 -0.1595917493 0.5645833015 4291210553
-0.2586462200 -0.1592511833 0.5656016469 4291342137
-0.2591119111 -0.1589083374 0.5666199327 4291407930
-0.2591744959 -0.1583170295 0.5667568445 4291473723
-0.2592369020 -0.1577252746 0.5668932796 4291473723
-0.2592990696 -0.1571331024 0.5670292377 4291342137
-0.2593610585 -0.1565404981 0.5671647787 4291342137
-0.2594228387 -0.1559474766 0.5672999024 4291342136
-0.2594844103 -0.1553540379 0.5674345493 4291407929
-0.2595457733 -0.1547601670 0.5675687194 4291276346
-0.2596069574 -0.1541658789 0.5677024722 4291539518
-0.2596679032 -0.1535711735 0.5678358078 4291736897
-0.2597286403 -0.1529760361 0.5679686069 4291342139
-0.2601932287 -0.1526174843 0.5689845085 4291342139
-0.2602536380 -0.1520205885 0.5691166520 4291539518
-0.2607180774 -0.1516584158 0.5701322556 4291342139
-0.2607781887 -0.1510597765 0.5702636838 4291013174
-0.2612424791 -0.1506939977 0.5712789893 4291144760
-0.2613022327 -0.1500936002 0.5714097023 4291342139
-0.2617663741 -0.1497242004 0.5724247098 4291276092
-0.2618258297 -0.1491220444 0.5725546479 4291144506
-0.2618850470 -0.1485194862 0.5726841688 4291078713
-0.2623489201 -0.1481451392 0.5736985803 4290947127
-0.2624078095 -0.1475408375 0.5738273859 4290749748
-0.2628715336 -0.1471628696 0.5748413801 4290683955
-0.2629300952 -0.1465568244 0.5749694705 4290487093
-0.2629884183 -0.1459503621 0.5750970244 4290223921
-0.2630465329 -0.1453434974 0.5752241015 4290026546
-0.2631044388 -0.1447362453 0.5753507614 4289565995
-0.2635676265 -0.1443506479 0.5763636231 4288842021
-0.2636251748 -0.1437416524 0.5764894485 4288052505
-0.2640881836 -0.1433524638 0.5775019526 4287328530
-0.2641454041 -0.1427417248 0.5776270628 4287065358
-0.2646082342 -0.1423489302 0.5786391497 4286801933
-0.2646650672 -0.1417364627 0.5787634850 4286604554
-0.2647217214 -0.1411236078 0.5788873434 4286471948
-0.2647781372 -0.1405103654 0.5790106654 4286011397
-0.2652404904 -0.1401112974 0.5800217986 4285616390
-0.2657028437 -0.1397099495 0.5810328126 4285287425
-0.2657587528 -0.1390936375 0.5811551213 4285089797
-0.2658144534 -0.1384769529 0.5812768936 4285024004
-0.2658699155 -0.1378598660 0.5813981891 4284304406
-0.2663317621 -0.1374522597 0.5824081898 4284370199
-0.2663868666 -0.1368334591 0.5825286508 4284567075
-0.2668485343 -0.1364222467 0.5835381746 4284698661
-0.2669032514 -0.1358017474 0.5836579204 4284895789
-0.2669577599 -0.1351808608 0.5837770700 4285224754
-0.2583976686 -0.2066866308 0.5664338470 4284897070
-0.2584756911 -0.2061195076 0.5666048527 4284764968
-0.2581594288 -0.2052385211 0.5659115314 4284633382
-0.2582369745 -0.2046712339 0.5660815835 4284304933
-0.2583143711 -0.2041034251 0.5662512183 4284041761
-0.2583916187 -0.2035351098 0.5664205551 4283843866
-0.2584686875 -0.2029663026 0.5665894747 4283646487
-0.2585455775 -0.2023969740 0.5667580366 4283580685
-0.2582274377 -0.2015189976 0.5660606623 4283580685
-0.2583038807 -0.2009495199 0.5662282109 4283843590
-0.2583801448 -0.2003795505 0.5663954020 4283975176
-0.2584562302 -0.1998090744 0.5665621758 4284238338
-0.2585321367 -0.1992380768 0.5667285919 4284369924
-0.2582124770 -0.1983628273 0.5660278201 4284829443
-0.2578924000 -0.1974888146 0.5653261542 4285158408
-0.2575719059 -0.1966160536 0.5646236539 4285618698
-0.2576467693 -0.1960456818 0.5647877455 4285881870
-0.2577214837 -0.1954748333 0.5649515390 4286145296
-0.2574000061 -0.1946040839 0.5642468333 4286474261
-0.2574742436 -0.1940331161 0.5644095540 4286933529
-0.2575483024 -0.1934616417 0.5645719171 4287130908
-0.2576221824 -0.1928896904 0.5647339225 4287459865
-0.2572994530 -0.1920213699 0.5640264153 4287788830
-0.2569763064 -0.1911543161 0.5633180141 4288118298
-0.2570494413 -0.1905826479 0.5634783506 4288249884
-0.2571223974 -0.1900104880 0.5636382699 4288447512
-0.2571951747 -0.1894378513 0.5637977719 4288644891
-0.2568707466 -0.1885732710 0.5630866289 4288710937
-0.2565459013 -0.1877099723 0.5623745918 4288842523
-0.2566179335 -0.1871376485 0.5625324249 4289104926
-0.2566897571 -0.1865648478 0.5626899004 4289236512
-0.2563639581 -0.1857036501 0.5619757175 4289433637
-0.2564353049 -0.1851307750 0.5621321201 4289565223
-0.2565065026 -0.1845574230 0.5622881651 4289631020
-0.2561796904 -0.1836983413 0.5615717769 4289631020
-0.2562504113 -0.1831249297 0.5617268085 4289828399
-0.2563209236 -0.1825510412 0.5618813634 4289762606
-0.2563912868 -0.1819766760 0.5620356202 4289828146
-0.2564614415 -0.1814018339 0.5621894002 4290025525
-0.2565314174 -0.1808265299 0.5623427629 4290025275
-0.2566012144 -0.1802507490 0.5624957681 4289893689
-0.2566708028 -0.1796745062 0.5626483560 4289564471
-0.2563415766 -0.1788196862 0.5619266033 4289103920
-0.2564106882 -0.1782433987 0.5620781779 4288709164
-0.2564796209 -0.1776666492 0.5622292757 4288380199
-0.2565483749 -0.1770894229 0.5623800159 4287919648
-0.2562178671 -0.1762372404 0.5616554618 4287524890
-0.2566853464 -0.1759335995 0.5626801848 4287261718
-0.2563542128 -0.1750822812 0.5619543791 4287195925
-0.2564221323 -0.1745041162 0.5621032119 4286998544
-0.2564898133 -0.1739254892 0.5622516274 4286801165
-0.2565573454 -0.1733464152 0.5623996258 4287656979
-0.2566246688 -0.1727668792 0.5625472069 4287788565
-0.2566918135 -0.1721868813 0.5626944304 4288183323
-0.2567587495 -0.1716064364 0.5628411770 4288972839
-0.2568255067 -0.1710255295 0.5629875064 4289433388
-0.2572922409 -0.1707096696 0.5640105605 4289499181
-0.2573587000 -0.1701269597 0.5641562939 4289564974
-0.2574249804 -0.1695437878 0.5643016100 4289630767
-0.2574910820 -0.1689601690 0.5644464493 4289630767
-0.2571564019 -0.1681142598 0.5637128353 4289696560
-0.2576226592 -0.1677916050 0.5647349358 4289762353
-0.2572874129 -0.1669466048 0.5640000105 4289893939
-0.2573526204 -0.1663621068 0.5641429424 4290025525
-0.2574176192 -0.1657771766 0.5642854571 4290222904
-0.2574824393 -0.1651917994 0.5644275546 4290486075
-0.2575470507 -0.1646059752 0.5645691752 4290749247
-0.2576114833 -0.1640197188 0.5647104383 4290815030
-0.2576757073 -0.1634330153 0.5648512244 4290880823
-0.2577397227 -0.1628458798 0.5649915338 4291143995
-0.2578035593 -0.1622583121 0.5651314855 4290749237
-0.2582688332 -0.1619221121 0.5661514401 4290815030
-0.2583323717 -0.1613327563 0.5662906766 4290880823
-0.2583957016 -0.1607429534 0.5664294958 4291012922
-0.2584588230 -0.1601527333 0.5665678382 4290881336
-0.2589237988 -0.1598102152 0.5675871372 4290815543
-0.2589866221 -0.1592182070 0.5677248240 4290749750
-0.2590492368 -0.1586257666 0.5678620934 4290749750
-0.2595139742 -0.1582782865 0.5688809156 4290815543
-0.2595762908 -0.1576840729 0.5690174699 4290815543
-0.2596383989 -0.1570894271 0.5691536069 4290881336
-0.2597002983 -0.1564943492 0.5692892671 4290816313
-0.2597619593 -0.1558988541 0.5694245100 4290816313
-0.2598234415 -0.1553029269 0.5695592761 4290553139
-0.2598847449 -0.1547065824 0.5696936250 4290553139
-0.2599458098 -0.1541098207 0.5698274970 4290487605
-0.2600066662 -0.1535126269 0.5699608922 4290619191
-0.2600673139 -0.1529150307 0.5700938106 4290290227
-0.2605310678 -0.1525531560 0.5711104274 4289961262
-0.2605913877 -0.1519537866 0.5712426305 4289894958
-0.2610549927 -0.1515883058 0.5722589493 4289894958
-0.2611149848 -0.1509871781 0.5723904371 4289697327
-0.2615784407 -0.1506180763 0.5734063983 4289499948
-0.2616381347 -0.1500151902 0.5735372305 4289105450
-0.2621014416 -0.1496424675 0.5745528340 4288973864
-0.2621607780 -0.1490378380 0.5746828914 4288776487
-0.2622199059 -0.1484327912 0.5748125315 4288381729
-0.2622787952 -0.1478273422 0.5749416351 4287986971
-0.2627417147 -0.1474483162 0.5759564042 4287855385
-0.2628002763 -0.1468411088 0.5760847926 4287329568
-0.2628586292 -0.1462334991 0.5762127042 4286803224
-0.2629167736 -0.1456254870 0.5763401389 4286013708
-0.2629747093 -0.1450170726 0.5764671564 4285421571
-0.2630324066 -0.1444082707 0.5765936375 4284763393
-0.2634946406 -0.1440202743 0.5776069164 4284434432
-0.2635520101 -0.1434097290 0.5777326226 4284630533
-0.2640140653 -0.1430181265 0.5787455440 4284630533
-0.2640710771 -0.1424058378 0.5788704753 4284564742
-0.2645329535 -0.1420106292 0.5798829794 4284696328
-0.2645896077 -0.1413966119 0.5800071955 4284828167
-0.2646460533 -0.1407822073 0.5801308751 4284959753
-0.2647022605 -0.1401674002 0.5802540779 4285091337
-0.2651636899 -0.1397659183 0.5812656283 4285288716
-0.2652195394 -0.1391493827 0.5813880563 4285551635
-0.2656807899 -0.1387442946 0.5823991299 4285880600
-0.2657362521 -0.1381260455 0.5825207829 4285488678
-0.2657915354 -0.1375074238 0.5826418996 4285751850
-0.2573894262 -0.2038689405 0.5656006932 4284701235
-0.2574664354 -0.2033013254 0.5657699108 4284700465
-0.2575432658 -0.2027332038 0.5659387708 4284568879
-0.2576199472 -0.2021645755 0.5661072731 4284502825
-0.2576964498 -0.2015954405 0.5662754178 4284305446
-0.2577728033 -0.2010257989 0.5664431453 4284173596
-0.2578489482 -0.2004556507 0.5666105151 4284107803
-0.2579249442 -0.1998849958 0.5667774677 4284172822
-0.2580007613 -0.1993138343 0.5669440627 4284041236
-0.2572871745 -0.1981344074 0.5653760433 4283974673
-0.2573624253 -0.1975639910 0.5655413866 4283843087
-0.2570426464 -0.1966909319 0.5648387074 4283908367
-0.2571174204 -0.1961203963 0.5650030375 4283842574
-0.2571920455 -0.1955493689 0.5651669502 4283974161
-0.2572664618 -0.1949778348 0.5653305054 4284237333
-0.2573407292 -0.1944058090 0.5654937029 4284565260
-0.2570194006 -0.1935355514 0.5647875667 4284631053
-0.2570931911 -0.1929634064 0.5649497509 4284697347
-0.2571668029 -0.1923907846 0.5651115179 4284894726
-0.2568444908 -0.1915225685 0.5644032359 4285421056
-0.2569176257 -0.1909498423 0.5645639896 4285750017
-0.2569906116 -0.1903766245 0.5647243261 4286013952
-0.2570633888 -0.1898029149 0.5648843050 4286277120
-0.2571360171 -0.1892287284 0.5650438666 4286606080
-0.2568121254 -0.1883633733 0.5643321276 4287000836
-0.2568842769 -0.1877890974 0.5644906759 4287460617
-0.2565596998 -0.1869254261 0.5637774467 4287592203
-0.2566313744 -0.1863510758 0.5639349222 4287723539
-0.2563061118 -0.1854891032 0.5632202029 4287855125
-0.2563773096 -0.1849146783 0.5633766651 4287986460
-0.2564483285 -0.1843397766 0.5635327101 4288118046
-0.2565191686 -0.1837643981 0.5636883378 4288512286
-0.2565898299 -0.1831885427 0.5638436079 4288709665
-0.2562629879 -0.1823295355 0.5631254315 4288906792
-0.2563331723 -0.1817536205 0.5632796288 4289169964
-0.2564031482 -0.1811772287 0.5634334087 4289301301
-0.2564729750 -0.1806003749 0.5635868311 4289367094
-0.2565425932 -0.1800230443 0.5637398362 4289366841
-0.2566120327 -0.1794452518 0.5638924241 4289235255
-0.2566812932 -0.1788669825 0.5640445948 4289432636
-0.2567503452 -0.1782882512 0.5641964078 4289432636
-0.2568192482 -0.1777090579 0.5643477440 4289630015
-0.2564896643 -0.1768547744 0.5636234879 4289827394
-0.2565580606 -0.1762755364 0.5637738109 4289827394
-0.2566262484 -0.1756958514 0.5639237165 4289893187
-0.2566942871 -0.1751156896 0.5640731454 4289893187
-0.2567621171 -0.1745350808 0.5642222166 4289695808
-0.2568297684 -0.1739539951 0.5643708706 4289432885
-0.2564983070 -0.1731032580 0.5636425018 4289301299
-0.2569644749 -0.1727904677 0.5646669269 4289367090
-0.2570315599 -0.1722080261 0.5648142695 4289630262
-0.2570984364 -0.1716251224 0.5649612546 4289696310
-0.2571651042 -0.1710417569 0.5651078224 4289564724
-0.2572316229 -0.1704579592 0.5652539134 4289762103
-0.2572979033 -0.1698736846 0.5653995872 4289959482
-0.2573640049 -0.1692889780 0.5655449033 4289959482
-0.2574299276 -0.1687038094 0.5656897426 4289959482
-0.2574956417 -0.1681181937 0.5658341050 4289960252
-0.2575611770 -0.1675321311 0.5659781098 4290091838
-0.2572264671 -0.1666863859 0.5652425885 4290026043
-0.2572914958 -0.1661003530 0.5653855205 4289960250
-0.2573563159 -0.1655138582 0.5655279756 4289960250
-0.2574209571 -0.1649269313 0.5656700134 4290026043
-0.2574853897 -0.1643395573 0.5658116341 4290223153
-0.2575496435 -0.1637517512 0.5659527779 4290223153
-0.2576136887 -0.1631634980 0.5660935044 4290485814
-0.2576775253 -0.1625748128 0.5662338138 4290091056
-0.2581420243 -0.1622375995 0.5672544837 4290222642
-0.2582055628 -0.1616471261 0.5673941374 4290222642
-0.2582688928 -0.1610562056 0.5675333142 4290288948
-0.2583320439 -0.1604648530 0.5676720738 4290157362
-0.2587962151 -0.1601213217 0.5686920881 4290025776
-0.2588590682 -0.1595281959 0.5688301325 4289894190
-0.2593231201 -0.1591810435 0.5698499084 4289959983
-0.2589841187 -0.1583406329 0.5691049695 4290025776
-0.2594479620 -0.1579907835 0.5701242685 4289959985
-0.2595100999 -0.1573950052 0.5702607632 4289696813
-0.2595719993 -0.1567988098 0.5703967810 4289236776
-0.2596337199 -0.1562021822 0.5705323815 4288973604
-0.2596952021 -0.1556051224 0.5706675649 4288974369
-0.2597565055 -0.1550076455 0.5708022118 4289105955
-0.2602197826 -0.1546487659 0.5718202591 4288448286
-0.2602807581 -0.1540495306 0.5719542503 4288316700
-0.2603415251 -0.1534498632 0.5720877647 4287329552
-0.2604020834 -0.1528497785 0.5722208619 4286869001
-0.2608650029 -0.1524845809 0.5732380748 4286802697
-0.2609252334 -0.1518827379 0.5733704567 4286342146
-0.2609852254 -0.1512804776 0.5735023022 4286013443
-0.2614479065 -0.1509103179 0.5745189786 4285487104
-0.2615075707 -0.1503062993 0.5746501684 4285092608
-0.2619701028 -0.1499325186 0.5756664872 4285158400
-0.2620294392 -0.1493267417 0.5757969022 4285092608
-0.2620885968 -0.1487205476 0.5759268999 4284763648
-0.2621475160 -0.1481139511 0.5760563612 4284631296
-0.2622062266 -0.1475069374 0.5761854053 4284697088
-0.2626681924 -0.1471255124 0.5772005916 4284237833
-0.2627265751 -0.1465167552 0.5773288608 4284303626
-0.2627847195 -0.1459075958 0.5774566531 4284303880
-0.2628426850 -0.1452980340 0.5775839686 4284501259
-0.2629003823 -0.1446880549 0.5777108073 4284566289
-0.2629579008 -0.1440776885 0.5778371692 4284632082
-0.2634192109 -0.1436872929 0.5788508058 4285092133
-0.2634763420 -0.1430751830 0.5789764524 4285289512
-0.2635332942 -0.1424626857 0.5791015625 4285289258
-0.2645679116 -0.1404381841 0.5813750625 4286474020
-0.2646239102 -0.1398218274 0.5814980865 4286474020
-0.2567716539 -0.2013634145 0.5656236410 4284832051
-0.2568477690 -0.2007944733 0.5657913089 4284700463
-0.2569237053 -0.2002250254 0.5659586191 4284766256
-0.2569994926 -0.1996550709 0.5661255121 4284437289
-0.2570751011 -0.1990846097 0.5662920475 4284371496
-0.2571505308 -0.1985136569 0.5664582253 4284437030
-0.2572257817 -0.1979421973 0.5666240454 4284437030
-0.2573008537 -0.1973702312 0.5667894483 4284239653
-0.2569816411 -0.1964963973 0.5660862327 4284042274
-0.2570562661 -0.1959243119 0.5662506223 4283910434
-0.2567363381 -0.1950521022 0.5655458570 4283844641
-0.2568104863 -0.1944799125 0.5657092333 4284237594
-0.2568844855 -0.1939072162 0.5658721924 4284303387
-0.2569583058 -0.1933340281 0.5660347939 4283975190
-0.2570319176 -0.1927603334 0.5661969781 4283712018
-0.2571053803 -0.1921861619 0.5663588047 4283514892
-0.2567836046 -0.1913171560 0.5656499863 4283383306
-0.2568565905 -0.1907428801 0.5658107996 4283382534
-0.2569293976 -0.1901681125 0.5659711957 4283382534
-0.2570020258 -0.1895928681 0.5661311746 4283316484
-0.2570745051 -0.1890171170 0.5662907958 4283250691
-0.2567511499 -0.1881509870 0.5655785203 4283053571
-0.2568231225 -0.1875751615 0.5657370687 4283250950
-0.2568949461 -0.1869988590 0.5658952594 4283711753
-0.2565706074 -0.1861348152 0.5651808381 4283974925
-0.2562458813 -0.1852720827 0.5644655228 4284172044
-0.2563169301 -0.1846961081 0.5646219850 4284303630
-0.2563877702 -0.1841196567 0.5647780895 4284829962
-0.2564584613 -0.1835427135 0.5649337173 4285290513
-0.2565289438 -0.1829653084 0.5650889874 4285816339
-0.2562026381 -0.1821055263 0.5643702745 4285947925
-0.2562726736 -0.1815280765 0.5645244718 4286013718
-0.2563425004 -0.1809501350 0.5646783113 4286013718
-0.2564121485 -0.1803717315 0.5648317337 4286145052
-0.2564815879 -0.1797928512 0.5649847388 4286408224
-0.2565508783 -0.1792134941 0.5651373267 4286802985
-0.2566199601 -0.1786336899 0.5652894974 4286934571
-0.2566888630 -0.1780533940 0.5654412508 4287131688
-0.2567575574 -0.1774726510 0.5655926466 4287329067
-0.2564285100 -0.1766176075 0.5648677945 4287263523
-0.2564967573 -0.1760368198 0.5650181174 4287197730
-0.2565647960 -0.1754555702 0.5651679635 4287329568
-0.2566326559 -0.1748738736 0.5653174520 4287263775
-0.2567003071 -0.1742917001 0.5654665232 4287525658
-0.2563696802 -0.1734397560 0.5647382140 4287854623
-0.2564368546 -0.1728575677 0.5648861527 4288051750
-0.2573004365 -0.1728099436 0.5667884946 4288117543
-0.2569690347 -0.1719584465 0.5660584569 4288051751
-0.2570357621 -0.1713739783 0.5662054420 4287854372
-0.2571022511 -0.1707890779 0.5663519502 4287722786
-0.2571685910 -0.1702037156 0.5664980412 4287854372
-0.2572347224 -0.1696178913 0.5666437149 4287920164
-0.2573006451 -0.1690316200 0.5667889118 4287985957
-0.2573663890 -0.1684449017 0.5669337511 4287986209
-0.2574319243 -0.1678577363 0.5670781136 4288052002
-0.2570980489 -0.1670107841 0.5663426518 4288052513
-0.2571630776 -0.1664236337 0.5664859414 4288052513
-0.2572279572 -0.1658360362 0.5666288137 4287986719
-0.2572925985 -0.1652480066 0.5667712092 4287920926
-0.2573570609 -0.1646595150 0.5669131875 4287657242
-0.2574213147 -0.1640705913 0.5670547485 4287591449
-0.2574853897 -0.1634812355 0.5671958923 4287526422
-0.2575492561 -0.1628914326 0.5673365593 4287460629
-0.2580129206 -0.1625532061 0.5683579445 4287329294
-0.2580764890 -0.1619616002 0.5684980154 4287131915
-0.2581398487 -0.1613695771 0.5686375499 4287000074
-0.2582029998 -0.1607771069 0.5687766671 4286934281
-0.2586663663 -0.1604325473 0.5697973967 4286802699
-0.2587292194 -0.1598382890 0.5699358582 4286473734
-0.2587918937 -0.1592435986 0.5700739026 4286078725
-0.2588543296 -0.1586484909 0.5702114701 4285815553
-0.2593173683 -0.1582975984 0.5712314248 4285552130
-0.2593795061 -0.1577007025 0.5713683367 4285354752
-0.2594414353 -0.1571033746 0.5715047717 4285025536
-0.2595031559 -0.1565056145 0.5716407299 4284564992
-0.2595646679 -0.1559074223 0.5717762113 4284434944
-0.2596260011 -0.1553088278 0.5719112754 4284171776
-0.2596870959 -0.1547097862 0.5720458627 4283447552
-0.2601494491 -0.1543485224 0.5730643868 4283118592
-0.2602102458 -0.1537477225 0.5731982589 4283250432
-0.2602708042 -0.1531465054 0.5733317137 4283513601
-0.2607329190 -0.1527802646 0.5743496418 4283514120
-0.2607931793 -0.1521772891 0.5744823813 4283908878
-0.2608532012 -0.1515738815 0.5746146441 4283843337
-0.2609130442 -0.1509700567 0.5747464299 4283909130
-0.2613747716 -0.1505975127 0.5757635236 4284238087
-0.2614342570 -0.1499919295 0.5758945942 4284567052
-0.2614935338 -0.1493859291 0.5760251284 4284829713
-0.2619549930 -0.1490084231 0.5770416856 4284961299
-0.2620139420 -0.1484006643 0.5771715045 4285158427
-0.2620726526 -0.1477925032 0.5773008466 4285355806
-0.2621311843 -0.1471839398 0.5774297714 4285092905
-0.2621894777 -0.1465749592 0.5775581598 4285356077
-0.2564272583 -0.1934076697 0.5662504435 4284699942
-0.2565008104 -0.1928338110 0.5664128065 4284568356
-0.2565741539 -0.1922594607 0.5665748119 4284633379
-0.2562530935 -0.1913901567 0.5658658147 4284633379
-0.2563259900 -0.1908157021 0.5660268068 4284567327
-0.2563987076 -0.1902407706 0.5661873817 4284501534
-0.2564712465 -0.1896653324 0.5663475394 4284369946
-0.2565436065 -0.1890894175 0.5665073395 4284369946
-0.2562209964 -0.1882229894 0.5657949448 4284304153
-0.2555030584 -0.1870687157 0.5642095804 4284106774
-0.2563645840 -0.1870704889 0.5661120415 4283975188
-0.2560409904 -0.1862061620 0.5653974414 4283777809
-0.2561122179 -0.1856295913 0.5655547380 4283777294
-0.2561832666 -0.1850525439 0.5657116771 4283843087
-0.2562541664 -0.1844750196 0.5658681393 4283711250
-0.2563248575 -0.1838970184 0.5660242438 4283777043
-0.2559996843 -0.1830356419 0.5653062463 4283842828
-0.2560698986 -0.1824575663 0.5654612780 4283842828
-0.2561399341 -0.1818790287 0.5656158924 4283843329
-0.2562097609 -0.1813000143 0.5657701492 4283843329
-0.2562794387 -0.1807205230 0.5659239888 4283909376
-0.2563489079 -0.1801405698 0.5660774112 4284040960
-0.2564181983 -0.1795601398 0.5662304163 4284238336
-0.2564873099 -0.1789792329 0.5663830042 4284238336
-0.2565562129 -0.1783978641 0.5665351748 4284369409
-0.2566249371 -0.1778160334 0.5666869283 4284369409
-0.2566934824 -0.1772337258 0.5668383241 4284237574
-0.2567618489 -0.1766509563 0.5669892430 4284171781
-0.2564330399 -0.1757955849 0.5662631989 4284368911
-0.2565008998 -0.1752127856 0.5664130449 4284434704
-0.2565685809 -0.1746295244 0.5665625334 4284762889
-0.2566360831 -0.1740458012 0.5667115450 4284960268
-0.2567033768 -0.1734616160 0.5668601394 4284894474
-0.2567704916 -0.1728769839 0.5670083761 4284828681
-0.2564398348 -0.1720251739 0.5662781596 4284829192
-0.2565064430 -0.1714405268 0.5664252639 4284763399
-0.2565728724 -0.1708554178 0.5665719509 4284763651
-0.2566390932 -0.1702698618 0.5667182207 4284961030
-0.2567051351 -0.1696838588 0.5668640733 4284895236
-0.2567709982 -0.1690973938 0.5670094490 4285026822
-0.2568366528 -0.1685104817 0.5671544671 4284961283
-0.2569020987 -0.1679231077 0.5672990084 4284895490
-0.2569673657 -0.1673353016 0.5674430728 4284763904
-0.2570324242 -0.1667470485 0.5675867796 4284632320
-0.2570973039 -0.1661583334 0.5677300096 4284500480
-0.2571619749 -0.1655691862 0.5678728223 4284434688
-0.2572264373 -0.1649795920 0.5680152178 4284697088
-0.2572907209 -0.1643895656 0.5681571364 4284762880
-0.2573547959 -0.1637990773 0.5682986379 4284632064
-0.2574186921 -0.1632081568 0.5684397221 4284434688
-0.2578815520 -0.1628689170 0.5694618821 4284237056
-0.2579451501 -0.1622762084 0.5696022511 4284171264
-0.2580085099 -0.1616830528 0.5697422028 4284237056
-0.2580716908 -0.1610894650 0.5698817372 4284302848
