VERSION 0.7
FIELDS x y z rgba
SIZE 4 4 4 4
TYPE F F F U
COUNT 1 1 1 1
WIDTH 920
HEIGHT 1
VIEWPOINT 0.0 0.0 0.0 1.0 0.0 0.0 0.0
POINTS 920
DATA ascii
-0.2809819877 -0.1059667319 0.5663048625 4283585116
-0.2819043100 -0.1056832969 0.5681636930 4283388507
-0.2815111876 -0.1049055234 0.5673713684 4283191128
-0.2833104730 -0.1049416140 0.5709977746 4283255641
-0.2851100564 -0.1049697548 0.5746247172 4283387227
-0.2886647582 -0.1056320891 0.5817890763 4283321946
-0.2895877063 -0.1053213477 0.5836492181 4283387739
-0.2913883328 -0.1053237170 0.5872782469 4283716702
-0.2931892574 -0.1053181216 0.5909079313 4283716702
-0.2954294086 -0.1054612696 0.5954228640 4283651679
-0.2976700068 -0.1055945307 0.5999386311 4287072915
-0.2994718850 -0.1055631116 0.6035702229 4292534245
-0.3045468628 -0.1814113408 0.6151756644 4287731102
-0.3041926324 -0.1805176139 0.6144601107 4283257178
-0.3038379252 -0.1796252131 0.6137436628 4281086009
-0.3034828007 -0.1787341535 0.6130263209 4281020216
-0.3031272590 -0.1778444350 0.6123080850 4281808957
-0.3023417890 -0.1767050475 0.6107215285 4282795852
-0.3011261225 -0.1753187180 0.6082658768 4283387735
-0.3003392816 -0.1741865575 0.6066764593 4282729805
-0.2948243022 -0.1703263670 0.5955363512 4281150773
-0.2884466350 -0.1659944952 0.5826537013 4280032292
-0.2837856114 -0.1626752615 0.5732386112 4281545531
-0.2817026079 -0.1608489752 0.5690309405 4281808703
-0.2804787457 -0.1595206708 0.5665587783 4281611326
-0.2788237333 -0.1579536349 0.5632157326 4280887603
-0.2784588933 -0.1571219862 0.5624787211 4280755506
-0.2785241008 -0.1565336883 0.5626104474 4281084471
-0.2781585157 -0.1557039320 0.5618720055 4281347643
-0.2773618102 -0.1546354890 0.5602626801 4281281850
-0.2774260938 -0.1540486813 0.5603924990 4281018678
-0.2763243616 -0.1515764147 0.5581670403 4280953398
-0.2759562731 -0.1507551819 0.5574235320 4281150775
-0.2751565278 -0.1497007310 0.5558080673 4281282361
-0.2739247680 -0.1484158039 0.5533199310 4281216568
-0.2713977993 -0.1464375556 0.5482155681 4280953396
-0.2714588642 -0.1458612680 0.5483388901 4280624433
-0.2693614066 -0.1441297084 0.5441020727 4280361261
-0.2685580254 -0.1430971175 0.5424793363 4280690226
-0.2690496743 -0.1427552253 0.5434723496 4280887605
-0.2673814893 -0.1412700117 0.5401027203 4281479740
-0.2674405277 -0.1407009959 0.5402219892 4281742912
-0.2674993575 -0.1401315928 0.5403408408 4281545533
-0.2675580084 -0.1395618170 0.5404592752 4281348154
-0.2676164210 -0.1389916539 0.5405772328 4281282363
-0.2676746249 -0.1384211332 0.5406948328 4281611328
-0.2677325904 -0.1378502399 0.5408119559 4281413436
-0.2677903771 -0.1372789741 0.5409286618 4281347643
-0.2691460550 -0.1373699009 0.5436670780 4281216057
-0.2683380544 -0.1363552660 0.5420349836 4281150264
-0.2688281834 -0.1360009760 0.5430250168 4281150264
-0.2688852847 -0.1354263872 0.5431402922 4281150264
-0.2689421475 -0.1348514408 0.5432552099 4281019191
-0.2689988017 -0.1342761219 0.5433696508 4280887605
-0.2690552473 -0.1337004453 0.5434836149 4280887605
-0.2691114545 -0.1331244111 0.5435972214 4280821812
-0.2691674531 -0.1325480044 0.5437102914 4281019189
-0.2687897086 -0.1317587346 0.5429472923 4280953396
-0.2688451707 -0.1311825514 0.5430592895 4280953396
-0.2680329978 -0.1301846951 0.5414187312 4281150775
-0.2680878341 -0.1296096593 0.5415295362 4281282361
-0.2685763538 -0.1292430609 0.5425163507 4281413947
-0.2668949664 -0.1278349459 0.5391199589 4281742914
-0.2660807669 -0.1268477887 0.5374752879 4281677121
-0.2661342919 -0.1262760162 0.5375834107 4281413949
-0.2661875784 -0.1257039011 0.5376910567 4281282363
-0.2658063471 -0.1249273047 0.5369209647 4281479742
-0.2662935555 -0.1245586276 0.5379050970 4281742914
-0.2663461864 -0.1239854842 0.5380114317 4282202952
-0.2668331861 -0.1236133277 0.5389951468 4282268745
-0.2664507926 -0.1228381768 0.5382227898 4282334538
-0.2673722804 -0.1226629242 0.5400841236 4282334538
-0.2669893801 -0.1218880415 0.5393106341 4282400329
-0.2674759030 -0.1215098500 0.5402934551 4282334536
-0.2670923769 -0.1207361743 0.5395187140 4282334536
-0.2680137157 -0.1205511391 0.5413798094 4282334536
-0.2684999704 -0.1201672629 0.5423620343 4282268745
-0.2711624503 -0.1207502782 0.5477401614 4282268745
-0.2690370083 -0.1191999912 0.5434468389 4282006086
-0.2695230246 -0.1188104227 0.5444285274 4282137672
-0.2700089514 -0.1184186414 0.5454100966 4282202952
-0.2709304094 -0.1182147115 0.5472714305 4282531917
-0.2714162767 -0.1178175658 0.5482528806 4283582810
-0.2727735639 -0.1177945510 0.5509945750 4284438119
-0.2732594609 -0.1173910946 0.5519760847 4284896362
-0.2741811872 -0.1171717122 0.5538379550 4287330703
-0.2746670246 -0.1167628840 0.5548192859 4291144648
-0.2751527727 -0.1163518503 0.5558004975 4291670992
-0.2756384611 -0.1159385964 0.5567815304 4292655578
-0.2756878138 -0.1153406277 0.5568813086 4292655578
-0.2753006816 -0.1145607904 0.5560992360 4292719577
-0.2749131322 -0.1137825251 0.5553163886 4292785370
-0.2749616206 -0.1131854951 0.5554143786 4292849882
-0.2754464149 -0.1127668619 0.5563936830 4292455124
-0.2759311199 -0.1123460159 0.5573727489 4292521681
-0.2759790719 -0.1117461473 0.5574696064 4292192716
-0.2769002914 -0.1114977002 0.5593304038 4292128718
-0.2769478858 -0.1108953059 0.5594266057 4291931339
-0.2769952714 -0.1102926061 0.5595222712 4288577949
-0.2774793804 -0.1098626107 0.5605001450 4281669684
-0.2779633701 -0.1094304025 0.5614778399 4280816939
-0.2784473002 -0.1089959815 0.5624552965 4280882732
-0.2789311111 -0.1085593551 0.5634326339 4280753197
-0.2789775431 -0.1079513133 0.5635264516 4280884783
-0.2790237665 -0.1073429659 0.5636197329 4280754993
-0.2790697217 -0.1067343205 0.5637125969 4282662990
-0.2791154087 -0.1061253771 0.5638049245 4283848288
-0.2800360024 -0.1058469042 0.5656644702 4283453530
-0.2818318605 -0.1058931723 0.5692920685 4283191128
-0.2831903398 -0.1057680249 0.5720361471 4283256921
-0.2832356989 -0.1051492915 0.5721277595 4283255640
-0.2845942974 -0.1050149426 0.5748721361 4283387226
-0.2868289053 -0.1051957607 0.5793859363 4283387226
-0.2908158302 -0.1060052961 0.5874393582 4283453019
-0.2948037386 -0.1067972928 0.5954948068 4283782495
-0.2930971384 -0.1055212468 0.5920475721 4283716702
-0.2966479063 -0.1061338261 0.5992200375 4283520093
-0.2966935039 -0.1054842621 0.5993121266 4287796638
-0.3027045131 -0.1807193458 0.6128290892 4287665309
-0.3027789295 -0.1800826937 0.6129797101 4283191385
-0.3019963801 -0.1789379567 0.6113954782 4281217595
-0.3016416430 -0.1780492663 0.6106773019 4280954423
-0.3012864888 -0.1771619320 0.6099582911 4282006336
-0.3005022109 -0.1760248244 0.6083704829 4282137922
-0.2980021834 -0.1738900542 0.6033091545 4283124817
-0.2937851548 -0.1707684994 0.5947717428 4283519575
-0.2938556969 -0.1701485217 0.5949145555 4282269508
-0.2883478701 -0.1663107574 0.5837638378 4280624683
-0.2836955190 -0.1629892886 0.5743451715 4281808703
-0.2816164792 -0.1611613631 0.5701360703 4281808703
-0.2803950012 -0.1598316282 0.5676631927 4281611326
-0.2791726887 -0.1585069299 0.5651885867 4280756017
-0.2788087428 -0.1576731503 0.5644518137 4280690224
-0.2784444094 -0.1568407714 0.5637142062 4281150775
-0.2785094380 -0.1562509239 0.5638458729 4281348154
-0.2777144611 -0.1551802456 0.5622364283 4281282361
-0.2773488760 -0.1543520987 0.5614962578 4281150264
-0.2769828439 -0.1535253525 0.5607552528 4281018678
-0.2766164243 -0.1527000368 0.5600134134 4280887603
-0.2753890157 -0.1514030099 0.5575284958 4281019189
-0.2758823633 -0.1510536820 0.5585272908 4281150775
-0.2746537030 -0.1497631669 0.5560398698 4281216568
-0.2729936838 -0.1482439190 0.5526791215 4281150775
-0.2721940279 -0.1471974105 0.5510601997 4280887603
-0.2705321908 -0.1456902027 0.5476958156 4280558638
-0.2697311342 -0.1446520835 0.5460740924 4280361259
-0.2693604529 -0.1438473910 0.5453236103 4280558638
-0.2685583234 -0.1428149343 0.5436996818 4280887603
-0.2673243880 -0.1415574402 0.5412015915 4281611326
-0.2669522166 -0.1407598853 0.5404481292 4281808705
-0.2674423754 -0.1404167563 0.5414404273 4281611326
-0.2670695782 -0.1396202892 0.5406857133 4281348154
-0.2671279311 -0.1390499175 0.5408038497 4281216568
-0.2676177025 -0.1387028992 0.5417954326 4281545533
-0.2676757276 -0.1381308585 0.5419128537 4281347643
-0.2673017085 -0.1373365968 0.5411556959 4281347643
-0.2686549723 -0.1374275684 0.5438953638 4281282363
-0.2678485215 -0.1364125460 0.5422626734 4281348156
-0.2687698901 -0.1362772286 0.5441280007 4281348156
-0.2683947980 -0.1354833245 0.5433686376 4281348156
-0.2684516311 -0.1349081546 0.5434836745 4281216570
-0.2685082257 -0.1343326271 0.5435982943 4281019191
-0.2685646117 -0.1337567270 0.5437124372 4280953396
-0.2686207592 -0.1331804693 0.5438261032 4280821810
-0.2686767280 -0.1326038539 0.5439393520 4281084982
-0.2687324286 -0.1320268661 0.5440521836 4280887603
-0.2683551013 -0.1312378645 0.5432882905 4280624431
-0.2684102952 -0.1306611001 0.5434000492 4280887603
-0.2680322826 -0.1298741698 0.5426346660 4281150775
-0.2672207355 -0.1288798600 0.5409917235 4281216568
-0.2659754455 -0.1276809871 0.5384706259 4281348154
-0.2660292387 -0.1271083951 0.5385795236 4281479740
-0.2660827935 -0.1265354753 0.5386879444 4281545535
-0.2661361396 -0.1259621978 0.5387959480 4281808707
-0.2661892474 -0.1253885776 0.5389034748 4281940293
-0.2671093941 -0.1252211779 0.5407663584 4282071879
-0.2662948370 -0.1242403165 0.5391172171 4282203463
-0.2663472891 -0.1236656755 0.5392234325 4282071877
-0.2672672868 -0.1234916374 0.5410859585 4282137157
-0.2677534223 -0.1231139824 0.5420701504 4282137157
-0.2678054571 -0.1225355193 0.5421755314 4282137157
-0.2678572834 -0.1219567135 0.5422804356 4282137157
-0.2687772810 -0.1217710152 0.5441429615 4282137157
-0.2692631185 -0.1213854477 0.5451265574 4282268743
-0.2693144977 -0.1208028197 0.5452305675 4282202950
-0.2706690431 -0.1208015755 0.5479728580 4282202950
-0.2694165707 -0.1196365729 0.5454372764 4282071879
-0.2699019015 -0.1192449778 0.5464197993 4282137672
-0.2703871727 -0.1188511625 0.5474022031 4282334025
-0.2708723545 -0.1184551418 0.5483844876 4282662990
-0.2713574767 -0.1180569008 0.5493665934 4283713882
-0.2718425393 -0.1176564544 0.5503486395 4284503398
-0.2723275125 -0.1172537878 0.5513304472 4284698985
-0.2728124261 -0.1168489158 0.5523121357 4288054428
-0.2737324238 -0.1166272387 0.5541747212 4290947269
-0.2746525407 -0.1164014637 0.5560374856 4291407820
-0.2751373649 -0.1159880534 0.5570190549 4292458199
-0.2747512758 -0.1152072698 0.5562373996 4292458199
-0.2748002708 -0.1146096885 0.5563365817 4292522198
-0.2748490572 -0.1140117943 0.5564353466 4292587991
-0.2748976052 -0.1134135798 0.5565336347 4292718296
-0.2753816247 -0.1129938364 0.5575135350 4292455124
-0.2754297554 -0.1123940423 0.5576109886 4292390093
-0.2759135365 -0.1119708195 0.5585904121 4292192714
-0.2763972282 -0.1115453914 0.5595696568 4292193997
-0.2764447927 -0.1109427586 0.5596659780 4292062411
-0.2769282162 -0.1105138510 0.5606446862 4287459722
-0.2774115801 -0.1100827381 0.5616232157 4281801524
-0.2774585485 -0.1094772741 0.5617183447 4281080368
-0.2779416442 -0.1090426818 0.5626963377 4280948782
-0.2784246206 -0.1086058840 0.5636740923 4281016883
-0.2784710228 -0.1079975963 0.5637680292 4281082676
-0.2785171568 -0.1073890105 0.5638614893 4281413436
-0.2789996862 -0.1069474816 0.5648384094 4283321433
-0.2790454328 -0.1063373387 0.5649309754 4283914081
-0.2799644470 -0.1060578078 0.5667915344 4283190358
-0.2804466784 -0.1056096479 0.5677677989 4283321944
-0.2818025947 -0.1054863781 0.5705128908 4283387737
-0.2844696045 -0.1058448330 0.5759122372 4283387226
-0.2849519551 -0.1053833514 0.5768888593 4283387226
-0.2867455781 -0.1054016724 0.5805199742 4283387226
-0.2885394692 -0.1054120362 0.5841517448 4283453019
-0.2907708883 -0.1055731922 0.5886693597 4283716702
-0.2925654352 -0.1055666655 0.5923023820 4283716702
-0.2943602800 -0.1055521667 0.5959360600 4283651677
-0.2979051769 -0.1061532050 0.6031127572 4288454566
-0.3012935519 -0.1802823544 0.6113472581 4287928224
-0.3013676703 -0.1796472818 0.6114976406 4283125335
-0.3010140061 -0.1787578315 0.6107800007 4281348924
-0.3002322018 -0.1776167005 0.6091936827 4280888373
-0.2998775542 -0.1767308265 0.6084740758 4281743164
-0.2995224595 -0.1758463085 0.6077535748 4281808957
-0.2983109653 -0.1744625121 0.6052953005 4282795852
-0.2966704965 -0.1728342921 0.6019667387 4283519575
-0.2933162153 -0.1702188849 0.5951606035 4282861645
-0.2882468402 -0.1666271687 0.5848744512 4281414199
-0.2844600081 -0.1637968123 0.5771906972 4282137668
-0.2819566429 -0.1617196649 0.5721111894 4282137668
-0.2807376683 -0.1603876054 0.5696377754 4281413945
-0.2795178592 -0.1590605527 0.5671626925 4280558636
-0.2791548371 -0.1582246423 0.5664260983 4280624429
-0.2787913978 -0.1573901325 0.5656886697 4281282359
-0.2784275711 -0.1565570235 0.5649504066 4281413947
-0.2772050798 -0.1552446932 0.5624699593 4281216568
-0.2768402100 -0.1544162333 0.5617295504 4281084469
-0.2764749229 -0.1535891891 0.5609883666 4280821297
-0.2761092484 -0.1527635604 0.5602463484 4280953394
-0.2748841047 -0.1514660120 0.5577604771 4281084980
-0.2753766179 -0.1511165649 0.5587598085 4281216568
-0.2737205625 -0.1495907009 0.5553995371 4281282361
-0.2720635235 -0.1480717659 0.5520372987 4281084982
-0.2716951966 -0.1472587734 0.5512899160 4280690224
-0.2708964348 -0.1462151408 0.5496692061 4280427050
-0.2696670294 -0.1449436098 0.5471746325 4280427050
-0.2688669860 -0.1439074427 0.5455513000 4280361257
-0.2667754889 -0.1421865821 0.5413075089 4280953394
-0.2668347359 -0.1416165829 0.5414277315 4281742912
-0.2668937743 -0.1410462111 0.5415474772 4281808705
-0.2665805221 -0.1396787018 0.5409119129 4281282361
-0.2673010230 -0.1370431185 0.5423738360 4281413949
-0.2682207823 -0.1369099915 0.5442400575 4281479742
-0.2682780623 -0.1363344043 0.5443563461 4281545535
-0.2683351338 -0.1357584596 0.5444720984 4281611328
-0.2679604888 -0.1349648237 0.5437119603 4281479740
-0.2680170238 -0.1343890727 0.5438266993 4281282361
-0.2680733502 -0.1338129491 0.5439409614 4281150775
-0.2681294680 -0.1332364827 0.5440548062 4281019189
-0.2686172128 -0.1328732669 0.5450444818 4281150775
-0.2686729729 -0.1322951317 0.5451576114 4280558638
-0.2682964802 -0.1315048784 0.5443936586 4279900708
-0.2679195702 -0.1307161301 0.5436289310 4280295466
-0.2679744959 -0.1301387995 0.5437403321 4280887603
-0.2680291831 -0.1295610964 0.5438513160 4281084982
-0.2676512599 -0.1287750155 0.5430845022 4281150775
-0.2664079964 -0.1275762320 0.5405617952 4281479740
-0.2660291195 -0.1267950535 0.5397930145 4281742912
-0.2660824955 -0.1262206286 0.5399013162 4282071877
-0.2665683925 -0.1258501559 0.5408872366 4282137670
-0.2666214108 -0.1252740920 0.5409948230 4282203463
-0.2666742206 -0.1246977001 0.5411019921 4282203463
-0.2667267919 -0.1241209656 0.5412086844 4282006084
-0.2685114741 -0.1243461221 0.5448299050 4282137670
-0.2672644258 -0.1231660917 0.5422995687 4282137670
-0.2681829333 -0.1229847670 0.5441632867 4282202952
-0.2686681747 -0.1226016060 0.5451478958 4282005573
-0.2695868313 -0.1224130318 0.5470118523 4282071366
-0.2709390521 -0.1224162355 0.5497556925 4282268745
-0.2718579769 -0.1222185344 0.5516202450 4282202950
-0.2701749802 -0.1208528206 0.5482053161 4282202950
-0.2702261209 -0.1202664748 0.5483090281 4282071879
-0.2707108259 -0.1198719069 0.5492926240 4282137672
-0.2711955011 -0.1194751188 0.5502760410 4282399819
-0.2712461054 -0.1188859046 0.5503786802 4282728784
-0.2717305422 -0.1184856296 0.5513616800 4283713628
-0.2713465989 -0.1177064776 0.5505825877 4284503144
-0.2718307376 -0.1173036620 0.5515649319 4284633192
-0.2723147869 -0.1168986335 0.5525471568 4288580772
-0.2732331753 -0.1166768819 0.5544106364 4290749890
-0.2741516531 -0.1164510250 0.5562742352 4291473613
-0.2746356428 -0.1160374582 0.5572562814 4292326613
-0.2751195431 -0.1156216711 0.5582382083 4292326613
-0.2751686573 -0.1150219589 0.5583378673 4292522198
-0.2743479609 -0.1140604094 0.5566726327 4292456405
-0.2743964791 -0.1134619564 0.5567710400 4292455637
-0.2744447291 -0.1128631905 0.5568689108 4292324051
-0.2749277353 -0.1124420166 0.5578490496 4292323789
-0.2754106820 -0.1120186374 0.5588289499 4292257996
-0.2754583657 -0.1114170253 0.5589256883 4292193997
-0.2759410441 -0.1109901667 0.5599051118 4291930825
-0.2759883404 -0.1103869826 0.5600010157 4286801538
-0.2764707506 -0.1099566445 0.5609799027 4282459200
-0.2773885429 -0.1096963063 0.5628421903 4281607482
-0.2778708637 -0.1092605963 0.5638208389 4281344310
-0.2779174447 -0.1086523682 0.5639153719 4281412154
-0.2779638171 -0.1080438420 0.5640094280 4281477947
-0.2784456909 -0.1076034009 0.5649871826 4282005573
-0.2784916162 -0.1069933027 0.5650804043 4283387226
-0.2794091105 -0.1067158803 0.5669420362 4283519323
-0.2803266346 -0.1064343303 0.5688037872 4283190358
-0.2808081508 -0.1059840843 0.5697808266 4283519321
-0.2817256749 -0.1056952477 0.5716425180 4283387735
-0.2826432288 -0.1054022834 0.5735042691 4283387226
-0.2861782908 -0.1060753912 0.5806772113 4283387226
-0.2866599858 -0.1056076735 0.5816546082 4283387226
-0.2880143225 -0.1054573208 0.5844026804 4283584605
-0.2902417481 -0.1056185588 0.5889222622 4283716702
-0.2920330465 -0.1056120396 0.5925570130 4283782495
-0.2938246429 -0.1055975482 0.5961923003 4283783263
-0.2956165373 -0.1055750772 0.5998281240 4288849324
-0.2998850644 -0.1798448712 0.6098636985 4288191396
-0.2995322347 -0.1789564639 0.6091461778 4282862163
-0.2996057272 -0.1783234030 0.6092956066 4281413947
-0.2992521226 -0.1774367690 0.6085765362 4280887603
-0.2980440855 -0.1760470271 0.6061197519 4281677117
-0.2985436022 -0.1756675094 0.6071355939 4281677117
-0.2973342836 -0.1742840856 0.6046762466 4282204229
-0.2961241007 -0.1729056388 0.6022152305 4283125331
-0.2885019481 -0.1678032130 0.5867143273 4283125331
-0.2898536325 -0.1679344773 0.5894632339 4281217334
-0.2852191031 -0.1646048725 0.5800381899 4281545531
-0.2822929919 -0.1622783095 0.5740874410 4282861391
-0.2810765207 -0.1609438956 0.5716135502 4281874498
-0.2798592150 -0.1596145183 0.5691379905 4280690224
-0.2794971168 -0.1587764770 0.5684016347 4280624429
-0.2791346312 -0.1579398215 0.5676643848 4281216566
-0.2787716985 -0.1571045816 0.5669263601 4281348154
-0.2766951025 -0.1553090811 0.5627031922 4281216568
-0.2780446112 -0.1554383188 0.5654476881 4281018676
-0.2768234313 -0.1541301310 0.5629642010 4280689711
-0.2764586508 -0.1533023566 0.5622223616 4280953394
-0.2756647468 -0.1522392482 0.5606078506 4281216566
-0.2748702168 -0.1511793882 0.5589920878 4281282361
-0.2740751207 -0.1501227915 0.5573750734 4281216568
-0.2719923556 -0.1483673900 0.5531394482 4281019189
-0.2716248333 -0.1475531757 0.5523920655 4280558638
-0.2708277106 -0.1465082169 0.5507709980 4280361257
-0.2687420845 -0.1447727233 0.5465295315 4280492843
-0.2679434717 -0.1437370777 0.5449054241 4280295464
-0.2680032551 -0.1431635916 0.5450270176 4281019187
-0.2667740583 -0.1419041753 0.5425272584 4281874498
-0.2664034367 -0.1411050856 0.5417735577 4281742912
-0.2668919861 -0.1407607943 0.5427670479 4281413947
-0.2660908699 -0.1397370547 0.5411378741 4281348154
-0.2661491036 -0.1391662657 0.5412563086 4281282359
-0.2662071288 -0.1385950893 0.5413743258 4281479738
-0.2666951120 -0.1382465363 0.5423666835 4281348156
-0.2667528093 -0.1376737058 0.5424839854 4281348156
-0.2676709592 -0.1375427544 0.5443512201 4281348156
-0.2668675482 -0.1365269274 0.5427173376 4281413949
-0.2673551142 -0.1361722648 0.5437089205 4281545533
-0.2674120367 -0.1355970204 0.5438246727 4281611326
-0.2674687207 -0.1350214183 0.5439399481 4281545533
-0.2675252259 -0.1344454587 0.5440548658 4281479740
-0.2675814927 -0.1338691264 0.5441693068 4281282361
-0.2676375508 -0.1332924217 0.5442832708 4281216568
-0.2676933706 -0.1327153742 0.5443968177 4281282361
-0.2673178315 -0.1319251657 0.5436331034 4280427052
-0.2669418752 -0.1311364621 0.5428685546 4279571743
-0.2669968903 -0.1305601895 0.5429803729 4280032294
-0.2670516670 -0.1299835593 0.5430917740 4280821810
-0.2671062052 -0.1294065863 0.5432027578 4281019189
-0.2671605647 -0.1288292408 0.5433132052 4281348154
-0.2663512826 -0.1278371811 0.5416674614 4281677119
-0.2659732401 -0.1270547509 0.5408986211 4281874500
-0.2660266459 -0.1264791638 0.5410072803 4282006086
-0.2660798430 -0.1259032339 0.5411154032 4282137159
-0.2661328018 -0.1253269613 0.5412231088 4282137159
-0.2666176558 -0.1249528602 0.5422092080 4282137157
-0.2671024799 -0.1245765463 0.5431951284 4282005571
-0.2671549618 -0.1239973679 0.5433018208 4282005573
-0.2689366937 -0.1242166758 0.5469253063 4282202952
-0.2685565948 -0.1234342977 0.5461522937 4282202952
-0.2690411806 -0.1230491176 0.5471377969 4281939780
-0.2699583471 -0.1228586063 0.5490029454 4282137160
-0.2713083029 -0.1228599474 0.5517483354 4282400332
-0.2713601589 -0.1222702861 0.5518538356 4282400331
-0.2709789276 -0.1214862168 0.5510784984 4282334538
-0.2705972791 -0.1207036972 0.5503023863 4282268745
-0.2706483006 -0.1201149076 0.5504060984 4282268745
-0.2724315524 -0.1202907562 0.5540326834 4282596428
-0.2711828351 -0.1191266403 0.5514931679 4282925393
-0.2712332308 -0.1185359135 0.5515956879 4283779164
-0.2712833881 -0.1179448664 0.5516976714 4284568680
-0.2717667520 -0.1175409481 0.5526806712 4284764265
-0.2726835907 -0.1173213422 0.5545451641 4289040810
-0.2722996771 -0.1165409014 0.5537644625 4290749120
-0.2736501098 -0.1165005416 0.5565107465 4291670222
-0.2750007510 -0.1164541766 0.5592575669 4292326100
-0.2750501633 -0.1158536002 0.5593580008 4292326100
-0.2746653855 -0.1150709242 0.5585755110 4292718807
-0.2738462389 -0.1141089797 0.5569096804 4292587221
-0.2738946974 -0.1135102883 0.5570082068 4292521171
-0.2743770480 -0.1130902171 0.5579891205 4292323792
-0.2744250894 -0.1124899462 0.5580868125 4292323789
-0.2744728923 -0.1118893623 0.5581840277 4292323789
-0.2749548256 -0.1114645451 0.5591641068 4292325583
-0.2754366696 -0.1110375226 0.5601440072 4291799239
-0.2759184241 -0.1106082872 0.5611237288 4286407550
-0.2759654820 -0.1100035980 0.5612194538 4282525763
-0.2764469683 -0.1095708832 0.5621986389 4281871167
-0.2769283652 -0.1091359556 0.5631776452 4281673788
-0.2774096429 -0.1086988151 0.5641564131 4281544509
-0.2778908610 -0.1082594544 0.5651350021 4281610302
-0.2779369950 -0.1076494232 0.5652288198 4282400329
-0.2779828906 -0.1070390865 0.5653221607 4283321431
-0.2784636319 -0.1065950021 0.5662998557 4283453017
-0.2793794572 -0.1063143015 0.5681623220 4283453017
-0.2816010118 -0.1065234020 0.5726802349 4283584857
-0.2816464901 -0.1059042141 0.5727726817 4283387478
-0.2825624645 -0.1056101769 0.5746355057 4283321433
-0.2847848237 -0.1057973206 0.5791550279 4283321433
-0.2878786922 -0.1062962115 0.5854468346 4283387226
-0.2918443978 -0.1071010754 0.5935117602 4283584605
-0.2897118926 -0.1056638807 0.5891749859 4283716702
-0.2932429016 -0.1062891036 0.5963557959 4283914081
-0.2950315177 -0.1062707826 0.5999932885 4283980642
-0.2963845730 -0.1060884595 0.6027448773 4288915117
-0.2980532646 -0.1791509688 0.6075106263 4288519591
-0.2981266975 -0.1785199493 0.6076603532 4282861393
-0.2981999218 -0.1778884828 0.6078096032 4281348154
-0.2978468239 -0.1770033240 0.6070898771 4280953396
-0.2966408730 -0.1756148636 0.6046317816 4281545531
-0.2975656092 -0.1754884422 0.6065167189 4281742910
-0.2963584960 -0.1741053909 0.6040562391 4281612094
-0.2951505184 -0.1727273166 0.6015940905 4282401610
-0.2926618457 -0.1706081182 0.5965214968 4283191126
-0.2893182635 -0.1680037677 0.5897064209 4281546301
-0.2859728336 -0.1654134840 0.5828875899 4281216568
-0.2830524743 -0.1630832702 0.5769351125 4283058772
-0.2809845507 -0.1612554789 0.5727201104 4282795600
-0.2801967859 -0.1601688266 0.5711144209 4281150775
-0.2798356116 -0.1593286395 0.5703783035 4280690222
-0.2794740498 -0.1584898531 0.5696412921 4281150773
-0.2791120410 -0.1576524824 0.5689034462 4281282361
-0.2783221006 -0.1565759927 0.5672933459 4281216568
-0.2775315344 -0.1555027366 0.5656819940 4281150262
-0.2771681249 -0.1546714008 0.5649412274 4280821297
-0.2768042684 -0.1538414955 0.5641996264 4280953394
-0.2760120630 -0.1527761370 0.5625849366 4281282359
-0.2752192616 -0.1517140418 0.5609689951 4281282361
-0.2739977539 -0.1504201740 0.5584791899 4281084982
-0.2723472118 -0.1488972753 0.5551149249 4280887603
-0.2719806135 -0.1480809152 0.5543677211 4280427052
-0.2711851895 -0.1470337063 0.5527464747 4280295464
-0.2695321739 -0.1455270499 0.5493772030 4280756015
-0.2683067620 -0.1442577988 0.5468794703 4280427050
-0.2683666646 -0.1436822563 0.5470016003 4281216566
-0.2667111754 -0.1421919018 0.5436272621 4281874498
-0.2663413882 -0.1413915902 0.5428735614 4281677119
-0.2672581673 -0.1412730217 0.5447421670 4281413947
-0.2660296857 -0.1400211900 0.5422382355 4281413947
-0.2656587958 -0.1392243356 0.5414822102 4281282359
-0.2665753067 -0.1391009539 0.5433502793 4281479738
-0.2657745183 -0.1380812079 0.5417180657 4281282363
-0.2662615180 -0.1377312392 0.5427107215 4281348156
-0.2671780288 -0.1376002580 0.5445787907 4281348154
-0.2668057680 -0.1368043274 0.5438200831 4281348154
-0.2668628395 -0.1362292469 0.5439364314 4281545533
-0.2664898932 -0.1354353428 0.5431762338 4281479740
-0.2665464580 -0.1348604560 0.5432915092 4281413947
-0.2666027844 -0.1342851967 0.5434063077 4281413947
-0.2670890093 -0.1339252293 0.5443973541 4281150775
-0.2671450078 -0.1333483160 0.5445114970 4281216568
-0.2667705119 -0.1325572431 0.5437481999 4281413947
-0.2663955986 -0.1317676604 0.5429840088 4280624431
-0.2660202980 -0.1309795827 0.5422191024 4279769122
-0.2660751641 -0.1304040253 0.5423309207 4280229673
-0.2661297917 -0.1298281103 0.5424422622 4280821810
-0.2666149139 -0.1294609755 0.5434311032 4281019189
-0.2662383914 -0.1286752075 0.5426636338 4281413434
-0.2658614814 -0.1278909594 0.5418953300 4281808192
-0.2659151554 -0.1273145676 0.5420047641 4281939780
-0.2655375302 -0.1265324205 0.5412350297 4282137159
-0.2660218179 -0.1261607409 0.5422221422 4282268745
-0.2665060461 -0.1257868558 0.5432091355 4282202952
-0.2669902444 -0.1254107356 0.5441960692 4282071366
-0.2670429647 -0.1248307452 0.5443035364 4281873987
-0.2675269544 -0.1244511381 0.5452900529 4281610815
-0.2688740790 -0.1244688928 0.5480358005 4282005573
-0.2693581283 -0.1240829676 0.5490224361 4282005574
-0.2702738643 -0.1238927394 0.5508889556 4281742402
-0.2716215551 -0.1238953769 0.5536358953 4282005574
-0.2725375891 -0.1236960068 0.5555030107 4282334539
-0.2725897133 -0.1231023520 0.5556092858 4282268746
-0.2722095549 -0.1223142073 0.5548343658 4282268746
-0.2748541236 -0.1228800640 0.5602247119 4282465611
-0.2710157931 -0.1205502898 0.5524011850 4282399818
-0.2710666656 -0.1199590564 0.5525048971 4282661708
-0.2711173296 -0.1193674877 0.5526081920 4282990673
-0.2707352936 -0.1185861528 0.5518294573 4283712856
-0.2707853913 -0.1179948673 0.5519315600 4284633958
-0.2704026401 -0.1172157153 0.5511513948 4284896105
-0.2708849311 -0.1168113202 0.5521344543 4289370029
-0.2730983496 -0.1171473265 0.5566459894 4290551741
-0.2744465768 -0.1171041280 0.5593940616 4291604429
-0.2744961679 -0.1165036410 0.5594950914 4292128720
-0.2745454907 -0.1159028336 0.5595956445 4292128720
-0.2732952535 -0.1147561073 0.5570473671 4292521682
-0.2737770677 -0.1143384129 0.5580294132 4292390096
-0.2738255560 -0.1137385368 0.5581282377 4292455378
-0.2743071318 -0.1133173555 0.5591098070 4292323792
-0.2743552029 -0.1127158925 0.5592077971 4292323789
-0.2748365402 -0.1122912318 0.5601888895 4292257996
-0.2748841941 -0.1116881892 0.5602860451 4292259536
-0.2753652632 -0.1112600490 0.5612666011 4291535813
-0.2758462429 -0.1108296886 0.5622469187 4286210171
-0.2754595578 -0.1100504994 0.5614587665 4282196798
-0.2763740718 -0.1097899750 0.5633227825 4281674045
-0.2764207423 -0.1091825217 0.5634179115 4281542459
-0.2769012153 -0.1087452099 0.5643972158 4281545022
-0.2773815691 -0.1083056778 0.5653762817 4281610815
-0.2774276435 -0.1076954007 0.5654702187 4282466635
-0.2774735093 -0.1070848182 0.5655636787 4283256151
-0.2779534161 -0.1066405550 0.5665418506 4283453271
-0.2788675725 -0.1063597500 0.5684052110 4283387478
-0.2797817886 -0.1060748249 0.5702686310 4283321685
-0.2824341059 -0.1064407825 0.5756747127 4283453271
-0.2829140723 -0.1059809700 0.5766530037 4283321946
-0.2846978903 -0.1060044542 0.5802888870 4283321946
-0.2860472798 -0.1058590859 0.5830392838 4283255640
-0.2878316045 -0.1058675870 0.5866762400 4283518812
-0.2896162570 -0.1058681160 0.5903137922 4283650911
-0.2914011478 -0.1058606580 0.5939519405 4283979876
-0.2927513719 -0.1056881845 0.5967040062 4283980642
-0.2945367694 -0.1056657210 0.6003431082 4288915117
-0.2966504991 -0.1787123829 0.6060233712 4288717999
-0.2967236638 -0.1780829579 0.6061728597 4282994008
-0.2967965901 -0.1774530560 0.6063218713 4281282877
-0.2964439988 -0.1765693724 0.6056015491 4281151291
-0.2960909605 -0.1756870449 0.6048803329 4281480510
-0.2953119874 -0.1745545268 0.6032889485 4281414717
-0.2949579954 -0.1736757904 0.6025657654 4281545533
-0.2937521040 -0.1722989976 0.6001023054 4282006084
-0.2916937172 -0.1704295725 0.5958972573 4282532428
-0.2913378179 -0.1695603579 0.5951701999 4281940291
-0.2858690917 -0.1657286584 0.5839982033 4280887603
-0.2833804488 -0.1636426747 0.5789141655 4282532428
-0.2813166082 -0.1618123502 0.5746979713 4282927186
-0.2805305421 -0.1607234627 0.5730921030 4281808705
-0.2801702917 -0.1598811448 0.5723562241 4280821810
-0.2798096538 -0.1590402275 0.5716194510 4281874498
-0.2790219486 -0.1579591781 0.5700102448 4281545533
-0.2786603570 -0.1571219712 0.5692715645 4281282361
-0.2774446607 -0.1558067799 0.5667880774 4281019189
-0.2770820558 -0.1549742222 0.5660472512 4280756017
-0.2767190337 -0.1541430801 0.5653056502 4281019187
-0.2759284675 -0.1530764103 0.5636906028 4281413945
-0.2751372755 -0.1520129740 0.5620743036 4281150775
-0.2739181519 -0.1507176757 0.5595837831 4281019189
-0.2726982534 -0.1494274735 0.5570916533 4280756017
-0.2719050646 -0.1483756751 0.5554712415 4280361259
-0.2715388834 -0.1475595236 0.5547232032 4280492845
-0.2703168690 -0.1462818980 0.5522267818 4280558638
-0.2686662674 -0.1447788477 0.5488547683 4280624429
-0.2678704858 -0.1437420100 0.5472290516 4281545531
-0.2670741081 -0.1427084655 0.5456021428 4281874496
-0.2667052448 -0.1419059932 0.5448486209 4281479738
-0.2663359642 -0.1411049962 0.5440942049 4281479740
-0.2655380070 -0.1400795132 0.5424640775 4281479740
-0.2673097551 -0.1404074281 0.5460835695 4281216568
-0.2656542361 -0.1389348656 0.5427015424 4281413947
-0.2661405802 -0.1385851353 0.5436950922 4281413437
-0.2661982477 -0.1380109489 0.5438128710 4281347644
-0.2666844726 -0.1376577020 0.5448061824 4281347644
-0.2671706378 -0.1373022497 0.5457993746 4281347644
-0.2667989135 -0.1365056336 0.5450399518 4281282363
-0.2664267719 -0.1357104927 0.5442797542 4281282363
-0.2660542428 -0.1349168569 0.5435187221 4281413437
-0.2661105394 -0.1343413740 0.5436336994 4281347644
-0.2665959001 -0.1339812875 0.5446252227 4280756019
-0.2662224472 -0.1331893355 0.5438622832 4280690226
-0.2662780881 -0.1326127648 0.5439759493 4280559408
-0.2659039199 -0.1318228841 0.5432115793 4280164650
-0.2655293643 -0.1310344934 0.5424464345 4279835685
-0.2655841708 -0.1304587126 0.5425583720 4280033064
-0.2656387389 -0.1298825890 0.5426698327 4280821810
-0.2661230266 -0.1295153201 0.5436592102 4281150775
-0.2661772370 -0.1289375424 0.5437699556 4281281850
-0.2658011615 -0.1281520575 0.5430016518 4281939780
-0.2654246688 -0.1273680776 0.5422325134 4282136646
-0.2654780447 -0.1267911196 0.5423415899 4282202439
-0.2659615874 -0.1264183670 0.5433294177 4282202439
-0.2668755054 -0.1262470335 0.5451964140 4281610302
-0.2673590183 -0.1258689016 0.5461841822 4281413436
-0.2682730854 -0.1256903112 0.5480515361 4281150264
-0.2691872716 -0.1255076230 0.5499191284 4281479229
-0.2692400217 -0.1249210984 0.5500268340 4281610815
-0.2701542377 -0.1247320846 0.5518945456 4282465612
-0.2710686028 -0.1245389804 0.5537624359 4280689201
-0.2719830573 -0.1243417710 0.5556305647 4281873475
-0.2728976011 -0.1241404489 0.5574989319 4282202440
-0.2738122642 -0.1239350289 0.5593674779 4282597711
-0.2734331787 -0.1231428012 0.5585930347 4282466125
-0.2726223171 -0.1221588328 0.5569365025 4282071624
-0.2709480226 -0.1207936034 0.5535160899 4282400589
-0.2718620002 -0.1205839962 0.5553832650 4282334026
-0.2723444402 -0.1201798245 0.5563688874 4282531405
-0.2706683874 -0.1188258603 0.5529448986 4283713371
-0.2698549926 -0.1178562567 0.5512832403 4284437094
-0.2703365982 -0.1174529791 0.5522670746 4285289582
-0.2699542642 -0.1166741326 0.5514860153 4289566127
-0.2717315853 -0.1168255135 0.5551168919 4290616507
-0.2730772197 -0.1167842075 0.5578658581 4291734988
-0.2735587358 -0.1163692176 0.5588495731 4291997134
-0.2740401924 -0.1159520075 0.5598331094 4292062927
-0.2736569345 -0.1151686981 0.5590501428 4292324817
-0.2732732892 -0.1143869609 0.5582663417 4292456403
-0.2733217180 -0.1137868464 0.5583652854 4292193231
-0.2738024294 -0.1133655086 0.5593473911 4292127438
-0.2738504708 -0.1127638072 0.5594455004 4292062157
-0.2738982439 -0.1121617928 0.5595430732 4292127950
-0.2743785679 -0.1117357016 0.5605243444 4292325329
-0.2752916515 -0.1114826798 0.5623896718 4291272641
-0.2753389180 -0.1108768657 0.5624862313 4285487218
-0.2758189738 -0.1104441211 0.5634669065 4282394947
-0.2762989402 -0.1100091636 0.5644474030 4281805374
-0.2763456404 -0.1094005182 0.5645428300 4281871167
-0.2768253088 -0.1089620739 0.5655227900 4281676095
-0.2768716216 -0.1083518565 0.5656173229 4281741888
-0.2769176662 -0.1077413335 0.5657114387 4282336076
-0.2782637775 -0.1076334640 0.5684613585 4283059799
-0.2774425149 -0.1066860706 0.5667836666 4283518551
-0.2792222202 -0.1067366451 0.5704193711 4283518551
-0.2810022235 -0.1067792550 0.5740556717 4283453271
-0.2810476720 -0.1061586067 0.5741485357 4283387478
-0.2836955786 -0.1065148562 0.5795579553 4283387227
-0.2837409377 -0.1058878601 0.5796506405 4283189848
-0.2855217457 -0.1059043556 0.5832886100 4283190360
-0.2873028517 -0.1059128717 0.5869271755 4283453532
-0.2886501849 -0.1057543829 0.5896796584 4283782497
-0.2904317975 -0.1057479009 0.5933192968 4283848290
-0.2917794883 -0.1055763289 0.5960724354 4284111460
-0.2931273282 -0.1053986847 0.5988259315 4288848556
-0.2956744432 -0.1785294563 0.6054030657 4289770687
-0.2957474291 -0.1779007018 0.6055524945 4283651938
-0.2949713469 -0.1767628193 0.6039634347 4281019705
-0.2950436771 -0.1761349440 0.6041114926 4280690740
-0.2946911454 -0.1752540916 0.6033896804 4281479740
-0.2934887409 -0.1738713384 0.6009277105 4281611326
-0.2939848006 -0.1734964252 0.6019434333 4281413947
-0.2923561931 -0.1718701869 0.5986087918 4281677119
-0.2924266756 -0.1712463647 0.5987531543 4282137670
-0.2886706889 -0.1683901250 0.5910626054 4281874498
-0.2861883640 -0.1662910432 0.5859799385 4281084982
-0.2832792401 -0.1639562547 0.5800234675 4282006084
-0.2812193930 -0.1621242911 0.5758058429 4283190358
-0.2804349363 -0.1610340774 0.5741996765 4282269256
-0.2800755203 -0.1601905376 0.5734637380 4280887601
-0.2801414430 -0.1595909297 0.5735987425 4282137668
-0.2793554664 -0.1585076302 0.5719893575 4282400840
-0.2785688341 -0.1574275792 0.5703787804 4281611324
-0.2777816355 -0.1563507617 0.5687668920 4281084980
-0.2769937813 -0.1552771777 0.5671538115 4280756015
-0.2762053609 -0.1542068273 0.5655394197 4281282359
-0.2754162848 -0.1531397402 0.5639238358 4281479738
-0.2746266425 -0.1520759016 0.5623070002 4281150775
-0.2742629051 -0.1512505412 0.5615622401 4280953396
-0.2730455101 -0.1499579996 0.5590695143 4280624431
-0.2722540200 -0.1489039660 0.5574489832 4280295466
-0.2714619339 -0.1478531808 0.5558272004 4280558638
-0.2706692815 -0.1468056887 0.5542041659 4280558638
-0.2681679130 -0.1448389441 0.5490825772 4280821810
-0.2695092559 -0.1449502707 0.5518289208 4281677119
-0.2665788233 -0.1427677423 0.5458288193 4281874498
-0.2666379809 -0.1421928406 0.5459499955 4281479740
-0.2679791451 -0.1422984153 0.5486960411 4281413947
-0.2663282156 -0.1408158690 0.5453156829 4281479740
-0.2659590542 -0.1400156468 0.5445598364 4281348154
-0.2677279115 -0.1403377950 0.5481815934 4281479740
-0.2660751045 -0.1388661265 0.5447974205 4281479230
-0.2661902905 -0.1377151012 0.5450332761 4281413949
-0.2666756213 -0.1373594999 0.5460270047 4281479742
-0.2667327523 -0.1367821395 0.5461440086 4281479742
-0.2663614452 -0.1359857768 0.5453837514 4281545535
-0.2659897506 -0.1351908892 0.5446226597 4281676608
-0.2660460770 -0.1346142739 0.5447379947 4281676608
-0.2661021650 -0.1340372860 0.5448528528 4281084984
-0.2657294571 -0.1332450211 0.5440897346 4281282363
-0.2657850385 -0.1326682419 0.5442035198 4281150775
-0.2654116154 -0.1318780482 0.5434389114 4280953396
-0.2650378048 -0.1310893595 0.5426735282 4280295466
-0.2650925517 -0.1305133551 0.5427855849 4279966501
-0.2651470602 -0.1299370080 0.5428972244 4280887603
-0.2656304836 -0.1295696199 0.5438870788 4281479740
-0.2661138773 -0.1292000115 0.5448768139 4282137157
-0.2657386065 -0.1284132749 0.5441084504 4281808192
-0.2653629482 -0.1276280433 0.5433393121 4281873985
-0.2654163837 -0.1270499378 0.5434486866 4282005571
-0.2658991516 -0.1266761124 0.5444371700 4282071364
-0.2672411501 -0.1267074943 0.5471849442 4282400329
-0.2664347887 -0.1257190406 0.5455338955 4283979361
-0.2694962323 -0.1265505105 0.5518022776 4285361014
-0.2691193819 -0.1257613301 0.5510306954 4284110949
-0.2708921134 -0.1259734631 0.5546603799 4282400331
-0.2705149055 -0.1251826435 0.5538880825 4282531404
-0.2718579173 -0.1251856685 0.5566379428 4280689200
-0.2727709711 -0.1249855757 0.5585074425 4281676095
-0.2736841440 -0.1247813702 0.5603771806 4282399818
-0.2741670012 -0.1243778020 0.5613658428 4282663503
-0.2750802636 -0.1241663173 0.5632358193 4282531917
-0.2742713690 -0.1231772378 0.5615795255 4282137417
-0.2730312645 -0.1219991595 0.5590403676 4282400589
-0.2722211480 -0.1210178882 0.5573816895 4282334026
-0.2714104950 -0.1200400591 0.5557218194 4282597198
-0.2705992758 -0.1190656722 0.5540608168 4283910237
-0.2689255774 -0.1177174300 0.5506338477 4284502374
-0.2689751983 -0.1171272472 0.5507354736 4285486961
-0.2707490921 -0.1172837690 0.5543676019 4289763506
-0.2707985938 -0.1166891456 0.5544689298 4290682300
-0.2721416950 -0.1166487932 0.5572189689 4291734988
-0.2730536461 -0.1164185032 0.5590862632 4291997134
-0.2735342681 -0.1160011366 0.5600702763 4292062927
-0.2731517553 -0.1152175143 0.5592870712 4292390610
-0.2727688253 -0.1144354641 0.5585030913 4292456403
-0.2728172243 -0.1138351113 0.5586021543 4292193231
-0.2732971013 -0.1134136096 0.5595847368 4292193231
-0.2733450830 -0.1128116697 0.5596829653 4292259536
-0.2733928263 -0.1122094169 0.5597806573 4292193743
-0.2738722861 -0.1117831618 0.5607624054 4292325329
-0.2739196122 -0.1111793220 0.5608593225 4291141055
-0.2743988335 -0.1107495874 0.5618405342 4285027437
-0.2753101587 -0.1104910821 0.5637065172 4282198338
-0.2757892609 -0.1100559533 0.5646874905 4281936960
-0.2762682736 -0.1096186116 0.5656682849 4281805374
-0.2763147652 -0.1090084538 0.5657634735 4281741119
-0.2763610184 -0.1083979905 0.5658581853 4281872705
-0.2764070034 -0.1077872217 0.5659523606 4282401358
-0.2768854201 -0.1073438749 0.5669319034 4283125081
-0.2777963877 -0.1070650741 0.5687971711 4283649369
-0.2787074447 -0.1067821458 0.5706625581 4283649369
-0.2804841995 -0.1068247929 0.5743005276 4283453271
-0.2809625268 -0.1063677892 0.5752798915 4283453271
-0.2818737030 -0.1060715020 0.5771455765 4283320921
-0.2849501967 -0.1065809652 0.5834448338 4283320921
-0.2884605527 -0.1072377190 0.5906323791 4283321433
-0.2867734134 -0.1059581116 0.5871778727 4283518812
-0.2898513377 -0.1064359620 0.5934800506 4283782495
-0.2911966443 -0.1062675118 0.5962346196 4283914081
-0.2921087146 -0.1059358120 0.5981020927 4284243046
-0.2912869155 -0.1049751192 0.5964194536 4288585384
-0.2943485677 -0.1774628162 0.6040619612 4285559422
-0.2944210470 -0.1768351942 0.6042106748 4280822326
-0.2940695584 -0.1759535670 0.6034893990 4281282877
-0.2932938039 -0.1748206466 0.6018974185 4281413947
-0.2929413617 -0.1739426255 0.6011741161 4281874498
-0.2925885022 -0.1730659604 0.6004499793 4281545533
-0.2896903157 -0.1706911623 0.5945023298 4281216568
-0.2901844680 -0.1703206599 0.5955164433 4281611326
-0.2885568738 -0.1687074006 0.5921762586 4281940291
-0.2865037918 -0.1668537855 0.5879629254 4281216568
-0.2844494581 -0.1650087982 0.5837470293 4280756017
-0.2811199427 -0.1624363512 0.5769141912 4282795598
-0.2820361257 -0.1623226702 0.5787944198 4282598219
-0.2804033756 -0.1607435942 0.5754436851 4281084980
-0.2800444663 -0.1598993093 0.5747071505 4281742910
-0.2796851695 -0.1590564251 0.5739697218 4282729805
-0.2789002657 -0.1579741240 0.5723589659 4281874496
-0.2785400152 -0.1571349651 0.5716196895 4281348152
-0.2773286402 -0.1558192372 0.5691336989 4280887601
-0.2765419185 -0.1547466516 0.5675191879 4281282361
-0.2757545710 -0.1536773145 0.5659034252 4281282361
-0.2745409906 -0.1523749977 0.5634129047 4281084980
-0.2737523615 -0.1513130963 0.5617944598 4280821808
-0.2729631066 -0.1502544582 0.5601747632 4280558636
-0.2721732557 -0.1491990834 0.5585538149 4280558636
-0.2718088329 -0.1483795494 0.5578059554 4280756017
-0.2710178792 -0.1473298073 0.5561827421 4280756017
-0.2689476311 -0.1455911547 0.5519342422 4281084982
-0.2702867985 -0.1456997991 0.5546824336 4281742912
-0.2682150006 -0.1439714134 0.5504307151 4281874498
-0.2674215734 -0.1429357678 0.5488023758 4281479740
-0.2670541406 -0.1421304494 0.5480483770 4281413947
-0.2671130002 -0.1415527314 0.5481691957 4281413947
-0.2663180828 -0.1405242234 0.5465378761 4281413947
-0.2672301233 -0.1403961480 0.5484095216 4281348154
-0.2660073936 -0.1391472369 0.5459002852 4281479229
-0.2660651505 -0.1385707706 0.5460187793 4281545022
-0.2661226690 -0.1379939318 0.5461367965 4281545533
-0.2661799788 -0.1374167204 0.5462543964 4281611326
-0.2662370503 -0.1368391216 0.5463715792 4281677119
-0.2658664882 -0.1360424608 0.5456110835 4281808705
-0.2654955387 -0.1352472603 0.5448498130 4281939778
-0.2655517757 -0.1346704364 0.5449652672 4281939778
-0.2656078339 -0.1340932250 0.5450802445 4281479740
-0.2652358413 -0.1333006620 0.5443168879 4281545533
-0.2652913630 -0.1327236593 0.5444307923 4281611326
-0.2649186850 -0.1319331527 0.5436660051 4281348154
-0.2645456195 -0.1311441660 0.5429003835 4279769120
-0.2646003067 -0.1305679381 0.5430126190 4279769120
-0.2650830150 -0.1302017123 0.5440032482 4281545533
-0.2651373446 -0.1296238452 0.5441147089 4281479740
-0.2656198740 -0.1292541027 0.5451049805 4281018930
-0.2656738758 -0.1286745965 0.5452157855 4282005825
-0.2652990222 -0.1278881431 0.5444465280 4283453271
-0.2649238110 -0.1271031946 0.5436764956 4284703338
-0.2658344805 -0.1269339770 0.5455453992 4286742921
-0.2663164437 -0.1265568584 0.5465344787 4288716711
-0.2676562071 -0.1265832484 0.5492839217 4289703352
-0.2689962685 -0.1266036481 0.5520340204 4289308594
-0.2707656920 -0.1268190593 0.5556652546 4284768877
-0.2708188295 -0.1262264401 0.5557742715 4282137157
-0.2717302740 -0.1260316819 0.5576447248 4282399818
-0.2722124755 -0.1256346405 0.5586343408 4280689200
-0.2731240392 -0.1254325956 0.5605050325 4281676095
-0.2740357220 -0.1252264529 0.5623759627 4282662990
-0.2745178938 -0.1248208433 0.5633655190 4282794576
-0.2750000060 -0.1244130135 0.5643548369 4282662990
-0.2741927207 -0.1234225929 0.5626981854 4282334539
-0.2725251615 -0.1220505834 0.5592760444 4282400332
-0.2721465528 -0.1212604865 0.5584990382 4282464842
-0.2700474858 -0.1197094545 0.5541912913 4282728014
-0.2692376375 -0.1187365651 0.5525293946 4283976030
-0.2688574493 -0.1179558635 0.5517491102 4284502374
-0.2689071000 -0.1173644960 0.5518510342 4285881719
-0.2689565122 -0.1167728081 0.5519524217 4289960885
-0.2720185816 -0.1174820215 0.5582364202 4290748093
-0.2724985778 -0.1170679927 0.5592214465 4291734988
-0.2725479305 -0.1164677441 0.5593227148 4291997134
-0.2725970447 -0.1158671752 0.5594235063 4292128720
-0.2722151875 -0.1150841787 0.5586398840 4292325330
-0.2722637653 -0.1144839153 0.5587395430 4292325330
-0.2727429569 -0.1140635237 0.5597229600 4292193231
-0.2727911174 -0.1134616584 0.5598217845 4292259024
-0.2732700706 -0.1130377799 0.5608047247 4292390865
-0.2728867233 -0.1122569889 0.5600180030 4292259279
-0.2733653784 -0.1118305698 0.5610002875 4292128720
-0.2738439143 -0.1114019305 0.5619823337 4290878653
-0.2738910317 -0.1107965931 0.5620790124 4284830058
-0.2743692994 -0.1103644669 0.5630605221 4282264131
-0.2748474777 -0.1099301279 0.5640418530 4282002753
-0.2753255665 -0.1094935611 0.5650230050 4281739581
-0.2753719389 -0.1088841185 0.5651181936 4281741119
-0.2758497596 -0.1084440723 0.5660987496 4281938498
-0.2758957148 -0.1078330651 0.5661930442 4282466637
-0.2763732672 -0.1073895395 0.5671730638 4283190360
-0.2764188051 -0.1067769602 0.5672665238 4283583576
-0.2773280442 -0.1064958423 0.5691325068 4283649369
-0.2791014314 -0.1065404415 0.5727717876 4283518810
-0.2817393243 -0.1069049984 0.5781853199 4283518810
-0.2813525498 -0.1061167046 0.5773915648 4283255127
-0.2831266224 -0.1061402634 0.5810323358 4283452506
-0.2844686806 -0.1059947535 0.5837864876 4283387226
-0.2862432897 -0.1060033068 0.5874283314 4283453019
-0.2880181968 -0.1060038805 0.5910708308 4283781982
-0.2897933722 -0.1059964597 0.5947138071 4284045154
-0.2920014262 -0.1061382815 0.5992451906 4284308839
-0.2933445871 -0.1059576347 0.6020016074 4288322212
-0.2929521799 -0.1770244390 0.6025698185 4288520107
-0.2930243909 -0.1763983965 0.6027182937 4282401358
-0.2926734090 -0.1755182594 0.6019963622 4281085498
-0.2923220098 -0.1746394634 0.6012735963 4282005573
-0.2919701636 -0.1737620085 0.6005498767 4281676608
-0.2916179299 -0.1728859246 0.5998253226 4281479229
-0.2908418775 -0.1717611849 0.5982291102 4281610815
-0.2896417677 -0.1703905016 0.5957606435 4281413947
-0.2880172729 -0.1687766165 0.5924192071 4281611326
-0.2868153751 -0.1674168408 0.5899470448 4281479740
-0.2851889133 -0.1658156961 0.5866016150 4280690224
-0.2827137113 -0.1637304574 0.5815103650 4281742912
-0.2819328904 -0.1626339406 0.5799043179 4282532428
-0.2807274163 -0.1612969935 0.5774248242 4281479738
-0.2803694308 -0.1604505777 0.5766884685 4281084980
-0.2795867920 -0.1593637168 0.5750786662 4282269254
-0.2792278528 -0.1585210115 0.5743404031 4282137668
-0.2784440815 -0.1574396938 0.5727282166 4281742910
-0.2776596844 -0.1563616395 0.5711148381 4281084980
-0.2764500380 -0.1550486386 0.5686267018 4281611326
-0.2756642997 -0.1539779752 0.5670105815 4281545533
-0.2748779953 -0.1529105604 0.5653932095 4281282359
-0.2736661136 -0.1516110003 0.5629004836 4280887601
-0.2733035386 -0.1507855356 0.5621547103 4280558636
-0.2725153863 -0.1497279108 0.5605335832 4280558636
-0.2721518874 -0.1489062309 0.5597859025 4280690222
-0.2713626623 -0.1478542536 0.5581625700 4280756015
-0.2705728114 -0.1468055397 0.5565379262 4281084982
-0.2693568766 -0.1455302238 0.5540368557 4281808705
-0.2685657442 -0.1444890201 0.5524095893 4281808707
-0.2681997418 -0.1436791867 0.5516567826 4281545535
-0.2678333223 -0.1428707987 0.5509031415 4281413949
-0.2674665153 -0.1420638710 0.5501486063 4281348156
-0.2670993209 -0.1412584186 0.5493932962 4281413947
-0.2671577930 -0.1406787932 0.5495135784 4281282361
-0.2659375072 -0.1394284666 0.5470036268 4281413947
-0.2659952641 -0.1388508528 0.5471224189 4281479740
-0.2656264603 -0.1380512863 0.5463638306 4281611326
-0.2656837106 -0.1374738663 0.5464815497 4281677119
-0.2657407224 -0.1368960589 0.5465988517 4281742912
-0.2653709054 -0.1360990852 0.5458381772 4281808705
-0.2650006711 -0.1353035867 0.5450766683 4281940291
-0.2646300495 -0.1345095783 0.5443143249 4281940291
-0.2646859586 -0.1339330971 0.5444293022 4281545533
-0.2647416294 -0.1333562285 0.5445438027 4281808705
-0.2643699944 -0.1325648576 0.5437794328 4281940291
-0.2644251585 -0.1319882125 0.5438928604 4281479740
-0.2640528083 -0.1311989129 0.5431270003 4279440157
-0.2641074359 -0.1306224763 0.5432393551 4279242778
-0.2645893097 -0.1302561164 0.5442305207 4281611326
-0.2650711238 -0.1298875213 0.5452215672 4283256151
-0.2651252747 -0.1293081492 0.5453329086 4284967021
-0.2656069100 -0.1289360523 0.5463235974 4287203983
