VERSION 0.7
FIELDS x y z rgba
SIZE 4 4 4 4
TYPE F F F U
COUNT 1 1 1 1
WIDTH 920
HEIGHT 1
VIEWPOINT 0.0 0.0 0.0 1.0 0.0 0.0 0.0
POINTS 920
DATA ascii
-0.2953236103 -0.1228534877 0.5601035357 4290100418
-0.2953777611 -0.1222535893 0.5602062345 4290232004
-0.2954316735 -0.1216533557 0.5603084564 4290232004
-0.2959434390 -0.1212404743 0.5612791181 4290166211
-0.2959969342 -0.1206386536 0.5613805652 4290232004
-0.2960501909 -0.1200365126 0.5614815354 4290297797
-0.2961031795 -0.1194340438 0.5615820885 4290363590
-0.2961559296 -0.1188312471 0.5616821051 4290363590
-0.2962084413 -0.1182281375 0.5617817044 4290429383
-0.2962607145 -0.1176247075 0.5618807673 4290429383
-0.2963127196 -0.1170209497 0.5619794130 4290429383
-0.2968232334 -0.1165970936 0.5629476905 4290495176
-0.2968748212 -0.1159917787 0.5630455017 4290495176
-0.2969261408 -0.1153861433 0.5631428957 4290560969
-0.2969772518 -0.1147801951 0.5632397532 4290560969
-0.2970280647 -0.1141739339 0.5633361936 4290560969
-0.2970786393 -0.1135673597 0.5634320974 4290560971
-0.2971289754 -0.1129604802 0.5635275245 4290626764
-0.2971790433 -0.1123532951 0.5636225343 4290626764
-0.2972288728 -0.1117457971 0.5637170076 4290626764
-0.2972784340 -0.1111380011 0.5638110042 4290692557
-0.2973277569 -0.1105298996 0.5639045238 4290692557
-0.2978364527 -0.1100913882 0.5648692846 4290692557
-0.2978853285 -0.1094817445 0.5649620295 4290758350
-0.2979339659 -0.1088718027 0.5650542378 4290692557
-0.2979823351 -0.1082615554 0.5651459694 4290758350
-0.2980304360 -0.1076510176 0.5652372241 4290758350
-0.2980782986 -0.1070401892 0.5653280020 4290824143
-0.2981258929 -0.1064290553 0.5654182434 4290824143
-0.2981732190 -0.1058176383 0.5655080676 4290889936
-0.2986805439 -0.1053682864 0.5664702058 4290955729
-0.2987274230 -0.1047553420 0.5665591359 4290955729
-0.2987740636 -0.1041421071 0.5666475892 4291086545
-0.2992808819 -0.1036881134 0.5676087737 4291086545
-0.2997875810 -0.1032319367 0.5685697794 4291086545
-0.2998335660 -0.1026159599 0.5686569810 4291086545
-0.2998793125 -0.1019997001 0.5687437654 4291086545
-0.2999247909 -0.1013831571 0.5688300133 4291086545
-0.3004307747 -0.1009211242 0.5697896481 4291086545
-0.3004758060 -0.1003030762 0.5698750615 4291086545
-0.3005205691 -0.0996847451 0.5699599385 4291152338
-0.3010260463 -0.0992180854 0.5709186196 4291152338
-0.3010703623 -0.0985982642 0.5710026622 4291152338
-0.3011143804 -0.0979781672 0.5710861683 4291152338
-0.3011581600 -0.0973578021 0.5711691976 4291218131
-0.3012016416 -0.0967371613 0.5712516904 4291283924
-0.3012448847 -0.0961162597 0.5713337064 4291283924
-0.3012878597 -0.0954950824 0.5714151859 4291218131
-0.3013305664 -0.0948736444 0.5714961886 4291283924
-0.3022960424 -0.0945406184 0.5733273029 4291283924
-0.3023383617 -0.0939167514 0.5734075308 4291349717
-0.3023803830 -0.0932926238 0.5734872222 4291349717
-0.3024221361 -0.0926682353 0.5735664368 4291284694
-0.3024636209 -0.0920435861 0.5736451149 4291284694
-0.3029666841 -0.0915582553 0.5745992064 4291350485
-0.3030077219 -0.0909321457 0.5746769905 4291350485
-0.3030484617 -0.0903057754 0.5747542977 4291482071
-0.3030889332 -0.0896791592 0.5748310685 4291350485
-0.3035912216 -0.0891880468 0.5757836699 4291350485
-0.3036312163 -0.0885599703 0.5758595467 4291482071
-0.3041331470 -0.0880654901 0.5768114924 4291416278
-0.3046349287 -0.0875688493 0.5777631402 4291153106
-0.3051365614 -0.0870700479 0.5787144899 4290824141
-0.3051756322 -0.0864381269 0.5787886381 4290626762
-0.3056768775 -0.0859359726 0.5797392726 4290429383
-0.3061779737 -0.0854316577 0.5806896687 4290626762
-0.3062163591 -0.0847970918 0.5807624459 4290955727
-0.3067170680 -0.0842894316 0.5817120671 4291416278
-0.3067549467 -0.0836534351 0.5817838907 4291876829
-0.3072552681 -0.0831424147 0.5827327967 4292863724
-0.3497088552 -0.1871391088 0.6646493077 4292337384
-0.3488855362 -0.1859617978 0.6630845070 4291942626
-0.3476095200 -0.1845476180 0.6606593728 4291941856
-0.3458805084 -0.1828992814 0.6573731899 4292073442
-0.3441503644 -0.1812576801 0.6540849805 4292270821
-0.3424191773 -0.1796227992 0.6507946849 4292402407
-0.3388771415 -0.1770491600 0.6440628171 4292468200
-0.3326179683 -0.1730766147 0.6321667433 4292533993
-0.2951233089 -0.1529431939 0.5609051585 4292731370
-0.2920201719 -0.1507183760 0.5550073981 4292665577
-0.2938966751 -0.1510662735 0.5585738420 4292665577
-0.2912442982 -0.1490879059 0.5535327792 4292731370
-0.2909837961 -0.1471111774 0.5530377030 4292797163
-0.2905941606 -0.1463005394 0.5522971749 4292862956
-0.2911109924 -0.1459460109 0.5532794595 4292862697
-0.2911742628 -0.1453628540 0.5533996820 4292862697
-0.2907836437 -0.1445538104 0.5526573062 4292862697
-0.2908463478 -0.1439708024 0.5527764559 4292731111
-0.2909088135 -0.1433874220 0.5528951883 4292665318
-0.2909710705 -0.1428036690 0.5530135036 4292665318
-0.2910330892 -0.1422195435 0.5531314015 4292599525
-0.2910948992 -0.1416350454 0.5532488227 4292533732
-0.2916106880 -0.1412702203 0.5542291403 4292599527
-0.2912178040 -0.1404649317 0.5534824133 4292599527
-0.2912788987 -0.1398793161 0.5535985827 4292599527
-0.2917943001 -0.1395106316 0.5545781255 4292599527
-0.2918550372 -0.1389233768 0.5546935797 4292665320
-0.2919155359 -0.1383357495 0.5548085570 4292599527
-0.2919758260 -0.1377477497 0.5549231172 4292468198
-0.2924907506 -0.1373730451 0.5559017658 4292533991
-0.2925506532 -0.1367834061 0.5560156703 4292665577
-0.2926103473 -0.1361934096 0.5561290979 4292665577
-0.2926697731 -0.1356030554 0.5562420487 4292665577
-0.2927289903 -0.1350123286 0.5563545823 4292599784
-0.2932433188 -0.1346303076 0.5573320985 4292599784
-0.2933021486 -0.1340379566 0.5574438572 4292599784
-0.2933607399 -0.1334452480 0.5575552583 4292337382
-0.2938747108 -0.1330584884 0.5585321188 4292074210
-0.2934772074 -0.1322587729 0.5577766299 4291416280
-0.2939908803 -0.1318694502 0.5587528944 4290363592
-0.2940486073 -0.1312744170 0.5588626266 4289968834
-0.2941060960 -0.1306790262 0.5589718819 4290034627
-0.2946194410 -0.1302849650 0.5599474907 4290034627
-0.2946765423 -0.1296879500 0.5600560308 4290034627
-0.2947334051 -0.1290905923 0.5601640940 4290034625
-0.2952463627 -0.1286918074 0.5611390471 4290166211
-0.2953028381 -0.1280928254 0.5612463355 4290100418
-0.2949025333 -0.1272964627 0.5604856014 4290034625
-0.2949584424 -0.1266977340 0.5605918169 4290034625
-0.2950141132 -0.1260986626 0.5606976151 4289968832
-0.2950695157 -0.1254992634 0.5608029366 4290100672
-0.2951246798 -0.1248995140 0.5609077811 4290166465
-0.2947226763 -0.1241070256 0.5601437092 4290231488
-0.2947772741 -0.1235075369 0.5602474809 4290099902
-0.2948316336 -0.1229077205 0.5603507757 4290034879
-0.2948857248 -0.1223075688 0.5604536533 4290166465
-0.2953968644 -0.1218957901 0.5614250898 4290166211
-0.2954505682 -0.1212940514 0.5615271330 4290166211
-0.2955040038 -0.1206919849 0.5616286993 4290297797
-0.2955572307 -0.1200895905 0.5617298484 4290363590
-0.2956101894 -0.1194868758 0.5618305206 4290363590
-0.2956628799 -0.1188838407 0.5619306564 4290363590
-0.2957153618 -0.1182804778 0.5620303750 4290429383
-0.2957675755 -0.1176767945 0.5621296167 4290429383
-0.2962774634 -0.1172540188 0.5630987287 4290560455
-0.2963292599 -0.1166487709 0.5631971359 4290626248
-0.2963807881 -0.1160431951 0.5632951260 4290626248
-0.2964321077 -0.1154373139 0.5633926392 4290692041
-0.2964831293 -0.1148311123 0.5634896159 4290692041
-0.2965339422 -0.1142246053 0.5635861754 4290692041
-0.2965844870 -0.1136177778 0.5636821985 4290560971
-0.2966347635 -0.1130106449 0.5637778044 4290626764
-0.2966848016 -0.1124032065 0.5638728738 4290626764
-0.2967345715 -0.1117954627 0.5639675260 4290626764
-0.2967841029 -0.1111874059 0.5640616417 4290692557
-0.2972921729 -0.1107499599 0.5650272369 4290692557
-0.2973412573 -0.1101403609 0.5651205778 4290692557
-0.2973901033 -0.1095304638 0.5652133822 4290758350
-0.2974387109 -0.1089202613 0.5653057694 4290758350
-0.2974870205 -0.1083097607 0.5653976202 4290824143
-0.2975351214 -0.1076989695 0.5654889941 4290824143
-0.2975829244 -0.1070878804 0.5655798912 4290824143
-0.2976304889 -0.1064764932 0.5656702518 4290889936
-0.2981371880 -0.1060281917 0.5666332841 4290824143
-0.2981843054 -0.1054152772 0.5667228103 4290824143
-0.2982311547 -0.1048020720 0.5668118596 4290889936
-0.2991969585 -0.1045096591 0.5686474442 4291020752
-0.2992434502 -0.1038939878 0.5687357783 4291020752
-0.2992896736 -0.1032780334 0.5688236356 4291086545
-0.2993356287 -0.1026617959 0.5689110160 4291086545
-0.2998411953 -0.1022020280 0.5698719025 4291086545
-0.2998867333 -0.1015842706 0.5699583888 4291086545
-0.2999319732 -0.1009662375 0.5700443983 4291152338
-0.2999769449 -0.1003479287 0.5701299310 4291152338
-0.3000216782 -0.0997293442 0.5702149272 4291086545
-0.3005263805 -0.0992624834 0.5711740851 4291152338
-0.3005706370 -0.0986424014 0.5712582469 4291218131
-0.3006146252 -0.0980220363 0.5713418722 4291152338
-0.3006583750 -0.0974014029 0.5714249611 4291152338
-0.3007018268 -0.0967805013 0.5715075731 4291218131
-0.3007450402 -0.0961593315 0.5715897083 4291283924
-0.3007879853 -0.0955378860 0.5716713071 4291218131
-0.3012913465 -0.0950615406 0.5726280212 4291349717
-0.3017945588 -0.0945830196 0.5735844374 4291349717
-0.3018368483 -0.0939588845 0.5736647844 4291349717
-0.3023397326 -0.0934769809 0.5746205449 4291415510
-0.3023815155 -0.0928513706 0.5746999383 4291415510
-0.3024230301 -0.0922254995 0.5747788548 4291481303
-0.3024643064 -0.0915993750 0.5748572946 4291481557
-0.3029664159 -0.0911116749 0.5758116245 4291481557
-0.3030071855 -0.0904840827 0.5758891106 4291678936
-0.3030476868 -0.0898562372 0.5759661198 4291481557
-0.3035492599 -0.0893639550 0.5769193172 4291416278
-0.3035892844 -0.0887346566 0.5769954324 4291547864
-0.3040904701 -0.0882390067 0.5779479742 4291482071
-0.3045915067 -0.0877411962 0.5789002180 4291153106
-0.3046308458 -0.0871092379 0.5789749622 4290889934
-0.3051315248 -0.0866080672 0.5799265504 4290692555
-0.3056320250 -0.0861047357 0.5808778405 4290429385
-0.3056706488 -0.0854701400 0.5809512138 4290692557
-0.3061707914 -0.0849634483 0.5819017887 4290955727
-0.3062089086 -0.0843274146 0.5819742084 4291218899
-0.3067086637 -0.0838173702 0.5829240680 4291745243
-0.3067462742 -0.0831799060 0.5829955339 4292600552
-0.3072456717 -0.0826665163 0.5839446783 4293587960
-0.3472363949 -0.1869439036 0.6613462567 4292073957
-0.3468656540 -0.1860102862 0.6606401205 4291811040
-0.3455921113 -0.1845960170 0.6582145691 4291942626
-0.3438664377 -0.1829465777 0.6549277902 4292074212
-0.3416882753 -0.1810646802 0.6507793069 4292205798
-0.3381544054 -0.1784764528 0.6440486908 4292533991
-0.2958500087 -0.1548962444 0.5634757280 4292665577
-0.2990792394 -0.1559540629 0.5696261525 4292731370
-0.2910125852 -0.1511318982 0.5542623997 4292862699
-0.2906258106 -0.1503160298 0.5535257459 4292796906
-0.2897864878 -0.1492687017 0.5519272089 4292731370
-0.2907553017 -0.1491524577 0.5537723899 4292928749
-0.2908197343 -0.1485700756 0.5538951159 4292928749
-0.2899791598 -0.1475270241 0.5522941947 4292797163
-0.2904954255 -0.1471749395 0.5532774329 4292797163
-0.2905590832 -0.1465923339 0.5533986688 4292797163
-0.2901698351 -0.1457819045 0.5526573062 4292862956
-0.2902329266 -0.1451994330 0.5527775288 4292862956
-0.2902958095 -0.1446165740 0.5528972745 4292336612
-0.2903584838 -0.1440333426 0.5530166030 4292007647
-0.2904208899 -0.1434497386 0.5531355143 4291876061
-0.2904830873 -0.1428657621 0.5532539487 4291744475
-0.2905450761 -0.1422814131 0.5533719659 4292073440
-0.2906068265 -0.1416966766 0.5534895658 4292599784
-0.2906683385 -0.1411115676 0.5536067486 4292796906
-0.2907296121 -0.1405261010 0.5537235141 4292533734
-0.2907906771 -0.1399402618 0.5538398027 4292665320
-0.2908515036 -0.1393540502 0.5539556146 4292796906
-0.2909121215 -0.1387674659 0.5540710688 4292665577
-0.2909724712 -0.1381805241 0.5541860461 4292599784
-0.2910326123 -0.1375932246 0.5543005466 4292665577
-0.2915466428 -0.1372192800 0.5552796125 4292599784
-0.2916064262 -0.1366303265 0.5553933978 4292533991
-0.2916659415 -0.1360410154 0.5555068254 4292599784
-0.2917252481 -0.1354513466 0.5556197762 4292468968
-0.2922388017 -0.1350713819 0.5565978885 4292403175
-0.2922977209 -0.1344800591 0.5567101240 4292403177
-0.2928110957 -0.1340966225 0.5576878786 4292403177
-0.2928696573 -0.1335036755 0.5577993989 4292403177
-0.2929279506 -0.1329103857 0.5579104424 4292337384
-0.2934409678 -0.1325221956 0.5588875413 4292336612
-0.2934989035 -0.1319272667 0.5589978695 4291547096
-0.2940117121 -0.1315356046 0.5599745512 4290232004
-0.2941265404 -0.1303421408 0.5601932406 4289968832
-0.2941836119 -0.1297449023 0.5603019595 4289968832
-0.2942404151 -0.1291473061 0.5604101419 4289837246
-0.2947525680 -0.1287483573 0.5613855720 4290100418
-0.2948089838 -0.1281491369 0.5614930391 4290034625
-0.2948651910 -0.1275495887 0.5616000891 4290034625
-0.2949211299 -0.1269496828 0.5617066026 4290034879
-0.2949768305 -0.1263494492 0.5618126988 4290034879
-0.2950322628 -0.1257488728 0.5619183183 4290100672
-0.2950874865 -0.1251479536 0.5620234609 4290100672
-0.2946862876 -0.1243541986 0.5612593293 4290100672
-0.2947409153 -0.1237535402 0.5613633990 4290100672
-0.2947953045 -0.1231525466 0.5614669919 4290165694
-0.2948494554 -0.1225512251 0.5615701079 4290231487
-0.2949033678 -0.1219495684 0.5616728067 4290297280
-0.2949570119 -0.1213475838 0.5617749691 4290363073
-0.2954671085 -0.1209321842 0.5627464652 4290428867
-0.2955203354 -0.1203286126 0.5628479123 4290428867
-0.2955733538 -0.1197247207 0.5629488230 4290494660
-0.2956261039 -0.1191205010 0.5630493164 4290494660
-0.2956785858 -0.1185159534 0.5631492734 4290429637
-0.2961879373 -0.1180933341 0.5641193986 4290429637
-0.2962400317 -0.1174872145 0.5642185807 4290495176
-0.2962918580 -0.1168807745 0.5643172860 4290495176
-0.2963434458 -0.1162740141 0.5644155741 4290495176
-0.2963947654 -0.1156669408 0.5645133257 4290560969
-0.2964458466 -0.1150595546 0.5646106005 4290560969
-0.2964966893 -0.1144518554 0.5647074580 4290626762
-0.2965472639 -0.1138438433 0.5648037791 4290757834
-0.2965976000 -0.1132355183 0.5648996234 4290757834
-0.2966476679 -0.1126268879 0.5649949908 4290823627
-0.2966974974 -0.1120179445 0.5650898814 4290757834
-0.2967470586 -0.1114087030 0.5651842952 4290757834
-0.2967963815 -0.1107991487 0.5652782321 4290823627
-0.2968454361 -0.1101892963 0.5653716326 4290692555
-0.2973524034 -0.1097482443 0.5663372278 4290692555
-0.2974010408 -0.1091368496 0.5664298534 4290758348
-0.2974494100 -0.1085251495 0.5665219426 4290758348
-0.2974975109 -0.1079131588 0.5666136146 4290758348
-0.2975453734 -0.1073008627 0.5667047501 4290824141
-0.2975929677 -0.1066882834 0.5667954087 4290824141
-0.2976403236 -0.1060753986 0.5668855906 4290824141
-0.2976873815 -0.1054622307 0.5669752359 4290889934
-0.2977342308 -0.1048487723 0.5670644045 4290889934
-0.2982396185 -0.1043956280 0.5680270195 4290889936
-0.2987448871 -0.1039403081 0.5689893961 4290955729
-0.2992500663 -0.1034828126 0.5699514747 4290955729
-0.2992960513 -0.1028653607 0.5700390935 4290955729
-0.2993417978 -0.1022476330 0.5701262355 4291152338
-0.2998464704 -0.1017854959 0.5710874200 4291152338
-0.2998917401 -0.1011662483 0.5711736679 4291152338
-0.2999367714 -0.1005467251 0.5712593794 4291152338
-0.2999815047 -0.0999269262 0.5713446140 4291218131
-0.3000259995 -0.0993068516 0.5714293718 4291152338
-0.3005297780 -0.0988376290 0.5723888278 4291152592
-0.3005737960 -0.0982160494 0.5724726915 4291218385
-0.3006175756 -0.0975942016 0.5725560784 4291284178
-0.3006610870 -0.0969720781 0.5726389289 4291284178
-0.3007043004 -0.0963496938 0.5727212429 4291284178
-0.3007472754 -0.0957270339 0.5728031397 4291284178
-0.3017098308 -0.0953949466 0.5746363997 4291283926
-0.3017523885 -0.0947698578 0.5747174621 4291349719
-0.3017947078 -0.0941445008 0.5747980475 4291218901
-0.3022968471 -0.0936614424 0.5757544041 4291218901
-0.3023386896 -0.0930346027 0.5758340955 4291284694
-0.3023802340 -0.0924075097 0.5759132504 4291350487
-0.3024215102 -0.0917801633 0.5759918690 4291481303
-0.3029229045 -0.0912912935 0.5769467950 4291481303
-0.3029637039 -0.0906624794 0.5770245194 4291481303
-0.3034647405 -0.0901702344 0.5779787898 4291547096
-0.3035050631 -0.0895399600 0.5780556202 4291482071
-0.3040057421 -0.0890443474 0.5790091753 4291547864
-0.3040455878 -0.0884126127 0.5790850520 4291482071
-0.3045458794 -0.0879136249 0.5800379515 4291153106
-0.3045852482 -0.0872804448 0.5801128745 4290955213
-0.3055460155 -0.0869091824 0.5819427967 4290955213
-0.3055849373 -0.0862735882 0.5820169449 4290495178
-0.3060845733 -0.0857669190 0.5829684734 4290692557
-0.3061229885 -0.0851298869 0.5830416679 4291021522
-0.3061611354 -0.0844926164 0.5831143260 4291218901
-0.3061990142 -0.0838551074 0.5831865072 4291811036
-0.3066978157 -0.0833426863 0.5841364861 4292337380
-0.3071964383 -0.0828281119 0.5850861669 4293521654
-0.3460395932 -0.1881621480 0.6604639292 4292468715
-0.3452200592 -0.1869844347 0.6588997841 4291876578
-0.3443998694 -0.1858098507 0.6573343277 4291744992
-0.3431287110 -0.1843963861 0.6549081206 4292073443
-0.3418566585 -0.1829878390 0.6524802446 4292205029
-0.3396827281 -0.1811038256 0.6483309865 4292402407
-0.3361556530 -0.1785104871 0.6415990591 4292533993
-0.3312745392 -0.1752159297 0.6322827935 4292665579
-0.2903256118 -0.1529417783 0.5541262031 4292665579
-0.2894895971 -0.1518874615 0.5525305271 4292731372
-0.2931631207 -0.1531931758 0.5595420003 4292731372
-0.2914246023 -0.1516667157 0.5562238097 4292797163
-0.2896850705 -0.1501470804 0.5529036522 4292731370
-0.2897497714 -0.1495661736 0.5530271530 4292731370
-0.2893628478 -0.1487528086 0.5522886515 4292862956
-0.2894270420 -0.1481720358 0.5524111390 4292928749
-0.2890393436 -0.1473606229 0.5516712070 4292928749
-0.2895547152 -0.1470093131 0.5526548028 4292928749
-0.2896181941 -0.1464273781 0.5527760386 4292731370
-0.2892295718 -0.1456175447 0.5520342588 4292797163
-0.2897445261 -0.1452623755 0.5530171394 4292731370
-0.2898073792 -0.1446792930 0.5531370640 4292007647
-0.2898699641 -0.1440958381 0.5532565117 4291612889
-0.2899323404 -0.1435120106 0.5533756018 4291810268
-0.2899945080 -0.1429277956 0.5534942150 4291547096
-0.2900564075 -0.1423432231 0.5536124110 4291612889
-0.2901180983 -0.1417582631 0.5537301302 4292205026
-0.2901795805 -0.1411729306 0.5538474917 4292599784
-0.2902408242 -0.1405872256 0.5539643764 4292665577
-0.2903018296 -0.1400011629 0.5540807843 4292731370
-0.2903625965 -0.1394147128 0.5541967750 4292731370
-0.2904231548 -0.1388279051 0.5543123484 4292665577
-0.2904834747 -0.1382407397 0.5544275045 4292731370
-0.2905435562 -0.1376531869 0.5545421839 4292665577
-0.2906034291 -0.1370652914 0.5546564460 4292599784
-0.2911165059 -0.1366899312 0.5556356907 4292533991
-0.2911759913 -0.1361003965 0.5557492375 4292599784
-0.2912352383 -0.1355104893 0.5558623672 4292533991
-0.2912942469 -0.1349202096 0.5559749603 4292533991
-0.2918068767 -0.1345388293 0.5569533706 4292468200
-0.2918654978 -0.1339469254 0.5570653081 4292468200
-0.2923779190 -0.1335620582 0.5580433011 4292337384
-0.2928902805 -0.1331750005 0.5590211749 4292337384
-0.2929483950 -0.1325801909 0.5591320992 4292402405
-0.2930062711 -0.1319850236 0.5592426062 4291941854
-0.2930639088 -0.1313895136 0.5593526363 4290758348
-0.2935757637 -0.1309964210 0.5603295565 4289968832
-0.2936330140 -0.1303992867 0.5604388118 4289903039
-0.2936900258 -0.1298017949 0.5605476499 4289903039
-0.2937467992 -0.1292039603 0.5606560111 4289903039
-0.2942581475 -0.1288048476 0.5616319776 4289968832
-0.2943145335 -0.1282054037 0.5617395639 4290034625
-0.2943706512 -0.1276056021 0.5618467331 4290034625
-0.2944265604 -0.1270054579 0.5619534254 4290034879
-0.2944822013 -0.1264049709 0.5620596409 4290034879
-0.2945376039 -0.1258041561 0.5621653795 4290100672
-0.2945927680 -0.1252029985 0.5622706413 4290100672
-0.2946476936 -0.1246014982 0.5623754859 4290100672
-0.2942468822 -0.1238080114 0.5616105199 4290100672
-0.2943012416 -0.1232067794 0.5617142320 4290231488
-0.2948110104 -0.1227950007 0.5626871586 4290165695
-0.2948649526 -0.1221921667 0.5627901554 4290297281
-0.2949186563 -0.1215890050 0.5628926158 4290363074
-0.2949720919 -0.1209855154 0.5629946589 4290363074
-0.2950252891 -0.1203816980 0.5630961657 4290428867
-0.2950782478 -0.1197775528 0.5631972551 4290494660
-0.2951309681 -0.1191730872 0.5632978678 4290494660
-0.2956396639 -0.1187515482 0.5642687678 4290429383
-0.2956919670 -0.1181455031 0.5643686056 4290429383
-0.2957440019 -0.1175391302 0.5644679070 4290429383
-0.2957957983 -0.1169324443 0.5645667911 4290495176
-0.2958473265 -0.1163254380 0.5646651387 4290495176
-0.2958986461 -0.1157181114 0.5647630692 4290560969
-0.2959496677 -0.1151104718 0.5648604631 4290626762
-0.2960004807 -0.1145025194 0.5649574399 4290626762
-0.2960509956 -0.1138942540 0.5650538802 4290757834
-0.2961013019 -0.1132856831 0.5651498437 4290823627
-0.2961513400 -0.1126767993 0.5652453899 4290823627
-0.2962011099 -0.1120676026 0.5653403997 4290757834
-0.2962506413 -0.1114581004 0.5654349327 4290692555
-0.2967571616 -0.1110193580 0.5664017200 4290692555
-0.2968062758 -0.1104083136 0.5664954185 4290692555
-0.2968551219 -0.1097969636 0.5665886402 4290692555
-0.2969036996 -0.1091853082 0.5666813850 4290758348
-0.2969520390 -0.1085733548 0.5667735934 4290758348
-0.2970001101 -0.1079611033 0.5668653846 4290824141
-0.2970479131 -0.1073485538 0.5669566393 4290824141
-0.2975532413 -0.1069001779 0.5679211617 4290824143
-0.2976006269 -0.1062860936 0.5680115819 4290889936
-0.2976477444 -0.1056717187 0.5681014657 4290889936
-0.2981525958 -0.1052186862 0.5690650940 4290889936
-0.2981992662 -0.1046027839 0.5691541433 4290889934
-0.2987038195 -0.1041463315 0.5701171756 4290955727
-0.2987500429 -0.1035289094 0.5702053905 4290955727
-0.2987959981 -0.1029111966 0.5702931285 4290955727
-0.2988417149 -0.1022932082 0.5703803301 4291021520
-0.2993455827 -0.1018308774 0.5713419914 4291021520
-0.2993908226 -0.1012113690 0.5714283586 4291021520
-0.2994357944 -0.1005915850 0.5715142488 4291021520
-0.2994805276 -0.0999715179 0.5715996027 4291218131
-0.2995249927 -0.0993511826 0.5716844797 4291218131
-0.3000279367 -0.0988817587 0.5726444125 4291218131
-0.3000719547 -0.0982599184 0.5727283955 4291283924
-0.3001156747 -0.0976378024 0.5728118420 4291283924
-0.3001591563 -0.0970154181 0.5728948116 4291283924
-0.3006613851 -0.0965401530 0.5738534331 4291283924
-0.3007043898 -0.0959162787 0.5739355087 4291283924
-0.3007471263 -0.0952921361 0.5740170479 4291349717
-0.3012488186 -0.0948122591 0.5749745965 4291349717
-0.3017503619 -0.0943302140 0.5759319067 4291218901
-0.3017924130 -0.0937033668 0.5760121942 4291218901
-0.3018342257 -0.0930762663 0.5760919452 4291284694
-0.3023352027 -0.0925896168 0.5770481825 4291350487
-0.3023765385 -0.0919610411 0.5771270394 4291481303
-0.3024175763 -0.0913322121 0.5772053599 4291481303
-0.3024583459 -0.0907031223 0.5772832036 4291350487
-0.3029585779 -0.0902106687 0.5782379508 4291416280
-0.3029988706 -0.0895801187 0.5783148408 4291482071
-0.3034987450 -0.0890842900 0.5792689323 4291482071
-0.3035385609 -0.0884522870 0.5793449283 4291482071
-0.3040380776 -0.0879530907 0.5802983046 4291153106
-0.3045374155 -0.0874517336 0.5812513828 4290889934
-0.3050366044 -0.0869482085 0.5822041631 4290824141
-0.3050754964 -0.0863123462 0.5822783709 4290626764
-0.3055743277 -0.0858054608 0.5832304358 4290758350
-0.3056127131 -0.0851681530 0.5833037496 4290955729
-0.3061111569 -0.0846579075 0.5842550993 4291153108
-0.3066094518 -0.0841455013 0.5852060914 4291679450
-0.3066471219 -0.0835055560 0.5852780342 4292205794
-0.3076055050 -0.0831142217 0.5871072412 4293390068
-0.3448432088 -0.1893756241 0.6595786810 4292995059
-0.3440259695 -0.1881957203 0.6580156088 4292271336
-0.3432080746 -0.1870189309 0.6564511657 4291744992
-0.3419401348 -0.1856013536 0.6540260315 4291810785
-0.3402219117 -0.1839457005 0.6507396102 4292205543
-0.3380530477 -0.1820546687 0.6465912461 4292468201
-0.3358829021 -0.1801721603 0.6424403787 4292402408
-0.3314627409 -0.1770967096 0.6339859962 4292533993
-0.2924018502 -0.1556055546 0.5592746139 4292665579
-0.2942684889 -0.1559735388 0.5628448725 4292665579
-0.2911850810 -0.1537204087 0.5569472909 4292731372
-0.2917013168 -0.1533730328 0.5579346418 4292797165
-0.2908667326 -0.1523160785 0.5563383698 4292797165
-0.2886804342 -0.1505577266 0.5521566868 4292862958
-0.2882947624 -0.1497439146 0.5514189601 4292862958
-0.2883592248 -0.1491645873 0.5515422821 4292862958
-0.2884234786 -0.1485848874 0.5516651273 4292862958
-0.2880367339 -0.1477735341 0.5509254336 4292797163
-0.2885513008 -0.1474243104 0.5519096255 4292862956
-0.2886148691 -0.1468434334 0.5520312190 4292994542
-0.2882271409 -0.1460336596 0.5512896776 4292731370
-0.2887413502 -0.1456805617 0.5522731543 4292533991
-0.2888042331 -0.1450985521 0.5523934364 4291941854
-0.2888669074 -0.1445161551 0.5525133610 4291744475
-0.2889293730 -0.1439333856 0.5526328087 4291744475
-0.2889916003 -0.1433502436 0.5527517796 4291482073
-0.2890536189 -0.1427667141 0.5528703928 4291416280
-0.2891153693 -0.1421828121 0.5529885292 4291482073
-0.2891769409 -0.1415985525 0.5531063080 4291679452
-0.2896901965 -0.1412342340 0.5540879965 4292205026
-0.2897513807 -0.1406483054 0.5542050004 4292599784
-0.2898123264 -0.1400620043 0.5543215871 4292731370
-0.2898730636 -0.1394753307 0.5544377565 4292599784
-0.2899335623 -0.1388882995 0.5545535088 4292665577
-0.2899938226 -0.1383008957 0.5546687841 4292731370
-0.2900538743 -0.1377131194 0.5547835827 4292665577
-0.2905662656 -0.1373389065 0.5557636619 4292665577
-0.2906259596 -0.1367494911 0.5558778048 4292599784
-0.2906853855 -0.1361597180 0.5559914708 4292533991
-0.2907446027 -0.1355695724 0.5561047196 4292533991
-0.2912565172 -0.1351893246 0.5570839047 4292533991
-0.2913153470 -0.1345975399 0.5571964383 4292468200
-0.2909207940 -0.1337970048 0.5564417839 4292468200
-0.2918855548 -0.1336203963 0.5582870245 4292402407
-0.2919437587 -0.1330266297 0.5583983660 4292402407
-0.2924551666 -0.1326381415 0.5593765378 4292533991
-0.2925129831 -0.1320427358 0.5594871640 4292270819
-0.2925705910 -0.1314469874 0.5595973134 4291481557
-0.2930816412 -0.1310537457 0.5605747700 4290494662
-0.2935926020 -0.1306583136 0.5615521073 4289968318
-0.2931958139 -0.1298586428 0.5607931614 4290099904
-0.2937064767 -0.1294606626 0.5617699027 4290034625
-0.2937630415 -0.1288613081 0.5618781447 4289968832
-0.2938193977 -0.1282616109 0.5619858503 4290034625
-0.2938754857 -0.1276615709 0.5620931387 4290034625
-0.2943856418 -0.1272575706 0.5630689263 4290034879
-0.2944413126 -0.1266559213 0.5631754398 4290034879
-0.2944967747 -0.1260539293 0.5632815361 4290034879
-0.2940974236 -0.1252579987 0.5625177026 4290100672
-0.2941523194 -0.1246562600 0.5626226664 4290100672
-0.2942069471 -0.1240541786 0.5627271533 4290100672
-0.2942613363 -0.1234517694 0.5628311634 4290297283
-0.2943154871 -0.1228490248 0.5629347563 4290165697
-0.2948243618 -0.1224348918 0.5639080405 4290231490
-0.2948780954 -0.1218305528 0.5640108585 4290363076
-0.2949315906 -0.1212258786 0.5641131401 4290363076
-0.2949848175 -0.1206208840 0.5642150044 4290428869
-0.2950378060 -0.1200155541 0.5643163323 4290560455
-0.2950905561 -0.1194099039 0.5644172430 4290560455
-0.2955985367 -0.1189872697 0.5653888583 4290429383
-0.2956508696 -0.1183800325 0.5654889345 4290429383
-0.2957029641 -0.1177724823 0.5655885339 4290429383
-0.2957547903 -0.1171646044 0.5656877160 4290495176
-0.2958063781 -0.1165564135 0.5657863617 4290560969
-0.2954018414 -0.1157692447 0.5650125742 4290626762
-0.2954528332 -0.1151613519 0.5651101470 4290626762
-0.2955035865 -0.1145531461 0.5652072430 4290626762
-0.2955540717 -0.1139446348 0.5653038025 4290823627
-0.2956043184 -0.1133358032 0.5653999448 4290823627
-0.2956543267 -0.1127266660 0.5654955506 4290692555
-0.2957040668 -0.1121172234 0.5655906796 4290692555
-0.2957535684 -0.1115074679 0.5656853318 4290692555
-0.2962592840 -0.1110685468 0.5666526556 4290758348
-0.2963083386 -0.1104572415 0.5667464733 4290758350
-0.2968137860 -0.1100148931 0.5677132010 4290692557
-0.2968623936 -0.1094020382 0.5678062439 4290758350
-0.2969107628 -0.1087888852 0.5678987503 4290824143
-0.2969588935 -0.1081754342 0.5679907799 4290824143
-0.2970067263 -0.1075616926 0.5680822730 4290824143
-0.2970543206 -0.1069476455 0.5681733489 4290824143
-0.2975587547 -0.1064969003 0.5691381097 4290889936
-0.2976059020 -0.1058813184 0.5692282915 4290889936
-0.2981100380 -0.1054271460 0.5701925159 4290889936
-0.2981567383 -0.1048100442 0.5702818632 4290889934
-0.2982031703 -0.1041926518 0.5703707337 4290955727
-0.2987067997 -0.1037338227 0.5713340044 4290955727
-0.2987528145 -0.1031149104 0.5714219809 4290955727
-0.2987985313 -0.1024957076 0.5715094805 4290955727
-0.2988440096 -0.1018762216 0.5715964437 4291021520
-0.2993469536 -0.1014115140 0.5725584030 4291021520
-0.2993919551 -0.1007905155 0.5726444721 4291021520
-0.2994367182 -0.1001692414 0.5727301240 4291218131
-0.2994812131 -0.0995476842 0.5728151798 4291218131
-0.2995254397 -0.0989258587 0.5728998184 4291218131
-0.3000274599 -0.0984540656 0.5738599896 4291283924
-0.3000712395 -0.0978307351 0.5739437342 4291283924
-0.3001147211 -0.0972071290 0.5740269423 4291283924
-0.3001579642 -0.0965832546 0.5741096139 4291283924
-0.3006592691 -0.0961056203 0.5750684738 4291349717
-0.3007020354 -0.0954802558 0.5751502514 4291349717
-0.3012029827 -0.0949992239 0.5761083961 4291349717
-0.3012452722 -0.0943723768 0.5761893392 4291284692
-0.3017458916 -0.0938879550 0.5771468282 4291284692
-0.3017877042 -0.0932596251 0.5772268176 4291284692
-0.3018292785 -0.0926310420 0.5773063302 4291350485
-0.3023293316 -0.0921420157 0.5782627463 4291350487
-0.3023703992 -0.0915119573 0.5783413053 4291350487
-0.3024111986 -0.0908816382 0.5784193873 4291350487
-0.3024517596 -0.0902510732 0.5784969330 4291416280
-0.3029510379 -0.0897562429 0.5794518590 4291416791
-0.3029910922 -0.0891242102 0.5795285106 4291416791
-0.3034900129 -0.0886260122 0.5804827809 4291350998
-0.3035295606 -0.0879925191 0.5805584788 4291153619
-0.3044873774 -0.0876231119 0.5823904276 4290955729
-0.3045265079 -0.0869872123 0.5824652910 4290889936
-0.3050247431 -0.0864813104 0.5834182501 4290824143
-0.3050633967 -0.0858439654 0.5834922194 4290824143
-0.3055612445 -0.0853347033 0.5844444633 4291021522
-0.3055993915 -0.0846959203 0.5845174193 4291218901
-0.3056372702 -0.0840568915 0.5845898390 4291679450
-0.3061345220 -0.0835430697 0.5855409503 4292074208
-0.3066316247 -0.0830270946 0.5864917040 4293258482
-0.3428322971 -0.1894022375 0.6571284533 4292666094
-0.3420166969 -0.1882232577 0.6555650830 4291876578
-0.3412003815 -0.1870473772 0.6540004611 4291744992
-0.3399349451 -0.1856297106 0.6515749097 4292139750
-0.3386686146 -0.1842169613 0.6491476297 4292468200
-0.3365040720 -0.1823229194 0.6449987292 4292402407
-0.3329918981 -0.1797108203 0.6382667422 4292665579
-0.2949819863 -0.1579409987 0.5654107332 4292665066
-0.2946006060 -0.1571093947 0.5646796823 4292730859
-0.2915236354 -0.1548476219 0.5587818623 4292796652
-0.2884450257 -0.1525980681 0.5528808832 4292862445
-0.2871623337 -0.1513079256 0.5504223108 4292862445
-0.2867778242 -0.1504945755 0.5496852398 4292928238
-0.2878062725 -0.1498084366 0.5516566038 4292928751
-0.2869710922 -0.1487625539 0.5500557423 4292994544
-0.2874849737 -0.1484166980 0.5510407090 4292994544
-0.2875488400 -0.1478372812 0.5511631370 4292928751
-0.2876124978 -0.1472574919 0.5512851477 4292797165
-0.2876759171 -0.1466773152 0.5514066815 4292862956
-0.2877390981 -0.1460967511 0.5515277982 4292797163
-0.2878021002 -0.1455157995 0.5516485572 4292270819
-0.2878648341 -0.1449344754 0.5517688394 4291941854
-0.2879273593 -0.1443527639 0.5518886447 4291678682
-0.2884403765 -0.1439956725 0.5528719425 4291547096
-0.2885025442 -0.1434123069 0.5529911518 4291547096
-0.2885645032 -0.1428285539 0.5531098843 4291283924
-0.2886262238 -0.1422444284 0.5532281995 4291086799
-0.2886877060 -0.1416599303 0.5533460379 4291678936
-0.2887489796 -0.1410750598 0.5534635186 4291744475
-0.2888100147 -0.1404898167 0.5535805225 4292205026
-0.2888708413 -0.1399042010 0.5536970496 4292599784
-0.2893828750 -0.1395359039 0.5546785593 4292665577
-0.2894433141 -0.1389486343 0.5547944307 4292599784
-0.2895035446 -0.1383610070 0.5549098253 4292599784
-0.2895635366 -0.1377729923 0.5550248027 4292599784
-0.2896232903 -0.1371846348 0.5551393628 4292731370
-0.2901347578 -0.1368090063 0.5561196804 4292599784
-0.2901941538 -0.1362189949 0.5562335253 4292533991
-0.2902533114 -0.1356286108 0.5563469529 4292533991
-0.2907644212 -0.1352482289 0.5573266149 4292533991
-0.2903709114 -0.1344467849 0.5565723777 4292468200
-0.2913341224 -0.1342723370 0.5584186316 4292402407
-0.2913925350 -0.1336786896 0.5585305691 4292402407
-0.2919032574 -0.1332913339 0.5595095158 4292402407
-0.2919612825 -0.1326960474 0.5596207380 4292402405
-0.2920190692 -0.1321004033 0.5597314835 4292270819
-0.2925294340 -0.1317082942 0.5607097745 4291942108
-0.2926439941 -0.1305134147 0.5609293580 4290165697
-0.2927009165 -0.1299154460 0.5610384345 4290165697
-0.2932108045 -0.1295173168 0.5620157719 4290297283
-0.2932673097 -0.1289177239 0.5621240735 4290099904
-0.2933236063 -0.1283177882 0.5622319579 4290034625
-0.2933796644 -0.1277174950 0.5623394251 4290034625
-0.2934354544 -0.1271168739 0.5624463558 4290034879
-0.2939446270 -0.1267114580 0.5634223819 4290034879
-0.2940000594 -0.1261092126 0.5635285378 4290034879
-0.2940552235 -0.1255066395 0.5636342764 4290034879
-0.2936562598 -0.1247109696 0.5628696084 4290034879
-0.2937108576 -0.1241086498 0.5629742146 4290034879
-0.2937651873 -0.1235059947 0.5630784035 4290297283
-0.2942734063 -0.1230929643 0.5640525222 4290231490
-0.2943273485 -0.1224887073 0.5641559362 4290231490
-0.2943810523 -0.1218841225 0.5642588735 4290363076
-0.2944344878 -0.1212792024 0.5643612742 4290428869
-0.2944877148 -0.1206739619 0.5644632578 4290494662
-0.2945406437 -0.1200683862 0.5645647645 4290560455
-0.2945933640 -0.1194624901 0.5646657944 4290560455
-0.2951005101 -0.1190396845 0.5656378865 4290429383
-0.2951528132 -0.1184322014 0.5657381415 4290429383
-0.2952048481 -0.1178243980 0.5658378601 4290429383
-0.2952566445 -0.1172162741 0.5659371614 4290495176
-0.2953081727 -0.1166078299 0.5660359263 4290560969
-0.2953594625 -0.1159990653 0.5661342740 4290626762
-0.2949553430 -0.1152121872 0.5653595924 4290626762
-0.2950060368 -0.1146037355 0.5654568076 4290626762
-0.2950564921 -0.1139949709 0.5655535460 4290692555
-0.2951067090 -0.1133858860 0.5656497478 4290692555
-0.2951566577 -0.1127764955 0.5657455325 4290692555
-0.2956619263 -0.1123398989 0.5667139888 4290692555
-0.2957114577 -0.1117289513 0.5668089390 4290692555
-0.2957607210 -0.1111176983 0.5669034123 4290758348
-0.2962655425 -0.1106764078 0.5678709745 4290758348
-0.2963143885 -0.1100636050 0.5679646134 4290758348
-0.2963629663 -0.1094504967 0.5680577159 4290758350
-0.2964113057 -0.1088370904 0.5681503415 4290758350
-0.2969154716 -0.1083898842 0.5691167116 4290824143
-0.2969633639 -0.1077749282 0.5692085028 4290824143
-0.2970109880 -0.1071596891 0.5692998171 4290824143
-0.2970583439 -0.1065441445 0.5693905950 4290889936
-0.2971054614 -0.1059283093 0.5694809556 4290889936
-0.2976087928 -0.1054739505 0.5704456568 4290889936
-0.2976554632 -0.1048565879 0.5705351233 4290889934
-0.2977018654 -0.1042389348 0.5706240535 4290889934
-0.2982046902 -0.1037799194 0.5715878606 4290955727
-0.2982506454 -0.1031607389 0.5716759562 4290955727
-0.2982963622 -0.1025412753 0.5717635751 4290955727
-0.2987986803 -0.1020776108 0.5727263689 4290955727
-0.2988439202 -0.1014566347 0.5728130937 4291021520
-0.2988888919 -0.1008353755 0.5728993416 4291021520
-0.2989336252 -0.1002138332 0.5729850531 4291087315
-0.2994352281 -0.0997442976 0.5739465356 4291087315
-0.2994794846 -0.0991212502 0.5740313530 4291087315
-0.2995235026 -0.0984979272 0.5741156936 4291153108
-0.2995672226 -0.0978743359 0.5741994977 4291153108
-0.2996107042 -0.0972504690 0.5742828250 4291153108
-0.3001113832 -0.0967738479 0.5752425194 4291218901
-0.3001543880 -0.0961484909 0.5753249526 4291218901
-0.3006547391 -0.0956684723 0.5762840509 4291349717
-0.3006972671 -0.0950416252 0.5763655305 4291349717
-0.3011972904 -0.0945582166 0.5773239732 4291284692
-0.3012393415 -0.0939298794 0.5774045587 4291284692
-0.3012811244 -0.0933012813 0.5774846673 4291284692
-0.3017805815 -0.0928132683 0.5784420371 4291350485
-0.3018219173 -0.0921831951 0.5785211921 4291350487
-0.3023210168 -0.0916917920 0.5794779062 4291350487
-0.3023618460 -0.0910602510 0.5795561671 4291350487
-0.3024024069 -0.0904284492 0.5796338916 4291416280
-0.3024426997 -0.0897964016 0.5797111392 4291416791
-0.3029410243 -0.0892991945 0.5806663036 4291416791
-0.3029808402 -0.0886656865 0.5807426572 4291351000
-0.3034788072 -0.0881651044 0.5816971064 4291219414
-0.3039766252 -0.0876623541 0.5826513171 4291022035
-0.3044742644 -0.0871574432 0.5836051702 4290890449
-0.3045131564 -0.0865200683 0.5836797357 4290889936
-0.3050104380 -0.0860117897 0.5846328735 4290889936
-0.3050488234 -0.0853729621 0.5847064853 4291021522
-0.3055457473 -0.0848613232 0.5856589079 4291284694
-0.3055836260 -0.0842210576 0.5857315660 4291745243
-0.3060801327 -0.0837060511 0.5866832733 4292008415
-0.3065764904 -0.0831888914 0.5876346231 4293126896
-0.3411919177 -0.1903544813 0.6553794742 4292863728
-0.3408257663 -0.1894228011 0.6546760798 4292271591
-0.3400117457 -0.1882447302 0.6531124711 4291811040
-0.3391970396 -0.1870697588 0.6515476108 4291942626
-0.3379340768 -0.1856520027 0.6491216421 4292336614
-0.3353271484 -0.1835041642 0.6441140771 4292402407
-0.3327186704 -0.1813666224 0.6391035914 4292533993
-0.3292129040 -0.1787530035 0.6323695183 4292599786
-0.2961363792 -0.1601614058 0.5688344240 4292731372
-0.2894831300 -0.1559452564 0.5560544729 4292731372
-0.2882052064 -0.1546417475 0.5535997748 4292796652
-0.2864781022 -0.1531036347 0.5502822399 4292862445
-0.2896826565 -0.1541980207 0.5564377308 4292928492
-0.2888516486 -0.1531392038 0.5548415184 4292928492
-0.2871227860 -0.1516098380 0.5515205860 4292862699
-0.2871877849 -0.1510312557 0.5516454577 4292928492
-0.2868037522 -0.1502171904 0.5509077907 4292928238
-0.2868682444 -0.1496387273 0.5510316491 4292796652
-0.2869324982 -0.1490598619 0.5511550903 4292730859
-0.2869965136 -0.1484806240 0.5512780547 4292928238
-0.2870603204 -0.1479009986 0.5514006615 4293125617
-0.2866745889 -0.1470904201 0.5506596565 4292994031
-0.2871872783 -0.1467405707 0.5516445041 4292928238
-0.2872504294 -0.1461597830 0.5517657995 4292862445
-0.2873133719 -0.1455786228 0.5518866777 4292599784
-0.2873760760 -0.1449970752 0.5520071387 4292270819
-0.2874385417 -0.1444151402 0.5521271229 4291876061
-0.2875007987 -0.1438328326 0.5522466898 4291481303
-0.2875628173 -0.1432501376 0.5523658395 4291218131
-0.2880747318 -0.1428903490 0.5533491373 4290757580
-0.2881364226 -0.1423060000 0.5534676313 4290691787
-0.2881978452 -0.1417212635 0.5535856485 4291415510
-0.2882590890 -0.1411361694 0.5537032485 4291547096
-0.2883200645 -0.1405507028 0.5538204312 4291810268
-0.2883808315 -0.1399648488 0.5539371371 4292336612
-0.2884413600 -0.1393786371 0.5540534258 4292731370
-0.2885016799 -0.1387920678 0.5541692376 4292665577
-0.2890126407 -0.1384210587 0.5551506877 4292533991
-0.2890725732 -0.1378328204 0.5552658439 4292533991
-0.2891322672 -0.1372442245 0.5553805232 4292599784
-0.2891917527 -0.1366552711 0.5554947853 4292599784
-0.2892509997 -0.1360659450 0.5556085706 4292533991
-0.2897613645 -0.1356876045 0.5565889478 4292468198
-0.2898202240 -0.1350966394 0.5567020178 4292468198
-0.2898788750 -0.1345053166 0.5568146706 4292468200
-0.2899372876 -0.1339136362 0.5569268465 4292336614
-0.2904471755 -0.1335292608 0.5579062700 4292336614
-0.2905052006 -0.1329359412 0.5580177307 4292336614
-0.2910148799 -0.1325480789 0.5589967370 4292402405
-0.2910725176 -0.1319531351 0.5591074824 4292205026
-0.2915819883 -0.1315618008 0.5600860715 4292205026
-0.2920913994 -0.1311682612 0.5610646009 4291612889
-0.2921485305 -0.1305704117 0.5611743331 4290560201
-0.2922053933 -0.1299722046 0.5612835288 4290165443
-0.2927144468 -0.1295739114 0.5622613430 4290297283
-0.2927709222 -0.1289740801 0.5623698831 4290165697
-0.2932797670 -0.1285723150 0.5633472800 4290165697
-0.2933358550 -0.1279708743 0.5634549856 4290165697
-0.2933917046 -0.1273690760 0.5635622740 4290034625
-0.2934473157 -0.1267669350 0.5636690855 4290034625
-0.2935026586 -0.1261644512 0.5637754202 4290034625
-0.2940108180 -0.1257553995 0.5647514462 4290034625
-0.2936126590 -0.1249584779 0.5639867187 4290034879
-0.2936672866 -0.1243549809 0.5640916228 4290034879
-0.2937216759 -0.1237511486 0.5641961098 4290231490
-0.2937758267 -0.1231469810 0.5643000603 4290231490
-0.2938297093 -0.1225424856 0.5644035935 4290297283
-0.2938833535 -0.1219376549 0.5645066500 4290363076
-0.2939367592 -0.1213324890 0.5646092296 4290494662
-0.2944436073 -0.1209133044 0.5655828118 4290560455
-0.2949503660 -0.1204919219 0.5665562153 4290494662
-0.2950032055 -0.1198839024 0.5666577220 4290560455
-0.2950557768 -0.1192755625 0.5667586923 4290429383
-0.2951081097 -0.1186668947 0.5668592453 4290429383
-0.2951601744 -0.1180578992 0.5669592619 4290429383
-0.2952120006 -0.1174485907 0.5670588017 4290495176
-0.2952635884 -0.1168389544 0.5671578646 4290560969
-0.2948606014 -0.1160501912 0.5663837790 4290560969
-0.2949115932 -0.1154408604 0.5664817691 4290626762
-0.2949623466 -0.1148312166 0.5665792227 4290626762
-0.2950128317 -0.1142212600 0.5666761994 4290626762
-0.2950630784 -0.1136109829 0.5667726994 4290626762
-0.2951130569 -0.1130004004 0.5668687820 4290692555
-0.2951627970 -0.1123895124 0.5669642687 4290692555
-0.2956671715 -0.1119505391 0.5679330826 4290692555
-0.2957164645 -0.1113380939 0.5680277944 4290692555
-0.2957655191 -0.1107253358 0.5681220293 4290758348
-0.2962694168 -0.1102816835 0.5690899491 4290758348
-0.2963180542 -0.1096673757 0.5691833496 4290758348
-0.2963664234 -0.1090527698 0.5692762733 4290758348
-0.2964145243 -0.1084378585 0.5693686604 4290758348
-0.2969177663 -0.1079882830 0.5703353286 4290824141
-0.2969654202 -0.1073718369 0.5704268813 4290824141
-0.2970128357 -0.1067550853 0.5705179572 4290824141
-0.2970599830 -0.1061380506 0.5706084967 4290889934
-0.2975625694 -0.1056825593 0.5715739131 4290889934
-0.2976092696 -0.1050639898 0.5716636181 4290889934
-0.2976557314 -0.1044451222 0.5717528462 4290889934
-0.2977018952 -0.1038259715 0.5718415380 4290955727
-0.2977478206 -0.1032065377 0.5719297528 4290955727
-0.2982495427 -0.1027439162 0.5728934407 4290955727
-0.2982950211 -0.1021229550 0.5729808211 4290955727
-0.2987963855 -0.1016569138 0.5739439130 4291021520
-0.2988414168 -0.1010344401 0.5740303397 4291021520
-0.2988861799 -0.1004116908 0.5741163492 4291087315
-0.2989306450 -0.0997886583 0.5742017627 4291087315
-0.2994313240 -0.0993167460 0.5751634836 4291087315
-0.2994753718 -0.0986922085 0.5752480626 4291087315
-0.2995191216 -0.0980673954 0.5753321648 4291153108
-0.2995626330 -0.0974423066 0.5754157305 4291218901
-0.2996058464 -0.0968169495 0.5754987597 4291218901
-0.3005623817 -0.0964845866 0.5773360729 4291218901
-0.3006052077 -0.0958567858 0.5774183869 4291415764
-0.3006477952 -0.0952287167 0.5775001049 4291415764
-0.3006900847 -0.0946003795 0.5775813460 4291415510
-0.3011891544 -0.0941145867 0.5785400271 4291415510
-0.3012309670 -0.0934847668 0.5786203146 4291481303
-0.3012725115 -0.0928546861 0.5787001848 4291481303
-0.3017710447 -0.0923642889 0.5796577334 4291350485
-0.3018121123 -0.0917327330 0.5797366500 4291350485
-0.3023102582 -0.0912389532 0.5806935430 4291350485
-0.3023508489 -0.0906059220 0.5807715058 4291416278
-0.3023911715 -0.0899726450 0.5808489323 4291482073
-0.3024312258 -0.0893391073 0.5809258819 4291482073
-0.3029285967 -0.0888395235 0.5818812847 4291416280
-0.3029681742 -0.0882045329 0.5819572806 4291350487
-0.3039228916 -0.0878338516 0.5837911367 4291153621
-0.3039620221 -0.0871964395 0.5838662982 4290956242
-0.3044587076 -0.0866891518 0.5848203897 4291021522
-0.3044973612 -0.0860502943 0.5848945975 4290955729
-0.3049936891 -0.0855396315 0.5858479738 4291021522
-0.3050318360 -0.0848993286 0.5859212279 4291218901
-0.3055277467 -0.0843853056 0.5868738294 4291745243
-0.3060235381 -0.0838691145 0.5878261328 4292008415
-0.3065191209 -0.0833507627 0.5887781382 4293126896
-0.3395539820 -0.1912981272 0.6536276937 4293126645
-0.3391889930 -0.1903670579 0.6529251337 4292666094
-0.3388235569 -0.1894373000 0.6522216797 4291941856
-0.3380111456 -0.1882601529 0.6506577730 4291876063
-0.3371980786 -0.1870860904 0.6490926147 4292205028
-0.3359375894 -0.1856682599 0.6466662288 4292599786
-0.3337825537 -0.1837633103 0.6425179243 4292533993
-0.3307323456 -0.1813766658 0.6366463900 4292336614
-0.2884081006 -0.1569319963 0.5551739335 4292862956
-0.2893696129 -0.1568362713 0.5570247769 4292862699
-0.2912259996 -0.1572195739 0.5605982542 4292928492
-0.2868186235 -0.1542267948 0.5521142483 4292994285
-0.2882272303 -0.1543677747 0.5548257828 4292994285
-0.2873979509 -0.1533089429 0.5532293916 4292994285
-0.2870157957 -0.1524912268 0.5524937510 4292928492
-0.2861853242 -0.1514379233 0.5508952141 4292928492
-0.2853542566 -0.1503878385 0.5492954254 4292994285
-0.2854186893 -0.1498113573 0.5494194627 4293059824
-0.2859310806 -0.1494687647 0.5504057407 4292599273
-0.2859951854 -0.1488905847 0.5505291820 4292072929
-0.2860590518 -0.1483120322 0.5506521463 4292270308
-0.2856742442 -0.1475015283 0.5499113798 4292796652
-0.2861861587 -0.1471537501 0.5508967638 4292994031
-0.2862493694 -0.1465740353 0.5510184765 4292994031
-0.2858636081 -0.1457651109 0.5502758622 4293059824
-0.2863751352 -0.1454134583 0.5512605309 4293060078
-0.2864376903 -0.1448325962 0.5513809919 4292599527
-0.2865000069 -0.1442513615 0.5515009165 4292336355
-0.2865621150 -0.1436697394 0.5516204834 4292007390
-0.2870732546 -0.1433120072 0.5526043773 4291349460
-0.2871350050 -0.1427287161 0.5527232885 4290757323
-0.2871965170 -0.1421450526 0.5528417230 4290625994
-0.2872578204 -0.1415610164 0.5529596806 4290954959
-0.2873188853 -0.1409766078 0.5530772805 4291415253
-0.2878294885 -0.1406115294 0.5540601015 4291546839
-0.2878901958 -0.1400254518 0.5541769862 4292073183
-0.2879506648 -0.1394390166 0.5542933941 4292665320
-0.2880109251 -0.1388522089 0.5544093847 4292796906
-0.2880709469 -0.1382650286 0.5545249581 4292665320
-0.2881307602 -0.1376774907 0.5546400547 4292599527
-0.2886406183 -0.1373037845 0.5556215048 4292599527
-0.2887000442 -0.1367145926 0.5557358861 4292533991
-0.2887592316 -0.1361250281 0.5558498502 4292468198
-0.2892687917 -0.1357465535 0.5568307042 4292468198
-0.2893276215 -0.1351553649 0.5569439530 4292402405
-0.2893862128 -0.1345638037 0.5570567250 4292402407
-0.2894445658 -0.1339718848 0.5571690798 4292336614
-0.2899536192 -0.1335873604 0.5581489801 4292270821
-0.2900116146 -0.1329938024 0.5582606196 4292270821
-0.2905204594 -0.1326058060 0.5592401624 4292336612
-0.2905780673 -0.1320106238 0.5593510270 4292270819
-0.2910867333 -0.1316191405 0.5603302121 4292336612
-0.2911439538 -0.1310223192 0.5604403019 4292073440
-0.2916524112 -0.1306273639 0.5614190698 4291020752
-0.2917092144 -0.1300289184 0.5615284443 4290231236
-0.2922174633 -0.1296304762 0.5625067949 4290099904
-0.2927256227 -0.1292298287 0.5634850264 4290165697
-0.2927819192 -0.1286284924 0.5635933280 4290231490
-0.2928379476 -0.1280267984 0.5637012124 4290231490
-0.2928937674 -0.1274247617 0.5638086200 4290231490
-0.2929493189 -0.1268223822 0.5639156103 4290165697
-0.2930046320 -0.1262196600 0.5640220642 4290034625
-0.2935119569 -0.1258104444 0.5649986267 4290034625
-0.2935668826 -0.1252061129 0.5651043653 4290034879
-0.2931691110 -0.1244094521 0.5643386841 4290034879
-0.2932234704 -0.1238053739 0.5644432902 4290165695
-0.2932775617 -0.1232009605 0.5645474195 4290231488
-0.2937840819 -0.1227854043 0.5655224919 4290297281
-0.2933849990 -0.1219911352 0.5647543073 4290297281
-0.2934383750 -0.1213857308 0.5648570061 4290494662
-0.2943973243 -0.1211527660 0.5667029619 4290494662
-0.2944503427 -0.1205448285 0.5668050051 4290494662
