VERSION 0.7
FIELDS x y z rgba
SIZE 4 4 4 4
TYPE F F F U
COUNT 1 1 1 1
WIDTH 920
HEIGHT 1
VIEWPOINT 0.0 0.0 0.0 1.0 0.0 0.0 0.0
POINTS 920
DATA ascii
-0.2972314358 -0.1417173743 0.5464555621 4290165437
-0.2977601290 -0.1413612217 0.5474275351 4290231230
-0.2978227139 -0.1407825649 0.5475425720 4290230975
-0.2978850901 -0.1402035505 0.5476572514 4290099389
-0.2984134853 -0.1398426890 0.5486286879 4290362298
-0.2984754741 -0.1392620355 0.5487426519 4290362298
-0.2985372245 -0.1386810392 0.5488561988 4290231230
-0.2985987365 -0.1380996704 0.5489692688 4290231230
-0.2986600399 -0.1375179440 0.5490819812 4290230975
-0.2987210751 -0.1369358748 0.5491942167 4290165182
-0.2987819016 -0.1363534331 0.5493060350 4290296254
-0.2988424897 -0.1357706338 0.5494174361 4290296254
-0.2993698716 -0.1353987157 0.5503870249 4290230201
-0.2994301021 -0.1348143071 0.5504977107 4290295994
-0.2994900644 -0.1342295557 0.5506079793 4290689461
-0.2995497882 -0.1336444318 0.5507177711 4289899945
-0.2996093035 -0.1330589652 0.5508272052 4288977036
-0.3001360595 -0.1326798350 0.5517956018 4288319106
-0.3001951873 -0.1320927590 0.5519043207 4288580989
-0.3002540469 -0.1315053403 0.5520125628 4288975747
-0.3007804751 -0.1311215013 0.5529803634 4289041540
-0.3013068140 -0.1307354718 0.5539480448 4288646782
-0.3018331230 -0.1303472817 0.5549156070 4288909439
-0.3018912971 -0.1297557354 0.5550225973 4289041025
-0.3028855324 -0.1295643598 0.5568504333 4289041025
-0.3024751842 -0.1287709624 0.5560960174 4289238404
-0.3034693599 -0.1285743266 0.5579238534 4288844159
-0.3035268188 -0.1279786676 0.5580294728 4288317815
-0.3040525615 -0.1275792420 0.5589960217 4288185716
-0.3041096330 -0.1269819885 0.5591009855 4288185716
-0.3041664660 -0.1263844073 0.5592054725 4288382579
-0.3042230606 -0.1257864833 0.5593094826 4288185200
-0.3038105369 -0.1249953359 0.5585510731 4288316786
-0.3038665354 -0.1243976727 0.5586540699 4288645751
-0.3039222956 -0.1237996742 0.5587565303 4288712314
-0.3035086989 -0.1230112240 0.5579961538 4288975486
-0.3035638630 -0.1224135011 0.5580976009 4289304199
-0.3036187887 -0.1218154505 0.5581985712 4289435785
-0.3036734462 -0.1212170720 0.5582990646 4289041540
-0.3037278652 -0.1206183732 0.5583991408 4288646782
-0.3037820458 -0.1200193539 0.5584987402 4288449401
-0.3046642840 -0.1097882390 0.5601207018 4289572528
-0.3047139049 -0.1091836765 0.5602118969 4289703857
-0.3047632277 -0.1085788161 0.5603026152 4289769650
-0.3048123121 -0.1079736650 0.5603928566 4289835443
-0.3043899536 -0.1072022766 0.5596163273 4289769650
-0.3039671779 -0.1064324677 0.5588390827 4289572271
-0.3035439849 -0.1056642458 0.5580610633 4289572271
-0.3026489615 -0.1047344729 0.5564155579 4289572271
-0.3017534018 -0.1038081720 0.5547690988 4289572271
-0.3018004298 -0.1032078564 0.5548555255 4289506476
-0.3013755381 -0.1024469435 0.5540743470 4289572269
-0.3014219403 -0.1018470079 0.5541597009 4289440942
-0.3014681041 -0.1012468040 0.5542445779 4289440942
-0.3015140295 -0.1006463170 0.5543289781 4289375149
-0.3015596569 -0.1000455618 0.5544129014 4289440942
-0.3016050458 -0.0994445384 0.5544963479 4289375149
-0.3016501665 -0.0988432392 0.5545793176 4289243563
-0.3021671772 -0.0983954147 0.5555297732 4289375149
-0.3022118509 -0.0977926329 0.5556119084 4289375149
-0.3017839789 -0.0970377326 0.5548253059 4289111979
-0.3018280566 -0.0964353606 0.5549063087 4289309358
-0.3018718660 -0.0958327353 0.5549868941 4288981163
-0.3019154370 -0.0952298418 0.5550670028 4288915370
-0.3019587398 -0.0946266875 0.5551465750 4288849577
-0.3024743795 -0.0941704214 0.5560945868 4288717991
-0.3025172055 -0.0935658067 0.5561733246 4288915370
-0.3025597930 -0.0929609388 0.5562515855 4288783784
-0.3026020825 -0.0923558176 0.5563293695 4289902523
-0.3026441336 -0.0917504430 0.5564066768 4290955211
-0.3026859164 -0.0911448151 0.5564835072 4291153106
-0.3027274311 -0.0905389339 0.5565598011 4290955727
-0.3027686775 -0.0899328068 0.5566356182 4291482073
-0.3023365140 -0.0891868621 0.5558410883 4292205796
-0.3023771644 -0.0885811895 0.5559158325 4292665579
-0.3019442856 -0.0878375992 0.5551199913 4292797165
-0.3010376692 -0.0869589373 0.5534532070 4292862445
-0.2972902060 -0.0852691606 0.5465635657 4292599273
-0.2987494767 -0.0850774571 0.5492463708 4292270819
-0.2954736650 -0.0835410208 0.5432239175 4291876061
-0.2964589596 -0.0832140222 0.5450353026 4291152590
-0.2946023941 -0.0820911154 0.5416221023 4292073692
-0.2951135933 -0.0816307366 0.5425618887 4292599778
-0.2956246436 -0.0811682269 0.5435014367 4290099644
-0.3723914623 -0.2007833868 0.6860368848 4290427840
-0.2874466181 -0.1543950588 0.5295475721 4290427840
-0.2842783034 -0.1521113962 0.5237107873 4290230977
-0.2829576731 -0.1508255899 0.5212778449 4290559942
-0.2830235660 -0.1502813995 0.5213992596 4290757319
-0.2830892503 -0.1497368217 0.5215202570 4291020491
-0.2826920450 -0.1489481032 0.5207884908 4291283663
-0.2827572227 -0.1484036595 0.5209085345 4291217870
-0.2828221619 -0.1478588581 0.5210282207 4290757319
-0.2828868926 -0.1473136693 0.5211474895 4290165182
-0.2834789455 -0.1464614868 0.5222381949 4290099389
-0.2835431695 -0.1459143013 0.5223564506 4290230460
-0.2836071849 -0.1453667283 0.5224744081 4290230460
-0.2845979929 -0.1452920437 0.5242997408 4290296253
-0.2851254046 -0.1449776888 0.5252713561 4290296253
-0.2861165404 -0.1448960006 0.5270972252 4290296253
-0.2871078551 -0.1448103487 0.5289234519 4290296253
-0.2880993485 -0.1447207481 0.5307500958 4290296254
-0.2890910804 -0.1446271837 0.5325770378 4290362047
-0.2900829613 -0.1445296556 0.5344043970 4290231230
-0.2915392816 -0.1446584910 0.5370873213 4290165437
-0.2925316691 -0.1445521265 0.5389155149 4290165437
-0.2935242355 -0.1444417834 0.5407440066 4290099644
-0.2945169508 -0.1443274766 0.5425729156 4290033596
-0.2950452268 -0.1439824253 0.5435460806 4290099389
-0.2960382104 -0.1438610554 0.5453754067 4290099389
-0.2956368625 -0.1430608928 0.5446360707 4290099389
-0.2966299057 -0.1429342628 0.5464654565 4290165437
-0.2966930270 -0.1423573941 0.5465817451 4290165437
-0.2972210646 -0.1420023739 0.5475545526 4290165437
-0.2972838283 -0.1414238662 0.5476701856 4290165437
-0.2973463833 -0.1408449858 0.5477854013 4290165437
-0.2974087000 -0.1402657479 0.5479001403 4290231230
-0.2979362905 -0.1399047524 0.5488721132 4290034879
-0.2979982197 -0.1393238753 0.5489862561 4289969086
-0.2980599403 -0.1387426257 0.5490999222 4290362814
-0.2981214225 -0.1381610334 0.5492132306 4290297021
-0.2981826663 -0.1375790834 0.5493260622 4290362044
-0.2982436717 -0.1369967610 0.5494384170 4290493630
-0.2983044684 -0.1364140958 0.5495504141 4290165435
-0.2983649969 -0.1358310580 0.5496619344 4289902263
-0.2988916039 -0.1354590058 0.5506320596 4290493371
-0.2989517748 -0.1348743588 0.5507429242 4290493371
-0.2990117073 -0.1342893541 0.5508533120 4289898914
-0.2990714014 -0.1337040067 0.5509632826 4288122503
-0.2991308570 -0.1331183165 0.5510728359 4288185978
-0.2996568382 -0.1327390224 0.5520417690 4288975494
-0.2997159064 -0.1321517080 0.5521506071 4289041027
-0.3002416790 -0.1317689717 0.5531192422 4288580476
-0.3003003597 -0.1311800629 0.5532273650 4288777853
-0.3008259237 -0.1307938993 0.5541955829 4289041025
-0.3013514280 -0.1304055452 0.5551636815 4289107072
-0.3018768728 -0.1300150305 0.5561316609 4288975486
-0.3024022579 -0.1296223253 0.5570995808 4288778107
-0.3029275835 -0.1292274445 0.5580673218 4288580728
-0.3029852509 -0.1286318749 0.5581735969 4288580985
-0.3035103679 -0.1282335669 0.5591409802 4288909950
-0.3035676479 -0.1276364028 0.5592464805 4289107329
-0.3036246896 -0.1270389110 0.5593515635 4289502087
-0.3036814630 -0.1264410764 0.5594561696 4289765511
-0.3037380278 -0.1258428991 0.5595603585 4289633925
-0.3033262193 -0.1250514239 0.5588017106 4289437059
-0.3033821881 -0.1244535074 0.5589048266 4289239680
-0.3034378886 -0.1238552630 0.5590074658 4289042301
-0.3030250072 -0.1230664849 0.5582467914 4288910715
-0.3030801415 -0.1224685088 0.5583483577 4288778618
-0.3027210534 -0.1210841462 0.5576868057 4288843898
-0.3041299880 -0.1104424521 0.5602824688 4289966775
-0.3041797876 -0.1098379269 0.5603742599 4289835189
-0.3042293787 -0.1092331111 0.5604655147 4289835702
-0.3042786717 -0.1086279899 0.5605563521 4289901495
-0.3043277264 -0.1080225855 0.5606467128 4289704368
-0.3039060533 -0.1072508618 0.5598699450 4289506989
-0.3039545119 -0.1066458076 0.5599592328 4289703853
-0.3035321236 -0.1058763191 0.5591810346 4289703853
-0.3026386499 -0.1049451977 0.5575350523 4289638064
-0.3022153676 -0.1041798219 0.5567552447 4289638064
-0.3017916977 -0.1034160405 0.5559747219 4289375668
-0.3018384874 -0.1028142497 0.5560609102 4289441461
-0.3014140427 -0.1020527259 0.5552790165 4289375149
-0.3014602661 -0.1014513224 0.5553641319 4289375149
-0.3015061915 -0.1008496359 0.5554487705 4289506478
-0.3015518785 -0.1002476811 0.5555329323 4289506478
-0.3011260629 -0.0994897559 0.5547484756 4289506478
-0.3016424775 -0.0990429521 0.5556998253 4289506478
-0.3016873598 -0.0984401852 0.5557825565 4289375149
-0.3017320037 -0.0978371426 0.5558648109 4289309356
-0.3017764091 -0.0972338393 0.5559465885 4289178540
-0.3018205166 -0.0966302678 0.5560278296 4289178540
-0.3018643856 -0.0960264355 0.5561086535 4289177770
-0.3019079566 -0.0954223350 0.5561889410 4289046184
-0.3019512892 -0.0948179737 0.5562688112 4289046184
-0.3019943833 -0.0942133591 0.5563481450 4288980391
-0.3025090992 -0.0937547460 0.5572963953 4288783782
-0.3025517166 -0.0931486636 0.5573748946 4288783782
-0.3025940657 -0.0925423354 0.5574529171 4288981421
-0.3026361465 -0.0919357464 0.5575304031 4291021004
-0.3026779592 -0.0913289040 0.5576074719 4291547348
-0.3027195036 -0.0907218158 0.5576840043 4291152590
-0.3022884727 -0.0899738967 0.5568898916 4291284176
-0.3023294210 -0.0893672556 0.5569653511 4292007899
-0.3023701012 -0.0887603685 0.5570403337 4292929003
-0.3014654815 -0.0878777653 0.5553737879 4292863210
-0.3005603552 -0.0869987085 0.5537063479 4292797417
-0.2996547222 -0.0861232132 0.5520378947 4292534245
-0.2982758582 -0.0851163790 0.5494977236 4292074210
-0.2973691225 -0.0842489600 0.5478272438 4291811038
-0.2964618802 -0.0833851099 0.5461559296 4291284694
-0.2955541313 -0.0825248286 0.5444836020 4291482073
-0.2946458757 -0.0816681236 0.5428103805 4292468968
-0.2946831286 -0.0810752735 0.5428790450 4291021522
-0.3752254248 -0.2088830769 0.6926750541 4290165443
-0.3748555779 -0.2079083323 0.6919923425 4289046962
-0.3759573698 -0.2069772035 0.6940262914 4291152079
-0.3760473430 -0.2062554508 0.6941924095 4291152077
-0.3752151430 -0.2050294131 0.6926561594 4290559940
-0.3743822575 -0.2038064003 0.6911185980 4290362561
-0.3735486269 -0.2025864273 0.6895797253 4290362561
-0.3727143109 -0.2013694793 0.6880395412 4290362561
-0.3741862178 -0.2013972551 0.6907566786 4290165182
-0.2875126004 -0.1541574299 0.5307551026 4290296768
-0.2838869989 -0.1516311914 0.5240621567 4290625733
-0.2834914327 -0.1508384645 0.5233319998 4290757319
-0.2830954790 -0.1500471234 0.5226010084 4291020491
-0.2826990783 -0.1492571980 0.5218692422 4291283663
-0.2823022604 -0.1484686732 0.5211367011 4291152077
-0.2823671699 -0.1479236484 0.5212565064 4290625733
-0.2824318707 -0.1473782510 0.5213759542 4290033596
-0.2829586864 -0.1470728070 0.5223485231 4290099389
-0.2830230892 -0.1465257704 0.5224673748 4290165182
-0.2830872536 -0.1459783614 0.5225858092 4290230460
-0.2836138606 -0.1456682086 0.5235579610 4290230460
-0.2841404974 -0.1453558952 0.5245301127 4290296253
-0.2851299644 -0.1452772617 0.5263567567 4290296253
-0.2856566906 -0.1449597329 0.5273290873 4290230460
-0.2866464555 -0.1448740661 0.5291562080 4290296253
-0.2880996168 -0.1450176090 0.5318387747 4290230975
-0.2890898883 -0.1449231207 0.5336668491 4290230975
-0.2900803685 -0.1448246837 0.5354952812 4290165437
-0.2915345132 -0.1449527144 0.5381796360 4290099644
-0.2925254405 -0.1448454261 0.5400089622 4290099644
-0.2935165763 -0.1447341591 0.5418385863 4290099644
-0.2940440774 -0.1443911791 0.5428123474 4290099389
-0.2945715487 -0.1440460086 0.5437861085 4290099389
-0.2950990200 -0.1436986774 0.5447598100 4290099644
-0.2956264317 -0.1433491558 0.5457334518 4290099644
-0.2961538434 -0.1429974586 0.5467070937 4290165437
-0.2966812253 -0.1426435858 0.5476806164 4290165437
-0.2967441678 -0.1420652121 0.5477968454 4290165437
-0.2972713709 -0.1417078972 0.5487700701 4290165437
-0.2973339856 -0.1411278844 0.5488856435 4290165437
-0.2973963320 -0.1405474991 0.5490007401 4290165437
-0.2974584699 -0.1399667561 0.5491154194 4290297280
-0.2979852557 -0.1396034360 0.5500878692 4290231487
-0.2980470061 -0.1390210688 0.5502018929 4290164665
-0.2981085479 -0.1384383291 0.5503154993 4290296251
-0.2981698215 -0.1378552318 0.5504286289 4290428091
-0.2982308865 -0.1372717619 0.5505413413 4290296505
-0.2982917428 -0.1366879493 0.5506536365 4290296505
-0.2983523309 -0.1361037791 0.5507655144 4290362298
-0.2984126806 -0.1355192512 0.5508769155 4289572008
-0.2984728217 -0.1349343657 0.5509879589 4289440422
-0.2985326946 -0.1343491375 0.5510984659 4288450438
-0.2985923588 -0.1337635368 0.5512086153 4288318852
-0.2986517549 -0.1331776083 0.5513182878 4289502091
-0.2991769612 -0.1327981651 0.5522878170 4289041540
-0.2997020781 -0.1324165612 0.5532571673 4288712060
-0.2997609675 -0.1318277419 0.5533658862 4288843646
-0.3002858758 -0.1314426810 0.5543349385 4288778107
-0.3008107543 -0.1310554594 0.5553038120 4288909693
-0.3013355732 -0.1306660473 0.5562726259 4288712312
-0.3018603027 -0.1302744448 0.5572413206 4288580726
-0.3023850024 -0.1298806816 0.5582099557 4288909691
-0.3024428785 -0.1292852163 0.5583167672 4289370242
-0.3025005162 -0.1286894083 0.5584232211 4289238656
-0.3030248284 -0.1282909364 0.5593910813 4288843898
-0.3030820787 -0.1276935190 0.5594967604 4288317554
-0.3031390607 -0.1270957738 0.5596019626 4288185968
-0.3031958342 -0.1264977008 0.5597067475 4288120173
-0.3027850688 -0.1257052869 0.5589484572 4288185966
-0.3028412461 -0.1251074672 0.5590521693 4288383345
-0.3028971553 -0.1245093048 0.5591554046 4288514931
-0.3024853170 -0.1237195954 0.5583950877 4288844409
-0.3025406599 -0.1231217012 0.5584972501 4289370753
-0.3036448658 -0.1104923636 0.5605356693 4289769396
-0.3036946356 -0.1098875850 0.5606275797 4290098361
-0.3037441671 -0.1092825085 0.5607190132 4289967288
-0.3038424551 -0.1080714688 0.5609004498 4289638575
-0.3034215271 -0.1072994098 0.5601233840 4289572782
-0.3030001819 -0.1065289378 0.5593456030 4289703853
-0.3025784194 -0.1057600528 0.5585669875 4289703853
-0.3021562696 -0.1049927548 0.5577877164 4289638062
-0.3017337024 -0.1042270437 0.5570076108 4289572269
-0.3017807901 -0.1036243364 0.5570945740 4289440945
-0.3013575077 -0.1028608829 0.5563131571 4289440945
-0.3009337783 -0.1020990238 0.5555309653 4289441196
-0.3009799719 -0.1014973596 0.5556162000 4289441196
-0.3010258675 -0.1008954197 0.5557009578 4289506476
-0.3010715246 -0.1002932042 0.5557852387 4289506476
-0.3011169136 -0.0996907130 0.5558690429 4289506476
-0.3011620343 -0.0990879536 0.5559523106 4289440683
-0.3012069166 -0.0984849259 0.5560351610 4289375149
-0.3012515306 -0.0978816226 0.5561175346 4289375149
-0.3012958765 -0.0972780585 0.5561993718 4289243563
-0.3013399839 -0.0966742262 0.5562807918 4289309356
-0.3013837934 -0.0960701257 0.5563616753 4289243563
-0.3014273643 -0.0954657644 0.5564421415 4289177770
-0.3014706671 -0.0948611498 0.5565220714 4289111977
-0.3019848168 -0.0944035426 0.5574712157 4289046184
-0.3020276725 -0.0937974527 0.5575503111 4288783782
-0.3020702600 -0.0931911170 0.5576288700 4288849575
-0.3016412556 -0.0924400762 0.5568369627 4288389283
-0.3016832471 -0.0918341726 0.5569144487 4290363073
-0.3017249405 -0.0912280157 0.5569914579 4291547347
-0.3022379279 -0.0907632038 0.5579383969 4291284175
-0.3018076122 -0.0900149494 0.5571440458 4291152590
-0.3018485308 -0.0894080475 0.5572195649 4291613141
-0.3014174700 -0.0886621401 0.5564238429 4292468450
-0.3005142808 -0.0877800956 0.5547565222 4292863208
-0.2996105552 -0.0869015977 0.5530882478 4292665831
-0.2982344329 -0.0858907551 0.5505478978 4292600038
-0.2973296344 -0.0850203335 0.5488775969 4292205796
-0.2959523201 -0.0840194747 0.5463350415 4291876831
-0.2950464189 -0.0831571370 0.5446627140 4291350487
-0.2941400409 -0.0822983757 0.5429894924 4291350487
-0.2946497202 -0.0818366408 0.5439304113 4292271589
-0.2946870029 -0.0812425762 0.5439992547 4291547866
-0.3782959878 -0.2110250890 0.6997781992 4291876061
-0.3779277205 -0.2100429237 0.6990969777 4289770685
-0.3770990968 -0.2088073343 0.6975641847 4290757834
-0.3735098243 -0.2060522139 0.6909246445 4291152592
-0.3731392026 -0.2050808519 0.6902390718 4291020493
-0.3727680743 -0.2041107416 0.6895526052 4290428356
-0.3719361722 -0.2028907835 0.6880136728 4290230975
-0.3715639412 -0.2019240856 0.6873251796 4290362561
-0.3707307279 -0.2007093132 0.6857838631 4290362561
-0.3694361448 -0.1992491633 0.6833891273 4290033596
-0.2870483398 -0.1542247236 0.5309867859 4290362561
-0.2834286690 -0.1516974121 0.5242910385 4290757319
-0.2830338180 -0.1509043723 0.5235606432 4290823112
-0.2830995917 -0.1503576040 0.5236823559 4291086284
-0.2822428346 -0.1493224800 0.5220974684 4291283663
-0.2818467319 -0.1485336274 0.5213647485 4290954698
-0.2819115818 -0.1479884088 0.5214847326 4290362561
-0.2819762230 -0.1474428028 0.5216042995 4289967803
-0.2820406556 -0.1468968242 0.5217235088 4290165182
-0.2825665772 -0.1465899944 0.5226963758 4290230975
-0.2826307118 -0.1460423768 0.5228149891 4290362047
-0.2831565440 -0.1457321197 0.5237876773 4290296254
-0.2836823761 -0.1454197019 0.5247603655 4290362047
-0.2846703231 -0.1453410536 0.5265879035 4290362047
-0.2856584489 -0.1452584565 0.5284157395 4290296254
-0.2866468132 -0.1451718956 0.5302440524 4290362047
-0.2876353562 -0.1450813711 0.5320726633 4290230975
-0.2890866101 -0.1452192366 0.5347572565 4290165182
-0.2900756598 -0.1451198757 0.5365867615 4290165437
-0.2910648584 -0.1450165361 0.5384166241 4290231230
-0.2920542657 -0.1449092329 0.5402468443 4290165437
-0.2930438519 -0.1447979361 0.5420773625 4290165437
-0.2940335870 -0.1446826756 0.5439082384 4290165437
-0.2940972447 -0.1441095471 0.5440259576 4290099644
-0.2955504060 -0.1442141682 0.5467140079 4290231230
-0.2946872115 -0.1431872994 0.5451172590 4290165437
-0.2956771553 -0.1430606097 0.5469484925 4290165437
-0.2962037325 -0.1427066177 0.5479226112 4290165437
-0.2962666452 -0.1421280056 0.5480389595 4290099901
-0.2967930734 -0.1417705566 0.5490127206 4290099901
-0.2968555987 -0.1411903203 0.5491284132 4290099901
-0.2969179153 -0.1406097114 0.5492436886 4290099901
-0.2969800234 -0.1400287300 0.5493585467 4290034108
-0.2975060046 -0.1396652758 0.5503315330 4290165694
-0.2975677252 -0.1390826702 0.5504456758 4290165435
-0.2976292074 -0.1384996921 0.5505594611 4290362814
-0.2976904511 -0.1379163563 0.5506727695 4290428091
-0.2977514863 -0.1373326629 0.5507856011 4290230712
-0.2978122532 -0.1367486119 0.5508980751 4290493369
-0.2978728116 -0.1361642033 0.5510100722 4290427576
-0.2979331315 -0.1355794519 0.5511216521 4289110681
-0.2979932129 -0.1349943280 0.5512327552 4287794821
-0.2980530560 -0.1344088614 0.5513435006 4288845189
-0.2981126606 -0.1338230371 0.5514537692 4289437326
-0.2981720269 -0.1332368553 0.5515635610 4288909693
-0.2986964285 -0.1328572780 0.5525336266 4288580728
-0.2992207706 -0.1324755102 0.5535035133 4288778105
-0.2997450531 -0.1320915818 0.5544734001 4288712312
-0.3002692759 -0.1317054629 0.5554431081 4288580210
-0.3007934391 -0.1313171536 0.5564126968 4288777589
-0.3013175428 -0.1309266686 0.5573822260 4289106554
-0.3018416166 -0.1305340081 0.5583516359 4289238140
-0.3018997014 -0.1299386472 0.5584590435 4288909175
-0.3024235368 -0.1295425296 0.5594280362 4288646003
-0.3024812043 -0.1289455593 0.5595347881 4288777589
-0.3025386631 -0.1283482462 0.5596410036 4289106554
-0.3025958538 -0.1277506053 0.5597468615 4289172347
-0.3021864891 -0.1269566864 0.5589895844 4289435519
-0.3022431135 -0.1263592839 0.5590943098 4289632898
-0.3022994697 -0.1257615387 0.5591986179 4289632898
-0.3018890023 -0.1249703169 0.5584393144 4289698691
-0.3019447923 -0.1243728325 0.5585424900 4289632898
-0.3020003438 -0.1237750202 0.5586452484 4289172347
-0.3015888035 -0.1229864955 0.5578839779 4288580210
-0.3033565581 -0.1081203222 0.5611540079 4289770161
-0.3034052849 -0.1075141057 0.5612441301 4289638575
-0.3029847145 -0.1067423597 0.5604661703 4289769389
-0.3025637567 -0.1059722006 0.5596874952 4289703596
-0.3021423817 -0.1052036285 0.5589080453 4289637549
-0.3021898568 -0.1045990735 0.5589958429 4289637549
-0.3027063906 -0.1041557118 0.5599513054 4289572017
-0.3018146157 -0.1032285616 0.5583016872 4289572017
-0.3013917804 -0.1024644971 0.5575194955 4289375403
-0.3009685278 -0.1017020345 0.5567365885 4289441196
-0.3010144830 -0.1010988876 0.5568215847 4289441196
-0.3010601699 -0.1004954726 0.5569061041 4289506989
-0.3006358743 -0.0997359455 0.5561212301 4289441196
-0.3011507988 -0.0992878228 0.5570737123 4289441196
-0.3007258177 -0.0985296369 0.5562875867 4289375403
-0.3007704020 -0.0979260728 0.5563700795 4289375403
-0.3008147180 -0.0973222479 0.5564520359 4289309356
-0.3008587658 -0.0967181548 0.5565335751 4289309356
-0.3009025753 -0.0961137936 0.5566145778 4289309356
-0.3009461164 -0.0955091715 0.5566951036 4289243563
-0.3009893894 -0.0949042886 0.5567751527 4289243563
-0.3010323942 -0.0942991450 0.5568547249 4289111977
-0.3015455604 -0.0938401371 0.5578039885 4289046184
-0.3015881181 -0.0932335332 0.5578827262 4289046184
-0.3016304076 -0.0926266685 0.5579609275 4288191904
-0.3012017906 -0.0918760002 0.5571680665 4289507764
-0.3012434840 -0.0912695751 0.5572451949 4291415761
-0.3012849092 -0.0906629041 0.5573218465 4291415761
-0.3013260663 -0.0900559798 0.5573979616 4291218382
-0.3018378615 -0.0895885751 0.5583446622 4291349968
-0.3018785715 -0.0889802054 0.5584199429 4292139485
-0.3014479876 -0.0882337317 0.5576234460 4292929001
-0.3005459309 -0.0873519927 0.5559548140 4292665831
-0.2996433675 -0.0864738151 0.5542852283 4292665831
-0.2987402678 -0.0855992064 0.5526146889 4292468452
-0.2973654270 -0.0845940933 0.5500714779 4292139487
-0.2959899306 -0.0835944563 0.5475270748 4291678682
-0.2950852215 -0.0827324539 0.5458534956 4291415510
-0.2941799760 -0.0818740353 0.5441790223 4292073440
-0.2946887314 -0.0814099684 0.5451201200 4292205026
-0.2937826812 -0.0805558562 0.5434440970 4290362563
-0.3726345897 -0.2082949430 0.6907247305 4291612889
-0.3718067408 -0.2070664614 0.6891902685 4289639099
-0.3714373410 -0.2060957402 0.6885055304 4290889420
-0.3710674345 -0.2051262856 0.6878198385 4291218385
-0.3711563945 -0.2044110596 0.6879847646 4290888905
-0.3703261912 -0.2031911314 0.6864458323 4290296768
-0.3694952428 -0.2019742280 0.6849055886 4290099389
-0.3691232800 -0.2010107040 0.6842161417 4290165182
-0.2855963409 -0.1543486863 0.5293885469 4290099644
-0.2829034626 -0.1523106843 0.5243968964 4290494147
-0.2820495069 -0.1512700468 0.5228139758 4290888905
-0.2821153402 -0.1507243514 0.5229360461 4291020491
-0.2817206681 -0.1499332786 0.5222044587 4291152077
-0.2813255489 -0.1491436064 0.5214720964 4291217870
-0.2814553678 -0.1480531096 0.5217127204 4290230975
-0.2815199792 -0.1475072950 0.5218324661 4290033596
-0.2816485465 -0.1464145482 0.5220707655 4290296768
-0.2826346457 -0.1463450789 0.5238986015 4290362047
-0.2831597924 -0.1460338235 0.5248720646 4290362047
-0.2836849093 -0.1457203925 0.5258454680 4290362047
-0.2842100561 -0.1454048008 0.5268188119 4290362047
-0.2851966619 -0.1453222036 0.5286476612 4290362047
-0.2861834764 -0.1452356279 0.5304768085 4290362047
-0.2871704698 -0.1451450884 0.5323063135 4290230975
-0.2886194587 -0.1452830434 0.5349922180 4290230975
-0.2900688350 -0.1454152167 0.5376787782 4290297023
-0.2910566032 -0.1453109682 0.5395097733 4290297023
-0.2915824652 -0.1449729800 0.5404844880 4290231230
-0.2925705016 -0.1448616832 0.5423159599 4290231230
-0.2935587168 -0.1447463930 0.5441477299 4290231230
-0.2940846980 -0.1444000751 0.5451227427 4290165437
-0.2950731814 -0.1442777216 0.5469549894 4290165437
-0.2942114174 -0.1432504356 0.5453576446 4290165437
-0.2956625223 -0.1433480531 0.5480474234 4290165437
-0.2957256138 -0.1427695900 0.5481643677 4290099644
-0.2957884967 -0.1421907544 0.5482808948 4290165437
-0.2963141203 -0.1418331712 0.5492551923 4290165437
-0.2963766158 -0.1412526965 0.5493710637 4290165437
-0.2964388728 -0.1406718642 0.5494865179 4290165437
-0.2965009212 -0.1400906593 0.5496014953 4290231488
-0.2970260978 -0.1397270709 0.5505750179 4290034109
-0.2970877886 -0.1391442269 0.5506893396 4290231230
-0.2971492410 -0.1385610253 0.5508032441 4290297023
-0.2972104251 -0.1379774511 0.5509166718 4290296251
-0.2968076468 -0.1371791810 0.5501700640 4290427837
-0.2968682945 -0.1365958154 0.5502824783 4290295216
-0.2973926663 -0.1362245977 0.5512544513 4289176735
-0.2974529266 -0.1356396079 0.5513661504 4289307030
-0.2970488369 -0.1348435581 0.5506170988 4288451721
-0.2975727618 -0.1344685405 0.5515882969 4289107844
-0.2976323366 -0.1338824779 0.5516987443 4288581500
-0.2976916730 -0.1332960725 0.5518087149 4288449140
-0.2982152700 -0.1329163462 0.5527792573 4289107070
-0.2992034256 -0.1327405572 0.5546109080 4288909175
-0.2997269928 -0.1323555559 0.5555814505 4288382831
-0.2997857332 -0.1317640841 0.5556903481 4289040758
-0.3003091216 -0.1313756257 0.5566604733 4288777586
-0.3008324206 -0.1309849918 0.5576304793 4288514414
-0.3018207550 -0.1307937056 0.5594624877 4288448621
-0.3018788695 -0.1301971823 0.5595701933 4288843381
-0.3019367754 -0.1296003014 0.5596775413 4289303932
-0.3015291095 -0.1288043261 0.5589218736 4289567104
-0.3015864193 -0.1282076836 0.5590280890 4289567104
-0.3016434908 -0.1276107132 0.5591338873 4288974968
-0.3017003238 -0.1270134002 0.5592392087 4288909175
-0.3012912273 -0.1262206584 0.5584809184 4288777589
-0.3013474643 -0.1256235987 0.5585851669 4288711796
-0.3009376228 -0.1248329580 0.5578255057 4288974457
-0.3009932935 -0.1242361516 0.5579286814 4289237629
-0.3010487258 -0.1236390099 0.5580314398 4289632387
-0.3011038899 -0.1230415478 0.5581337214 4289961352
-0.3029186726 -0.1075626612 0.5614975691 4289638575
-0.3029671013 -0.1069558933 0.5615873933 4289769646
-0.3025469184 -0.1061844677 0.5608085394 4289638060
-0.3021263480 -0.1054146215 0.5600289702 4289637803
-0.3021738529 -0.1048088670 0.5601170063 4289703596
-0.3022211194 -0.1042028293 0.5602045655 4289637551
-0.3017994761 -0.1034358889 0.5594230294 4289637551
-0.3013774157 -0.1026705503 0.5586406589 4289375403
-0.3009549677 -0.1019068137 0.5578576326 4289375403
-0.3005321026 -0.1011446789 0.5570737720 4289441196
-0.3005777597 -0.1005410030 0.5571584105 4289506989
-0.3001541793 -0.0997811481 0.5563732386 4289506989
-0.3006682992 -0.0993328318 0.5573262572 4289441196
-0.3002440631 -0.0985743180 0.5565398335 4289375403
-0.2998194098 -0.0978174135 0.5557526946 4289309610
-0.2998636067 -0.0972142667 0.5558347106 4289375149
-0.2999075949 -0.0966108590 0.5559161901 4289309356
-0.2999512851 -0.0960071832 0.5559971929 4289243563
-0.2999947071 -0.0954032466 0.5560776591 4289243563
-0.3000378907 -0.0947990417 0.5561577082 4289243563
-0.3005504012 -0.0943419933 0.5571077466 4289177770
-0.3010628223 -0.0938827917 0.5580575466 4289111977
-0.3006355762 -0.0931304023 0.5572656393 4289111977
-0.3006777763 -0.0925242230 0.5573438406 4288257951
-0.3007197082 -0.0919177905 0.5574215651 4288718502
-0.3007613719 -0.0913111046 0.5574987531 4290889417
-0.3008027673 -0.0907041654 0.5575755239 4291415761
-0.3008438945 -0.0900969803 0.5576517582 4291349968
-0.3013549149 -0.0896293744 0.5585989356 4291349968
-0.3013955653 -0.0890207365 0.5586743355 4291876313
-0.3009656966 -0.0882739350 0.5578775406 4292731622
-0.3005354702 -0.0875287876 0.5570800304 4292731624
-0.2996344268 -0.0866492689 0.5554098487 4292665831
-0.2982624471 -0.0856382400 0.5528666973 4292468198
-0.2973603308 -0.0847668052 0.5511945486 4292205026
-0.2959871590 -0.0837657675 0.5486491323 4291941854
-0.2946133316 -0.0827702135 0.5461026430 4291415510
-0.2932389081 -0.0817801431 0.5435549021 4291612891
-0.2932760715 -0.0811865106 0.5436238647 4292402407
-0.2933129966 -0.0805926472 0.5436922908 4290954700
-0.3673428893 -0.2027281672 0.6823206544 4290757319
-0.3676927388 -0.1998859197 0.6829704642 4290165437
-0.3668612242 -0.1986767799 0.6814259887 4290165437
-0.2842809856 -0.1533680856 0.5280374289 4290691526
-0.2825101912 -0.1518297046 0.5247482657 4290954698
-0.2821167409 -0.1510360241 0.5240174532 4291086284
-0.2817228436 -0.1502437592 0.5232858062 4291217870
-0.2813285589 -0.1494528800 0.5225534439 4291086284
-0.2809338272 -0.1486634016 0.5218202472 4290559940
-0.2805386782 -0.1478753388 0.5210862756 4290230975
-0.2806031406 -0.1473302096 0.5212060213 4290165182
-0.2811274827 -0.1470253468 0.5221799612 4290296768
-0.2816518247 -0.1467183083 0.5231539011 4290230975
-0.2812555134 -0.1459314227 0.5224177837 4290427840
-0.2827005088 -0.1460977346 0.5251017809 4290427840
-0.2832248509 -0.1457841992 0.5260757208 4290362047
-0.2842098176 -0.1457046568 0.5279052258 4290427840
-0.2851949930 -0.1456211358 0.5297351480 4290427840
-0.2861803472 -0.1455336660 0.5315653682 4290362047
-0.2871659100 -0.1454422176 0.5333960056 4290427840
-0.2881516516 -0.1453467906 0.5352270007 4290427840
-0.2891376019 -0.1452473998 0.5370583534 4290427840
-0.2905849516 -0.1453747898 0.5397467613 4290362047
-0.2915713787 -0.1452665478 0.5415789485 4290362047
-0.2920965254 -0.1449253708 0.5425543785 4290362047
-0.2930831909 -0.1448100507 0.5443871021 4290362047
-0.2936083972 -0.1444636136 0.5453625917 4290427840
-0.2941335738 -0.1441150010 0.5463380814 4290099389
-0.2946587205 -0.1437641978 0.5473135114 4290099389
-0.2951838374 -0.1434112042 0.5482888818 4290165182
-0.2952468693 -0.1428325176 0.5484060049 4290165182
-0.2953096926 -0.1422534585 0.5485227108 4290165182
-0.2953722775 -0.1416740268 0.5486389399 4290165182
-0.2958969772 -0.1413150430 0.5496135354 4290165437
-0.2959592044 -0.1407339722 0.5497291088 4290165437
-0.2960211933 -0.1401525289 0.5498442650 4290099650
-0.2965455949 -0.1397888064 0.5508183241 4289968064
-0.2966072261 -0.1392057389 0.5509327650 4290362563
-0.2966686189 -0.1386222988 0.5510467887 4290165184
-0.2967297733 -0.1380385011 0.5511603951 4290230201
-0.2963277102 -0.1372399032 0.5504135489 4290032822
-0.2963882983 -0.1366562992 0.5505261421 4289373085
-0.2964486778 -0.1360723376 0.5506382585 4288583569
-0.2969720960 -0.1356997192 0.5516105294 4289174413
-0.2965686917 -0.1349033415 0.5508612394 4288977034
-0.2966283560 -0.1343183070 0.5509720445 4288844157
-0.2971513569 -0.1339418888 0.5519434810 4288975743
-0.2976743281 -0.1335632801 0.5529148579 4289107068
-0.2977334559 -0.1329753697 0.5530247092 4288449138
-0.2982562184 -0.1325933188 0.5539957285 4288448623
-0.2992428541 -0.1324143708 0.5558283329 4289040760
-0.2997655869 -0.1320270300 0.5567992926 4288646000
-0.2998241484 -0.1314340532 0.5569080710 4288646000
-0.3003466725 -0.1310432702 0.5578786135 4288843379
-0.3008691370 -0.1306503117 0.5588490367 4288909172
-0.3013915122 -0.1302551478 0.5598194003 4288514416
-0.3014493883 -0.1296580434 0.5599268675 4288053865
-0.3010424078 -0.1288617104 0.5591709018 4288119658
-0.3010996878 -0.1282648295 0.5592772961 4288514416
-0.3006919622 -0.1274705976 0.5585200191 4288711796
-0.3007486761 -0.1268739551 0.5586252809 4288580210
-0.3008051217 -0.1262769848 0.5587301850 4288514163
-0.3003963232 -0.1254854351 0.5579708219 4288711542
-0.3004522026 -0.1248887107 0.5580746531 4288843130
-0.3005078137 -0.1242916584 0.5581779480 4288645751
-0.3005632162 -0.1236942708 0.5582808256 4288185200
-0.3006183505 -0.1230965629 0.5583832264 4287658856
-0.3023827374 -0.1082179174 0.5616605282 4289441712
-0.3024314046 -0.1076111868 0.5617508888 4289507505
-0.3024798036 -0.1070041582 0.5618407726 4289704368
-0.3020603657 -0.1062323973 0.5610616803 4289638575
-0.3021081686 -0.1056257337 0.5611504912 4289638062
-0.3021557033 -0.1050187796 0.5612388253 4289703855
-0.3022029996 -0.1044115424 0.5613266230 4289768621
-0.3013142645 -0.1034826413 0.5596758723 4289768621
-0.3008929193 -0.1027169675 0.5588932633 4289440942
-0.3004711866 -0.1019529030 0.5581098795 4289440942
-0.3000490665 -0.1011904404 0.5573258400 4289440942
-0.2996265292 -0.1004295796 0.5565409660 4289440942
-0.2996718287 -0.0998263136 0.5566251278 4289440942
-0.2997168601 -0.0992227718 0.5567087531 4289440942
-0.2992932498 -0.0984648690 0.5559219718 4289375149
-0.2993377149 -0.0978617370 0.5560045242 4289375149
-0.2993818820 -0.0972583294 0.5560865998 4289440942
-0.2994258106 -0.0966546535 0.5561681986 4289309356
-0.2994695008 -0.0960507169 0.5562493205 4289243563
-0.2995128930 -0.0954465196 0.5563299060 4289243563
-0.3000248373 -0.0949904770 0.5572808385 4289243563
-0.3000677824 -0.0943848118 0.5573605895 4289177770
-0.3001104593 -0.0937788859 0.5574398637 4289177513
-0.3001528978 -0.0931726992 0.5575186610 4289177513
-0.3001950681 -0.0925662518 0.5575969815 4288389537
-0.3002369404 -0.0919595584 0.5576748252 4288192158
-0.3002786040 -0.0913526043 0.5577521324 4290231487
-0.3007892072 -0.0908871964 0.5587006211 4291349968
-0.3008303642 -0.0902787894 0.5587770939 4291415761
-0.3008712828 -0.0896701440 0.5588530302 4291284175
-0.3004424870 -0.0889222994 0.5580565929 4291613141
-0.3000132740 -0.0881761163 0.5572593808 4292336864
-0.2991141379 -0.0872945487 0.5555892587 4292731624
-0.2982144654 -0.0864165500 0.5539181232 4292600038
-0.2968446016 -0.0854069665 0.5513736606 4292468198
-0.2959438264 -0.0845370516 0.5497005582 4292402405
-0.2945727706 -0.0835374743 0.5471538901 4292073440
-0.2936709523 -0.0826756656 0.5454788208 4291481303
-0.2927686274 -0.0818174332 0.5438027382 4291349719
-0.2928057611 -0.0812235326 0.5438717604 4292270821
-0.2928426564 -0.0806294158 0.5439403057 4291678423
-0.3695921302 -0.2074484527 0.6879177094 4290362822
-0.3692242503 -0.2064783871 0.6872329712 4290297029
-0.3683982193 -0.2052545995 0.6856954694 4291217872
-0.3684869707 -0.2045420110 0.6858606935 4291217872
-0.3681176305 -0.2035757154 0.6851732135 4290625733
-0.3672898114 -0.2023583502 0.6836324334 4290099389
-0.3660032153 -0.2008925974 0.6812376976 4290099389
-0.3651738763 -0.1996822059 0.6796940565 4290099389
-0.3625106812 -0.1974762529 0.6747370958 4290099644
-0.3644299209 -0.1977681071 0.6783093810 4290165437
-0.2842764258 -0.1536826640 0.5291205645 4290888905
-0.2820500433 -0.1518957764 0.5249766111 4291086284
-0.2811985612 -0.1508556902 0.5233917236 4291086284
-0.2812640965 -0.1503091902 0.5235137343 4291152077
-0.2804115713 -0.1492736936 0.5219269395 4291020491
-0.2804764807 -0.1487282217 0.5220477581 4290494147
-0.2805411816 -0.1481823623 0.5221682191 4290296768
-0.2806057036 -0.1476361305 0.5222882628 4290296768
-0.2806699872 -0.1470895261 0.5224078894 4290296768
-0.2816530168 -0.1470222324 0.5242375731 4290230975
-0.2812575102 -0.1462341398 0.5235014558 4290427840
-0.2822406292 -0.1461616009 0.5253313184 4290427840
-0.2832239568 -0.1460851133 0.5271615982 4290362047
-0.2837475836 -0.1457684040 0.5281362534 4290427840
-0.2847312093 -0.1456848830 0.5299670100 4290493633
-0.2857150435 -0.1455973983 0.5317981839 4290427840
-0.2866990268 -0.1455059350 0.5336297154 4290427840
-0.2881435454 -0.1456431597 0.5363183618 4290427840
-0.2891280353 -0.1455428600 0.5381507874 4290361793
-0.2901127040 -0.1454385668 0.5399835706 4290361793
-0.2910975814 -0.1453303099 0.5418166518 4290427840
-0.2920826375 -0.1452180594 0.5436501503 4290427840
-0.2926070392 -0.1448736787 0.5446262360 4290362047
-0.2931314409 -0.1445271075 0.5456023216 4290362047
-0.2936558425 -0.1441783607 0.5465782881 4290230461
-0.2941801846 -0.1438274384 0.5475542545 4290230461
-0.2947044969 -0.1434743255 0.5485302210 4290296254
-0.2947674990 -0.1428954005 0.5486474633 4290296254
-0.2952916622 -0.1425388306 0.5496230721 4290230461
-0.2953543067 -0.1419582665 0.5497396588 4290230461
-0.2954167128 -0.1413773298 0.5498558283 4290165182
-0.2954788804 -0.1407960355 0.5499715209 4290165182
-0.2955408394 -0.1402143687 0.5500868559 4290230979
-0.2956025600 -0.1396323293 0.5502017140 4290033600
-0.2956640422 -0.1390499473 0.5503161550 4290033598
-0.2957252860 -0.1384671777 0.5504301786 4290033598
-0.2957863212 -0.1378840655 0.5505437851 4290624444
-0.2958471179 -0.1373005807 0.5506569147 4289703342
-0.2959076762 -0.1367167383 0.5507696271 4288582795
-0.2959679961 -0.1361325383 0.5508819222 4288714381
-0.2960280776 -0.1355479807 0.5509937406 4289370762
-0.2960879207 -0.1349630803 0.5511051416 4289107590
-0.2961475551 -0.1343778074 0.5512161255 4289041536
-0.2966697514 -0.1340012401 0.5521880984 4288712571
-0.2971919179 -0.1336224973 0.5531600118 4288383345
-0.2977140248 -0.1332415640 0.5541318059 4288580724
-0.2982360721 -0.1328584403 0.5551034808 4288909172
-0.2987580597 -0.1324731410 0.5560750365 4288646000
-0.2992800176 -0.1320856661 0.5570465326 4288383082
-0.2998018861 -0.1316959858 0.5580179095 4288843633
-0.2998602390 -0.1311015040 0.5581265092 4288711793
-0.3003819287 -0.1307083964 0.5590975285 4288185449
-0.3009035289 -0.1303130835 0.5600683689 4288317037
-0.3009613156 -0.1297157258 0.5601759553 4289172346
-0.3005550802 -0.1289190650 0.5594198108 4289830277
-0.3001483977 -0.1281239241 0.5586628914 4289961863
-0.3002052903 -0.1275273710 0.5587687492 4290224781
-0.2997978628 -0.1267343163 0.5580104589 4290224781
-0.2998541892 -0.1261380166 0.5581153035 4290027404
-0.2999102771 -0.1255413890 0.5582196712 4289895818
-0.2999661267 -0.1249444187 0.5583235621 4290224785
-0.3000217080 -0.1243471205 0.5584270358 4290816922
-0.3000770509 -0.1237494946 0.5585300326 4290882715
-0.3019434810 -0.1076596752 0.5620040298 4289507505
-0.3015250862 -0.1068869308 0.5612252951 4289573296
-0.3015731275 -0.1062802970 0.5613146424 4289507503
-0.3016208708 -0.1056733727 0.5614035726 4289638575
-0.3016684055 -0.1050661579 0.5614920259 4289638575
-0.3012485802 -0.1042969599 0.5607106686 4289637549
-0.3008283973 -0.1035293564 0.5599285364 4289637549
-0.3008749783 -0.1029231772 0.5600152612 4289506478
-0.2999867797 -0.1019989550 0.5583620071 4289572271
-0.2995653450 -0.1012361646 0.5575776696 4289506735
-0.2991435528 -0.1004749760 0.5567925572 4289506735
-0.2991887927 -0.0998714492 0.5568767786 4289440942
-0.2992338240 -0.0992676541 0.5569605827 4289440942
-0.2988109291 -0.0985094160 0.5561734438 4289440685
-0.2988553643 -0.0979060233 0.5562561154 4289440685
-0.2988995016 -0.0973023549 0.5563383102 4289440685
-0.2989434004 -0.0966984257 0.5564200282 4289374892
-0.2989870608 -0.0960942283 0.5565012693 4289309356
-0.2990304232 -0.0954897627 0.5565819740 4289243563
-0.2990735471 -0.0948850438 0.5566622615 4289177770
-0.2995844781 -0.0944276005 0.5576132536 4289111977
-0.2996271551 -0.0938214064 0.5576926470 4289177770
-0.2996695340 -0.0932149589 0.5577715635 4289177770
-0.2997116745 -0.0926082507 0.5578500032 4288586662
-0.2997535467 -0.0920012966 0.5579279065 4288191904
-0.2997951508 -0.0913940817 0.5580053926 4289639350
-0.3003049791 -0.0909284651 0.5589542985 4291218382
-0.3003461361 -0.0903197974 0.5590308905 4291349969
-0.3003869951 -0.0897108838 0.5591069460 4291218383
-0.2999589145 -0.0889627188 0.5583102107 4291481555
-0.2995304465 -0.0882162005 0.5575127006 4292205278
-0.2976951599 -0.0870600417 0.5540966988 4292468452
-0.2986723483 -0.0867281556 0.5559155345 4292600038
-0.2977737784 -0.0858514234 0.5542430282 4292599784
-0.2968747020 -0.0849782676 0.5525695682 4292599784
-0.2955060303 -0.0839753821 0.5500221252 4292205026
-0.2946058810 -0.0831103325 0.5483466387 4291547096
-0.2937052250 -0.0822488591 0.5466702580 4291218133
-0.2928040624 -0.0813909695 0.5449929237 4292139235
-0.2923716903 -0.0806661546 0.5441881418 4292467939
-0.3675280809 -0.2074788809 0.6854929924 4292534763
-0.3671608865 -0.2065107226 0.6848081350 4290362822
-0.3667932153 -0.2055438161 0.6841223836 4290823373
-0.3664250672 -0.2045781761 0.6834357381 4291218131
-0.3660564423 -0.2036137730 0.6827481985 4290954959
-0.3656873405 -0.2026506513 0.6820597649 4290362563
-0.3653177321 -0.2016887814 0.6813703775 4290033598
-0.3644903004 -0.2004766315 0.6798271537 4290033596
-0.3641196191 -0.1995181888 0.6791357398 4290033596
-0.3632909358 -0.1983112395 0.6775901318 4290165182
-0.3606308997 -0.1961118728 0.6726287603 4290230975
-0.2815231979 -0.1525095254 0.5250814557 4290954698
-0.2802157104 -0.1512205154 0.5226427913 4291217870
-0.2816552222 -0.1514136940 0.5253277421 4291152077
-0.2798886001 -0.1498839706 0.5220327377 4291152077
-0.2799536884 -0.1493386626 0.5221540928 4290954698
-0.2800185382 -0.1487929821 0.5222750902 4290428354
-0.2800832093 -0.1482469290 0.5223956704 4290230975
-0.2806061506 -0.1479422152 0.5233711004 4290362561
-0.2807346582 -0.1468464285 0.5236107111 4290296768
-0.2812573910 -0.1465370059 0.5245857239 4290427839
-0.2822390795 -0.1464635730 0.5264166594 4290427839
-0.2827619314 -0.1461489350 0.5273918509 4290427839
-0.2837438881 -0.1460684687 0.5292233825 4290427839
-0.2847260833 -0.1459840536 0.5310552716 4290427839
-0.2857084274 -0.1458956450 0.5328875780 4290362046
-0.2866910100 -0.1458032727 0.5347201824 4290362047
-0.2881332934 -0.1459396929 0.5374102592 4290362047
-0.2891163528 -0.1458384693 0.5392438173 4290362047
-0.2900995910 -0.1457332671 0.5410776734 4290362047
-0.2910830081 -0.1456240714 0.5429118872 4290427840
-0.2916066647 -0.1452817470 0.5438885689 4290427840
-0.2925903201 -0.1451654881 0.5457232594 4290362047
-0.2931140363 -0.1448178887 0.5467000604 4290296254
-0.2936376929 -0.1444681138 0.5476768017 4290296254
-0.2937010229 -0.1438906193 0.5477948785 4290296254
-0.2942245305 -0.1435373873 0.5487713218 4290165182
-0.2942874730 -0.1429582387 0.5488886833 4290099389
-0.2943502069 -0.1423787326 0.5490056872 4290099389
-0.2944127023 -0.1417988390 0.5491222739 4290099389
-0.2944749594 -0.1412185878 0.5492383838 4290099644
-0.2945370078 -0.1406379640 0.5493540764 4290165437
-0.2950598300 -0.1402761638 0.5503292680 4290165186
-0.2951215208 -0.1396938860 0.5504443049 4290230979
-0.2951829433 -0.1391112655 0.5505588651 4290296254
-0.2947828472 -0.1383118182 0.5498126149 4290296254
-0.2948437333 -0.1377293766 0.5499261618 4289965996
-0.2949043810 -0.1371465772 0.5500392914 4288650136
-0.2949647903 -0.1365634203 0.5501520038 4288581765
-0.2950249612 -0.1359799057 0.5502642393 4289239695
-0.2950849235 -0.1353960335 0.5503760576 4289304710
-0.2956065238 -0.1350227743 0.5513489246 4289041538
-0.2952041328 -0.1342272162 0.5505983829 4288910204
-0.2961875200 -0.1340605617 0.5524325371 4288383860
-0.2967088819 -0.1336816698 0.5534049869 4288647029
-0.2972301841 -0.1333005875 0.5543772578 4288778615
-0.2977514565 -0.1329173297 0.5553494692 4288382569
-0.2987350821 -0.1327373534 0.5571841002 4288579948
-0.2992563248 -0.1323488057 0.5581563115 4288712047
-0.2993148565 -0.1317544281 0.5582655072 4288448875
-0.2998358905 -0.1313624233 0.5592373013 4288448621
-0.2998940647 -0.1307664365 0.5593457818 4288909172
-0.2999519706 -0.1301700920 0.5594537854 4289303932
-0.3000096381 -0.1295734048 0.5595613718 4289172346
-0.3000670969 -0.1289763898 0.5596684813 4288448624
-0.2996611297 -0.1281809062 0.5589113235 4287724901
-0.2997179925 -0.1275841147 0.5590173602 4287264866
-0.2993112803 -0.1267907172 0.5582587719 4287396452
-0.2993675470 -0.1261941791 0.5583637953 4287461993
-0.2989600897 -0.1254028827 0.5576037765 4287330407
-0.2990157902 -0.1248065904 0.5577076674 4287264616
-0.2990712523 -0.1242099777 0.5578111410 4287659374
-0.2986627221 -0.1234213784 0.5570491552 4288383097
-0.2987175882 -0.1228250265 0.5571514964 4288843648
-0.2987722456 -0.1222283393 0.5572534204 4289830791
-0.2989883423 -0.1198383644 0.5576564670 4287922028
-0.2997175455 -0.1170250997 0.5590165854 4289631868
-0.2997697890 -0.1164242849 0.5591139793 4288645743
-0.2998217642 -0.1158231497 0.5592109561 4288382571
-0.3004923761 -0.1135913581 0.5604617000 4289172097
-0.3014549017 -0.1077081338 0.5622569919 4289508018
-0.3015032113 -0.1071005911 0.5623471141 4289508018
-0.3010852039 -0.1063281596 0.5615674853 4289376432
-0.3011329472 -0.1057209820 0.5616564751 4289638321
-0.3011804223 -0.1051135063 0.5617450476 4289638321
-0.3012276590 -0.1045057476 0.5618331432 4289703342
-0.3008082509 -0.1037368774 0.5610508323 4289769135
-0.3008548617 -0.1031294912 0.5611377954 4289572271
-0.3004347086 -0.1023628786 0.5603541732 4289572271
-0.3000141680 -0.1015978679 0.5595698357 4289638064
-0.2995932102 -0.1008344665 0.5587846637 4289638064
-0.2991718650 -0.1000726745 0.5579987764 4289638064
-0.2992169261 -0.0994676724 0.5580828190 4289572271
-0.2987948358 -0.0987081677 0.5572955608 4289440685
-0.2983723581 -0.0979502797 0.5565075874 4289440685
-0.2984164655 -0.0973463506 0.5565899014 4289440685
-0.2984603345 -0.0967421606 0.5566716790 4289440685
-0.2989710867 -0.0962881520 0.5576243401 4289375149
-0.2985472977 -0.0955329761 0.5568338633 4289243563
-0.2985903919 -0.0949279964 0.5569142103 4289177770
-0.2986331880 -0.0943227485 0.5569940805 4289177770
-0.2986757755 -0.0937172398 0.5570734739 4289177770
-0.2987180650 -0.0931114778 0.5571523905 4289111977
-0.2987600863 -0.0925054550 0.5572307706 4288783784
-0.2988018692 -0.0918991864 0.5573086739 4288454819
-0.2988433838 -0.0912926570 0.5573861003 4289112749
-0.2988846302 -0.0906858742 0.5574630499 4291086539
-0.2998612225 -0.0903607756 0.5592845082 4291415504
-0.3003699183 -0.0898916125 0.5602333546 4291283918
-0.2999426425 -0.0891421661 0.5594363809 4291481555
-0.2995149791 -0.0883943737 0.5586386919 4292139485
-0.2990868986 -0.0876482427 0.5578402877 4292402659
-0.2981903255 -0.0867675543 0.5561680794 4292600038
-0.2954205275 -0.0853493959 0.5510019660 4292665831
-0.2963956296 -0.0850168914 0.5528207421 4292600038
-0.2964341342 -0.0844136328 0.5528925061 4292270819
-0.2941305637 -0.0831481293 0.5485960245 4291744475
-0.2932313979 -0.0822862685 0.5469189286 4291218131
-0.2923317254 -0.0814280063 0.5452409387 4291876061
-0.2919000685 -0.0807028636 0.5444358587 4292402146
-0.3655576110 -0.2067948878 0.6832331419 4292271591
-0.3647348583 -0.2055720389 0.6816954017 4290232008
-0.3643674254 -0.2046083063 0.6810086966 4290758352
-0.3639995158 -0.2036458254 0.6803210378 4291152338
-0.3640873730 -0.2029389143 0.6804852486 4290757580
-0.3637185991 -0.2019780576 0.6797960401 4290099904
-0.3633493483 -0.2010184824 0.6791058779 4289836732
-0.3629796207 -0.2000601590 0.6784148812 4289967805
-0.3621527255 -0.1988523602 0.6768693924 4290033598
-0.3613251150 -0.1976476014 0.6753225923 4290165184
-0.2828232348 -0.1541191638 0.5286012888 4290362563
-0.3587538004 -0.1947510839 0.6705167294 4290954700
-0.2797566354 -0.1512861699 0.5228697062 4291349458
-0.2802793980 -0.1509868354 0.5238467455 4291283663
-0.2798874974 -0.1501945108 0.5231143236 4291152077
-0.2794951797 -0.1494035870 0.5223810673 4290954698
-0.2795599997 -0.1488576978 0.5225022435 4290362561
-0.2796246111 -0.1483114362 0.5226230025 4290165182
-0.2792312503 -0.1475229412 0.5218877792 4290428354
-0.2802110612 -0.1474587023 0.5237190723 4290362561
-0.2807331383 -0.1471504569 0.5246948004 4290362561
-0.2803390324 -0.1463617384 0.5239582658 4290493632
-0.2817772329 -0.1465274543 0.5266462564 4290427839
-0.2827575505 -0.1464500576 0.5284785032 4290427839
-0.2832797170 -0.1461322308 0.5294544101 4290427839
-0.2842603326 -0.1460478008 0.5312871933 4290427839
-0.2852411568 -0.1459593922 0.5331203938 4290362046
-0.2866808474 -0.1461007744 0.5358111858 4290427840
-0.2876621485 -0.1460035145 0.5376452804 4290362047
-0.2886436582 -0.1459022760 0.5394797325 4290427840
-0.2896253467 -0.1457970440 0.5413144827 4290427840
-0.2906072140 -0.1456878334 0.5431495905 4290296254
-0.2911300659 -0.1453453898 0.5441268086 4290362047
-0.2921121716 -0.1452291161 0.5459624529 4290231230
-0.2926350832 -0.1448813975 0.5469397306 4290231230
-0.2931579649 -0.1445314884 0.5479170084 4290231230
-0.2932212055 -0.1439537704 0.5480352640 4290165437
-0.2932842374 -0.1433756799 0.5481530428 4290165182
-0.2938068509 -0.1430210322 0.5491297841 4290165182
-0.2938695252 -0.1424412876 0.5492469072 4290165182
-0.2939319611 -0.1418611705 0.5493636131 4290099389
-0.2939941883 -0.1412806958 0.5494799018 4290099644
