VERSION 0.7
FIELDS x y z rgba
SIZE 4 4 4 4
TYPE F F F U
COUNT 1 1 1 1
WIDTH 920
HEIGHT 1
VIEWPOINT 0.0 0.0 0.0 1.0 0.0 0.0 0.0
POINTS 920
DATA ascii
-0.2817755044 -0.1566046327 0.5987299681 4288587945
-0.2818388641 -0.1559744775 0.5988646150 4288653738
-0.2819020152 -0.1553438902 0.5989987850 4288719531
-0.2819649279 -0.1547128856 0.5991324782 4288719531
-0.2820276320 -0.1540814489 0.5992656350 4288851117
-0.2816752493 -0.1532239467 0.5985168815 4288982703
-0.2817373872 -0.1525925994 0.5986489654 4289048497
-0.2817992866 -0.1519608349 0.5987804532 4289180083
-0.2814458609 -0.1511057913 0.5980294943 4289311669
-0.2815072238 -0.1504741460 0.5981598496 4289509048
-0.2815683484 -0.1498420686 0.5982897282 4289772220
-0.2816292346 -0.1492095888 0.5984191298 4290035392
-0.2816899121 -0.1485767066 0.5985480547 4290298564
-0.2817503214 -0.1479434073 0.5986764431 4290627529
-0.2818105221 -0.1473097056 0.5988043547 4290824908
-0.2818704844 -0.1466755867 0.5989317894 4290890701
-0.2819302380 -0.1460410804 0.5990587473 4291153360
-0.2819897234 -0.1454061568 0.5991851687 4291350739
-0.2820490003 -0.1447708458 0.5993110538 4291548118
-0.2816919386 -0.1439225376 0.5985524058 4291679704
-0.2817506492 -0.1432873607 0.5986771584 4291942876
-0.2813928723 -0.1424410790 0.5979169011 4292140255
-0.2814510167 -0.1418060511 0.5980404615 4292205794
-0.2815089226 -0.1411706209 0.5981634855 4292403173
-0.2811500728 -0.1403269172 0.5974010229 4292600552
-0.2807908356 -0.1394847035 0.5966376662 4292403173
-0.2804311812 -0.1386439800 0.5958734751 4291811036
-0.2800711393 -0.1378047615 0.5951083899 4290889934
-0.2792938054 -0.1367629319 0.5934567451 4289902525
-0.2785159051 -0.1357244700 0.5918037891 4289244595
-0.2773204148 -0.1344871819 0.5892636180 4290034111
-0.2765413225 -0.1334564835 0.5876080990 4290165697
-0.2753444314 -0.1322288364 0.5850649476 4290231488
-0.2741468549 -0.1310064793 0.5825202465 4290099902
-0.2725311816 -0.1295910031 0.5790871382 4290165182
-0.2709146142 -0.1281827092 0.5756521821 4290362561
-0.2697146833 -0.1269782186 0.5731025338 4290362561
-0.2689316273 -0.1259746552 0.5714386702 4290230975
-0.2677303553 -0.1247798726 0.5688861609 4290756802
-0.2673638761 -0.1239778548 0.5681074262 4290559423
-0.2665791512 -0.1229846328 0.5664400458 4288783012
-0.2662118375 -0.1221866757 0.5656595230 4288190875
-0.2666800916 -0.1217720062 0.5666545033 4289111977
-0.2667301893 -0.1211651713 0.5667609572 4288717219
-0.2667800784 -0.1205580011 0.5668669939 4288783266
-0.2672479749 -0.1201385036 0.5678611398 4288651680
-0.2677157521 -0.1197167560 0.5688551664 4289112231
-0.2681834698 -0.1192927733 0.5698489547 4289901747
-0.2690695822 -0.1190516874 0.5717318058 4290493371
-0.2695372105 -0.1186222583 0.5727254748 4291217094
-0.2700047791 -0.1181905866 0.5737189054 4289901232
-0.2704722285 -0.1177566648 0.5747122169 4288387993
-0.2705208361 -0.1171391681 0.5748155117 4290032818
-0.2701503932 -0.1163409650 0.5740283728 4291282885
-0.2693606317 -0.1153649315 0.5723502040 4288715671
-0.2681513429 -0.1142139360 0.5697807074 4284307540
-0.2673604488 -0.1132458672 0.5681001544 4285754986
-0.2665690184 -0.1122813076 0.5664184690 4287860362
-0.2657770514 -0.1113202646 0.5647356510 4288584085
-0.2649845481 -0.1103627384 0.5630517602 4287005053
-0.2646108866 -0.1095824018 0.5622577667 4286478709
-0.2604620159 -0.1072493419 0.5534420609 4286544502
-0.2626039386 -0.1075113267 0.5579932928 4286610295
-0.2601310909 -0.1058847979 0.5527388453 4286347123
-0.2589160502 -0.1047789678 0.5501571298 4287860363
-0.2577003837 -0.1036786139 0.5475739837 4288386707
-0.2590027153 -0.1035910994 0.5503412485 4286412917
-0.2582060099 -0.1026628539 0.5486483574 4284965471
-0.2569888532 -0.1015722081 0.5460621119 4284504919
-0.2574509978 -0.1011470631 0.5470440984 4284439126
-0.2574930191 -0.1005556583 0.5471333265 4286347381
-0.2579548955 -0.1001270413 0.5481148362 4286742139
-0.2579964995 -0.0995341018 0.5482032299 4286939520
-0.2598014772 -0.0983903930 0.5520384908 4289374379
-0.2598424256 -0.0977924392 0.5521255136 4287466384
-0.2615652084 -0.0978232995 0.5557861328 4283847769
-0.2628676891 -0.0976898298 0.5585537553 4282597960
-0.2637496889 -0.0973949209 0.5604278445 4281347893
-0.2646316886 -0.0970958620 0.5623019338 4280163618
-0.2659344673 -0.0969460383 0.5650702119 4279966239
-0.2672374249 -0.0967901126 0.5678387284 4280887852
-0.2698032260 -0.0970824510 0.5732907057 4286940808
-0.2715275884 -0.0970618874 0.5769547224 4291612365
-0.2749363780 -0.0976313278 0.5841978192 4293849327
-0.2708573937 -0.2034521103 0.5768921375 4291153110
-0.2709362209 -0.2028701752 0.5770599842 4291021524
-0.2710148692 -0.2022877187 0.5772275329 4290955731
-0.2714985609 -0.2020062655 0.5782577395 4290889938
-0.2719823122 -0.2017225623 0.5792880654 4290758352
-0.2720606625 -0.2011368424 0.5794548988 4290626766
-0.2721388042 -0.2005506307 0.5796213746 4290429387
-0.2722167969 -0.1999639124 0.5797874331 4290363594
-0.2722945809 -0.1993766725 0.5799531341 4290429387
-0.2723721862 -0.1987889409 0.5801184177 4290429387
-0.2724495828 -0.1982007176 0.5802832842 4290364107
-0.2725268304 -0.1976119876 0.5804477930 4290298314
-0.2730101347 -0.1973163784 0.5814771652 4290166728
-0.2730871141 -0.1967257559 0.5816411376 4290100935
-0.2731639147 -0.1961346567 0.5818046927 4290035142
-0.2736470997 -0.1958340257 0.5828338265 4289969349
-0.2737236321 -0.1952410489 0.5829968452 4290035140
-0.2742068172 -0.1949367821 0.5840259194 4290035140
-0.2738761306 -0.1940535754 0.5833215714 4289904067
-0.2743591368 -0.1937465668 0.5843503475 4289838274
-0.2744350135 -0.1931507140 0.5845119357 4289772481
-0.2745106816 -0.1925543547 0.5846731663 4289706688
-0.2745861709 -0.1919575185 0.5848339200 4289706175
-0.2750689983 -0.1916441023 0.5858622789 4289706175
-0.2747365832 -0.1907623708 0.5851542950 4289640382
-0.2748115063 -0.1901640594 0.5853137970 4289640382
-0.2752940357 -0.1898465157 0.5863416195 4289574589
-0.2753686905 -0.1892463267 0.5865005851 4289443003
-0.2754431069 -0.1886456609 0.5866590738 4289311417
-0.2755173445 -0.1880445182 0.5868172050 4289179831
-0.2759996653 -0.1877205670 0.5878444910 4289114038
-0.2760736346 -0.1871175617 0.5880020261 4289114038
-0.2761473954 -0.1865140498 0.5881590843 4288982452
-0.2762209475 -0.1859100759 0.5883157849 4288982452
-0.2767030001 -0.1855797321 0.5893425345 4288982452
-0.2767762840 -0.1849738955 0.5894985795 4288850866
-0.2768493295 -0.1843675673 0.5896541476 4288785073
-0.2773312330 -0.1840322018 0.5906805396 4288653487
-0.2774040103 -0.1834240407 0.5908355713 4288521901
-0.2774765790 -0.1828153878 0.5909900665 4288456108
-0.2775489092 -0.1822062582 0.5911442041 4288455593
-0.2780305445 -0.1818644851 0.5921700001 4288455593
-0.2781026065 -0.1812535077 0.5923234820 4288324009
-0.2777647674 -0.1803760082 0.5916039348 4288192423
-0.2778363228 -0.1797649860 0.5917562842 4288126630
-0.2783175409 -0.1794177294 0.5927812457 4288060837
-0.2783887684 -0.1788048446 0.5929329991 4287995042
-0.2784597874 -0.1781915128 0.5930842757 4287995042
-0.2785305977 -0.1775777042 0.5932350755 4287863456
-0.2781909108 -0.1767027974 0.5925115347 4287731870
-0.2778507769 -0.1758292466 0.5917871594 4287666077
-0.2783312798 -0.1754746586 0.5928105712 4287666077
-0.2784011662 -0.1748598814 0.5929593444 4287600284
-0.2784708142 -0.1742446572 0.5931077600 4287600284
-0.2785402834 -0.1736289710 0.5932556987 4287600284
-0.2781985998 -0.1727576405 0.5925279260 4287534491
-0.2786785662 -0.1723962128 0.5935502052 4287534491
-0.2787473798 -0.1717791408 0.5936967731 4287534491
-0.2788159847 -0.1711616218 0.5938428640 4287534491
-0.2788843513 -0.1705436409 0.5939885378 4287600284
-0.2789525390 -0.1699251980 0.5941337347 4287534491
-0.2790205181 -0.1693063229 0.5942785144 4287468698
-0.2790882587 -0.1686869711 0.5944228172 4287534491
-0.2791557908 -0.1680671871 0.5945666432 4287600284
-0.2792231143 -0.1674469560 0.5947099924 4287666331
-0.2792901993 -0.1668262631 0.5948529243 4287600538
-0.2793570757 -0.1662051380 0.5949953794 4287666331
-0.2794237435 -0.1655835509 0.5951373577 4287666331
-0.2794902027 -0.1649615318 0.5952788591 4287666331
-0.2799687386 -0.1645814627 0.5962980986 4287666331
-0.2800348401 -0.1639576256 0.5964389443 4287797917
-0.2796882093 -0.1630928069 0.5957006216 4287863710
-0.2797537744 -0.1624690294 0.5958402753 4287864223
-0.2798191309 -0.1618448049 0.5959794521 4287864223
-0.2798842490 -0.1612201333 0.5961181521 4287995809
-0.2799491584 -0.1605950445 0.5962564349 4288127395
-0.2800138295 -0.1599695086 0.5963941813 4288193188
-0.2800782919 -0.1593435407 0.5965314507 4288127395
-0.2801425457 -0.1587171555 0.5966682434 4288127395
-0.2802065313 -0.1580903232 0.5968046188 4288324774
-0.2802703381 -0.1574630737 0.5969404578 4288390567
-0.2803339064 -0.1568353921 0.5970758200 4288456360
-0.2803972363 -0.1562072784 0.5972107649 4288587946
-0.2804603577 -0.1555787474 0.5973451734 4288587946
-0.2805232406 -0.1549497843 0.5974791050 4288522153
-0.2805858850 -0.1543204039 0.5976125598 4288587946
-0.2806483209 -0.1536906064 0.5977455378 4288785325
-0.2802965045 -0.1528346241 0.5969961882 4288851118
-0.2803583741 -0.1522049159 0.5971279740 4288916911
-0.2804200351 -0.1515747905 0.5972593427 4288982704
-0.2804814577 -0.1509442478 0.5973901153 4289114290
-0.2805426717 -0.1503133029 0.5975204706 4289245876
-0.2801891565 -0.1494608372 0.5967675447 4289509048
-0.2802498043 -0.1488299966 0.5968967080 4289772220
-0.2803102136 -0.1481987387 0.5970253944 4290101185
-0.2803703845 -0.1475670785 0.5971536040 4290364357
-0.2804303467 -0.1469350159 0.5972812772 4290561736
-0.2804900706 -0.1463025361 0.5974084735 4290693322
-0.2805495560 -0.1456696689 0.5975351930 4290956494
-0.2810239196 -0.1452509463 0.5985454917 4291153873
-0.2810830176 -0.1446163207 0.5986713767 4291285459
-0.2807266414 -0.1437686384 0.5979123116 4291548631
-0.2803698182 -0.1429224312 0.5971523523 4291811803
-0.2804280519 -0.1422884911 0.5972763896 4291877596
-0.2800705135 -0.1414443105 0.5965148807 4292008415
-0.2801282108 -0.1408105344 0.5966377258 4292205794
-0.2801856399 -0.1401763558 0.5967600942 4292337380
-0.2798270583 -0.1393347681 0.5959963202 4292403173
-0.2794680595 -0.1384946704 0.5952317119 4292468966
-0.2791086733 -0.1376560777 0.5944662690 4292205794
-0.2787488699 -0.1368189752 0.5936999321 4291284178
-0.2783886790 -0.1359833926 0.5929327607 4289968318
-0.2776118517 -0.1349469870 0.5912782550 4289639351
-0.2768344879 -0.1339139938 0.5896224976 4289639351
-0.2756401598 -0.1326839775 0.5870787501 4290230975
-0.2744450867 -0.1314592510 0.5845334530 4290362561
-0.2728327811 -0.1300413162 0.5810993910 4290230975
-0.2712195814 -0.1286305785 0.5776634812 4290230975
-0.2704388797 -0.1276203394 0.5760007501 4290231230
-0.2692408860 -0.1264178604 0.5734491348 4290231230
-0.2684589922 -0.1254154444 0.5717838407 4290625986
-0.2676765621 -0.1244164854 0.5701173544 4290297021
-0.2673106194 -0.1236138120 0.5693379045 4287731094
-0.2665271759 -0.1226207986 0.5676692724 4286809992
-0.2665775418 -0.1220131293 0.5677765608 4287731094
-0.2670449317 -0.1215951070 0.5687720180 4287928473
-0.2670949101 -0.1209858060 0.5688784719 4288651680
-0.2671446800 -0.1203761548 0.5689844489 4288256922
-0.2676116824 -0.1199533045 0.5699791312 4288849059
-0.2680785954 -0.1195282042 0.5709736347 4289441196
-0.2689630985 -0.1192860901 0.5728574991 4290033331
-0.2694299221 -0.1188555434 0.5738517642 4290362296
-0.2698966861 -0.1184227541 0.5748459101 4289506987
-0.2699455023 -0.1178053543 0.5749498606 4289638573
-0.2699940503 -0.1171876192 0.5750532746 4290953920
-0.2696243525 -0.1163891032 0.5742658377 4291151299
-0.2688361704 -0.1154126823 0.5725871325 4289044636
-0.2680474520 -0.1144397631 0.5709072948 4285228642
-0.2672581971 -0.1134703532 0.5692262650 4286545015
-0.2668867409 -0.1126810685 0.5684350729 4288847770
-0.2656781077 -0.1115420610 0.5658608675 4288847770
-0.2653057277 -0.1107578948 0.5650677681 4286742394
-0.2645144463 -0.1098015979 0.5633823872 4286939260
-0.2637226284 -0.1088488251 0.5616959333 4286412916
-0.2608368993 -0.1070405096 0.5555496812 4286347123
-0.2596249282 -0.1059287637 0.5529683232 4287728776
-0.2588311136 -0.1049923822 0.5512776375 4289110687
-0.2609690428 -0.1052420363 0.5558311343 4287268483
-0.2593367696 -0.1039700881 0.5523546338 4285755244
-0.2581227720 -0.1028725430 0.5497689247 4284768349
-0.2569080889 -0.1017804891 0.5471818447 4284768091
-0.2569502890 -0.1011891440 0.5472716689 4285426021
-0.2569922507 -0.1005975083 0.5473610759 4286611323
-0.2570339739 -0.1000055894 0.5474499464 4287466632
-0.2570754588 -0.0994133800 0.5475382805 4288650908
-0.2579555809 -0.0991432965 0.5494129062 4289966768
-0.2575772405 -0.0983883366 0.5486070514 4288124312
-0.2576180995 -0.0977943093 0.5486940742 4284571490
-0.2610158324 -0.0984664410 0.5559308529 4282071616
-0.2610567510 -0.0978641063 0.5560179949 4280360998
-0.2623567581 -0.0977305844 0.5587868094 4280689963
-0.2632370591 -0.0974355713 0.5606617332 4280821549
-0.2636974752 -0.0969819725 0.5616423488 4280953648
-0.2649977207 -0.0968330652 0.5644116998 4281348406
-0.2658780515 -0.0965255722 0.5662867427 4280427303
-0.2675985992 -0.0965169519 0.5699512959 4285559157
-0.2688992620 -0.0963497311 0.5727214813 4291612111
-0.2706202567 -0.0963259786 0.5763869882 4294178038
-0.2696700692 -0.2017612308 0.5757251382 4291153110
-0.2701526284 -0.2014814466 0.5767554045 4291153110
-0.2702307105 -0.2008986771 0.5769220591 4291087317
-0.2707132399 -0.2006152719 0.5779522657 4291021524
-0.2707910836 -0.2000306249 0.5781184435 4290889938
-0.2708687186 -0.1994454563 0.5782842040 4290824145
-0.2705411911 -0.1985625476 0.5775849223 4290889938
-0.2710234821 -0.1982736439 0.5786145926 4290889938
-0.2711005807 -0.1976869702 0.5787791610 4290955731
-0.2711774707 -0.1970998049 0.5789433718 4290955731
-0.2716596723 -0.1968058944 0.5799728036 4290824658
-0.2717363238 -0.1962168515 0.5801364779 4290758865
-0.2718127966 -0.1956273019 0.5802997351 4290758865
-0.2718890607 -0.1950372756 0.5804625750 4290693072
-0.2723710835 -0.1947369576 0.5814916492 4290758863
-0.2724471092 -0.1941450536 0.5816538930 4290693070
-0.2725229263 -0.1935526431 0.5818157792 4290693070
-0.2725985646 -0.1929597557 0.5819773078 4290627277
-0.2730803788 -0.1926530451 0.5830059052 4290496204
-0.2731557488 -0.1920582801 0.5831668377 4290496204
-0.2732309401 -0.1914630085 0.5833273530 4290430411
-0.2737126052 -0.1911512911 0.5843557119 4290430411
-0.2737875283 -0.1905541569 0.5845156312 4290429898
-0.2738622427 -0.1899565458 0.5846751332 4290364105
-0.2739367485 -0.1893584430 0.5848342180 4290298312
-0.2744182050 -0.1890403181 0.5858621001 4290232519
-0.2740851939 -0.1881607622 0.5851511359 4290232519
-0.2741591334 -0.1875611991 0.5853089690 4290166726
-0.2746403217 -0.1872389466 0.5863363147 4290100933
-0.2747139931 -0.1866375208 0.5864935517 4290035140
-0.2751951218 -0.1863116175 0.5875207186 4289969347
-0.2748606801 -0.1854332089 0.5868067145 4289903554
-0.2753416300 -0.1851045638 0.5878335238 4289903554
-0.2758226097 -0.1847736537 0.5888603926 4289837761
-0.2758954763 -0.1841680259 0.5890159607 4289771968
-0.2759681642 -0.1835619211 0.5891711116 4289640382
-0.2760406137 -0.1829553396 0.5893258452 4289508796
-0.2765213251 -0.1826180220 0.5903521180 4289443003
-0.2765935063 -0.1820095927 0.5905061960 4289442490
-0.2766654789 -0.1814006865 0.5906597972 4289442490
-0.2767372131 -0.1807912886 0.5908130407 4289310904
-0.2763999104 -0.1799152941 0.5900928378 4289245111
-0.2768801153 -0.1795711070 0.5911180973 4289179318
-0.2769512832 -0.1789603084 0.5912699699 4289113525
-0.2770222127 -0.1783490330 0.5914214253 4288981939
-0.2770929337 -0.1777372956 0.5915724635 4288981939
-0.2771634758 -0.1771250814 0.5917230248 4288850351
-0.2772337794 -0.1765124053 0.5918731093 4288784558
-0.2768942714 -0.1756394356 0.5911483169 4288718767
-0.2769640684 -0.1750267446 0.5912973285 4288652974
-0.2770336568 -0.1744135767 0.5914459229 4288587179
-0.2771030366 -0.1737999469 0.5915940404 4288521386
-0.2771722078 -0.1731858701 0.5917416811 4288521386
-0.2772411704 -0.1725713164 0.5918889046 4288521386
-0.2768996954 -0.1717019379 0.5911598802 4288324522
-0.2773784399 -0.1713408530 0.5921819806 4288192936
-0.2774467766 -0.1707249433 0.5923278332 4288192934
-0.2775148749 -0.1701085716 0.5924732685 4288127141
-0.2775827944 -0.1694917530 0.5926182270 4288126628
-0.2776504755 -0.1688744724 0.5927627087 4287995042
-0.2777179480 -0.1682567596 0.5929067731 4287995042
-0.2777851820 -0.1676385701 0.5930503607 4288060835
-0.2778522372 -0.1670199484 0.5931934714 4288060835
-0.2779190540 -0.1664008796 0.5933361053 4287995042
-0.2779856622 -0.1657813638 0.5934783220 4287929503
-0.2780520320 -0.1651614010 0.5936200619 4287929503
-0.2781182230 -0.1645410061 0.5937613249 4287929503
-0.2785956860 -0.1641626358 0.5947806835 4287929503
-0.2786615193 -0.1635404229 0.5949212313 4287929503
-0.2787271440 -0.1629177779 0.5950613022 4287863710
-0.2783807218 -0.1620549709 0.5943217874 4287930016
-0.2784458101 -0.1614323705 0.5944607258 4287864223
-0.2785106599 -0.1608093232 0.5945991874 4287930016
-0.2785753012 -0.1601858437 0.5947371721 4288127395
-0.2786397040 -0.1595619470 0.5948746800 4288193188
-0.2787038982 -0.1589376032 0.5950117111 4288061602
-0.2787678838 -0.1583128273 0.5951483250 4288127395
-0.2788316309 -0.1576876342 0.5952844024 4288258981
-0.2788951695 -0.1570620090 0.5954200625 4288324774
-0.2789584696 -0.1564359516 0.5955551863 4288390567
-0.2790215313 -0.1558094621 0.5956898332 4288456360
-0.2790843844 -0.1551825553 0.5958240032 4288522153
-0.2791470289 -0.1545552313 0.5959577560 4288522153
-0.2792094052 -0.1539274752 0.5960909724 4288522153
-0.2792716026 -0.1532993168 0.5962237120 4288653739
-0.2793335319 -0.1526707262 0.5963559747 4288719532
-0.2789819539 -0.1518168002 0.5956053734 4288784812
-0.2790433466 -0.1511883140 0.5957364440 4288850605
-0.2791045308 -0.1505594105 0.5958670378 4288916911
-0.2791654766 -0.1499300897 0.5959971547 4289048497
-0.2792261839 -0.1493003517 0.5961267948 4289245876
-0.2792866826 -0.1486702114 0.5962558985 4289443255
-0.2793469429 -0.1480396688 0.5963845849 4289640634
-0.2794069648 -0.1474087089 0.5965127349 4289838013
-0.2794667780 -0.1467773467 0.5966403484 4290035392
-0.2795263231 -0.1461455822 0.5967675447 4290232771
-0.2795856595 -0.1455134004 0.5968942046 4290495689
-0.2796447575 -0.1448808312 0.5970203876 4290693068
-0.2797036469 -0.1442478597 0.5971460938 4290890447
-0.2797622681 -0.1436144859 0.5972712636 4291153619
-0.2794061303 -0.1427689046 0.5965108871 4291416791
-0.2790495753 -0.1419247836 0.5957496762 4291482584
-0.2791073322 -0.1412921101 0.5958729982 4291614170
-0.2787500620 -0.1404500306 0.5951102376 4292008928
-0.2788072526 -0.1398175061 0.5952323675 4292140001
-0.2784492373 -0.1389774829 0.5944680572 4292140001
-0.2785058916 -0.1383451223 0.5945889950 4292337380
-0.2781471610 -0.1375071555 0.5938231349 4292600552
-0.2782032788 -0.1368749738 0.5939429402 4292468450
-0.2778438330 -0.1360390633 0.5931755304 4291678934
-0.2774839699 -0.1352046579 0.5924072266 4290231488
-0.2767082453 -0.1341703087 0.5907511115 4289639351
-0.2759319246 -0.1331393719 0.5890937448 4289770679
-0.2747394145 -0.1319122910 0.5865478516 4289968058
-0.2735461891 -0.1306905001 0.5840004086 4290099644
-0.2719364464 -0.1292763799 0.5805636644 4290165437
-0.2711575627 -0.1282629073 0.5789008737 4289968058
-0.2699621618 -0.1270570904 0.5763487816 4290099644
-0.2691821158 -0.1260514408 0.5746834278 4290231228
-0.2679853737 -0.1248553693 0.5721284747 4290231228
-0.2676203251 -0.1240504831 0.5713491440 4287007371
-0.2672548890 -0.1232471541 0.5705689788 4285296753
-0.2673054636 -0.1226364002 0.5706768632 4286086269
-0.2673557699 -0.1220253035 0.5707843304 4287073164
-0.2674058378 -0.1214138567 0.5708912015 4287664785
-0.2678723037 -0.1209902391 0.5718870759 4287598992
-0.2683386505 -0.1205643713 0.5728827119 4288388508
-0.2683881819 -0.1199499965 0.5729884505 4289178024
-0.2688543200 -0.1195205823 0.5739836097 4289967538
-0.2693203688 -0.1190889254 0.5749785900 4289835952
-0.2697863281 -0.1186550185 0.5759733915 4289112229
-0.2698351443 -0.1180364266 0.5760775805 4290230710
-0.2698837221 -0.1174174994 0.5761812925 4291217092
-0.2690976560 -0.1164371893 0.5745031238 4291085506
-0.2687283456 -0.1156399474 0.5737146139 4289966251
-0.2679412663 -0.1146656871 0.5720342994 4287202945
-0.2671536803 -0.1136949286 0.5703528523 4288321426
-0.2667830586 -0.1129043773 0.5695616007 4290097837
-0.2659944594 -0.1119396836 0.5678780079 4288847515
-0.2652053535 -0.1109785214 0.5661933422 4285492072
-0.2648334205 -0.1101946831 0.5653992891 4286018671
-0.2640433311 -0.1092396155 0.5637125373 4286742394
-0.2632527351 -0.1082880720 0.5620246530 4287531655
-0.2620436549 -0.1071691439 0.5594433546 4289505445
-0.2591619194 -0.1053758413 0.5532910824 4289373859
-0.2608777881 -0.1054546982 0.5569543242 4286215795
-0.2600851059 -0.1045173332 0.5552619696 4285689451
-0.2580372691 -0.1030823216 0.5508900285 4284768349
-0.2568250597 -0.1019888595 0.5483020544 4285031521
-0.2568672895 -0.1013963223 0.5483921766 4286544760
-0.2564908266 -0.1006393135 0.5475885272 4287598218
-0.2565325201 -0.1000471562 0.5476775169 4288979871
-0.2569925189 -0.0996169597 0.5486595631 4289835182
-0.2574524283 -0.0991845354 0.5496414304 4287532427
-0.2570748329 -0.0984292775 0.5488353372 4283124557
-0.2571156621 -0.0978350118 0.5489224195 4281479732
-0.2584126890 -0.0977155790 0.5516915321 4281216307
-0.2618043423 -0.0983770713 0.5589324236 4281018928
-0.2622641027 -0.0979277343 0.5599139929 4280492586
-0.2631427944 -0.0976316407 0.5617899299 4280689965
-0.2640214860 -0.0973313898 0.5636659265 4280690476
-0.2649002075 -0.0970269665 0.5655419230 4281282613
-0.2661981583 -0.0968709365 0.5683128834 4280690475
-0.2658191323 -0.0961024761 0.5675037503 4285624950
-0.2675364316 -0.0960887223 0.5711700320 4291414734
-0.2692539990 -0.0960669145 0.5748368502 4294704383
-0.2728394270 -0.1903456450 0.5838760138 4291153621
-0.2729139328 -0.1897487193 0.5840354562 4291087828
-0.2729882598 -0.1891513020 0.5841944814 4291022035
-0.2734687328 -0.1888339967 0.5852226615 4291022035
-0.2727298439 -0.1876753271 0.5836415291 4291022035
-0.2732100487 -0.1873561442 0.5846691132 4291022035
-0.2732835710 -0.1867567897 0.5848264694 4291022035
-0.2733569145 -0.1861569583 0.5849834085 4290956242
-0.2738369405 -0.1858327538 0.5860106945 4290890449
-0.2739099860 -0.1852310598 0.5861670375 4290824656
-0.2739828527 -0.1846288890 0.5863229036 4290758863
-0.2744627297 -0.1842996627 0.5873498321 4290758863
-0.2749426067 -0.1839681864 0.5883768201 4290693070
-0.2750150859 -0.1833627671 0.5885319114 4290627277
-0.2750873566 -0.1827568859 0.5886865854 4290561484
-0.2751594186 -0.1821505278 0.5888407826 4290495691
-0.2752313018 -0.1815436780 0.5889945626 4290429898
-0.2757108212 -0.1812044233 0.5900207758 4290364105
-0.2753744125 -0.1803285778 0.5893008709 4290364105
-0.2754456699 -0.1797203124 0.5894533992 4290364105
-0.2755167484 -0.1791115850 0.5896054506 4290232519
-0.2755875885 -0.1785023808 0.5897570252 4290232519
-0.2756582201 -0.1778927147 0.5899082422 4290166726
-0.2757286727 -0.1772825718 0.5900589824 4290100933
-0.2757989168 -0.1766719669 0.5902092457 4289969347
-0.2758689225 -0.1760608852 0.5903591514 4289969347
-0.2759387493 -0.1754493415 0.5905085206 4289969347
-0.2760083675 -0.1748373508 0.5906575322 4289903554
-0.2760777771 -0.1742248833 0.5908060074 4289837759
-0.2761469483 -0.1736119539 0.5909541249 4289706173
-0.2762159407 -0.1729985625 0.5911017060 4289640382
-0.2758753896 -0.1721293330 0.5903729796 4289574589
-0.2755344510 -0.1712614745 0.5896433592 4289508796
-0.2760121226 -0.1709020883 0.5906655192 4289377210
-0.2760801613 -0.1702877879 0.5908111334 4289311417
-0.2761479914 -0.1696730256 0.5909563303 4289245624
-0.2762156129 -0.1690578163 0.5911009908 4289114038
-0.2762829959 -0.1684421599 0.5912452340 4288916659
-0.2763502002 -0.1678260565 0.5913890600 4288785071
-0.2764171660 -0.1672094911 0.5915323496 4288719278
-0.2764839232 -0.1665924788 0.5916752219 4288653485
-0.2769607902 -0.1662212759 0.5926957130 4288653485
-0.2770272195 -0.1656024605 0.5928378701 4288587692
-0.2770934403 -0.1649831980 0.5929795504 4288521899
-0.2767488360 -0.1641200036 0.5922421217 4288587179
-0.2772252262 -0.1637433469 0.5932615995 4288389800
-0.2772907913 -0.1631227583 0.5934018493 4288192675
-0.2769452333 -0.1622609943 0.5926623940 4288061089
-0.2774212360 -0.1618802696 0.5936810970 4288061348
-0.2770750523 -0.1610194743 0.5929402709 4287995555
-0.2771396637 -0.1603980511 0.5930784941 4287995555
-0.2772040367 -0.1597761959 0.5932162404 4288127141
-0.2772681713 -0.1591539234 0.5933535099 4288127141
-0.2773320973 -0.1585312039 0.5934903026 4288127141
-0.2773958147 -0.1579080671 0.5936266780 4288127395
-0.2774592936 -0.1572844833 0.5937625170 4288258981
-0.2775225639 -0.1566604823 0.5938978791 4288258981
-0.2775855958 -0.1560360640 0.5940328240 4288324774
-0.2776484191 -0.1554112136 0.5941672325 4288456360
-0.2777110040 -0.1547859311 0.5943011642 4288456360
-0.2777733803 -0.1541602463 0.5944346786 4288456360
-0.2778355181 -0.1535341144 0.5945676565 4288522153
-0.2778974473 -0.1529075801 0.5947001576 4288522153
-0.2779591382 -0.1522806287 0.5948321819 4288653739
-0.2780206203 -0.1516532600 0.5949637294 4288653226
-0.2776692808 -0.1508013904 0.5942118168 4288719019
-0.2777301967 -0.1501741260 0.5943422318 4288850605
-0.2777908742 -0.1495464444 0.5944721103 4288916398
-0.2778513432 -0.1489183456 0.5946015120 4288982191
-0.2779116035 -0.1482898444 0.5947304368 4289113777
-0.2779715955 -0.1476609409 0.5948588252 4289245363
-0.2780313790 -0.1470316201 0.5949867964 4289376949
-0.2780909240 -0.1464018971 0.5951142311 4289376949
-0.2781502604 -0.1457717717 0.5952411294 4289640121
-0.2782093287 -0.1451412439 0.5953676105 4289837246
-0.2782681882 -0.1445103139 0.5954935551 4289968832
-0.2783268392 -0.1438789815 0.5956190228 4290166211
-0.2783852220 -0.1432472616 0.5957439542 4290363590
-0.2780296504 -0.1424032152 0.5949830413 4290626762
-0.2780874968 -0.1417716444 0.5951068401 4290824141
-0.2777311802 -0.1409296393 0.5943443775 4291022033
-0.2777884901 -0.1402982175 0.5944669843 4291614170
-0.2778455317 -0.1396663934 0.5945890546 4291811549
-0.2774882019 -0.1388269961 0.5938243270 4291811549
-0.2775447071 -0.1381953508 0.5939452648 4291877083
-0.2776009738 -0.1375633180 0.5940656662 4292140255
-0.2772426009 -0.1367265284 0.5932987332 4292469220
-0.2768838108 -0.1358912438 0.5925309658 4292337634
-0.2769392133 -0.1352599412 0.5926495194 4291876312
-0.2765797079 -0.1344267428 0.5918801427 4290626245
-0.2758050561 -0.1333944649 0.5902224183 4289639350
-0.2750298381 -0.1323655844 0.5885634422 4289113006
-0.2738391459 -0.1311414391 0.5860154033 4289573300
-0.2726477385 -0.1299225986 0.5834658146 4289968058
-0.2718706727 -0.1289058924 0.5818029046 4289836470
-0.2706779242 -0.1276967525 0.5792503953 4289902263
-0.2698996663 -0.1266878694 0.5775849223 4289902263
-0.2687055767 -0.1254884601 0.5750295520 4289968056
-0.2679261267 -0.1244874150 0.5733615756 4287401359
-0.2675616145 -0.1236818731 0.5725814700 4283848537
-0.2680278122 -0.1232600883 0.5735791326 4284967018
-0.2680782974 -0.1226458997 0.5736871958 4285888120
-0.2681285739 -0.1220313683 0.5737947822 4286480511
-0.2681785822 -0.1214164868 0.5739018321 4286809476
-0.2682283819 -0.1208012626 0.5740083456 4288059543
-0.2686938643 -0.1203720346 0.5750045180 4289178024
-0.2691592872 -0.1199405566 0.5760004520 4290032818
-0.2692085207 -0.1193224043 0.5761058331 4289703853
-0.2692575157 -0.1187039092 0.5762106776 4289111716
-0.2693062723 -0.1180850789 0.5763150454 4290361783
-0.2689384818 -0.1172843575 0.5755279660 4291085506
-0.2689867020 -0.1166658178 0.5756311417 4291217092
-0.2682017684 -0.1156876683 0.5739513636 4289900973
-0.2674162686 -0.1147130206 0.5722704530 4288848285
-0.2670468688 -0.1139196008 0.5714799166 4290229168
-0.2666770816 -0.1131277755 0.5706885457 4290887098
-0.2658901513 -0.1121617481 0.5690045357 4288584343
-0.2651026845 -0.1111992374 0.5673193932 4284439384
-0.2651485205 -0.1105880141 0.5674174428 4284966498
-0.2643601596 -0.1096306369 0.5657303333 4287400839
-0.2635712624 -0.1086767986 0.5640421510 4289637803
-0.2627818584 -0.1077264920 0.5623528361 4290427319
-0.2615747452 -0.1066096947 0.5597696304 4289308066
-0.2616187632 -0.1060055792 0.5598637462 4286281588
-0.2608278692 -0.1050649509 0.5581712723 4285689453
-0.2587842941 -0.1036264598 0.5537980199 4284834144
-0.2567397952 -0.1021973193 0.5494228005 4286150774
-0.2563644946 -0.1014383733 0.5486196280 4288124564
-0.2564064264 -0.1008453146 0.5487093925 4289440424
-0.2568657696 -0.1004152372 0.5496923923 4289572010
-0.2573250532 -0.0999829322 0.5506752729 4287597966
-0.2565308213 -0.0990643874 0.5489755869 4283847765
-0.2565717995 -0.0984701663 0.5490633249 4281742650
-0.2578663826 -0.0983538851 0.5518336892 4282663752
-0.2570711076 -0.0974393263 0.5501317978 4282203202
-0.2596198916 -0.0977881029 0.5555861592 4281018928
-0.2613329291 -0.0978119671 0.5592520833 4280361000
-0.2613734603 -0.0972056761 0.5593388677 4280624172
-0.2622503042 -0.0969082192 0.5612152815 4280624429
-0.2631271482 -0.0966066048 0.5630916953 4281545531
-0.2640039921 -0.0963008180 0.5649681687 4281151027
-0.2665546834 -0.0965974480 0.5704266429 4285559158
-0.2678503096 -0.0964301080 0.5731993318 4291546320
-0.2678903639 -0.0958075672 0.5732849836 4294835967
-0.2746339440 -0.1783085018 0.5891165137 4291153621
-0.2747044265 -0.1776995361 0.5892676711 4291153621
-0.2747746706 -0.1770900935 0.5894183517 4291087828
-0.2748447061 -0.1764801890 0.5895686150 4290890449
-0.2745066583 -0.1756088734 0.5888434649 4290890449
-0.2745761871 -0.1749989390 0.5889925957 4290824656
-0.2746455073 -0.1743885428 0.5891413093 4290758863
-0.2751228213 -0.1740358919 0.5901651978 4290758863
-0.2747835219 -0.1731663644 0.5894373655 4290693070
-0.2748522460 -0.1725545824 0.5895847082 4290561484
-0.2745122313 -0.1716868728 0.5888553858 4290495691
-0.2745803893 -0.1710750908 0.5890016556 4290495691
-0.2746483684 -0.1704628468 0.5891474485 4290495691
-0.2747161388 -0.1698501557 0.5892927647 4290364105
-0.2751925886 -0.1694888473 0.5903148055 4290232519
-0.2752600014 -0.1688743383 0.5904594660 4290100933
-0.2753272355 -0.1682593822 0.5906036496 4289903554
-0.2753942609 -0.1676439643 0.5907474160 4289837761
-0.2754610479 -0.1670281142 0.5908907056 4289771968
-0.2755276263 -0.1664118022 0.5910335183 4289443001
-0.2755939960 -0.1657950580 0.5911759138 4289508794
-0.2756601572 -0.1651778519 0.5913178325 4289443001
-0.2757261097 -0.1645602137 0.5914592743 4289311415
-0.2757918239 -0.1639421284 0.5916002393 4289114036
-0.2758573294 -0.1633235961 0.5917407870 4288850864
-0.2759226263 -0.1627046317 0.5918807983 4288653485
-0.2759876847 -0.1620852351 0.5920203924 4288521899
-0.2760525644 -0.1614653915 0.5921595097 4288324520
-0.2761171758 -0.1608451158 0.5922982097 4288127141
-0.2761816084 -0.1602243930 0.5924363732 4288061348
-0.2762458026 -0.1596032530 0.5925741196 4288127141
-0.2763097882 -0.1589816660 0.5927113295 4288127141
-0.2763735354 -0.1583596617 0.5928481221 4288061348
-0.2764371037 -0.1577372253 0.5929843783 4288061348
-0.2765004039 -0.1571143568 0.5931202173 4288127141
-0.2765634954 -0.1564910561 0.5932555795 4288061348
-0.2766263783 -0.1558673382 0.5933904648 4288258727
-0.2766890228 -0.1552431881 0.5935248137 4288390054
-0.2767514586 -0.1546186060 0.5936587453 4288390054
-0.2768136561 -0.1539936215 0.5937922001 4288390054
-0.2768756449 -0.1533682048 0.5939251184 4288390054
-0.2769373953 -0.1527423710 0.5940576196 4288455847
-0.2769989371 -0.1521161199 0.5941895843 4288587433
-0.2766485512 -0.1512643546 0.5934380293 4288455847
-0.2767095268 -0.1506382078 0.5935688615 4288521640
-0.2767702937 -0.1500116438 0.5936991572 4288653226
-0.2768308222 -0.1493846625 0.5938290358 4288719019
-0.2768911421 -0.1487572789 0.5939583778 4288719019
-0.2769512236 -0.1481294781 0.5940872431 4288784812
-0.2770110667 -0.1475012749 0.5942156315 4288850605
-0.2770707011 -0.1468726695 0.5943435431 4288916398
-0.2771300972 -0.1462436467 0.5944709778 4288850605
-0.2771892548 -0.1456142366 0.5945978761 4289047984
-0.2772481740 -0.1449844092 0.5947242975 4289245363
-0.2773068845 -0.1443541944 0.5948501825 4289311156
-0.2773653567 -0.1437235624 0.5949756503 4289442742
-0.2770107687 -0.1428796053 0.5942149758 4289508535
-0.2770686746 -0.1422491372 0.5943392515 4289705914
-0.2767133713 -0.1414072067 0.5935770273 4289837500
-0.2767707407 -0.1407768726 0.5937001109 4290035392
-0.2768278718 -0.1401461661 0.5938226581 4290495943
-0.2764715254 -0.1393068284 0.5930582881 4290824908
-0.2765281200 -0.1386762708 0.5931796432 4290956494
-0.2765844464 -0.1380453259 0.5933005214 4291153360
-0.2766405940 -0.1374140084 0.5934209228 4291350739
-0.2762828767 -0.1365778446 0.5926535726 4291745496
-0.2763384283 -0.1359466910 0.5927727818 4292008668
-0.2759799957 -0.1351125985 0.5920038819 4292468449
-0.2756211758 -0.1342800260 0.5912341475 4292007898
-0.2752619386 -0.1334489584 0.5904635787 4290955210
-0.2749023139 -0.1326194257 0.5896921158 4289507764
-0.2741281688 -0.1315926164 0.5880315900 4289047467
-0.2729393244 -0.1303714067 0.5854813457 4289179053
-0.2721639872 -0.1293524057 0.5838181973 4289244333
-0.2718024552 -0.1285327673 0.5830426812 4289375919
-0.2710261047 -0.1275196970 0.5813773274 4289902263
-0.2694202065 -0.1261219829 0.5779325366 4289704884
-0.2690571547 -0.1253107786 0.5771537423 4288388254
-0.2686937153 -0.1245011166 0.5763741732 4283651158
-0.2683298886 -0.1236930043 0.5755937099 4284440674
-0.2683804929 -0.1230766773 0.5757021904 4284835432
-0.2684308589 -0.1224600077 0.5758102536 4285756788
-0.2684809566 -0.1218429878 0.5759177804 4286283132
-0.2685308456 -0.1212256253 0.5760247707 4287927957
-0.2685804963 -0.1206079125 0.5761312842 4288980645
-0.2690451145 -0.1201753169 0.5771279335 4289506474
-0.2690943778 -0.1195559725 0.5772335529 4289045923
-0.2691434026 -0.1189362854 0.5773386955 4288980130
-0.2691921890 -0.1183162630 0.5774433613 4289967025
-0.2688252330 -0.1175142750 0.5766562223 4290624955
-0.2684578896 -0.1167138666 0.5758682489 4290822334
-0.2680901587 -0.1159150451 0.5750794411 4289572010
-0.2673063278 -0.1149390489 0.5733980536 4289900975
-0.2669377625 -0.1141443625 0.5726074576 4291348419
-0.2665688097 -0.1133512706 0.5718160272 4291216833
-0.2657835484 -0.1123838946 0.5701315403 4288782492
-0.2649977505 -0.1114200428 0.5684459209 4285032291
-0.2650435865 -0.1108076274 0.5685442686 4286019188
-0.2646730542 -0.1100218967 0.5677493811 4289111459
-0.2638858855 -0.1090657488 0.5660608411 4290953663
-0.2630982101 -0.1081131473 0.5643712282 4290887870
-0.2618936598 -0.1069939807 0.5617873073 4288321943
-0.2619377375 -0.1063876972 0.5618818998 4285756016
-0.2574000359 -0.1039312035 0.5521481037 4285690223
-0.2595257759 -0.1041709781 0.5567079782 4286282360
-0.2566522360 -0.1024058759 0.5505439639 4288453529
-0.2571111917 -0.1019762158 0.5515285134 4289637803
-0.2567365170 -0.1012157127 0.5507247448 4290361526
-0.2580288351 -0.1011102200 0.5534968972 4287992978
-0.2568198442 -0.1000243798 0.5509034991 4283584593
-0.2568611801 -0.0994282812 0.5509921312 4281545010
-0.2573193014 -0.0989923403 0.5519748926 4282334787
-0.2577773333 -0.0985541716 0.5529574156 4282861131
-0.2590696216 -0.0984307900 0.5557295084 4282268997
-0.2611965835 -0.0986163765 0.5602920055 4282005825
-0.2608200610 -0.0978525952 0.5594843626 4280558636
-0.2616953254 -0.0975572467 0.5613618493 4282137668
-0.2625705898 -0.0972577408 0.5632393956 4282137668
-0.2634458542 -0.0969540626 0.5651169419 4283190356
-0.2634860277 -0.0963408649 0.5652031302 4283059538
-0.2643612027 -0.0960307941 0.5670804381 4286349188
-0.2652363777 -0.0957165584 0.5689578056 4291941848
-0.2690358758 -0.0964464843 0.5771080852 4294770687
-0.2738300562 -0.1690524518 0.5887948275 4290956244
-0.2738972008 -0.1684395522 0.5889392495 4290824658
-0.2739641368 -0.1678262055 0.5890831947 4290758865
-0.2740308940 -0.1672124118 0.5892266631 4290758863
-0.2740974128 -0.1665981710 0.5893697143 4290627277
-0.2741637230 -0.1659834832 0.5895122886 4290298310
-0.2742297947 -0.1653683484 0.5896543860 4290232517
-0.2742956877 -0.1647527665 0.5897960663 4290166726
-0.2743613422 -0.1641367525 0.5899372697 4289969347
-0.2744267881 -0.1635202914 0.5900779963 4289706175
-0.2744920254 -0.1629033834 0.5902182460 4289508796
-0.2745570540 -0.1622860432 0.5903580785 4289377208
-0.2746218741 -0.1616682559 0.5904974341 4289245622
-0.2746864557 -0.1610500515 0.5906363130 4288916657
-0.2747508287 -0.1604313999 0.5907747149 4288653485
-0.2748149633 -0.1598123014 0.5909126401 4288521899
-0.2748789191 -0.1591927856 0.5910501480 4288456106
-0.2749426067 -0.1585728377 0.5911871195 4288390313
-0.2750061154 -0.1579524577 0.5913236737 4288192934
-0.2750693858 -0.1573316455 0.5914596915 4288127141
-0.2751324475 -0.1567104012 0.5915952921 4287995555
-0.2751952708 -0.1560887396 0.5917304158 4287995042
-0.2752578855 -0.1554666460 0.5918650031 4288126628
-0.2753202915 -0.1548441350 0.5919991732 4288192421
-0.2753824592 -0.1542211920 0.5921328664 4288192421
-0.2754443884 -0.1535978317 0.5922660828 4288126628
-0.2755061090 -0.1529740542 0.5923987627 4288192421
-0.2755676210 -0.1523498595 0.5925310254 4288258214
-0.2756288946 -0.1517252475 0.5926627517 4288324007
-0.2756899595 -0.1511002183 0.5927940607 4288127395
-0.2753398120 -0.1502505094 0.5920411944 4288193188
-0.2754003406 -0.1496255845 0.5921713114 4288390567
-0.2754606009 -0.1490002573 0.5923008919 4288456360
-0.2755206823 -0.1483745128 0.5924300551 4288455847
-0.2755804956 -0.1477483511 0.5925586820 4288455847
-0.2756401002 -0.1471217871 0.5926868320 4288587433
-0.2756994665 -0.1464948207 0.5928145051 4288587433
-0.2757586241 -0.1458674520 0.5929417014 4288587433
-0.2758175433 -0.1452396810 0.5930684209 4288653226
-0.2758762240 -0.1446114928 0.5931946039 4288784812
-0.2759346962 -0.1439829171 0.5933203101 4288850605
-0.2759929299 -0.1433539391 0.5934454799 4288850605
-0.2760509253 -0.1427245736 0.5935702324 4288850605
-0.2756965756 -0.1418827176 0.5928083062 4288916398
-0.2753418386 -0.1410423517 0.5920455456 4289047984
-0.2753989697 -0.1404136717 0.5921683908 4289179569
-0.2754558921 -0.1397846043 0.5922907591 4289311155
-0.2751001120 -0.1389468461 0.5915257335 4289574327
-0.2751564682 -0.1383179426 0.5916469097 4289705913
-0.2752125859 -0.1376886517 0.5917676091 4289903292
-0.2752684653 -0.1370589882 0.5918877721 4290232257
-0.2753241062 -0.1364289373 0.5920073986 4290692038
-0.2749666572 -0.1355949044 0.5912388563 4291021003
-0.2750217617 -0.1349650323 0.5913572907 4291481554
-0.2746635973 -0.1341330856 0.5905871987 4291876312
-0.2743050456 -0.1333026439 0.5898162127 4291678933
-0.2739460766 -0.1324737370 0.5890443325 4290692038
-0.2735867202 -0.1316463500 0.5882716775 4289507764
-0.2732269764 -0.1308204830 0.5874981284 4288915627
-0.2724533975 -0.1297991872 0.5858347416 4288783782
-0.2720927596 -0.1289773434 0.5850592852 4288849575
-0.2713181376 -0.1279619634 0.5833936930 4289573298
-0.2705429792 -0.1269500256 0.5817269087 4289178540
-0.2697672546 -0.1259415448 0.5800589323 4288849575
-0.2694047987 -0.1251287162 0.5792796016 4284967788
-0.2690419853 -0.1243174374 0.5784994364 4284112479
-0.2686787546 -0.1235077158 0.5777184367 4284507237
-0.2687292099 -0.1228889003 0.5778269172 4285362030
-0.2687794268 -0.1222697422 0.5779348612 4285559409
-0.2688294053 -0.1216502339 0.5780423880 4287138441
-0.2688791454 -0.1210303754 0.5781493187 4287927957
-0.2689286768 -0.1204101816 0.5782557726 4288059543
-0.2689779401 -0.1197896376 0.5783617496 4288125336
-0.2690269649 -0.1191687658 0.5784671903 4288914850
-0.2690757811 -0.1185475439 0.5785721540 4289704366
-0.2687096596 -0.1177442819 0.5777848959 4290295990
-0.2683431804 -0.1169426069 0.5769968629 4289967025
-0.2675614655 -0.1159627289 0.5753160119 4289703853
-0.2671941221 -0.1151651740 0.5745261312 4290032818
-0.2668263912 -0.1143692210 0.5737354159 4291414212
-0.2664582729 -0.1135748550 0.5729439259 4291545798
-0.2656746805 -0.1126061380 0.5712589622 4289637801
-0.2648905218 -0.1116409451 0.5695729256 4286940288
-0.2649363875 -0.1110273302 0.5696715117 4288453786
-0.2645666897 -0.1102403328 0.5688765645 4290822334
-0.2637811899 -0.1092828438 0.5671875477 4291151299
-0.2629951537 -0.1083288938 0.5654974580 4290756541
-0.2622086406 -0.1073784903 0.5638062358 4287664013
-0.2597591281 -0.1057548001 0.5585392714 4286019188
-0.2606340349 -0.1054883227 0.5604205132 4287203462
-0.2577671707 -0.1037121862 0.5542561412 4288716701
-0.2573940754 -0.1029471382 0.5534538627 4289703853
-0.2603477240 -0.1035064906 0.5598048568 4290032818
-0.2570627034 -0.1015863344 0.5527413487 4289176998
-0.2591846883 -0.1018057093 0.5573041439 4284571488
-0.2571462095 -0.1003906652 0.5529209375 4281216560
-0.2567714453 -0.0996309221 0.5521151423 4281479732
-0.2588936985 -0.0998358727 0.5566784143 4282861132
-0.2568534315 -0.0984354615 0.5522913933 4283519062
-0.2577267885 -0.0981544405 0.5541692972 4283453528
-0.2590166032 -0.0980268568 0.5569426417 4282795598
-0.2603065670 -0.0978931710 0.5597164035 4282466635
-0.2607635558 -0.0974420607 0.5606990457 4284769390
-0.2612204552 -0.0969887227 0.5616814494 4283717470
-0.2620939314 -0.0966868773 0.5635595918 4284178021
-0.2638008893 -0.0966863483 0.5672299862 4286086016
-0.2642576993 -0.0962224454 0.5682122111 4288717736
-0.2638806403 -0.0954547301 0.5674014688 4292271070
-0.2664217651 -0.0957374498 0.5728654265 4294705151
-0.2727363408 -0.1661677510 0.5878470540 4291087828
-0.2728023827 -0.1655546874 0.5879893899 4290890449
-0.2728682160 -0.1649411768 0.5881312490 4290758863
-0.2729338109 -0.1643272191 0.5882726312 4290758863
-0.2729991972 -0.1637128145 0.5884135962 4290627277
-0.2730643749 -0.1630979776 0.5885540843 4290298312
-0.2731293440 -0.1624827087 0.5886940956 4290166726
-0.2731941044 -0.1618669927 0.5888336301 4290100931
-0.2732586265 -0.1612508297 0.5889727473 4289837759
-0.2733229399 -0.1606342345 0.5891113877 4289640380
-0.2733870447 -0.1600172073 0.5892495513 4289311415
-0.2734509408 -0.1593997627 0.5893872380 4289048243
-0.2735145986 -0.1587818712 0.5895244479 4288982450
-0.2735780478 -0.1581635475 0.5896612406 4288785071
-0.2736412883 -0.1575447917 0.5897974968 4288521899
-0.2737042904 -0.1569256186 0.5899333358 4288258727
-0.2737670839 -0.1563059986 0.5900686383 4288061348
-0.2738296688 -0.1556859761 0.5902035236 4287995042
-0.2738920152 -0.1550655216 0.5903379321 4287995042
-0.2739541531 -0.1544446349 0.5904718041 4288060835
-0.2740160525 -0.1538233310 0.5906052589 4287995042
-0.2740777433 -0.1532016098 0.5907382369 4287995042
-0.2741391957 -0.1525794715 0.5908707380 4288060835
-0.2742004395 -0.1519569159 0.5910027027 4288126628
-0.2742614746 -0.1513339281 0.5911342502 4288126628
-0.2743222713 -0.1507105380 0.5912652612 4287929762
-0.2739726901 -0.1498623937 0.5905118585 4287995555
-0.2740329504 -0.1492391080 0.5906417370 4288192934
-0.2740930021 -0.1486154050 0.5907710791 4288192934
-0.2741527855 -0.1479912996 0.5909000039 4288127141
-0.2742123902 -0.1473667920 0.5910284519 4288192934
-0.2742717266 -0.1467418820 0.5911563635 4288390054
-0.2743308544 -0.1461165547 0.5912837982 4288455847
-0.2743897736 -0.1454908252 0.5914107561 4288390054
-0.2744484246 -0.1448646933 0.5915372372 4288324261
-0.2745068669 -0.1442381591 0.5916631818 4288390054
-0.2745651007 -0.1436112374 0.5917886496 4288455847
-0.2746230960 -0.1429839134 0.5919136405 4288520870
-0.2746808529 -0.1423561871 0.5920381546 4288455077
-0.2743270695 -0.1415158957 0.5912756324 4288586663
-0.2739729285 -0.1406770945 0.5905123353 4288652456
-0.2740298212 -0.1400500685 0.5906349421 4288719018
-0.2740864754 -0.1394226551 0.5907570720 4288719018
-0.2741429210 -0.1387948543 0.5908787251 4289047213
-0.2737874091 -0.1379592121 0.5901124477 4288981420
-0.2738432884 -0.1373315752 0.5902329087 4289047213
-0.2738989592 -0.1367035657 0.5903528929 4289376178
-0.2739543617 -0.1360751688 0.5904723406 4289507764
-0.2740095556 -0.1354463845 0.5905912519 4289705143
-0.2740645111 -0.1348172277 0.5907096863 4290099901
-0.2741192281 -0.1341876984 0.5908276439 4290297280
-0.2737614214 -0.1333569437 0.5900564194 4290757831
-0.2738156021 -0.1327276081 0.5901731849 4291152589
-0.2734570801 -0.1318989545 0.5894004703 4290691781
-0.2726856172 -0.1308738440 0.5877376795 4289770679
-0.2723262310 -0.1300491840 0.5869630575 4289244333
-0.2719664276 -0.1292260736 0.5861876011 4288981161
-0.2711934745 -0.1282093525 0.5845215917 4288783782
-0.2708328068 -0.1273902655 0.5837442279 4288586403
-0.2700588107 -0.1263794899 0.5820760131 4288652196
-0.2696973085 -0.1255644411 0.5812968016 4286612613
-0.2693353891 -0.1247509420 0.5805166960 4283915098
-0.2689730823 -0.1239390001 0.5797358155 4284704614
-0.2690236270 -0.1233180463 0.5798447728 4284704614
-0.2690739334 -0.1226967424 0.5799531937 4284638821
-0.2691240311 -0.1220750883 0.5800611377 4285559409
-0.2691738605 -0.1214530841 0.5801686049 4286217339
-0.2688099146 -0.1206451356 0.5793841481 4286414718
-0.2688592076 -0.1200234070 0.5794903636 4287204234
-0.2689082623 -0.1194013283 0.5795961022 4288849059
-0.2689570785 -0.1187789217 0.5797013640 4289704368
-0.2685918212 -0.1179743856 0.5789140463 4290033331
-0.2682261467 -0.1171714440 0.5781258941 4289112229
-0.2674461007 -0.1161902174 0.5764446259 4289506728
-0.2670795918 -0.1153913960 0.5756546855 4290164658
-0.2662985623 -0.1144162267 0.5739712715 4291348419
-0.2659312189 -0.1136215478 0.5731794834 4291282626
-0.2655634880 -0.1128284708 0.5723869205 4289900973
-0.2647810280 -0.1118619367 0.5707003474 4288914078
-0.2644124627 -0.1110730246 0.5699059963 4290690748
-0.2640435100 -0.1102857217 0.5691108108 4291085506
-0.2632596195 -0.1093278527 0.5674211979 4291151299
-0.2628898323 -0.1085447297 0.5666241646 4290230197
-0.2621049583 -0.1075929850 0.5649325252 4287992976
-0.2613195777 -0.1066447869 0.5632396936 4288256148
-0.2613634169 -0.1060367674 0.5633341670 4289769387
-0.2601622045 -0.1049263999 0.5607451200 4290493110
-0.2585453391 -0.1036551446 0.5572602153 4290164404
-0.2602482438 -0.1037146375 0.5609306097 4290295990
-0.2582152188 -0.1022860706 0.5565487146 4286282619
-0.2582573295 -0.1016842797 0.5566394329 4281742902
-0.2599602938 -0.1017322466 0.5603099465 4281150767
-0.2579254806 -0.1003182828 0.5559241772 4281940283
-0.2579668164 -0.0997165814 0.5560132265 4282137922
-0.2600852549 -0.0999126211 0.5605792999 4282861645
-0.2580487430 -0.0985123217 0.5561898351 4283321942
-0.2585049570 -0.0980674326 0.5571731925 4282664012
-0.2597924173 -0.0979337022 0.5599480867 4282138440
-0.2602485418 -0.0974824131 0.5609312654 4283651679
-0.2607045770 -0.0970289037 0.5619141459 4284836464
-0.2615763545 -0.0967269465 0.5637931228 4287073426
-0.2624481320 -0.0964208171 0.5656721592 4289441972
-0.2645679116 -0.0965660140 0.5702410340 4291086797
-0.2658559382 -0.0963994861 0.5730172396 4292863207
-0.2658957839 -0.0957771689 0.5731031299 4294705151
-0.2715745270 -0.1639011949 0.5867475271 4291087313
-0.2716396749 -0.1632884294 0.5868881941 4290955727
-0.2717045546 -0.1626752019 0.5870284438 4290824141
-0.2717692554 -0.1620615572 0.5871682167 4290692555
-0.2718337476 -0.1614474654 0.5873075128 4290560969
-0.2718980014 -0.1608329415 0.5874463916 4290495176
-0.2719620466 -0.1602179706 0.5875847340 4290035140
-0.2720258832 -0.1596025825 0.5877226591 4289837761
-0.2720895112 -0.1589867473 0.5878601074 4289640382
-0.2721529007 -0.1583704948 0.5879970789 4289508796
-0.2722160816 -0.1577537954 0.5881336331 4289245624
-0.2722790539 -0.1571366787 0.5882696509 4288982452
-0.2723417878 -0.1565191299 0.5884052515 4288785071
-0.2724043429 -0.1559011638 0.5885403156 4288587692
-0.2724666297 -0.1552827656 0.5886749625 4288521899
-0.2725287378 -0.1546639353 0.5888090730 4288390313
-0.2721819282 -0.1538137347 0.5880597830 4288192934
-0.2726522684 -0.1534250230 0.5890759826 4287929762
-0.2727136910 -0.1528049409 0.5892087221 4287732383
-0.2727749050 -0.1521844417 0.5893409252 4287732383
-0.2728358805 -0.1515635252 0.5894727111 4287798176
