VERSION 0.7
FIELDS x y z rgba
SIZE 4 4 4 4
TYPE F F F U
COUNT 1 1 1 1
WIDTH 920
HEIGHT 1
VIEWPOINT 0.0 0.0 0.0 1.0 0.0 0.0 0.0
POINTS 920
DATA ascii
-0.2587054968 -0.1075204164 0.5055638552 4282612125
-0.2587521672 -0.1069779843 0.5056550503 4282677918
-0.2587985992 -0.1064352691 0.5057458282 4282677920
-0.2592926621 -0.1060754582 0.5067113042 4282677920
-0.2593387365 -0.1055312157 0.5068013072 4282743713
-0.2598325908 -0.1051680148 0.5077664256 4282743713
-0.2598783076 -0.1046222523 0.5078557730 4282743713
-0.2599237859 -0.1040762067 0.5079446435 4282809506
-0.2599690557 -0.1035298705 0.5080330968 4282809506
-0.2600141168 -0.1029832512 0.5081211329 4282809506
-0.2600589395 -0.1024363488 0.5082087517 4282875299
-0.2601035535 -0.1018891707 0.5082958937 4282875299
-0.2601479292 -0.1013417020 0.5083826780 4282875299
-0.2601920664 -0.1007939577 0.5084689260 4282941092
-0.2602359951 -0.1002459377 0.5085548162 4282941092
-0.2602797151 -0.0996976346 0.5086401701 4283006885
-0.2603231966 -0.0991490632 0.5087251663 4282941605
-0.2608153522 -0.0987702087 0.5096869469 4282941605
-0.2613074481 -0.0983891934 0.5106486082 4283073191
-0.2613503933 -0.0978379101 0.5107325315 4283073191
-0.2618422508 -0.0974535048 0.5116937160 4283073191
-0.2623340189 -0.0970669389 0.5126547217 4283007398
-0.2623764277 -0.0965129435 0.5127376318 4283007398
-0.2628679574 -0.0961229950 0.5136981606 4283007398
-0.2629099786 -0.0955675170 0.5137802958 4283073191
-0.2638507485 -0.0953366011 0.5156187415 4283138984
-0.2638924718 -0.0947786868 0.5157002807 4283204777
-0.2643835843 -0.0943810269 0.5166599751 4283204777
-0.2644248903 -0.0938216373 0.5167407393 4283139498
-0.2644659579 -0.0932619870 0.5168210268 4283205291
-0.2645068169 -0.0927020758 0.5169008374 4283205291
-0.2649973333 -0.0922986120 0.5178593993 4283205291
-0.2650377750 -0.0917372406 0.5179384351 4283205291
-0.2650780082 -0.0911756009 0.5180170536 4283139498
-0.2660182118 -0.0909214020 0.5198544264 4283271084
-0.2665479779 -0.0899449736 0.5208896995 4283271084
-0.2670377791 -0.0895304456 0.5218468308 4283336877
-0.2670770884 -0.0889637247 0.5219236612 4283337390
-0.2675665915 -0.0885458216 0.5228802562 4283337390
-0.2676054835 -0.0879776552 0.5229562521 4283337390
-0.2685452998 -0.0877035409 0.5247928500 4283403183
-0.2681331933 -0.0869867653 0.5239874721 4283403435
-0.2690728307 -0.0867073759 0.5258237720 4283469228
-0.2695617378 -0.0862796307 0.5267791748 4283534508
-0.2695996761 -0.0857064053 0.5268533230 4283600301
-0.2700882852 -0.0852752998 0.5278081298 4283731887
-0.2701258063 -0.0847006291 0.5278815031 4283797680
-0.2706140876 -0.0842661709 0.5288357139 4283797680
-0.2711022794 -0.0838295519 0.5297897458 4283863473
-0.2711392045 -0.0832522511 0.5298618674 4283929266
-0.2716270685 -0.0828122795 0.5308153033 4283929266
-0.2721148133 -0.0823701471 0.5317684412 4284125875
-0.2726024389 -0.0819258615 0.5327213407 4284125875
-0.2735413313 -0.0816140994 0.5345561504 4284191670
-0.2749316692 -0.0814319700 0.5372731090 4284257463
-0.2758705914 -0.0811110809 0.5391079783 4284323256
-0.2763579190 -0.0806543231 0.5400603414 4284323256
-0.2772967517 -0.0803262293 0.5418950319 4284126904
-0.2782355547 -0.0799940601 0.5437296629 4284258490
-0.2791743577 -0.0796578079 0.5455642343 4284324537
-0.2801131010 -0.0793174654 0.5473987460 4284390330
-0.2815036774 -0.0791000053 0.5501162410 4284521403
-0.2824424505 -0.0787505284 0.5519507527 4284587196
-0.2838331163 -0.0785220042 0.5546684265 4284784059
-0.2847718596 -0.0781633854 0.5565028787 4284849852
-0.2861626148 -0.0779237896 0.5592207313 4284980924
-0.2866491973 -0.0774338916 0.5601716042 4285112510
-0.2898487151 -0.0776688531 0.5664241314 4285375936
-0.2907875180 -0.0772890449 0.5682587624 4285573315
-0.2921785712 -0.0770243853 0.5709771514 4285638595
-0.2931173444 -0.0766354278 0.5728116632 4285704388
-0.2945084274 -0.0763596743 0.5755301714 4286164169
-0.2968044579 -0.0763105378 0.5800170898 4286361548
-0.2986482382 -0.0761361420 0.5836201906 4286820557
-0.3009446859 -0.0760681629 0.5881079435 4286886350
-0.3032413721 -0.0759902596 0.5925961137 4287149263
-0.3055382669 -0.0759024471 0.5970847607 4287346642
-0.3087407947 -0.0760276690 0.6033431292 4287806163
-0.3251779974 -0.0772511587 0.6354647875 4289645533
-0.3292887211 -0.0775127485 0.6434980035 4290040291
-0.3261521757 -0.0760662630 0.6373685598 4291222245
-0.3329814374 -0.0769360214 0.6507143974 4292274933
-0.2807964981 -0.1829444766 0.5499278307 4289182927
-0.2778191268 -0.1804001331 0.5440967679 4287669688
-0.2757124305 -0.1784322113 0.5399709344 4286421423
-0.2736043930 -0.1764725894 0.5358423591 4285697700
-0.2723679543 -0.1750824302 0.5334208608 4285171872
-0.2711306214 -0.1736970842 0.5309976339 4284513942
-0.2703291476 -0.1725953966 0.5294279456 4283858845
-0.2686533332 -0.1709408760 0.5261459947 4283661466
-0.2674133778 -0.1695700139 0.5237175822 4282874009
-0.2666096091 -0.1684801877 0.5221434236 4282610837
-0.2662423551 -0.1676687747 0.5214241743 4282282907
-0.2658747137 -0.1668587029 0.5207041502 4282217114
-0.2655066252 -0.1660499722 0.5199832916 4282151321
-0.2651381493 -0.1652425826 0.5192616582 4282085528
-0.2638939917 -0.1638929397 0.5168249607 4282281879
-0.2648376822 -0.1639027596 0.5186731815 4282281879
-0.2631545067 -0.1622884423 0.5153767467 4282282133
-0.2640980482 -0.1622956544 0.5172246695 4282282133
-0.2628514469 -0.1609576195 0.5147832036 4282413719
-0.2624803782 -0.1601592451 0.5140565038 4282413719
-0.2616705894 -0.1590957344 0.5124705434 4282282649
-0.2612985671 -0.1583009660 0.5117419958 4282282649
-0.2609261572 -0.1575075835 0.5110126138 4282479258
-0.2609919608 -0.1569793969 0.5111415386 4282479258
-0.2610576153 -0.1564508080 0.5112700462 4282414235
-0.2611230314 -0.1559218317 0.5113981962 4282414235
-0.2603103518 -0.1548701227 0.5098065734 4282414235
-0.2599361241 -0.1540818512 0.5090736747 4282414235
-0.2595614791 -0.1532949805 0.5083399415 4282348442
-0.2596257031 -0.1527679712 0.5084657669 4282348442
-0.2596897781 -0.1522405893 0.5085912347 4282480028
-0.2588745952 -0.1511994004 0.5069947243 4282414235
-0.2593776882 -0.1509288251 0.5079800487 4282348955
-0.2585616112 -0.1498913318 0.5063817501 4282348955
-0.2581847310 -0.1491110623 0.5056436658 4282414748
-0.2582474053 -0.1485853046 0.5057664514 4282348955
-0.2578698397 -0.1478069574 0.5050269961 4282348955
-0.2579320371 -0.1472813338 0.5051487684 4282348955
-0.2575537562 -0.1465049088 0.5044079423 4282414746
-0.2571750879 -0.1457298994 0.5036663413 4282414746
-0.2572364807 -0.1452049464 0.5037865639 4282414746
-0.2572976947 -0.1446796209 0.5039064288 4282414746
-0.2573587000 -0.1441539228 0.5040259361 4282349466
-0.2569787502 -0.1433819085 0.5032817721 4282283673
-0.2570392787 -0.1428563595 0.5034003258 4282348953
-0.2570995986 -0.1423304528 0.5035184622 4282283160
-0.2571597397 -0.1418041587 0.5036362410 4282283673
-0.2572196722 -0.1412775069 0.5037536025 4282152087
-0.2568381131 -0.1405090541 0.5030063391 4282217880
-0.2564561367 -0.1397420615 0.5022583008 4282217880
-0.2569568157 -0.1394557208 0.5032387972 4282217880
-0.2565742433 -0.1386898011 0.5024895668 4282217880
-0.2566330135 -0.1381631345 0.5026046634 4282217880
-0.2562497556 -0.1373992115 0.5018540621 4282152087
-0.2563080192 -0.1368727237 0.5019682050 4282217882
-0.2559240758 -0.1361107975 0.5012162328 4282217882
-0.2559818327 -0.1355845183 0.5013293624 4282217882
-0.2560394108 -0.1350578666 0.5014421344 4282217882
-0.2560967803 -0.1345308721 0.5015544891 4282217882
-0.2557115257 -0.1337720752 0.5008000135 4282217882
-0.2553259134 -0.1330147535 0.5000447631 4282152089
-0.2558250725 -0.1327181309 0.5010223985 4282152089
-0.2558815479 -0.1321906298 0.5011329651 4282217882
-0.2554950416 -0.1314349920 0.5003759861 4282152089
-0.2551081181 -0.1306808442 0.4996182323 4282152089
-0.2556067705 -0.1303800941 0.5005948544 4282217882
-0.2556623518 -0.1298521161 0.5007036924 4282217882
-0.2557177246 -0.1293238103 0.5008121133 4282152089
-0.2557728887 -0.1287951469 0.5009201765 4282152089
-0.2558278739 -0.1282661557 0.5010278225 4282217882
-0.2558826208 -0.1277368069 0.5011351109 4282152089
-0.2559371889 -0.1272071302 0.5012419820 4282217882
-0.2559915483 -0.1266771108 0.5013484359 4282217882
-0.2560456991 -0.1261467636 0.5014544725 4282217882
-0.2556558251 -0.1253983676 0.5006908774 4282152089
-0.2561534047 -0.1250850558 0.5016654134 4282152089
-0.2562069297 -0.1245536953 0.5017702579 4282152089
-0.2558161616 -0.1238070577 0.5010048747 4282152089
-0.2558691800 -0.1232759580 0.5011087656 4282217882
-0.2559220195 -0.1227445304 0.5012122393 4282217882
-0.2559746504 -0.1222127751 0.5013152957 4282217880
-0.2560270429 -0.1216806844 0.5014179349 4282217880
-0.2556346953 -0.1209379509 0.5006495118 4282283673
-0.2561312616 -0.1206155345 0.5016220212 4282283673
-0.2561830580 -0.1200824752 0.5017234683 4282283673
-0.2562346458 -0.1195490956 0.5018244982 4282283673
-0.2562860250 -0.1190153882 0.5019251108 4282217882
-0.2567822039 -0.1186870560 0.5028969049 4282283675
-0.2559430301 -0.1177422479 0.5012533665 4282217882
-0.2559936643 -0.1172085106 0.5013525486 4282283675
-0.2560441196 -0.1166744605 0.5014513731 4282283673
-0.2560943663 -0.1161400974 0.5015497804 4282217880
-0.2561443746 -0.1156054139 0.5016477108 4282217880
-0.2561942041 -0.1150704250 0.5017452836 4282217880
-0.2562437952 -0.1145351157 0.5018424392 4282348953
-0.2562931776 -0.1139995083 0.5019391775 4282348953
-0.2567881644 -0.1136609092 0.5029085875 4282480539
-0.2563913167 -0.1129273474 0.5021313429 4282480539
-0.2568860650 -0.1125862747 0.5031002760 4282414746
-0.2569346726 -0.1120484993 0.5031954646 4282414746
-0.2569831014 -0.1115104184 0.5032902956 4282480539
-0.2570312917 -0.1109720320 0.5033846498 4282480539
-0.2570792437 -0.1104333401 0.5034786463 4282612125
-0.2575734258 -0.1100851446 0.5044464469 4282546332
-0.2576210499 -0.1095449179 0.5045397282 4282546332
-0.2581150234 -0.1091933101 0.5055071115 4282546332
-0.2581622899 -0.1086515486 0.5055997372 4282546332
-0.2582093477 -0.1081094965 0.5056918859 4282612125
-0.2582561970 -0.1075671464 0.5057836175 4282677918
-0.2587496936 -0.1072096601 0.5067501068 4282677918
-0.2587961853 -0.1066657826 0.5068411231 4282677918
-0.2592894733 -0.1063048989 0.5078072548 4282677918
-0.2593356073 -0.1057594940 0.5078976154 4282743713
-0.2593815029 -0.1052138060 0.5079874992 4282743713
-0.2594271898 -0.1046678200 0.5080769658 4282809506
-0.2594726384 -0.1041215509 0.5081659555 4282809506
-0.2595178783 -0.1035749987 0.5082545280 4282809506
-0.2595628798 -0.1030281559 0.5083426833 4282809506
-0.2600552738 -0.1026577204 0.5093070269 4282875299
-0.2596522272 -0.1019336209 0.5085176826 4282875299
-0.2596965730 -0.1013859361 0.5086045265 4282941092
-0.2597406805 -0.1008379683 0.5086909533 4282941092
-0.2597845793 -0.1002897173 0.5087769032 4282941092
-0.2602762282 -0.0999131650 0.5097397566 4283006885
-0.2603197396 -0.0993634164 0.5098249912 4282941605
-0.2603630424 -0.0988133922 0.5099098086 4282941605
-0.2608543038 -0.0984322280 0.5108719468 4283073191
-0.2613455057 -0.0980488881 0.5118339062 4283073191
-0.2618366182 -0.0976633877 0.5127957463 4283073191
-0.2618792355 -0.0971094370 0.5128791332 4283073191
-0.2623700798 -0.0967205465 0.5138404965 4283073191
-0.2628608942 -0.0963294879 0.5148016810 4283073191
-0.2633515894 -0.0959362611 0.5157626867 4283138984
-0.2633934915 -0.0953783840 0.5158447623 4283204777
-0.2638839483 -0.0949817821 0.5168052912 4283073706
-0.2639254630 -0.0944224223 0.5168865919 4283007913
-0.2639667392 -0.0938628018 0.5169674754 4283073705
-0.2640077770 -0.0933029205 0.5170478225 4283139498
-0.2640485764 -0.0927427784 0.5171277523 4283139498
-0.2645382881 -0.0923391506 0.5180868506 4283205291
-0.2645787001 -0.0917775333 0.5181660056 4283205291
-0.2650681436 -0.0913705304 0.5191245675 4283139498
-0.2651081681 -0.0908074528 0.5192028880 4283140011
-0.2655973434 -0.0903970748 0.5201609731 4283140011
-0.2660864294 -0.0899845362 0.5211188197 4283205804
-0.2661258578 -0.0894187838 0.5211960077 4283205804
-0.2666146755 -0.0890028775 0.5221533179 4283337390
-0.2671033740 -0.0885848030 0.5231104493 4283403183
-0.2671422362 -0.0880163908 0.5231865048 4283403183
-0.2680804431 -0.0877421722 0.5250239968 4283534769
-0.2685688138 -0.0873176157 0.5259804130 4283468974
-0.2690570652 -0.0868908912 0.5269366503 4283534767
-0.2690952420 -0.0863176659 0.5270113945 4283600303
-0.2700332403 -0.0860309675 0.5288484693 4283666096
-0.2701086104 -0.0848794729 0.5289960504 4283863473
-0.2705961466 -0.0844438672 0.5299509168 4283863473
-0.2710835934 -0.0840061009 0.5309054852 4283929266
-0.2715708911 -0.0835661814 0.5318598747 4283995059
-0.2720580697 -0.0831241012 0.5328140259 4283929266
-0.2725451589 -0.0826798603 0.5337679386 4284125875
-0.2739331722 -0.0825048611 0.5364863276 4284191668
-0.2730682790 -0.0816501752 0.5347924232 4284257461
-0.2749069035 -0.0816017464 0.5383933187 4284257461
-0.2758442760 -0.0812797621 0.5402291417 4284323254
-0.2763308883 -0.0808218494 0.5411821008 4284323254
-0.2763665020 -0.0802308992 0.5412518382 4284258233
-0.2773036361 -0.0798995495 0.5430872440 4284324026
-0.2782407999 -0.0795641169 0.5449225903 4284324024
-0.2791779041 -0.0792246014 0.5467578769 4284389817
-0.2805660367 -0.0790080205 0.5494765043 4284718012
-0.2815031409 -0.0786593631 0.5513117909 4284849598
-0.2828913927 -0.0784317106 0.5540305972 4284915132
-0.2842797339 -0.0781980380 0.5567495823 4284980925
-0.2852168381 -0.0778351799 0.5585848689 4285111997
-0.2861538827 -0.0774682388 0.5604200363 4285243583
-0.2884450853 -0.0774608627 0.5649073124 4285441216
-0.2925423980 -0.0779246092 0.5729316473 4285638595
-0.2934798300 -0.0775357112 0.5747675896 4285769411
-0.2953203321 -0.0773793459 0.5783721209 4285966790
-0.2971609831 -0.0772150159 0.5819769502 4286229962
-0.3012600839 -0.0776245967 0.5900049210 4286427341
-0.2990358174 -0.0764007792 0.5856487751 4286951886
-0.3040390611 -0.0770174712 0.5954473615 4287017679
-0.3054285645 -0.0767048448 0.5981686711 4287411919
-0.3063662350 -0.0762736797 0.6000050306 4287675091
-0.3177669942 -0.0770376772 0.6223329902 4288989147
-0.3268423975 -0.0785266608 0.6401067376 4289186526
-0.3214518130 -0.0765320510 0.6295495033 4289908444
-0.3273637891 -0.0772272497 0.6411278248 4290434788
-0.3255891502 -0.0761001259 0.6376523376 4291879914
-0.2760233581 -0.1796247810 0.5417582989 4288787653
-0.2743555903 -0.1779411584 0.5384848714 4287078582
-0.2726866603 -0.1762640774 0.5352092385 4286354859
-0.2714523673 -0.1748742610 0.5327866673 4285631394
-0.2697813213 -0.1732094437 0.5295068622 4284841878
-0.2707248926 -0.1732248515 0.5313588381 4283858845
-0.2690523267 -0.1715679318 0.5280760527 4283595673
-0.2678148150 -0.1701947749 0.5256471634 4282873241
-0.2670127451 -0.1691027880 0.5240729451 4282610069
-0.2662100494 -0.1680138856 0.5224974155 4282216857
-0.2658432126 -0.1672026217 0.5217773914 4282085271
-0.2654759586 -0.1663927138 0.5210565925 4281888149
-0.2651082873 -0.1655841470 0.5203349590 4281888149
-0.2647401989 -0.1647769213 0.5196125507 4282150547
-0.2643717229 -0.1639710367 0.5188893080 4282216340
-0.2631286383 -0.1626262218 0.5164494514 4282216340
-0.2631962895 -0.1620940864 0.5165822506 4282216340
-0.2628264427 -0.1612931639 0.5158563256 4282347926
-0.2624562085 -0.1604935974 0.5151296258 4282347926
-0.2620855272 -0.1596953869 0.5144021511 4282216856
-0.2612768114 -0.1586328447 0.5128148198 4282216856
-0.2613429725 -0.1581030935 0.5129446983 4282282649
-0.2609710693 -0.1573090106 0.5122147799 4282348442
-0.2605987787 -0.1565162987 0.5114840269 4282348442
-0.2606641650 -0.1559871286 0.5116123557 4282414235
-0.2602911592 -0.1551962793 0.5108802319 4282414235
-0.2599177361 -0.1544068307 0.5101473331 4282414235
-0.2591055036 -0.1533592641 0.5085531473 4282414235
-0.2596082091 -0.1530906707 0.5095398426 4282348442
-0.2592336833 -0.1523045003 0.5088047385 4282348955
-0.2588587403 -0.1515197158 0.5080688000 4282348955
-0.2593610883 -0.1512481719 0.5090548396 4282414748
-0.2585466206 -0.1502093822 0.5074561834 4282414748
-0.2581705749 -0.1494279057 0.5067180991 4282414748
-0.2582332790 -0.1489010751 0.5068412423 4282480541
-0.2578565478 -0.1481215209 0.5061017871 4282414748
-0.2574793994 -0.1473433822 0.5053615570 4282348955
-0.2575413287 -0.1468171924 0.5054830909 4282414746
-0.2571634650 -0.1460409909 0.5047414899 4282480539
-0.2567852139 -0.1452662051 0.5039991140 4282415259
-0.2568463683 -0.1447406858 0.5041190982 4282415259
-0.2569073439 -0.1442147940 0.5042387247 4282415259
-0.2569681108 -0.1436885148 0.5043579936 4282349466
-0.2565885484 -0.1429167390 0.5036130548 4282414746
-0.2570890486 -0.1426348686 0.5045953989 4282348953
-0.2567088902 -0.1418641508 0.5038492680 4282283673
-0.2567687929 -0.1413373053 0.5039668083 4282283673
-0.2568284869 -0.1408100873 0.5040839911 4282217880
-0.2564473450 -0.1400418729 0.5033358932 4282217880
-0.2565065324 -0.1395148337 0.5034521222 4282217880
-0.2561247051 -0.1387486160 0.5027026534 4282217880
-0.2561834157 -0.1382217407 0.5028178692 4282217880
-0.2558008730 -0.1374575198 0.5020670891 4282152087
-0.2558590770 -0.1369308382 0.5021812916 4282217880
-0.2559171021 -0.1364037991 0.5022951961 4282217880
-0.2555335760 -0.1356421262 0.5015424490 4282217880
-0.2555910945 -0.1351152807 0.5016553402 4282217880
-0.2556484044 -0.1345880926 0.5017678142 4282217880
-0.2557055354 -0.1340605319 0.5018799305 4282217880
-0.2553206980 -0.1333020031 0.5011246204 4282217880
-0.2553773224 -0.1327746511 0.5012357831 4282217880
-0.2558756769 -0.1324757636 0.5022138953 4282217882
-0.2554899752 -0.1317189187 0.5014568567 4282217882
-0.2551038861 -0.1309635490 0.5006990433 4282217882
-0.2551596165 -0.1304357201 0.5008084178 4282217882
-0.2556574345 -0.1301326901 0.5017855763 4282217882
-0.2557128668 -0.1296032667 0.5018943548 4282217882
-0.2557680905 -0.1290734857 0.5020027161 4282217882
-0.2558231056 -0.1285433620 0.5021107197 4282152089
-0.2558779120 -0.1280129105 0.5022182465 4282217882
-0.2559325099 -0.1274821013 0.5023254752 4282217882
-0.2559869289 -0.1269509643 0.5024322271 4282217882
-0.2560411096 -0.1264194995 0.5025386214 4282217882
-0.2556520402 -0.1256698817 0.5017749667 4282217882
-0.2557057440 -0.1251386553 0.5018803477 4282152089
-0.2562024891 -0.1248230413 0.5028553605 4282217882
-0.2558125257 -0.1240751892 0.5020899177 4282217882
-0.2558656037 -0.1235429645 0.5021941066 4282217882
-0.2559184730 -0.1230104044 0.5022978783 4282217882
-0.2559711337 -0.1224775165 0.5024012923 4282217882
-0.2560236156 -0.1219443008 0.5025042295 4282217882
-0.2556320429 -0.1212003380 0.5017357469 4282217882
-0.2556840181 -0.1206673905 0.5018376708 4282283675
-0.2561797500 -0.1203426868 0.5028106570 4282283675
-0.2562313676 -0.1198081672 0.5029119849 4282283675
-0.2562827766 -0.1192733273 0.5030129552 4282283675
-0.2567782402 -0.1189439520 0.5039854050 4282349468
-0.2559406459 -0.1179978251 0.5023413897 4282283675
-0.2559913397 -0.1174629554 0.5024409294 4282283675
-0.2560418546 -0.1169277653 0.5025400519 4282349468
-0.2560921311 -0.1163922548 0.5026386976 4282283675
-0.2561421990 -0.1158564314 0.5027369857 4282283675
-0.2561920285 -0.1153203025 0.5028348565 4282283675
-0.2562416792 -0.1147838533 0.5029322505 4282283675
-0.2562911212 -0.1142470911 0.5030292869 4282283675
-0.2563403249 -0.1137100235 0.5031259060 4282546332
-0.2563893497 -0.1131726503 0.5032220483 4282612125
-0.2564381361 -0.1126349643 0.5033178329 4282480539
-0.2564867139 -0.1120969728 0.5034132004 4282414746
-0.2569804490 -0.1117523536 0.5043822527 4282414746
-0.2570286691 -0.1112128198 0.5044769049 4282480539
-0.2575222254 -0.1108647883 0.5054456592 4282612125
-0.2575701177 -0.1103237122 0.5055395961 4282546332
-0.2576178014 -0.1097823307 0.5056331754 4282546332
-0.2581110299 -0.1094296500 0.5066012740 4282612125
-0.2581583560 -0.1088867411 0.5066941381 4282612127
-0.2582054436 -0.1083435267 0.5067865849 4282612127
-0.2582523227 -0.1078000218 0.5068785548 4282677920
-0.2582989633 -0.1072562188 0.5069701672 4282612127
-0.2583454251 -0.1067121178 0.5070613027 4282677920
-0.2583916485 -0.1061677262 0.5071520209 4282677920
-0.2588839829 -0.1058054715 0.5081183910 4282743713
-0.2589298487 -0.1052595526 0.5082083941 4282743713
-0.2589754760 -0.1047133505 0.5082979798 4282809506
-0.2594674826 -0.1043464616 0.5092636347 4282875299
-0.2595127523 -0.1037987396 0.5093525052 4282875299
-0.2595578134 -0.1032507345 0.5094408989 4282875299
-0.2596026361 -0.1027024388 0.5095288754 4282875812
-0.2596472204 -0.1021538675 0.5096164346 4282875812
-0.2596916258 -0.1016050056 0.5097035170 4282875812
-0.2597357631 -0.1010558680 0.5097901821 4282875812
-0.2597796917 -0.1005064547 0.5098764300 4282875812
-0.2602705956 -0.1001287997 0.5108399391 4282941605
-0.2603141665 -0.0995778814 0.5109254122 4282941605
-0.2603574991 -0.0990266874 0.5110104680 4282941605
-0.2608480155 -0.0986444205 0.5119732022 4283073191
-0.2613384724 -0.0982599854 0.5129358172 4283073191
-0.2618288398 -0.0978733748 0.5138983130 4283073191
-0.2618714869 -0.0973182470 0.5139819980 4283138984
-0.2628093064 -0.0970936567 0.5158227086 4283204777
-0.2628516555 -0.0965360850 0.5159057975 4283204777
-0.2628937364 -0.0959782451 0.5159884095 4283204777
-0.2633835375 -0.0955826938 0.5169497728 4283138984
-0.2634252310 -0.0950233713 0.5170316100 4283007913
-0.2639147937 -0.0946244374 0.5179924965 4283007913
-0.2639560997 -0.0940636322 0.5180735588 4283073705
-0.2639971972 -0.0935025662 0.5181542039 4283073705
-0.2640380263 -0.0929412395 0.5182343721 4283073705
-0.2645269930 -0.0925364867 0.5191940665 4283139498
-0.2645674348 -0.0919736922 0.5192734599 4283139499
-0.2650561333 -0.0915655643 0.5202326179 4283205292
-0.2650961876 -0.0910012946 0.5203112364 4283205292
-0.2651360035 -0.0904367715 0.5203893781 4283271085
-0.2660729587 -0.0901761279 0.5222283602 4283205804
-0.2661124170 -0.0896091908 0.5223058462 4283271597
-0.2666004896 -0.0891921520 0.5232637525 4283403183
-0.2666395307 -0.0886237472 0.5233404040 4283468976
-0.2666783631 -0.0880550966 0.5234166384 4283600562
-0.2671659589 -0.0876334831 0.5243736506 4283600562
-0.2681025565 -0.0873560384 0.5262118578 4283600560
-0.2681408525 -0.0867837742 0.5262870789 4283666353
-0.2686281204 -0.0863556713 0.5272434354 4283731889
-0.2691152692 -0.0859254077 0.5281995535 4283797682
-0.2696022987 -0.0854929835 0.5291554928 4283863475
-0.2700892389 -0.0850583985 0.5301111937 4283929268
-0.2701265514 -0.0844810829 0.5301845074 4283929268
-0.2706131935 -0.0840431377 0.5311395526 4283995061
-0.2710996866 -0.0836030319 0.5320944190 4284060854
-0.2715860605 -0.0831607655 0.5330490470 4283995061
-0.2720723152 -0.0827163458 0.5340034366 4284191668
-0.2730081975 -0.0824055225 0.5358403325 4284323254
-0.2734942436 -0.0819558129 0.5367943048 4284323254
-0.2739801705 -0.0815039501 0.5377480388 4284323254
-0.2749159038 -0.0811828002 0.5395846367 4284389047
-0.2767516375 -0.0811213702 0.5431876779 4284454840
-0.2772373855 -0.0806591734 0.5441411138 4284454842
-0.2777230144 -0.0801948234 0.5450942516 4284454842
-0.2782084942 -0.0797283128 0.5460470915 4284520633
-0.2795943022 -0.0795157328 0.5487670302 4284652219
-0.2805298865 -0.0791700557 0.5506033897 4284849085
-0.2819158137 -0.0789463967 0.5533235669 4284980671
-0.2833018005 -0.0787167177 0.5560438633 4285046718
-0.2842374146 -0.0783568323 0.5578801632 4285046718
-0.2869749963 -0.0784857050 0.5632533431 4285177790
-0.2865590453 -0.0777470395 0.5624369383 4285309376
-0.2888464332 -0.0777377337 0.5669264197 4285637825
-0.2906833887 -0.0775982216 0.5705319047 4285769411
-0.2938727140 -0.0778087527 0.5767916441 4285900484
-0.2957101464 -0.0776503906 0.5803980827 4286097863
-0.3002527356 -0.0781884566 0.5893138647 4286427082
-0.2980328500 -0.0769604445 0.5849568248 4286624461
-0.3021252155 -0.0773583576 0.5929890871 4287147980
-0.3071202040 -0.0779675692 0.6027928591 4287279566
-0.3071546555 -0.0773064867 0.6028604507 4287673808
-0.3094442189 -0.0772079304 0.6073542833 4288002773
-0.3221802115 -0.0782778636 0.6323515773 4289514464
-0.3190558553 -0.0768229812 0.6262192726 4289843429
-0.3276650906 -0.0781813860 0.6431168318 4290433503
-0.3290537894 -0.0777951553 0.6458424926 4291288812
-0.2751747668 -0.1788623780 0.5412726402 4287604154
-0.2722047269 -0.1763369590 0.5354305506 4286946224
-0.2735823393 -0.1766314805 0.5381403565 4285828260
-0.2710448802 -0.1744008809 0.5331491232 4285038744
-0.2702465951 -0.1732965857 0.5315788388 4283989918
-0.2694476247 -0.1721953750 0.5300073028 4283726746
-0.2682126164 -0.1708199382 0.5275779963 4282939034
-0.2669767141 -0.1694493443 0.5251469612 4282610069
-0.2666112185 -0.1686346978 0.5244280696 4282151064
-0.2662453353 -0.1678213775 0.5237083435 4281953685
-0.2654431462 -0.1667356193 0.5221304297 4281888149
-0.2650763094 -0.1659258604 0.5214087963 4281953942
-0.2647090256 -0.1651174575 0.5206864476 4282084754
-0.2643413544 -0.1643103957 0.5199632049 4282216340
-0.2639732659 -0.1635046899 0.5192391872 4282216340
-0.2631683648 -0.1624309719 0.5176558495 4282216340
-0.2632358670 -0.1618973464 0.5177887082 4282282133
-0.2624298930 -0.1608281136 0.5162033439 4282282133
-0.2620600462 -0.1600287259 0.5154758096 4282151063
-0.2612529099 -0.1589648724 0.5138881803 4282282649
-0.2613191307 -0.1584340483 0.5140184164 4282216856
-0.2609480619 -0.1576387733 0.5132885575 4282216856
-0.2605765760 -0.1568448842 0.5125578046 4282282649
-0.2606420219 -0.1563146263 0.5126865506 4282348442
-0.2602698207 -0.1555225998 0.5119544268 4282414235
-0.2598972321 -0.1547319591 0.5112215281 4282414235
-0.2595242262 -0.1539426893 0.5104878545 4282348955
-0.2591508329 -0.1531548202 0.5097533464 4282348955
-0.2592148781 -0.1526261568 0.5098792911 4282283162
-0.2588407397 -0.1518401951 0.5091434121 4282348955
-0.2584662437 -0.1510556191 0.5084067583 4282348955
-0.2580913007 -0.1502724439 0.5076692700 4282348955
-0.2581542730 -0.1497449130 0.5077931285 4282348955
-0.2582170367 -0.1492169797 0.5079165697 4282480541
-0.2574026287 -0.1481837928 0.5063145757 4282415261
-0.2574647963 -0.1476569027 0.5064368844 4282415261
-0.2570880651 -0.1468789876 0.5056958795 4282415261
-0.2571497560 -0.1463522315 0.5058171749 4282415261
-0.2567723095 -0.1455762386 0.5050747991 4282415261
-0.2568335235 -0.1450496316 0.5051951408 4282349468
-0.2568945289 -0.1445226520 0.5053151846 4282349468
-0.2565160990 -0.1437491328 0.5045707822 4282349468
-0.2565765977 -0.1432223022 0.5046898127 4282415261
-0.2566369176 -0.1426950991 0.5048084855 4282481054
-0.2562575042 -0.1419240832 0.5040621161 4282283675
-0.2567569911 -0.1416395754 0.5050446391 4282349468
-0.2563769817 -0.1408696175 0.5042971373 4282349468
-0.2564364076 -0.1403418481 0.5044140220 4282283675
-0.2560556829 -0.1395738721 0.5036651492 4282283675
-0.2561146319 -0.1390462667 0.5037811399 4282217882
-0.2557332218 -0.1382803023 0.5030308962 4282217369
-0.2553514242 -0.1375157833 0.5022798777 4282283162
-0.2554095685 -0.1369889081 0.5023942590 4282283673
-0.2554675341 -0.1364616603 0.5025082827 4282283673
-0.2555252910 -0.1359340698 0.5026218891 4282283673
-0.2551422119 -0.1351726651 0.5018683076 4282217880
-0.2551994622 -0.1346452534 0.5019809604 4282217880
-0.2552565336 -0.1341175139 0.5020931959 4282217880
-0.2553133965 -0.1335894018 0.5022050738 4282217880
-0.2558111250 -0.1332907528 0.5031840801 4282217880
-0.2549853921 -0.1323032379 0.5015598536 4282283673
-0.2550415695 -0.1317749918 0.5016703606 4282283673
-0.2550975382 -0.1312464029 0.5017804503 4282283673
-0.2551532984 -0.1307174563 0.5018901825 4282217880
-0.2552088797 -0.1301881671 0.5019994974 4282152087
-0.2552642524 -0.1296585351 0.5021083951 4282217880
-0.2553194165 -0.1291285604 0.5022168756 4282152087
-0.2553743720 -0.1285982430 0.5023249984 4282152087
-0.2554291487 -0.1280675679 0.5024327040 4282217882
-0.2554836869 -0.1275365651 0.5025400519 4282152089
-0.2555380464 -0.1270052344 0.5026469827 4282152089
-0.2555921972 -0.1264735460 0.5027534962 4282217882
-0.2556461394 -0.1259415299 0.5028595924 4282217882
-0.2556999028 -0.1254091710 0.5029653311 4282217882
-0.2553109527 -0.1246604323 0.5022002459 4282086810
-0.2553641796 -0.1241283342 0.5023049712 4282086810
-0.2554172277 -0.1235958934 0.5024092793 4282086810
-0.2554700375 -0.1230631322 0.5025132298 4282086810
-0.2555226684 -0.1225300357 0.5026167035 4282086810
-0.2555750906 -0.1219966114 0.5027198195 4282086810
-0.2556273043 -0.1214628592 0.5028225183 4282152603
-0.2556792796 -0.1209287792 0.5029247999 4282152603
-0.2557310760 -0.1203943789 0.5030266643 4282152603
-0.2557826638 -0.1198596507 0.5031281114 4282152603
-0.2558340430 -0.1193246022 0.5032291412 4282283420
-0.2558851838 -0.1187892258 0.5033298135 4282349213
-0.2554925978 -0.1180485934 0.5025575161 4282217627
-0.2559868991 -0.1177175269 0.5035298467 4282349213
-0.2555936873 -0.1169781089 0.5027564168 4282415006
-0.2556439042 -0.1164423898 0.5028551817 4282349213
-0.2556939423 -0.1159063578 0.5029535890 4282349468
-0.2557437420 -0.1153700128 0.5030515790 4282349468
-0.2557933629 -0.1148333475 0.5031491518 4282283675
-0.2558427453 -0.1142963767 0.5032463074 4282283675
-0.2558919191 -0.1137591004 0.5033430457 4282415261
-0.2559408844 -0.1132215038 0.5034393072 4282546847
-0.2559896410 -0.1126836091 0.5035352111 4282415259
-0.2560381591 -0.1121454015 0.5036306977 4282283673
-0.2565310895 -0.1118006557 0.5046002865 4282349466
-0.2570239305 -0.1114537343 0.5055697560 4282415259
-0.2570720017 -0.1109127402 0.5056642890 4282612127
-0.2571198344 -0.1103714481 0.5057583451 4282546334
-0.2571674585 -0.1098298505 0.5058520436 4282612127
-0.2576598823 -0.1094770357 0.5068206191 4282677920
-0.2577071488 -0.1089339107 0.5069136024 4282612127
-0.2577542067 -0.1083904803 0.5070061684 4282612127
-0.2578010559 -0.1078467518 0.5070983171 4282677920
-0.2578476667 -0.1073027253 0.5071899891 4282612127
-0.2578940690 -0.1067584082 0.5072813034 4282677920
-0.2579402328 -0.1062138006 0.5073720813 4282743713
-0.2584317625 -0.1058513969 0.5083389878 4282743713
-0.2584775984 -0.1053052694 0.5084291101 4282743713
-0.2585231960 -0.1047588438 0.5085187554 4282809506
-0.2585685551 -0.1042121276 0.5086080432 4282875299
-0.2590596080 -0.1038438603 0.5095739365 4282941092
-0.2591046095 -0.1032956317 0.5096624494 4282941092
-0.2591494024 -0.1027471200 0.5097505450 4282941605
-0.2591939569 -0.1021983176 0.5098382235 4282941605
-0.2592383027 -0.1016492397 0.5099254251 4282941605
-0.2592824101 -0.1010998785 0.5100122094 4282941605
-0.2593263090 -0.1005502343 0.5100985169 4282941605
-0.2598164082 -0.1001724377 0.5110625625 4282941605
-0.2598599195 -0.0996212885 0.5111481547 4282941605
-0.2599032223 -0.0990698710 0.5112332702 4282941605
-0.2603929341 -0.0986874476 0.5121965408 4283138984
-0.2604358196 -0.0981345326 0.5122809410 4283138984
-0.2609253228 -0.0977487192 0.5132437944 4283007912
-0.2614147067 -0.0973607376 0.5142064095 4283073705
-0.2619040012 -0.0969705880 0.5151689053 4283073705
-0.2623932362 -0.0965782627 0.5161312222 4283139498
-0.2624352872 -0.0960201994 0.5162139535 4283139498
-0.2624771297 -0.0954618603 0.5162962079 4283139498
-0.2629659474 -0.0950649306 0.5172577500 4283336108
-0.2630073726 -0.0945051089 0.5173392296 4283336108
-0.2634959519 -0.0941047966 0.5183002949 4283205291
-0.2635369897 -0.0935434923 0.5183809996 4283139498
-0.2635778189 -0.0929819345 0.5184612870 4283139498
-0.2640659511 -0.0925770253 0.5194214582 4283205291
-0.2645539939 -0.0921699405 0.5203814507 4283205292
-0.2645942569 -0.0916056931 0.5204606652 4283271085
-0.2650820315 -0.0911952406 0.5214201212 4283271085
-0.2651218772 -0.0906295255 0.5214985013 4283336878
-0.2656093836 -0.0902156904 0.5224574208 4283337390
-0.2660968006 -0.0897996873 0.5234161615 4283337390
-0.2661360800 -0.0892312974 0.5234934092 4283403183
-0.2661750913 -0.0886626616 0.5235701799 4283534769
-0.2666620612 -0.0882420763 0.5245280266 4283666355
-0.2675971687 -0.0879666805 0.5263673663 4283600562
-0.2680839598 -0.0875408128 0.5273249149 4283732148
-0.2681222856 -0.0869673491 0.5274003148 4283732148
-0.2686088085 -0.0865381137 0.5283573270 4283863221
-0.2686467171 -0.0859631971 0.5284318924 4283929014
-0.2691329420 -0.0855305940 0.5293883085 4283863221
-0.2700676620 -0.0852374211 0.5312269330 4283929014
-0.2701050341 -0.0846589059 0.5313004255 4283995061
-0.2705909014 -0.0842198133 0.5322561264 4283995061
-0.2710766494 -0.0837785602 0.5332115889 4284060854
-0.2715622783 -0.0833351463 0.5341668129 4283995061
-0.2720477581 -0.0828895792 0.5351217985 4284191670
-0.2725331187 -0.0824418440 0.5360765457 4284389049
-0.2734674215 -0.0821268037 0.5379142761 4284389047
-0.2744016945 -0.0818076804 0.5397520065 4284389047
-0.2753359377 -0.0814844668 0.5415896773 4284454840
-0.2762701809 -0.0811571628 0.5434273481 4284520633
-0.2776536942 -0.0809567720 0.5461487174 4284454840
-0.2785879374 -0.0806203261 0.5479864478 4284520633
-0.2795221806 -0.0802797899 0.5498240590 4284717499
-0.2795574665 -0.0796789527 0.5498934984 4284849085
-0.2804915309 -0.0793321654 0.5517308116 4284914878
-0.2818751335 -0.0791074559 0.5544523597 4285046464
-0.2832587957 -0.0788767114 0.5571740270 4285243584
-0.2846425176 -0.0786399469 0.5598958731 4285309377
-0.2873755097 -0.0787669495 0.5652716756 4285374655
-0.2892093062 -0.0786375105 0.5688788295 4285637827
-0.2910432816 -0.0785001069 0.5724862814 4285900484
-0.2928774357 -0.0783547312 0.5760940313 4285966277
-0.2947117090 -0.0782013759 0.5797021389 4286228935
-0.2965461612 -0.0780400410 0.5833104849 4286426314
-0.2988307774 -0.0779881775 0.5878043771 4286755277
-0.2997653782 -0.0775769502 0.5896427035 4287018449
-0.3016001880 -0.0773926377 0.5932518244 4287410123
-0.3038853109 -0.0773148760 0.5977467299 4287607502
-0.3079716861 -0.0776814669 0.6057846546 4288002002
-0.3111580610 -0.0778051540 0.6120523214 4288396760
-0.3230409920 -0.0772464648 0.6354262233 4290959589
-0.3271304667 -0.0775094032 0.6434702277 4292078070
-0.2759887278 -0.1797842234 0.5440623760 4288853194
-0.2743265331 -0.1781006008 0.5407856703 4287471541
-0.2726632357 -0.1764235198 0.5375067592 4286288811
-0.2714331150 -0.1750330627 0.5350817442 4285367709
-0.2702021003 -0.1736474335 0.5326550603 4284449180
-0.2694047391 -0.1725449264 0.5310831666 4284120215
-0.2686067224 -0.1714455038 0.5295100212 4283332249
-0.2673732936 -0.1700726151 0.5270785689 4283069077
-0.2665738761 -0.1689802408 0.5255026817 4282281880
-0.2662087977 -0.1681657434 0.5247829556 4281952915
-0.2658433020 -0.1673525870 0.5240624547 4281690772
-0.2650421858 -0.1662677526 0.5224831700 4281888151
-0.2646757364 -0.1654581726 0.5217608213 4281953942
-0.2638734579 -0.1643786728 0.5201792717 4281822356
-0.2635060847 -0.1635726690 0.5194550157 4281888404
-0.2631382942 -0.1627680063 0.5187299848 4281954197
-0.2623343170 -0.1616961211 0.5171450973 4282019477
-0.2619656026 -0.1608950645 0.5164182186 4282085270
-0.2624684572 -0.1606290340 0.5174095631 4282347926
-0.2616630197 -0.1595630050 0.5158217549 4282347926
-0.2612931728 -0.1587651670 0.5150927305 4282216856
-0.2609229386 -0.1579686999 0.5143628120 4282216856
-0.2609887123 -0.1574368924 0.5144925117 4282216856
-0.2606177330 -0.1566422880 0.5137612224 4282282649
-0.2602463961 -0.1558490694 0.5130291581 4282348442
-0.2598746121 -0.1550572366 0.5122962594 4282480028
-0.2595024407 -0.1542667896 0.5115625262 4282545821
-0.2591298521 -0.1534777284 0.5108280778 4282414235
-0.2587568462 -0.1526900679 0.5100927949 4282414748
-0.2583834529 -0.1519037932 0.5093566775 4282348955
-0.2588842511 -0.1516311914 0.5103439093 4282348955
-0.2580728531 -0.1505906880 0.5087443590 4282414748
-0.2576983273 -0.1498077214 0.5080060959 4282414748
-0.2577610612 -0.1492796093 0.5081297159 4282414748
-0.2578235865 -0.1487511098 0.5082529783 4282414748
-0.2574480772 -0.1479705870 0.5075127482 4282480541
-0.2575100958 -0.1474422216 0.5076350570 4282414748
-0.2566958368 -0.1464137733 0.5060299039 4282414748
-0.2563191354 -0.1456374824 0.5052872896 4282480541
-0.2563802898 -0.1451106817 0.5054078102 4282480541
-0.2564412355 -0.1445835084 0.5055279732 4282414748
-0.2565019727 -0.1440559477 0.5056477189 4282480541
-0.2565625608 -0.1435280144 0.5057671070 4282546334
-0.2566229105 -0.1429997087 0.5058861375 4282480541
-0.2566830814 -0.1424710453 0.5060047507 4282348955
-0.2563042045 -0.1416993588 0.5052577853 4282414748
-0.2563638687 -0.1411708444 0.5053754449 4282414748
-0.2559842765 -0.1404011399 0.5046271682 4282348955
-0.2560434639 -0.1398727894 0.5047438145 4282348955
-0.2556631863 -0.1391050667 0.5039941669 4282348955
-0.2557218671 -0.1385769099 0.5041098595 4282348700
-0.2553408742 -0.1378111839 0.5033588409 4282282907
-0.2553990781 -0.1372831911 0.5034735799 4282283673
-0.2554571033 -0.1367548555 0.5035879016 4282349466
-0.2550751269 -0.1359916776 0.5028349161 4282283673
-0.2551326156 -0.1354635358 0.5029482841 4282217880
-0.2551899552 -0.1349350214 0.5030612350 4282217880
-0.2552470565 -0.1344061643 0.5031738281 4282217880
-0.2548637986 -0.1336461306 0.5024183393 4282152087
-0.2553606927 -0.1333473772 0.5033978820 4282217880
-0.2554171979 -0.1328174472 0.5035092831 4282283675
-0.2550330460 -0.1320590973 0.5027519464 4282217882
-0.2550890744 -0.1315293908 0.5028623939 4282217882
-0.2551448643 -0.1309993267 0.5029724240 4282217882
-0.2552005053 -0.1304689199 0.5030820966 4282217882
-0.2552559078 -0.1299381703 0.5031912923 4282152089
-0.2553111315 -0.1294070780 0.5033001304 4282086810
-0.2553661168 -0.1288756430 0.5034086108 4282086810
-0.2554209530 -0.1283438504 0.5035166144 4282021018
-0.2554755509 -0.1278117299 0.5036242604 4282086811
-0.2550886273 -0.1270594299 0.5028614998 4282086811
-0.2551427186 -0.1265275478 0.5029681921 4282152604
-0.2551966012 -0.1259953231 0.5030744076 4282152604
-0.2552503049 -0.1254627705 0.5031802654 4282086811
-0.2553570867 -0.1243966445 0.5033907294 4282152604
-0.2554101646 -0.1238630787 0.5034953952 4282152604
-0.2554630339 -0.1233291849 0.5035995841 4282086811
-0.2555156946 -0.1227949560 0.5037034154 4282086811
-0.2555681467 -0.1222603992 0.5038068295 4282086811
-0.2556203902 -0.1217255145 0.5039098263 4282152604
-0.2556724250 -0.1211903095 0.5040124059 4282218397
-0.2557242811 -0.1206547692 0.5041145682 4282152604
-0.2553333640 -0.1199110895 0.5033439994 4282086811
-0.2553847134 -0.1193758249 0.5034452081 4282283675
-0.2554867268 -0.1183043420 0.5036463141 4282283675
-0.2555374205 -0.1177681237 0.5037462711 4282283675
-0.2555879056 -0.1172315776 0.5038458109 4282415261
-0.2556381822 -0.1166947186 0.5039448738 4282415261
-0.2556882501 -0.1161575466 0.5040435791 4282349213
-0.2557381094 -0.1156200543 0.5041418672 4282415006
-0.2557877600 -0.1150822565 0.5042397380 4282349213
-0.2558371723 -0.1145441383 0.5043371916 4282349213
-0.2558864057 -0.1140057072 0.5044341683 4282415006
-0.2559354007 -0.1134669706 0.5045307875 4282415006
-0.2559841871 -0.1129279286 0.5046269894 4282349213
-0.2560327649 -0.1123885736 0.5047227144 4282349213
-0.2560811341 -0.1118489131 0.5048180819 4282415006
-0.2565731704 -0.1115018576 0.5057880282 4282546592
-0.2570651770 -0.1111526266 0.5067579150 4282546334
-0.2571130395 -0.1106101796 0.5068523288 4282612127
-0.2571607232 -0.1100674346 0.5069462657 4282612127
-0.2572081685 -0.1095243841 0.5070397854 4282612127
-0.2572553754 -0.1089810356 0.5071329474 4282677920
-0.2573024035 -0.1084373817 0.5072255731 4282677920
-0.2573491931 -0.1078934371 0.5073178411 4282612640
-0.2578403354 -0.1075346023 0.5082859993 4282612640
-0.2578867674 -0.1069891229 0.5083775520 4282612640
-0.2579329908 -0.1064433530 0.5084686875 4282678433
-0.2579789758 -0.1058972925 0.5085593462 4282744226
-0.2580247521 -0.1053509340 0.5086495876 4282744226
-0.2585152686 -0.1049849913 0.5096165538 4282744226
-0.2585606873 -0.1044371128 0.5097060800 4282875812
-0.2586058676 -0.1038889438 0.5097951293 4282810533
-0.2590960264 -0.1035183594 0.5107613802 4282744740
-0.2591408491 -0.1029686779 0.5108497739 4283006630
-0.2591854334 -0.1024187133 0.5109376907 4282940837
-0.2592298090 -0.1018684655 0.5110251904 4282940837
-0.2592739761 -0.1013179347 0.5111122131 4283006630
-0.2593179047 -0.1007671207 0.5111988187 4283006630
-0.2593615949 -0.1002160311 0.5112849474 4283006630
-0.2598508000 -0.0998359025 0.5122492909 4283006630
-0.2598941326 -0.0992833078 0.5123347044 4283006630
-0.2599372268 -0.0987304449 0.5124197006 4283072936
-0.2604260445 -0.0983456969 0.5133832693 4283138729
-0.2604687512 -0.0977913290 0.5134674907 4283138984
-0.2609573305 -0.0974031910 0.5144306421 4283138984
-0.2618919909 -0.0971784368 0.5162731409 4283204777
-0.2623804510 -0.0967850089 0.5172360539 4283270570
-0.2624225616 -0.0962257534 0.5173190832 4283270570
-0.2624644041 -0.0956662372 0.5174015760 4283270570
-0.2625060380 -0.0951064527 0.5174836516 4283402156
-0.2629939616 -0.0947071910 0.5184454918 4283402156
-0.2630352080 -0.0941459239 0.5185267925 4283402156
-0.2635228634 -0.0937432796 0.5194880962 4283336363
-0.2635636926 -0.0931805298 0.5195686221 4283402156
-0.2636043131 -0.0926175192 0.5196486712 4283533742
-0.2640915513 -0.0922102779 0.5206092000 4283467949
-0.2645786703 -0.0918008611 0.5215694904 4283402156
-0.2650657296 -0.0913892835 0.5225296021 4283533742
-0.2646585405 -0.0906692147 0.5217269063 4283533742
-0.2651452422 -0.0902552158 0.5226863623 4283533487
-0.2656318247 -0.0898390412 0.5236455798 4283467694
-0.2656710446 -0.0892704129 0.5237228870 4283467694
-0.2661573887 -0.0888508707 0.5246815681 4283665073
-0.2670909762 -0.0885775238 0.5265220404 4283862707
-0.2675771415 -0.0881526917 0.5274804235 4283928500
-0.2676156759 -0.0875792354 0.5275563598 4283797939
-0.2685491443 -0.0872965157 0.5293965340 4283732146
-0.2685873210 -0.0867206454 0.5294718146 4283732146
-0.2690729797 -0.0862881094 0.5304291844 4283797939
-0.2700062692 -0.0859960169 0.5322690010 4283797939
-0.2695960701 -0.0852748826 0.5314604044 4283863732
-0.2705292106 -0.0849775001 0.5332998633 4284060854
-0.2710143924 -0.0845363066 0.5342563391 4284126647
-0.2719474435 -0.0842317119 0.5360956788 4284126647
-0.2715362906 -0.0835096166 0.5352851748 4284060854
-0.2724691629 -0.0831997395 0.5371241570 4284126645
-0.2734020352 -0.0828857720 0.5389631391 4284192438
-0.2734383941 -0.0822978839 0.5390347838 4284323254
-0.2743711174 -0.0819776580 0.5408735275 4284323254
-0.2753038406 -0.0816533491 0.5427122116 4284454840
-0.2762365341 -0.0813249499 0.5445508361 4284586426
-0.2767207325 -0.0808613971 0.5455053449 4284258493
-0.2776533365 -0.0805257782 0.5473437905 4284455872
-0.2799317241 -0.0805734396 0.5518352389 4284718530
-0.2808644474 -0.0802267343 0.5536739230 4284718530
-0.2835920155 -0.0803847015 0.5590508580 4284849598
-0.2822810113 -0.0793948174 0.5564664602 4284981184
-0.2850089073 -0.0795378163 0.5618439913 4285309636
-0.2868393958 -0.0794204026 0.5654525161 4285507015
-0.2877722085 -0.0790483803 0.5672913790 4285572034
-0.2896029651 -0.0789169595 0.5709003806 4285572034
-0.2914338708 -0.0787775591 0.5745096803 4286031554
-0.2905703187 -0.0779077038 0.5728073716 4286163140
-0.2932995558 -0.0779970586 0.5781875253 4286294465
-0.2951307297 -0.0778376013 0.5817973614 4286557637
-0.2974112928 -0.0777876675 0.5862931013 4286952397
-0.3050838709 -0.0791262016 0.6014181972 4287083983
-0.3024225235 -0.0777735710 0.5961718559 4287082700
-0.3091980219 -0.0788387805 0.6095285416 4287477458
-0.3119295537 -0.0788520500 0.6149132252 4288068306
-0.3133128583 -0.0785154924 0.6176401377 4288397271
-0.3196763694 -0.0787098110 0.6301847100 4289448670
-0.3228587210 -0.0787862092 0.6364581585 4290171362
-0.3242425919 -0.0784137323 0.6391862035 4290631913
-0.3287747800 -0.0787896737 0.6481205821 4291814382
-0.2777383924 -0.1807113141 0.5487128496 4288392384
-0.2752123177 -0.1784636229 0.5437222719 4286880433
-0.2735517323 -0.1767863184 0.5404415131 4285959331
-0.2718900144 -0.1751156002 0.5371586084 4284646043
-0.2706609666 -0.1737298816 0.5347303748 4284317078
-0.2694309950 -0.1723489761 0.5323004127 4283398296
-0.2686341703 -0.1712495834 0.5307261944 4283003538
-0.2678366899 -0.1701532751 0.5291506052 4282281879
-0.2674727738 -0.1693349630 0.5284316540 4282018707
-0.2662397921 -0.1679699421 0.5259956717 4281690770
-0.2658748031 -0.1671560705 0.5252746344 4281756563
-0.2650748491 -0.1660712808 0.5236942172 4282019478
-0.2638396323 -0.1647182405 0.5212538242 4281887892
-0.2634730637 -0.1639110446 0.5205296278 4281953684
-0.2631061077 -0.1631052196 0.5198046565 4281953684
-0.2623037100 -0.1620320231 0.5182194114 4282018961
-0.2619358301 -0.1612297893 0.5174925923 4282084754
-0.2620027363 -0.1606958508 0.5176247954 4282150547
-0.2616341114 -0.1598954648 0.5168965459 4282150547
-0.2612650990 -0.1590964496 0.5161674619 4282019477
-0.2608956695 -0.1582987905 0.5154376030 4282151063
-0.2605258226 -0.1575025171 0.5147069693 4282216856
-0.2605913579 -0.1569701135 0.5148364305 4282216856
-0.2602208257 -0.1561757028 0.5141043663 4282282649
-0.2598498464 -0.1553826779 0.5133714676 4282348442
-0.2594785094 -0.1545910388 0.5126377940 4282348442
-0.2591067255 -0.1538007855 0.5119033456 4282414235
-0.2587345541 -0.1530119330 0.5111680627 4282414748
-0.2583619952 -0.1522244662 0.5104319453 4282348955
-0.2584255338 -0.1516946405 0.5105575323 4282348955
-0.2576156259 -0.1506537348 0.5089573860 4282348955
-0.2576785684 -0.1501249224 0.5090817809 4282414748
-0.2577413321 -0.1495957226 0.5092057586 4282414748
-0.2573669553 -0.1488134861 0.5084661245 4282414748
-0.2569921613 -0.1480326653 0.5077256560 4282480541
-0.2574912906 -0.1477549672 0.5087118149 4282414748
-0.2566786408 -0.1467252076 0.5071063042 4282414748
-0.2563027442 -0.1459477395 0.5063636303 4282414748
-0.2563639581 -0.1454198360 0.5064845681 4282414748
-0.2564249337 -0.1448915601 0.5066050291 4282480541
-0.2564857602 -0.1443629116 0.5067251921 4282480541
-0.2561085522 -0.1435884386 0.5059800148 4282480541
-0.2561688721 -0.1430599391 0.5060991645 4282480541
-0.2562289834 -0.1425310671 0.5062179565 4282349468
-0.2562889159 -0.1420018226 0.5063363314 4282349468
-0.2559104562 -0.1412303746 0.5055885911 4282349468
-0.2559698820 -0.1407012939 0.5057060122 4282349468
-0.2555907071 -0.1399318427 0.5049569011 4282349213
-0.2556496561 -0.1394029260 0.5050733685 4282283420
-0.2552697957 -0.1386354566 0.5043228865 4282283420
-0.2553282380 -0.1381067336 0.5044383407 4282217627
-0.2549476624 -0.1373412609 0.5036864877 4282349468
-0.2550056279 -0.1368127167 0.5038009882 4282349468
-0.2550633848 -0.1362838149 0.5039150715 4282349468
-0.2546818256 -0.1355208904 0.5031612515 4282349468
-0.2547390759 -0.1349921972 0.5032743812 4282283675
-0.2547961473 -0.1344631314 0.5033870935 4282217882
-0.2548530102 -0.1339337230 0.5034994483 4282217882
-0.2553491592 -0.1336339563 0.5044797063 4282217882
-0.2550224066 -0.1323433518 0.5038341284 4282349468
-0.2550784647 -0.1318125278 0.5039448738 4282283675
-0.2546944320 -0.1310549974 0.5031861663 4282217882
-0.2551899850 -0.1307498217 0.5041652322 4282217882
-0.2552454472 -0.1302179545 0.5042747855 4282217882
-0.2553007007 -0.1296857446 0.5043839216 4282217882
-0.2553557456 -0.1291531771 0.5044927001 4282283675
-0.2549702525 -0.1283985078 0.5037310719 4282021018
-0.2550247908 -0.1278661788 0.5038388371 4282086811
-0.2550791502 -0.1273335218 0.5039462447 4282086811
-0.2546926439 -0.1265815049 0.5031826496 4282086811
-0.2547464967 -0.1260490865 0.5032890439 4282152604
-0.2552409768 -0.1257334650 0.5042659640 4282152604
-0.2548535764 -0.1249832138 0.5035005808 4282152604
-0.2549068034 -0.1244497821 0.5036057830 4282218397
-0.2549598515 -0.1239160076 0.5037105083 4282152604
-0.2550126612 -0.1233819053 0.5038148761 4282152604
-0.2550652921 -0.1228474751 0.5039188266 4282218397
-0.2551176846 -0.1223127097 0.5040223598 4282218397
-0.2551698983 -0.1217776239 0.5041255355 4282152604
-0.2552218735 -0.1212422028 0.5042282343 4282086811
-0.2552736700 -0.1207064539 0.5043305755 4282086811
-0.2553252578 -0.1201703846 0.5044324398 4282086811
-0.2549347878 -0.1194270104 0.5036610365 4282152603
-0.2554277778 -0.1190972701 0.5046350360 4282218396
-0.2554787397 -0.1185602248 0.5047356486 4282218396
-0.2550873756 -0.1178186685 0.5039625168 4282218396
-0.2551378310 -0.1172819212 0.5040621161 4282349213
