VERSION 0.7
FIELDS x y z rgba
SIZE 4 4 4 4
TYPE F F F U
COUNT 1 1 1 1
WIDTH 920
HEIGHT 1
VIEWPOINT 0.0 0.0 0.0 1.0 0.0 0.0 0.0
POINTS 920
DATA ascii
-0.2705105245 -0.2065438628 0.5747935772 4285233542
-0.2705903947 -0.2059660256 0.5749633312 4285167749
-0.2706701159 -0.2053876668 0.5751326680 4285167749
-0.2707496285 -0.2048088163 0.5753016472 4285167749
-0.2708289623 -0.2042294443 0.5754702687 4285167749
-0.2709081471 -0.2036495656 0.5756384730 4285167749
-0.2713927925 -0.2033731788 0.5766682625 4285101956
-0.2714717090 -0.2027914077 0.5768359900 4285167749
-0.2715504766 -0.2022091448 0.5770033002 4285101956
-0.2716290355 -0.2016263604 0.5771702528 4285101956
-0.2721135616 -0.2013435960 0.5781997442 4285167749
-0.2721918523 -0.2007589340 0.5783661604 4285036163
-0.2722699940 -0.2001737803 0.5785322189 4284970368
-0.2719414532 -0.1992902160 0.5778341293 4284970368
-0.2720191181 -0.1987049282 0.5779991150 4285035902
-0.2720965743 -0.1981191337 0.5781636834 4285035902
-0.2721738517 -0.1975328326 0.5783278942 4285035902
-0.2722509503 -0.1969460398 0.5784917474 4285035902
-0.2723278701 -0.1963587552 0.5786551237 4284969855
-0.2724045813 -0.1957709640 0.5788181424 4284969855
-0.2724811137 -0.1951826811 0.5789808035 4284904062
-0.2725574672 -0.1945939064 0.5791430473 4284904062
-0.2726336122 -0.1940046251 0.5793048739 4284838269
-0.2723019719 -0.1931257546 0.5786001086 4284838269
-0.2723776400 -0.1925363690 0.5787609220 4284772989
-0.2724530995 -0.1919465065 0.5789212584 4284772989
-0.2725284100 -0.1913561374 0.5790812373 4284707196
-0.2726034820 -0.1907652915 0.5792407990 4284641403
-0.2726784050 -0.1901739538 0.5794000030 4284641403
-0.2727531195 -0.1895821393 0.5795587301 4284575610
-0.2724192142 -0.1887069046 0.5788492560 4284444794
-0.2724934220 -0.1881150007 0.5790069699 4284444794
-0.2729761004 -0.1878037602 0.5800325871 4284509817
-0.2726413012 -0.1869297475 0.5793211460 4284509817
-0.2727149427 -0.1863363981 0.5794776082 4284312954
-0.2727883756 -0.1857425570 0.5796336532 4284312954
-0.2728616297 -0.1851482540 0.5797893405 4284247676
-0.2729346752 -0.1845534593 0.5799445510 4284181883
-0.2730075419 -0.1839581877 0.5800993443 4284050555
-0.2726707757 -0.1830875427 0.5793837905 4284050555
-0.2723336220 -0.1822182089 0.5786674023 4283984762
-0.2724056542 -0.1816232949 0.5788204670 4283853176
-0.2720677853 -0.1807557046 0.5781025290 4283655799
-0.2721393108 -0.1801607609 0.5782545209 4283590006
-0.2718006968 -0.1792949140 0.5775350332 4283327350
-0.2714616954 -0.1784303933 0.5768146515 4283195764
-0.2711222470 -0.1775671989 0.5760934353 4282082426
-0.2703721225 -0.1764376014 0.5744994879 4281885047
-0.2696213722 -0.1753111482 0.5729042888 4281621622
-0.2692804933 -0.1744537652 0.5721799731 4281555829
-0.2689391971 -0.1735977381 0.5714547634 4281490299
-0.2681867778 -0.1724789143 0.5698559880 4281556092
-0.2666121721 -0.1708367765 0.5665101409 4281555838
-0.2658582926 -0.1697260886 0.5649083257 4281621631
-0.2646928132 -0.1683571339 0.5624318719 4281490816
-0.2631154060 -0.1667326391 0.5590800643 4281556609
-0.2640042603 -0.1666726321 0.5609688163 4281556868
-0.2624254227 -0.1650563031 0.5576139688 4281556868
-0.2616683841 -0.1639623940 0.5560053587 4281688454
-0.2609107494 -0.1628716886 0.5543954968 4281688454
-0.2597408593 -0.1615281850 0.5519096851 4281491586
-0.2589819133 -0.1604447812 0.5502970219 4281491586
-0.2582223415 -0.1593645960 0.5486831069 4281557379
-0.2574622035 -0.1582876146 0.5470678806 4281557379
-0.2567014098 -0.1572138667 0.5454513431 4281623172
-0.2559400499 -0.1561433375 0.5438335538 4281623172
-0.2560025752 -0.1555770934 0.5439664125 4281492102
-0.2556525469 -0.1547608227 0.5432226658 4281492102
-0.2553021312 -0.1539459676 0.5424780846 4281557895
-0.2553638518 -0.1533803046 0.5426092148 4281557895
-0.2550127506 -0.1525673568 0.5418631434 4281558410
-0.2550739646 -0.1520017982 0.5419932604 4281558410
-0.2547221780 -0.1511908025 0.5412457585 4281493131
-0.2543699741 -0.1503812075 0.5404973626 4281493131
-0.2540173829 -0.1495730579 0.5397481322 4281558926
-0.2536643744 -0.1487663388 0.5389981270 4281624719
-0.2533110082 -0.1479610652 0.5382472277 4281624719
-0.2529572248 -0.1471572220 0.5374954939 4281690512
-0.2530164719 -0.1465943605 0.5376213789 4281691025
-0.2526620030 -0.1457924843 0.5368682146 4281691025
-0.2523071468 -0.1449920535 0.5361141562 4281691023
-0.2523655891 -0.1444298625 0.5362383723 4281756816
-0.2520100474 -0.1436314136 0.5354828835 4281757331
-0.2520680130 -0.1430693567 0.5356060863 4281757331
-0.2517117858 -0.1422729045 0.5348491073 4281626260
-0.2513551712 -0.1414779276 0.5340913534 4281626260
-0.2514123321 -0.1409165561 0.5342128277 4281692312
-0.2514693141 -0.1403547972 0.5343338847 4281692312
-0.2515260875 -0.1397926658 0.5344545245 4281561496
-0.2515826523 -0.1392301619 0.5345747471 4281561496
-0.2516390085 -0.1386672705 0.5346944928 4281627289
-0.2516951561 -0.1381040066 0.5348138213 4281693082
-0.2517511249 -0.1375403553 0.5349327326 4281759134
-0.2518068850 -0.1369763315 0.5350511670 4281890720
-0.2518624365 -0.1364119351 0.5351692438 4281956256
-0.2519177794 -0.1358471662 0.5352868438 4282022049
-0.2515577972 -0.1350591630 0.5345219374 4282218658
-0.2516126335 -0.1344945878 0.5346384645 4282284451
-0.2516672611 -0.1339296401 0.5347545743 4282350244
-0.2517217100 -0.1333643198 0.5348702073 4282416037
-0.2513604462 -0.1325795054 0.5341026187 4282351014
-0.2509988248 -0.1317961961 0.5333341956 4282285221
-0.2510524392 -0.1312316507 0.5334481597 4282351014
-0.2511058748 -0.1306667477 0.5335616469 4282351014
-0.2511590719 -0.1301014870 0.5336747169 4282416807
-0.2507961690 -0.1293214113 0.5329036117 4282416807
-0.2508488894 -0.1287563741 0.5330156088 4282416807
-0.2504853010 -0.1279783845 0.5322430134 4282548393
-0.2505375147 -0.1274135709 0.5323539376 4282680236
-0.2510057688 -0.1270591319 0.5333489180 4282746029
-0.2510576248 -0.1264926642 0.5334591269 4282614443
-0.2511093020 -0.1259258687 0.5335689187 4282680236
-0.2511607409 -0.1253587157 0.5336782336 4282746029
-0.2516285777 -0.1249981597 0.5346723199 4282811822
-0.2516796887 -0.1244293749 0.5347809196 4282746029
-0.2517305911 -0.1238602400 0.5348891020 4282811822
-0.2521981299 -0.1234948784 0.5358825326 4282877869
-0.2522487044 -0.1229241118 0.5359899998 4282877869
-0.2522990406 -0.1223530024 0.5360969305 4282877869
-0.2523491681 -0.1217815503 0.5362034440 4282943662
-0.2523990870 -0.1212097630 0.5363095403 4282878126
-0.2524487674 -0.1206376329 0.5364151001 4282878126
-0.2529156208 -0.1202636212 0.5374070406 4282943919
-0.2533823848 -0.1198873818 0.5383989215 4283009712
-0.2534315884 -0.1193123460 0.5385034680 4283075505
-0.2534805834 -0.1187369823 0.5386075974 4283075505
-0.2535293698 -0.1181612834 0.5387111902 4283141298
-0.2535779178 -0.1175852492 0.5388143659 4283141298
-0.2536262572 -0.1170088872 0.5389171243 4283206834
-0.2540923059 -0.1166240126 0.5399073362 4283272627
-0.2541402578 -0.1160460487 0.5400093198 4283338420
-0.2541880310 -0.1154677495 0.5401107669 4283338420
-0.2542355657 -0.1148891300 0.5402117968 4283404213
-0.2547011077 -0.1144981980 0.5412009954 4283404213
-0.2551665902 -0.1141050383 0.5421900749 4283404211
-0.2552136183 -0.1135235429 0.5422899723 4283404211
-0.2556788623 -0.1131268814 0.5432785749 4283535284
-0.2557255328 -0.1125437915 0.5433776975 4283601077
-0.2561905682 -0.1121436208 0.5443658829 4283601077
-0.2562368512 -0.1115589440 0.5444642305 4283732663
-0.2567016780 -0.1111552790 0.5454518795 4283733176
-0.2575852573 -0.1109297574 0.5473293662 4283733176
-0.2580499947 -0.1105206832 0.5483168364 4283798969
-0.2580956817 -0.1099309176 0.5484139323 4283798969
-0.2585601807 -0.1095183417 0.5494009256 4283864504
-0.2590245903 -0.1091035381 0.5503877401 4283930297
-0.2594889402 -0.1086865067 0.5513743758 4284192699
-0.2599532008 -0.1082672477 0.5523608923 4284258492
-0.2604173720 -0.1078457609 0.5533471704 4284324283
-0.2608814538 -0.1074220464 0.5543332696 4284324283
-0.2613454461 -0.1069960967 0.5553191900 4284324283
-0.2618093491 -0.1065679267 0.5563049316 4284324283
-0.2622731626 -0.1061375290 0.5572904348 4284455610
-0.2627368569 -0.1057049036 0.5582757592 4284587196
-0.2632004917 -0.1052700505 0.5592608452 4284783805
-0.2640838623 -0.1049998999 0.5611379147 4284849598
-0.2645473480 -0.1045596227 0.5621227622 4284981184
-0.2650107443 -0.1041171253 0.5631073713 4285112770
-0.2658940852 -0.1038364321 0.5649843812 4285243584
-0.2667774558 -0.1035515815 0.5668613911 4285375170
-0.2680810690 -0.1034246832 0.5696313381 4285637572
-0.2689645588 -0.1031305492 0.5715086460 4285703365
-0.2698481083 -0.1028322503 0.5733860135 4286228935
-0.2707316577 -0.1025297940 0.5752634406 4286426314
-0.2716152072 -0.1022231653 0.5771408677 4286688196
-0.2729193270 -0.1020696461 0.5799118876 4286885575
-0.2738029957 -0.1017537192 0.5817895532 4287278790
-0.2746866643 -0.1014336273 0.5836672187 4287739341
-0.2755703628 -0.1011093631 0.5855449438 4288659414
-0.2764540315 -0.1007809266 0.5874226689 4289448930
-0.2773377299 -0.1004483253 0.5893003345 4290171623
-0.2782214284 -0.1001115441 0.5911780596 4290697967
-0.2673051059 -0.2279840112 0.5693261623 4289113785
-0.2673911452 -0.2274246365 0.5695094466 4288982199
-0.2674770653 -0.2268647254 0.5696923733 4288850613
-0.2671628594 -0.2259660065 0.5690231919 4288785332
-0.2672483027 -0.2254058570 0.5692051649 4288587953
-0.2673335969 -0.2248451710 0.5693868399 4288587696
-0.2674187422 -0.2242839485 0.5695682168 4288521903
-0.2675037086 -0.2237221897 0.5697491765 4288324524
-0.2675885558 -0.2231598943 0.5699298382 4288192938
-0.2676731944 -0.2225970626 0.5701101422 4287995816
-0.2681585252 -0.2223660797 0.5711438656 4287864230
-0.2682430148 -0.2218013406 0.5713237524 4287666851
-0.2683272958 -0.2212360650 0.5715033412 4287666851
-0.2680102289 -0.2203404158 0.5708280206 4287469472
-0.2680940926 -0.2197749168 0.5710065961 4287272093
-0.2681777775 -0.2192088962 0.5711848736 4287206300
-0.2682613134 -0.2186423540 0.5713627338 4287008921
-0.2683446705 -0.2180752754 0.5715402961 4286614933
-0.2680260241 -0.2171820551 0.5708616376 4286351761
-0.2681089342 -0.2166147679 0.5710381866 4286351508
-0.2681916654 -0.2160469592 0.5712144375 4286285715
-0.2682742476 -0.2154786289 0.5713903308 4286350994
-0.2675519884 -0.2142653465 0.5698519945 4286285201
-0.2676339746 -0.2136976719 0.5700266361 4286088336
-0.2681183815 -0.2134499699 0.5710583329 4285956750
-0.2682001591 -0.2128804028 0.5712325573 4285825164
-0.2682817876 -0.2123102993 0.5714063644 4285693578
-0.2683632076 -0.2117396891 0.5715798140 4285693580
-0.2684444785 -0.2111685574 0.5717529058 4285496201
-0.2685256004 -0.2105969042 0.5719256401 4285496199
-0.2686065137 -0.2100247294 0.5720980167 4285496199
-0.2690907121 -0.2097665370 0.5731292963 4285364613
-0.2687678635 -0.2088788450 0.5724416971 4285430406
-0.2688482702 -0.2083051205 0.5726129413 4285365128
-0.2693323195 -0.2080428004 0.5736438632 4285233542
-0.2690085769 -0.2071561366 0.5729543567 4285298822
-0.2690884769 -0.2065808773 0.5731245279 4285298822
-0.2691681981 -0.2060051113 0.5732943416 4285298822
-0.2692477405 -0.2054288238 0.5734637380 4285233029
-0.2693271041 -0.2048520297 0.5736327767 4285233029
-0.2698107958 -0.2045814544 0.5746629834 4285233029
-0.2698899508 -0.2040027678 0.5748315454 4285233542
-0.2699688971 -0.2034235746 0.5749996901 4285167749
-0.2700476646 -0.2028438896 0.5751674771 4285101956
-0.2701262534 -0.2022636831 0.5753348470 4285233542
-0.2706097662 -0.2019853443 0.5763646960 4285101956
-0.2706881166 -0.2014032602 0.5765315890 4285101956
-0.2707662880 -0.2008206695 0.5766980648 4285167749
-0.2708442807 -0.2002375722 0.5768641829 4284970370
-0.2705165148 -0.1993550956 0.5761660933 4284970370
-0.2705940306 -0.1987718642 0.5763311386 4284970370
-0.2706713676 -0.1981881410 0.5764958858 4284969855
-0.2707484961 -0.1976039112 0.5766601562 4285035648
-0.2708254457 -0.1970191896 0.5768240690 4285035648
-0.2709022164 -0.1964339614 0.5769875646 4284969855
-0.2709788084 -0.1958482414 0.5771507025 4284969855
-0.2718679905 -0.1958475262 0.5790445209 4284969855
-0.2711314261 -0.1946753114 0.5774757862 4284904062
-0.2712074518 -0.1940881163 0.5776377320 4284838269
-0.2708765864 -0.1932103038 0.5769329667 4284772989
-0.2709521353 -0.1926229894 0.5770938396 4284838782
-0.2710274756 -0.1920351833 0.5772543550 4284772989
-0.2711026371 -0.1914469004 0.5774144530 4284641403
-0.2711776197 -0.1908581257 0.5775741339 4284707196
-0.2712523937 -0.1902688444 0.5777333975 4284641403
-0.2713269889 -0.1896791011 0.5778923035 4284575610
-0.2714014053 -0.1890888512 0.5780507922 4284641403
-0.2710680068 -0.1882150918 0.5773406625 4284444794
-0.2711419165 -0.1876247674 0.5774980783 4284379001
-0.2712156177 -0.1870339662 0.5776550770 4284379001
-0.2712891400 -0.1864426881 0.5778116584 4284379001
-0.2713624835 -0.1858509183 0.5779678822 4284312954
-0.2714356184 -0.1852586716 0.5781236291 4284312954
-0.2715085447 -0.1846659482 0.5782790184 4284247676
-0.2715812922 -0.1840727478 0.5784339309 4284181883
-0.2716538608 -0.1834790707 0.5785884857 4284181883
-0.2713176012 -0.1826099008 0.5778722763 4284116090
-0.2713896632 -0.1820161641 0.5780257583 4284050042
-0.2710526884 -0.1811487377 0.5773080587 4283984249
-0.2707152963 -0.1802826226 0.5765894651 4283787383
-0.2707865536 -0.1796892583 0.5767412186 4283721590
-0.2708576024 -0.1790954471 0.5768925548 4283655799
-0.2705191970 -0.1782315075 0.5761717558 4283590006
-0.2705897391 -0.1776376516 0.5763220191 4282607226
-0.2702506185 -0.1767755002 0.5755997300 4282344054
-0.2695015073 -0.1756477207 0.5740041733 4282080630
-0.2687517703 -0.1745231003 0.5724073648 4281949044
-0.2692307532 -0.1741970479 0.5734275579 4281751925
-0.2680702209 -0.1728117615 0.5709557533 4281751925
-0.2673188150 -0.1716947854 0.5693553686 4281752186
-0.2661567032 -0.1703185439 0.5668802261 4281686393
-0.2645835578 -0.1686857343 0.5635296702 4281555838
-0.2654712498 -0.1686234623 0.5654203296 4281621631
-0.2638966739 -0.1669988185 0.5620666742 4281490816
-0.2631421089 -0.1658986062 0.5604595542 4281425023
-0.2623869479 -0.1648015678 0.5588510633 4281491073
-0.2616311312 -0.1637077332 0.5572413206 4281425280
-0.2608747482 -0.1626171023 0.5556303263 4281228413
-0.2601177394 -0.1615296602 0.5540179610 4281359999
-0.2593601346 -0.1604454368 0.5524043441 4281557121
-0.2581907809 -0.1591110677 0.5499138236 4281557121
-0.2574318647 -0.1580341756 0.5482974052 4281491585
-0.2566723228 -0.1569605172 0.5466797352 4281557378
-0.2563236356 -0.1561407149 0.5459370613 4281623172
-0.2555630207 -0.1550725996 0.5443170071 4281623172
-0.2560367286 -0.1547541320 0.5453259349 4281492102
-0.2556869388 -0.1539376527 0.5445809364 4281492102
-0.2557485998 -0.1533695459 0.5447122455 4281558408
-0.2553981245 -0.1525549889 0.5439657569 4281558408
-0.2550472319 -0.1517418474 0.5432184935 4281558410
-0.2546959817 -0.1509301364 0.5424703360 4281558410
-0.2543443143 -0.1501198560 0.5417213440 4281493133
-0.2544045746 -0.1495534033 0.5418496728 4281558926
-0.2540522218 -0.1487450600 0.5410992503 4281624719
-0.2536994815 -0.1479381770 0.5403479338 4281624719
-0.2529337406 -0.1468930840 0.5387169719 4281691025
-0.2525801063 -0.1460900009 0.5379637480 4281625232
-0.2522260845 -0.1452883482 0.5372097492 4281625232
-0.2522845566 -0.1447250247 0.5373343229 4281625232
-0.2519298494 -0.1439253688 0.5365788341 4281625745
-0.2519878447 -0.1433621794 0.5367023349 4281691538
-0.2516324520 -0.1425645202 0.5359454155 4281691283
-0.2512766719 -0.1417683065 0.5351876020 4281691283
-0.2513338625 -0.1412058175 0.5353094339 4281822869
-0.2513908744 -0.1406429410 0.5354308486 4281757076
-0.2514476776 -0.1400796771 0.5355518460 4281626260
-0.2515042722 -0.1395160407 0.5356723666 4281692053
-0.2515606582 -0.1389520168 0.5357924700 4281692055
-0.2516168356 -0.1383876204 0.5359121561 4281757848
-0.2516728342 -0.1378228366 0.5360313654 4281889434
-0.2517286241 -0.1372576803 0.5361502171 4282021020
-0.2517841756 -0.1366921514 0.5362685919 4282087072
-0.2518395483 -0.1361262500 0.5363864899 4282087072
-0.2518947124 -0.1355599761 0.5365039706 4282087072
-0.2519496977 -0.1349933296 0.5366210341 4282152865
-0.2515899539 -0.1342052221 0.5358548760 4282218658
-0.2516444027 -0.1336387694 0.5359708667 4282218658
-0.2516986728 -0.1330719441 0.5360864401 4282153635
-0.2509232163 -0.1320681721 0.5344347954 4282219428
-0.2509768605 -0.1315024942 0.5345490575 4282219428
-0.2510303259 -0.1309364438 0.5346629024 4282219428
-0.2510835528 -0.1303700358 0.5347763300 4282219428
-0.2507214844 -0.1295887232 0.5340051651 4282285221
-0.2507742345 -0.1290225387 0.5341174603 4282285478
-0.2504114807 -0.1282433271 0.5333448648 4282417064
-0.2504636943 -0.1276773661 0.5334560871 4282548650
-0.2509311736 -0.1273218542 0.5344517827 4282548650
-0.2509830892 -0.1267542541 0.5345622897 4282614443
-0.2510347664 -0.1261862963 0.5346723795 4282614443
-0.2510862350 -0.1256179810 0.5347820520 4282680236
-0.2515532970 -0.1252563745 0.5357767940 4282746029
-0.2516044378 -0.1246864200 0.5358856916 4282746029
-0.2516553700 -0.1241161302 0.5359941721 4282746029
-0.2521221042 -0.1237497032 0.5369883180 4282811822
-0.2521727085 -0.1231777817 0.5370960236 4282877615
-0.2522230744 -0.1226055101 0.5372033119 4282877615
-0.2522732317 -0.1220329031 0.5373101234 4282877615
-0.2523231506 -0.1214599460 0.5374165177 4282877869
-0.2527893484 -0.1210861430 0.5384094119 4282943662
-0.2528389394 -0.1205115616 0.5385150313 4283075248
-0.2533049285 -0.1201342419 0.5395075083 4283141041
-0.2533541620 -0.1195580438 0.5396124125 4283206834
-0.2534031868 -0.1189815104 0.5397167802 4283272627
-0.2534519732 -0.1184046492 0.5398207307 4283206834
-0.2535005510 -0.1178274453 0.5399242043 4283206834
-0.2539659441 -0.1174427643 0.5409154296 4283272114
-0.2540141642 -0.1168639511 0.5410181284 4283337907
-0.2544793487 -0.1164757609 0.5420089364 4283403700
-0.2545272112 -0.1158953384 0.5421108603 4283403700
-0.2545748353 -0.1153145954 0.5422123075 4283404213
-0.2546222508 -0.1147335246 0.5423132777 4283404213
-0.2550869584 -0.1143392622 0.5433030128 4283469493
-0.2555515766 -0.1139427722 0.5442926288 4283403700
-0.2555984557 -0.1133588254 0.5443925261 4283469493
-0.2560628653 -0.1129588336 0.5453816056 4283535286
-0.2565271854 -0.1125566065 0.5463705659 4283535284
-0.2569914460 -0.1121521518 0.5473594069 4283666870
-0.2574556172 -0.1117454693 0.5483480096 4283732663
-0.2579197288 -0.1113365516 0.5493364930 4283798456
-0.2579656541 -0.1107459217 0.5494343042 4283798711
-0.2584295273 -0.1103335023 0.5504223108 4283798711
-0.2588933110 -0.1099188551 0.5514100790 4283864504
-0.2593570054 -0.1095019802 0.5523977280 4283996090
-0.2598206401 -0.1090828702 0.5533851981 4284061883
-0.2602841556 -0.1086615324 0.5543724298 4284061883
-0.2607476115 -0.1082379669 0.5553595424 4284192697
-0.2612109780 -0.1078121662 0.5563464165 4284192697
-0.2616742551 -0.1073841378 0.5573331714 4284324026
-0.2625561655 -0.1071247384 0.5592115521 4284389819
-0.2630193233 -0.1066912860 0.5601980090 4284455610
-0.2634823918 -0.1062556058 0.5611842871 4284587196
-0.2639453411 -0.1058176979 0.5621703267 4284783805
-0.2648272514 -0.1055445597 0.5640486479 4284849598
-0.2657091916 -0.1052672565 0.5659270287 4284915391
-0.2661719918 -0.1048207283 0.5669127703 4284981184
-0.2670539320 -0.1045360789 0.5687912107 4285111998
-0.2683551908 -0.1044104025 0.5715627074 4285243584
-0.2692372501 -0.1041164547 0.5734414458 4285506241
-0.2696999013 -0.1036571413 0.5744268298 4285637827
-0.2705819607 -0.1033558324 0.5763054490 4286096836
-0.2714640200 -0.1030503511 0.5781841278 4286294215
-0.2727657557 -0.1028990149 0.5809566379 4286621890
-0.2732281983 -0.1024269015 0.5819416642 4286819269
-0.2741103172 -0.1021089181 0.5838204622 4287409863
-0.2749924362 -0.1017867625 0.5856992602 4287936207
-0.2758745849 -0.1014604345 0.5875780582 4288988120
-0.2763367593 -0.1009764820 0.5885624290 4289646050
-0.2772188187 -0.1006427780 0.5904411674 4290236644
-0.2659758925 -0.2273882329 0.5678383708 4289047992
-0.2660615742 -0.2268303782 0.5680212975 4288850613
-0.2657480836 -0.2259327471 0.5673520565 4288719027
-0.2658333480 -0.2253746539 0.5675340295 4288588207
-0.2663177252 -0.2251535803 0.5685681701 4288390828
-0.2664027810 -0.2245935798 0.5687497258 4288259242
-0.2664876878 -0.2240330428 0.5689310431 4288193449
-0.2665724456 -0.2234719545 0.5691119432 4287996070
-0.2666570246 -0.2229103446 0.5692925453 4287798691
-0.2667414546 -0.2223481983 0.5694727898 4287601312
-0.2668257356 -0.2217855304 0.5696527362 4287535519
-0.2673099935 -0.2215539813 0.5706865788 4287403679
-0.2669937909 -0.2206585705 0.5700114965 4287337886
-0.2670775652 -0.2200942934 0.5701903701 4287206300
-0.2667606473 -0.2192003578 0.5695137978 4287008921
-0.2668440044 -0.2186358720 0.5696917176 4286943128
-0.2669271529 -0.2180708498 0.5698692799 4286745749
-0.2670101821 -0.2175053060 0.5700464845 4286482577
-0.2670930326 -0.2169392258 0.5702233911 4286219405
-0.2667745352 -0.2160477489 0.5695434213 4286022543
-0.2664556503 -0.2151574343 0.5688626170 4286022543
-0.2665377557 -0.2145914882 0.5690379143 4286022543
-0.2666196823 -0.2140250206 0.5692127943 4285956750
-0.2662997842 -0.2131365538 0.5685299039 4285890957
-0.2663812637 -0.2125699073 0.5687038302 4285759371
-0.2664625943 -0.2120027244 0.5688774586 4285627785
-0.2669457495 -0.2117539346 0.5699089766 4285561992
-0.2670268416 -0.2111848742 0.5700821280 4285561992
-0.2671077847 -0.2106152773 0.5702548623 4285430406
-0.2675909400 -0.2103615105 0.5712863803 4285430406
-0.2676716447 -0.2097900212 0.5714586973 4285364613
-0.2677522004 -0.2092180252 0.5716306567 4285364613
-0.2678325474 -0.2086455077 0.5718021989 4285364613
-0.2679127455 -0.2080724835 0.5719734430 4285364613
-0.2679927647 -0.2074989378 0.5721442699 4285298820
-0.2680726349 -0.2069248706 0.5723147392 4285364613
-0.2681522965 -0.2063503116 0.5724848509 4285364613
-0.2678284347 -0.2054657936 0.5717934370 4285364613
-0.2679076493 -0.2048910558 0.5719625354 4285298820
-0.2679866850 -0.2043158263 0.5721312761 4285298820
-0.2684692442 -0.2040469199 0.5731614828 4285298820
-0.2685480416 -0.2034697980 0.5733297467 4285298820
-0.2686266601 -0.2028921694 0.5734975934 4285233027
-0.2687050998 -0.2023140341 0.5736650825 4285101954
-0.2687833607 -0.2017353922 0.5738321543 4285167747
-0.2688614726 -0.2011562437 0.5739988685 4285101956
-0.2693437934 -0.2008782178 0.5750285983 4285101956
-0.2694216371 -0.2002971768 0.5751947761 4285101956
-0.2694993019 -0.1997156590 0.5753605962 4284970370
-0.2691720128 -0.1988346279 0.5746618509 4284970370
-0.2692491710 -0.1982529610 0.5748265982 4284904577
-0.2689211965 -0.1973735541 0.5741263628 4284904062
-0.2689978778 -0.1967917681 0.5742900968 4284969855
-0.2690744102 -0.1962094903 0.5744534731 4284969855
-0.2691507339 -0.1956267208 0.5746164322 4284904062
-0.2692269087 -0.1950434446 0.5747790337 4284904062
-0.2693028748 -0.1944596767 0.5749412179 4284904062
-0.2693786323 -0.1938754171 0.5751029849 4284904062
-0.2694542408 -0.1932906657 0.5752643943 4284838269
-0.2691237330 -0.1924152076 0.5745587945 4284772989
-0.2691988349 -0.1918303519 0.5747191310 4284772989
-0.2692737579 -0.1912450194 0.5748791099 4284707196
-0.2693485022 -0.1906591803 0.5750386715 4284641403
-0.2694230676 -0.1900728643 0.5751978159 4284641403
-0.2694974244 -0.1894860715 0.5753565431 4284575610
-0.2695715725 -0.1888987720 0.5755149126 4284575610
-0.2696455717 -0.1883110106 0.5756728649 4284641403
-0.2701261640 -0.1880058944 0.5766988993 4284379001
-0.2697929442 -0.1871340126 0.5759875178 4284379001
-0.2698663771 -0.1865447909 0.5761442184 4284379001
-0.2695324421 -0.1856746078 0.5754313469 4284379001
-0.2700126171 -0.1853649020 0.5764564276 4284312954
-0.2696780562 -0.1844955534 0.5757422447 4284312954
-0.2697505951 -0.1839053184 0.5758970976 4284247674
-0.2698229253 -0.1833145916 0.5760515332 4284181881
-0.2698950768 -0.1827234030 0.5762055516 4284116090
-0.2699670196 -0.1821317375 0.5763591528 4284050297
-0.2700387537 -0.1815395951 0.5765123367 4284050297
-0.2701103091 -0.1809469759 0.5766650438 4283984504
-0.2701816857 -0.1803538948 0.5768173933 4283918456
-0.2698445916 -0.1794888079 0.5760977864 4283786870
-0.2699154615 -0.1788956821 0.5762490630 4283721077
-0.2695776820 -0.1780323386 0.5755279064 4283655284
-0.2696480155 -0.1774391830 0.5756781101 4283066231
-0.2697181702 -0.1768455654 0.5758278966 4282868852
-0.2689706087 -0.1757173836 0.5742318630 4282737268
-0.2690401375 -0.1751246452 0.5743803382 4282539889
-0.2687005103 -0.1742662042 0.5736552477 4282145907
-0.2679513693 -0.1731447577 0.5720558763 4282080114
-0.2676108181 -0.1722899079 0.5713288188 4281751925
-0.2672698498 -0.1714364141 0.5706008673 4281686132
-0.2665190697 -0.1703226417 0.5689980388 4281686393
-0.2653581798 -0.1689513028 0.5665196180 4281620600
-0.2646060884 -0.1678447872 0.5649139285 4281490299
-0.2638533413 -0.1667414457 0.5633069277 4281424506
-0.2635098398 -0.1658993065 0.5625735521 4281162361
-0.2627559900 -0.1648014337 0.5609641671 4281162361
-0.2615915239 -0.1634505689 0.5584781170 4281096568
-0.2608363628 -0.1623599976 0.5568658710 4281293947
-0.2600806057 -0.1612726450 0.5552523732 4281491326
-0.2593242228 -0.1601884961 0.5536376238 4281491326
-0.2585672736 -0.1591075659 0.5520215034 4281491326
-0.2578096986 -0.1580298543 0.5504041314 4281557119
-0.2570514977 -0.1569553763 0.5487855077 4281557378
-0.2567034662 -0.1561339498 0.5480424166 4281557378
-0.2563550174 -0.1553139240 0.5472985506 4281623172
-0.2560061812 -0.1544953138 0.5465537906 4281623172
-0.2556569278 -0.1536781192 0.5458081961 4281557895
-0.2557184100 -0.1531085074 0.5459394455 4281557895
-0.2553684711 -0.1522932351 0.5451923609 4281492617
-0.2550181448 -0.1514793932 0.5444444418 4281558410
-0.2546674311 -0.1506669819 0.5436956286 4281493133
-0.2547278106 -0.1500984877 0.5438246131 4281558926
-0.2543764114 -0.1492880136 0.5430743098 4281624719
-0.2540245950 -0.1484789848 0.5423232317 4281624719
-0.2536723912 -0.1476713866 0.5415713191 4281559184
-0.2529078722 -0.1466264427 0.5399391651 4281559184
-0.2525547743 -0.1458226591 0.5391853452 4281624977
-0.2522013187 -0.1450203210 0.5384306908 4281624977
-0.2522596121 -0.1444554925 0.5385552049 4281559697
-0.2519054711 -0.1436551362 0.5377990603 4281559697
-0.2515509129 -0.1428562552 0.5370421410 4281625490
-0.2516084313 -0.1422920972 0.5371649265 4281625490
-0.2516657412 -0.1417275518 0.5372872949 4281691283
-0.2517228723 -0.1411626190 0.5374092460 4281691283
-0.2517797947 -0.1405972987 0.5375307798 4281691283
-0.2518365085 -0.1400316060 0.5376518369 4281757076
-0.2518930137 -0.1394655257 0.5377725363 4281822869
-0.2519493401 -0.1388990581 0.5378926992 4281888662
-0.2520054281 -0.1383322179 0.5380125046 4281954457
-0.2520613372 -0.1377650052 0.5381318331 4281954457
-0.2521170378 -0.1371974051 0.5382507443 4281758877
-0.2517591119 -0.1364054531 0.5374866724 4281758877
-0.2518143058 -0.1358380467 0.5376045108 4281824670
-0.2518692911 -0.1352702528 0.5377218723 4281890463
-0.2519240677 -0.1347021013 0.5378388166 4281956256
-0.2515648901 -0.1339133233 0.5370720029 4281956256
-0.2516191602 -0.1333453506 0.5371878743 4281956256
-0.2512592971 -0.1325586438 0.5364195704 4282087842
-0.2513130903 -0.1319908947 0.5365343690 4281956513
-0.2513666451 -0.1314227581 0.5366487503 4281956513
-0.2510057986 -0.1306387037 0.5358783603 4281956513
-0.2510588467 -0.1300707906 0.5359916687 4282022306
-0.2506973445 -0.1292888224 0.5352197886 4282153892
-0.2507498860 -0.1287211329 0.5353320241 4282285478
-0.2508022189 -0.1281530857 0.5354437828 4282285991
-0.2508543730 -0.1275846958 0.5355550647 4282154405
-0.2513210177 -0.1272258759 0.5365512967 4282482859
-0.2513728142 -0.1266558319 0.5366619229 4282417066
-0.2514244020 -0.1260854304 0.5367720723 4282482859
-0.2514757812 -0.1255146861 0.5368817449 4282614445
-0.2515269518 -0.1249435842 0.5369909406 4282680236
-0.2519930303 -0.1245773733 0.5379860401 4282680236
-0.2520438731 -0.1240046397 0.5380945206 4282746029
-0.2520944774 -0.1234315559 0.5382025838 4282746029
-0.2525602579 -0.1230605319 0.5391970277 4282811822
-0.2526105046 -0.1224858165 0.5393043160 4282811822
-0.2526605725 -0.1219107583 0.5394111872 4282812076
-0.2531260252 -0.1215349212 0.5404049158 4282812076
-0.2531757355 -0.1209582388 0.5405110121 4282943662
-0.2532252073 -0.1203812137 0.5406166315 4283075248
-0.2536903620 -0.1200005710 0.5416097045 4283206834
-0.2537394762 -0.1194219217 0.5417145491 4283206834
-0.2537883818 -0.1188429445 0.5418189764 4283206321
-0.2538370788 -0.1182636246 0.5419229269 4283206321
-0.2538855374 -0.1176839769 0.5420264006 4283272114
-0.2543500662 -0.1172959656 0.5430181623 4283272114
-0.2543981671 -0.1167147085 0.5431208611 4283337907
-0.2548625171 -0.1163231879 0.5441121459 4283403700
-0.2549102306 -0.1157403141 0.5442140698 4283403700
-0.2549577653 -0.1151571199 0.5443155169 4283403700
-0.2554217279 -0.1147608086 0.5453060269 4283469493
-0.2554688752 -0.1141760051 0.5454066992 4283403700
-0.2563494742 -0.1139614880 0.5472866893 4283403700
-0.2568132281 -0.1135584787 0.5482767820 4283469493
-0.2572769225 -0.1131532416 0.5492666960 4283469493
-0.2573234737 -0.1125633270 0.5493661165 4283535286
-0.2577869296 -0.1121545807 0.5503555536 4283535799
-0.2582502961 -0.1117435992 0.5513448715 4283601592
-0.2582963407 -0.1111508161 0.5514431000 4283732663
-0.2587594688 -0.1107363328 0.5524318814 4283798456
-0.2592225373 -0.1103196070 0.5534204841 4283798968
-0.2596855164 -0.1099006608 0.5544089675 4283864761
-0.2605659962 -0.1096552014 0.5562886596 4283864761
-0.2610288858 -0.1092308238 0.5572769046 4283864761
-0.2614916861 -0.1088042185 0.5582649112 4283930297
-0.2619543970 -0.1083753780 0.5592527986 4283930297
-0.2624170184 -0.1079443023 0.5602404475 4284258233
-0.2628795207 -0.1075109914 0.5612278581 4284258233
-0.2637599707 -0.1072454154 0.5631075501 4284520635
-0.2642223537 -0.1068066806 0.5640947223 4284586428
-0.2646846771 -0.1063657105 0.5650817156 4284587198
-0.2655650973 -0.1060895845 0.5669613481 4284718784
-0.2664455473 -0.1058092862 0.5688410401 4284718784
-0.2669076920 -0.1053596959 0.5698277354 4284718784
-0.2682065666 -0.1052362174 0.5726007223 4284848826
-0.2690871358 -0.1049434319 0.5744806528 4285046205
-0.2699677050 -0.1046464741 0.5763605833 4285374142
-0.2704297006 -0.1041840836 0.5773469210 4285308349
-0.2713102698 -0.1038797572 0.5792268515 4285702076
-0.2721908391 -0.1035712659 0.5811068416 4285899455
-0.2730714381 -0.1032586023 0.5829868317 4286424511
-0.2739520371 -0.1029417664 0.5848668814 4286819269
-0.2744137347 -0.1024643257 0.5858525038 4287606726
-0.2748752832 -0.1019846424 0.5868378878 4288067277
-0.2757557929 -0.1016572267 0.5887176991 4288987349
-0.2762171626 -0.1011721045 0.5897027254 4289447900
-0.2645637691 -0.2273476273 0.5661661029 4289048247
-0.2646492720 -0.2267918289 0.5663490295 4288850868
-0.2647345960 -0.2262354940 0.5665316582 4288587696
-0.2644215226 -0.2253392637 0.5658617020 4288390317
-0.2649047673 -0.2251212150 0.5668958426 4288324524
-0.2649896443 -0.2245632708 0.5670774579 4288192938
-0.2650743425 -0.2240047902 0.5672587156 4287995816
-0.2651588917 -0.2234457582 0.5674396753 4287864230
-0.2652432919 -0.2228862196 0.5676202178 4287666851
-0.2653275132 -0.2223261297 0.5678005219 4287403679
-0.2654115856 -0.2217655033 0.5679804087 4287206043
-0.2658947408 -0.2215369940 0.5690143704 4287074457
-0.2655792534 -0.2206426710 0.5683392286 4287074714
-0.2652633488 -0.2197495103 0.5676631927 4287008921
-0.2653466463 -0.2191876024 0.5678414702 4286811542
-0.2654297948 -0.2186251879 0.5680193901 4286614163
-0.2651129067 -0.2177338153 0.5673412681 4286482577
-0.2651956081 -0.2171711773 0.5675182343 4286416784
-0.2652781606 -0.2166080177 0.5676948428 4286219405
-0.2653605342 -0.2160443366 0.5678711534 4286022026
-0.2650423646 -0.2151551098 0.5671902895 4286022029
-0.2655247748 -0.2149153948 0.5682226419 4286022029
-0.2656066418 -0.2143501341 0.5683978796 4286022029
-0.2656883597 -0.2137843519 0.5685727000 4285956236
-0.2649681866 -0.2125748545 0.5670315623 4285824650
-0.2654502988 -0.2123304754 0.5680633187 4285758857
-0.2655313909 -0.2117639929 0.5682368279 4285627269
-0.2656123340 -0.2111969888 0.5684099793 4285627269
-0.2656930685 -0.2106294632 0.5685828328 4285627269
-0.2661751509 -0.2103787363 0.5696144104 4285627269
-0.2662556767 -0.2098093182 0.5697867870 4285430406
-0.2663360536 -0.2092393786 0.5699587464 4285364613
-0.2668180764 -0.2089836597 0.5709903240 4285364613
-0.2664962709 -0.2080979645 0.5703016520 4285364613
-0.2665761411 -0.2075264901 0.5704725385 4285364867
-0.2666558027 -0.2069544941 0.5706430674 4285364867
-0.2667353153 -0.2063819915 0.5708132386 4285561476
-0.2668146789 -0.2058089823 0.5709829926 4285495683
-0.2668938339 -0.2052354515 0.5711524487 4285495683
-0.2669728100 -0.2046614140 0.5713214874 4285495683
-0.2670516372 -0.2040868700 0.5714901090 4285299074
-0.2671302855 -0.2035118192 0.5716584325 4285233281
-0.2672087550 -0.2029362470 0.5718263388 4285233027
-0.2676901817 -0.2026654035 0.5728566051 4285233027
-0.2677684128 -0.2020879537 0.5730240345 4285167234
-0.2678464651 -0.2015100121 0.5731910467 4285167234
-0.2679243386 -0.2009315491 0.5733577013 4285036161
-0.2680020332 -0.2003525943 0.5735239983 4285101954
-0.2680795491 -0.1997731328 0.5736898780 4285101954
-0.2681568861 -0.1991931647 0.5738553405 4284970368
-0.2682340443 -0.1986127049 0.5740204453 4285036161
-0.2683110237 -0.1980317384 0.5741851926 4284904575
-0.2679836154 -0.1971529126 0.5734845400 4284904062
-0.2680600882 -0.1965718269 0.5736482143 4284969855
-0.2677319944 -0.1956946254 0.5729460716 4284904062
-0.2678079903 -0.1951134205 0.5731087327 4284838269
-0.2674791813 -0.1942378730 0.5724050403 4284838269
-0.2679594755 -0.1939495355 0.5734329224 4284838269
-0.2680349350 -0.1933668554 0.5735943913 4284838782
-0.2681102157 -0.1927836686 0.5737555027 4284772989
-0.2677801847 -0.1919096708 0.5730492473 4284772989
-0.2678549886 -0.1913263947 0.5732092857 4284707196
-0.2683349550 -0.1910312027 0.5742363930 4284641403
-0.2684094608 -0.1904460788 0.5743958950 4284641403
-0.2684838176 -0.1898604482 0.5745549798 4284575610
-0.2685579658 -0.1892743409 0.5747137070 4284575610
-0.2686319351 -0.1886877567 0.5748720169 4284444794
-0.2687057257 -0.1881006807 0.5750299096 4284444794
-0.2683733106 -0.1872298717 0.5743185282 4284313208
-0.2688527107 -0.1869250834 0.5753444433 4284379001
-0.2689259350 -0.1863365620 0.5755010843 4284313208
-0.2685925961 -0.1854669750 0.5747877955 4284313208
-0.2686653137 -0.1848783791 0.5749434233 4284312954
-0.2687378526 -0.1842893064 0.5750986338 4284247161
-0.2688101828 -0.1836997569 0.5752534270 4284247161
-0.2688823044 -0.1831097454 0.5754078031 4284247161
-0.2685473859 -0.1822431237 0.5746909976 4284115577
-0.2686190307 -0.1816530526 0.5748443007 4284115577
-0.2686904669 -0.1810625046 0.5749972463 4284050297
-0.2687617242 -0.1804714799 0.5751497149 4283984504
-0.2688327730 -0.1798799932 0.5753017664 4283918456
-0.2689036429 -0.1792880446 0.5754534006 4283786870
-0.2685667574 -0.1784248650 0.5747324824 4283655284
-0.2690447867 -0.1781027317 0.5757554173 4283589491
-0.2687073052 -0.1772404164 0.5750332475 4283393652
-0.2687772512 -0.1766474992 0.5751829743 4283327859
-0.2684390545 -0.1757869720 0.5744592547 4283065461
-0.2685085237 -0.1751940250 0.5746079087 4282933875
-0.2681696117 -0.1743352711 0.5738826394 4282671222
-0.2678303123 -0.1734778732 0.5731564760 4282473843
-0.2674905956 -0.1726218164 0.5724294782 4282014069
-0.2667419612 -0.1715044677 0.5708274245 4281882483
-0.2672185004 -0.1711754948 0.5718472004 4281686134
-0.2660602629 -0.1698009372 0.5693686008 4281554548
-0.2653099895 -0.1686912924 0.5677630305 4281423989
-0.2645591199 -0.1675848365 0.5661561489 4281423989
-0.2638076544 -0.1664815545 0.5645479560 4281162100
-0.2630555332 -0.1653814614 0.5629385114 4281162100
-0.2623028457 -0.1642845720 0.5613276958 4281096820
-0.2615495324 -0.1631908715 0.5597156286 4281228406
-0.2607956231 -0.1621003747 0.5581022501 4281359481
-0.2600410879 -0.1610130966 0.5564875603 4281425274
-0.2592859566 -0.1599290371 0.5548716187 4281425020
-0.2585302293 -0.1588481963 0.5532543659 4281490813
-0.2577739060 -0.1577705741 0.5516358018 4281491328
-0.2574268878 -0.1569461077 0.5508931875 4281557121
-0.2566694617 -0.1558740437 0.5492722988 4281491585
-0.2563215494 -0.1550533026 0.5485277772 4281491585
-0.2563834786 -0.1544811577 0.5486602783 4281426309
-0.2560348809 -0.1536623389 0.5479142666 4281426309
-0.2556858659 -0.1528449357 0.5471674204 4281492102
-0.2553364635 -0.1520289630 0.5464196801 4281557895
-0.2553972900 -0.1514579207 0.5465498567 4281558410
-0.2550472021 -0.1506438851 0.5458006263 4281624203
-0.2546967268 -0.1498312801 0.5450506210 4281623949
-0.2539349496 -0.1487793624 0.5434204340 4281623949
-0.2539945543 -0.1482103765 0.5435479879 4281427598
-0.2536428869 -0.1474020928 0.5427954793 4281493391
-0.2532908320 -0.1465952545 0.5420420766 4281559184
-0.2529383898 -0.1457898617 0.5412877798 4281559184
-0.2525855601 -0.1449859142 0.5405327082 4281559184
-0.2522323132 -0.1441834271 0.5397768021 4281624977
-0.2518786788 -0.1433824003 0.5390200615 4281559697
-0.2519363463 -0.1428161860 0.5391433835 4281625490
-0.2519937754 -0.1422495842 0.5392663479 4281691283
-0.2516391873 -0.1414510906 0.5385074615 4281691283
-0.2516961098 -0.1408846378 0.5386293530 4281691283
-0.2517528534 -0.1403178126 0.5387507677 4281757076
-0.2518094182 -0.1397505999 0.5388717651 4281822871
-0.2518657446 -0.1391830146 0.5389923453 4281822871
-0.2519218624 -0.1386150420 0.5391124487 4281822871
-0.2519778013 -0.1380466819 0.5392321348 4281757078
-0.2520335317 -0.1374779493 0.5393514037 4281692312
-0.2520890534 -0.1369088441 0.5394701958 4281692312
-0.2517316639 -0.1361162215 0.5387054086 4281693082
-0.2517866790 -0.1355472952 0.5388231277 4281824668
-0.2518414855 -0.1349779963 0.5389404297 4281890461
-0.2518960834 -0.1344083250 0.5390573144 4281824668
-0.2515374422 -0.1336188912 0.5382897854 4281890463
-0.2515915334 -0.1330494136 0.5384055376 4281890463
-0.2512322366 -0.1322620362 0.5376365781 4281890720
-0.2512858212 -0.1316927820 0.5377513170 4281890720
-0.2513391972 -0.1311231405 0.5378655195 4281824927
-0.2509788871 -0.1303384304 0.5370944738 4281824927
-0.2510317862 -0.1297690123 0.5372076631 4281891233
-0.2510844469 -0.1291992366 0.5373203754 4282022819
-0.2511368990 -0.1286291033 0.5374326110 4282088612
-0.2511891425 -0.1280586123 0.5375444293 4282088612
-0.2512411773 -0.1274877638 0.5376557708 4282153894
-0.2512930036 -0.1269165725 0.5377666950 4282153894
-0.2513446212 -0.1263450086 0.5378771424 4282219687
-0.2513960302 -0.1257731169 0.5379871130 4282351273
-0.2518614531 -0.1254071146 0.5389831662 4282482859
-0.2514981925 -0.1246282533 0.5382058024 4282482859
-0.2519633770 -0.1242596805 0.5392012596 4282482857
-0.2520140111 -0.1236854345 0.5393096209 4282482857
-0.2524789870 -0.1233133376 0.5403047204 4282680236
-0.2525292933 -0.1227374598 0.5404123068 4282614443
-0.2529940903 -0.1223618314 0.5414070487 4282614443
-0.2530440390 -0.1217843220 0.5415138602 4282614443
-0.2530937493 -0.1212064773 0.5416203141 4282680490
-0.2531432509 -0.1206282824 0.5417262316 4282812076
-0.2536076307 -0.1202465594 0.5427199602 4282943662
-0.2536567748 -0.1196667477 0.5428251028 4283075248
-0.2541209161 -0.1192815006 0.5438184142 4283140528
-0.2541697025 -0.1187000647 0.5439228415 4283206321
-0.2542182803 -0.1181182936 0.5440267920 4283141041
-0.2542666495 -0.1175361946 0.5441302657 4283141041
-0.2547303140 -0.1171448603 0.5451225042 4283141041
-0.2547782958 -0.1165611446 0.5452252030 4283141041
-0.2552417517 -0.1161662936 0.5462170243 4283272114
-0.2552893758 -0.1155809686 0.5463189483 4283272114
-0.2557526529 -0.1151826009 0.5473102927 4283535286
-0.2557998896 -0.1145956665 0.5474113822 4283469493
-0.2566789389 -0.1143791676 0.5492925644 4283338420
-0.2571419775 -0.1139741018 0.5502834916 4283272627
-0.2576049566 -0.1135668010 0.5512742400 4283338420
-0.2580678463 -0.1131572649 0.5522648096 4283338420
-0.2581143379 -0.1125639379 0.5523643494 4283470006
-0.2585769892 -0.1121508852 0.5533544421 4283601592
-0.2590395808 -0.1117356047 0.5543443561 4283732663
-0.2595020831 -0.1113180816 0.5553340912 4283798456
-0.2599644959 -0.1108983308 0.5563236475 4283733176
-0.2604268193 -0.1104763448 0.5573130846 4283733176
-0.2608890831 -0.1100521162 0.5583022833 4283733176
-0.2613512278 -0.1096256599 0.5592913032 4283798969
-0.2622302175 -0.1093708500 0.5611723065 4283930297
-0.2626922727 -0.1089389622 0.5621610880 4283996090
-0.2631542385 -0.1085048392 0.5631496906 4284257979
-0.2636160851 -0.1080684811 0.5641380548 4284192186
-0.2644950449 -0.1077999175 0.5660190582 4284323258
-0.2649568021 -0.1073581278 0.5670071840 4284389051
-0.2654184401 -0.1069140956 0.5679950714 4284454842
-0.2662973702 -0.1066349745 0.5698760152 4284520635
-0.2667588890 -0.1061855108 0.5708636642 4284455612
-0.2680553794 -0.1060642302 0.5736381412 4284455612
-0.2685168087 -0.1056083664 0.5746256113 4284716470
-0.2693958282 -0.1053135395 0.5765066743 4284848056
-0.2702748477 -0.1050145403 0.5783877969 4284913591
-0.2711538970 -0.1047113761 0.5802689791 4284782005
-0.2716151178 -0.1042436659 0.5812559724 4285241268
-0.2724941373 -0.1039331183 0.5831370950 4285570233
-0.2733731866 -0.1036184058 0.5850182176 4286226362
-0.2738341689 -0.1031420380 0.5860047340 4286818499
-0.2742950320 -0.1026634425 0.5869910121 4287409347
-0.2751739919 -0.1023381352 0.5888719559 4287869898
-0.2756346762 -0.1018540934 0.5898578167 4288723920
-0.2760952413 -0.1013678163 0.5908434391 4289184471
-0.2631548345 -0.2273028344 0.5644926429 4289114040
-0.2632400990 -0.2267490923 0.5646755695 4288916661
-0.2633252144 -0.2261948138 0.5648581386 4288587696
-0.2634101808 -0.2256399989 0.5650404096 4288324524
-0.2634949982 -0.2250846475 0.5652223229 4288192938
-0.2631820738 -0.2241901010 0.5645511150 4288061352
-0.2632664740 -0.2236345112 0.5647321343 4287995559
-0.2633506656 -0.2230783999 0.5649127960 4287798180
-0.2638326883 -0.2228578776 0.5659466982 4287600801
-0.2639167011 -0.2222998589 0.5661269426 4287469215
-0.2640005946 -0.2217412889 0.5663068891 4287206043
-0.2640843093 -0.2211821973 0.5664864779 4286877078
-0.2645663023 -0.2209553421 0.5675203800 4286745492
-0.2646498084 -0.2203943431 0.5676995516 4286679957
-0.2643344998 -0.2195017338 0.5670231581 4286614164
-0.2644175589 -0.2189405262 0.5672013760 4286548371
-0.2641015351 -0.2180494070 0.5665234327 4286350992
-0.2641841769 -0.2174879760 0.5667006969 4286219406
-0.2638674378 -0.2165983468 0.5660213232 4286153613
-0.2639496326 -0.2160367221 0.5661975741 4286087820
-0.2640316486 -0.2154745758 0.5663735271 4285824648
-0.2641135156 -0.2149119079 0.5665491223 4285824648
-0.2641952038 -0.2143487036 0.5667243600 4285758855
-0.2642767429 -0.2137849927 0.5668992996 4285758855
-0.2643581033 -0.2132207453 0.5670738220 4285758855
-0.2644393146 -0.2126559913 0.5672479868 4285693062
-0.2645203471 -0.2120907158 0.5674217939 4285627269
-0.2642008960 -0.2112049013 0.5667365789 4285561476
-0.2646819055 -0.2109586000 0.5677683949 4285561476
-0.2647624314 -0.2103917599 0.5679411292 4285627269
-0.2648428082 -0.2098244131 0.5681135654 4285693062
-0.2649230063 -0.2092565447 0.5682855844 4285496453
-0.2650030255 -0.2086881548 0.5684572458 4285364867
-0.2650828958 -0.2081192583 0.5686285496 4285430406
-0.2655637264 -0.2078638375 0.5696600080 4285364613
-0.2656433880 -0.2072930485 0.5698308349 4285299074
-0.2653214633 -0.2064094841 0.5691402555 4285430660
-0.2654006183 -0.2058385313 0.5693101287 4285561476
-0.2654796243 -0.2052670717 0.5694795847 4285495683
-0.2659602165 -0.2050047815 0.5705105066 4285495683
-0.2656370997 -0.2041226178 0.5698174238 4285495683
-0.2657155991 -0.2035496384 0.5699857473 4285299074
-0.2657938898 -0.2029761374 0.5701537132 4285233281
-0.2658720315 -0.2024021447 0.5703213215 4285167488
-0.2659499943 -0.2018276304 0.5704885721 4285167488
-0.2664302289 -0.2015570849 0.5715187192 4285167488
-0.2665079534 -0.2009807080 0.5716854334 4285101695
-0.2665854990 -0.2004038095 0.5718517900 4285101695
-0.2666628659 -0.1998264194 0.5720177293 4285167488
-0.2667400539 -0.1992485225 0.5721833110 4285101695
-0.2668170631 -0.1986701339 0.5723485351 4285035902
-0.2668938935 -0.1980912387 0.5725133419 4285101695
-0.2669705451 -0.1975118369 0.5726777315 4284904316
-0.2670470178 -0.1969319433 0.5728417635 4284904062
-0.2671233118 -0.1963515431 0.5730054379 4284904062
-0.2663921416 -0.1951792091 0.5714370608 4284904062
-0.2664678395 -0.1945995837 0.5715994239 4284838269
-0.2661395073 -0.1937254816 0.5708950758 4284772989
-0.2662147284 -0.1931457520 0.5710564256 4284772989
-0.2666938305 -0.1928577274 0.5720841885 4284772989
-0.2663646042 -0.1919848025 0.5713779330 4284772989
-0.2664392591 -0.1914035976 0.5715380907 4284707196
-0.2669181526 -0.1911114603 0.5725653768 4284641403
-0.2669925690 -0.1905284077 0.5727249980 4284641405
-0.2670667768 -0.1899448484 0.5728842020 4284641405
-0.2671408057 -0.1893608123 0.5730429888 4284509819
-0.2672146559 -0.1887762845 0.5732014179 4284509819
-0.2672883272 -0.1881912798 0.5733593702 4284575612
-0.2673617899 -0.1876057982 0.5735170245 4284509819
-0.2678402662 -0.1873031855 0.5745434165 4284444022
-0.2679134607 -0.1867158413 0.5747004151 4284509815
-0.2679864764 -0.1861280203 0.5748570561 4284444024
-0.2672482431 -0.1849783212 0.5732734203 4284378231
-0.2673206329 -0.1843913198 0.5734287500 4284313208
-0.2673928440 -0.1838038415 0.5735836625 4284247415
-0.2674648762 -0.1832158864 0.5737381577 4284181368
-0.2675367296 -0.1826274544 0.5738922358 4284247161
-0.2676083744 -0.1820385605 0.5740459561 4284115575
-0.2676798105 -0.1814491898 0.5741991997 4284115575
-0.2673447728 -0.1805848926 0.5734804869 4284050042
-0.2674157321 -0.1799954772 0.5736327171 4283984249
-0.2674864829 -0.1794055849 0.5737844706 4283918456
-0.2679636478 -0.1790869832 0.5748080611 4283786870
-0.2676274180 -0.1782243997 0.5740867853 4283655284
-0.2681044042 -0.1779030710 0.5751100183 4283655284
-0.2673605978 -0.1767722964 0.5735144615 4283590004
-0.2678373158 -0.1764491498 0.5745370984 4283590004
-0.2679069042 -0.1758564711 0.5746863484 4283393141
-0.2675690353 -0.1749969721 0.5739615560 4283261555
-0.2676381171 -0.1744042635 0.5741097331 4282999416
-0.2672995329 -0.1735465527 0.5733834505 4282802037
-0.2669605315 -0.1726901978 0.5726562738 4282407798
-0.2662134469 -0.1715724468 0.5710536838 4282276212
-0.2666890919 -0.1712433845 0.5720739961 4281883254
-0.2659410834 -0.1701292545 0.5704694390 4281620082
-0.2656004429 -0.1692783237 0.5697387457 4281489266
-0.2648513317 -0.1681696326 0.5681318045 4281357680
-0.2641015947 -0.1670641303 0.5665235519 4281095791
-0.2633512318 -0.1659618169 0.5649139881 4281227377
-0.2626002729 -0.1648627073 0.5633031130 4281162098
-0.2618487179 -0.1637667865 0.5616909266 4281162098
-0.2615051568 -0.1629286557 0.5609539151 4281292918
-0.2607524693 -0.1618382335 0.5593393445 4281358711
-0.2599991858 -0.1607510448 0.5577235222 4281358711
-0.2592453063 -0.1596670598 0.5561063886 4281424504
-0.2580818236 -0.1583353728 0.5536105633 4281359481
-0.2585539520 -0.1580088139 0.5546233654 4281425274
-0.2573892772 -0.1566835940 0.5521249771 4281490813
-0.2570424080 -0.1558598131 0.5513809323 4281490813
-0.2571045458 -0.1552847177 0.5515142083 4281491328
-0.2567569613 -0.1544628441 0.5507686138 4281491328
-0.2564089894 -0.1536424011 0.5500221848 4281491586
-0.2560606301 -0.1528233737 0.5492749214 4281491586
-0.2557118833 -0.1520057768 0.5485268235 4281557379
-0.2553627193 -0.1511896104 0.5477778316 4281557379
-0.2554231584 -0.1506166309 0.5479075313 4281426309
-0.2546632290 -0.1495615542 0.5462774038 4281426309
-0.2539027333 -0.1485097706 0.5446459651 4281295752
-0.2539621592 -0.1479392648 0.5447735190 4281295752
-0.2536110580 -0.1471302807 0.5440203547 4281361547
-0.2528490722 -0.1460855901 0.5423858166 4281427340
-0.2529076338 -0.1455166489 0.5425114036 4281493646
-0.2525553107 -0.1447120160 0.5417556763 4281559439
-0.2522026300 -0.1439088434 0.5409991741 4281559439
-0.2522603869 -0.1433405876 0.5411230326 4281493646
