VERSION 0.7
FIELDS x y z rgba
SIZE 4 4 4 4
TYPE F F F U
COUNT 1 1 1 1
WIDTH 920
HEIGHT 1
VIEWPOINT 0.0 0.0 0.0 1.0 0.0 0.0 0.0
POINTS 920
DATA ascii
-0.3604923189 -0.1417724639 0.5466679335 4290029997
-0.3594850600 -0.1407706290 0.5451404452 4291411650
-0.3094959855 -0.1206739694 0.4693346620 4292073945
-0.3143999875 -0.1220563352 0.4767713249 4291942359
-0.3085364401 -0.1192601398 0.4678795636 4292072151
-0.3075174689 -0.1183481440 0.4663343430 4292203737
-0.3070365489 -0.1176457331 0.4656050205 4292401116
-0.3070939481 -0.1171503142 0.4656920731 4292598495
-0.3071511388 -0.1166546121 0.4657787979 4292730082
-0.3072080910 -0.1161586344 0.4658651650 4292730082
-0.3067257702 -0.1154594719 0.4651337564 4292861668
-0.3067821860 -0.1149638146 0.4652193189 4293059047
-0.3068383932 -0.1144678891 0.4653045237 4293190633
-0.3068943620 -0.1139716879 0.4653894007 4293190633
-0.3069501221 -0.1134752184 0.4654739499 4293322221
-0.3070056438 -0.1129784808 0.4655581713 4293322221
-0.3070609570 -0.1124814674 0.4656420350 4293190892
-0.3071160316 -0.1119841933 0.4657255411 4293190892
-0.3071708679 -0.1114866436 0.4658087492 4293256685
-0.3072255254 -0.1109888330 0.4658915699 4293059306
-0.3078199625 -0.1106849387 0.4667930305 4292862181
-0.3078742325 -0.1101857275 0.4668753147 4293125353
-0.3079282641 -0.1096862480 0.4669572711 4293849076
-0.3079820871 -0.1091865078 0.4670388997 4294507006
-0.3074952662 -0.1084958240 0.4663006663 4294770175
-0.3075485528 -0.1079964340 0.4663814604 4294704383
-0.3059797883 -0.1069300249 0.4640025198 4294572799
-0.3065730333 -0.1066208035 0.4649021327 4294441213
-0.3055438697 -0.1057480723 0.4633414447 4294046455
-0.3061367273 -0.1054374576 0.4642404914 4294178041
-0.3061885834 -0.1049394235 0.4643191397 4293980662
-0.3062402308 -0.1044411436 0.4643974304 4293783283
-0.3068327606 -0.1041262522 0.4652960002 4293717490
-0.3074252605 -0.1038093418 0.4661945105 4293651697
-0.3085590601 -0.1036723107 0.4679138362 4293980408
-0.3124000728 -0.1044364870 0.4737385511 4294704127
-0.3146175742 -0.1046477184 0.4771012664 4294243834
-0.3487502933 -0.1101248637 0.5288617611 4292928492
-0.3520595133 -0.1105766371 0.5338800550 4292928492
-0.3553695083 -0.1110175028 0.5388994813 4292665320
-0.3570523262 -0.1109416261 0.5414513946 4292138976
-0.3598208129 -0.1111955792 0.5456496477 4291678425
-0.3620470464 -0.1112735495 0.5490255952 4291875804
-0.3669880927 -0.1121738181 0.5565184355 4292006361
-0.3654147685 -0.1110772341 0.5541325808 4291940568
-0.3681850135 -0.1112989783 0.5583335161 4291940827
-0.3698695600 -0.1111850142 0.5608880520 4292006620
-0.3672086298 -0.1097664237 0.5568528771 4292138206
-0.3710660934 -0.1102942899 0.5627025366 4292138206
-0.3722075522 -0.1100064442 0.5644334555 4292072411
-0.3738924563 -0.1098744646 0.5669885874 4292006618
-0.3755775690 -0.1097368523 0.5695439577 4292269790
-0.3761756718 -0.1092777923 0.5704509020 4292072411
-0.3767735958 -0.1088166758 0.5713576674 4292007390
-0.3735650778 -0.1072605997 0.5664920807 4291810011
-0.3774252534 -0.1077330410 0.5723458529 4291612632
-0.3780227005 -0.1072666571 0.5732518435 4291481046
-0.3780760169 -0.1066447720 0.5733327270 4291283667
-0.3786731362 -0.1061751768 0.5742381811 4291217874
-0.3787259459 -0.1055518761 0.5743182898 4290296768
-0.3793226779 -0.1050790772 0.5752232075 4289638838
-0.3793749511 -0.1044543535 0.5753024817 4288717736
-0.3794269562 -0.1038293839 0.5753813386 4290428354
-0.3789342046 -0.1030560806 0.5746340752 4292401376
-0.3778964877 -0.1021371484 0.5730604529 4292467169
-0.3763135672 -0.1010752842 0.5706600547 4292335583
-0.3752745986 -0.1001639292 0.5690845251 4292006618
-0.3742350340 -0.0992559195 0.5675080419 4291875034
-0.3737397194 -0.0984948352 0.5667569041 4292006620
-0.3732439280 -0.0977353081 0.5660051107 4291940827
-0.3722027838 -0.0968355611 0.5644262433 4292006620
-0.3717060685 -0.0960800499 0.5636729598 4292466658
-0.3712089062 -0.0953260958 0.5629190803 4292532451
-0.3712564707 -0.0947127938 0.5629912019 4292071900
-0.3713037670 -0.0940992534 0.5630629063 4292006107
-0.3713507354 -0.0934854746 0.5631341934 4291874521
-0.3713974357 -0.0928714648 0.5632049441 4292006107
-0.3714438379 -0.0922572315 0.5632753372 4291940314
-0.3714899123 -0.0916427597 0.5633452535 4291940314
-0.3715357184 -0.0910280645 0.5634146929 4292335072
-0.3715812266 -0.0904131457 0.5634836555 4292664037
-0.3716264367 -0.0897979960 0.5635522604 4292466658
-0.3716713488 -0.0891826227 0.5636203289 4292137693
-0.3717159331 -0.0885670334 0.5636879802 4292137693
-0.3733979762 -0.0883386657 0.5662387013 4292203486
-0.3734421730 -0.0877199173 0.5663056970 4292071900
-0.3734860718 -0.0871009529 0.5663722754 4292071900
-0.3718913794 -0.0861024633 0.5639540553 4292203486
-0.3735729754 -0.0858623683 0.5665040612 4292071900
-0.3714311123 -0.0847442597 0.5632560253 4292137693
-0.3709272742 -0.0840043351 0.5624920130 4292532451
-0.3709693551 -0.0833888277 0.5625557899 4292532451
-0.3704647422 -0.0826512054 0.5617905855 4292466658
-0.3705061674 -0.0820361897 0.5618534088 4292269279
-0.3694542348 -0.0811807886 0.5602582097 4292071900
-0.3667619824 -0.0799712613 0.5561755300 4292006107
-0.3689886928 -0.0798350871 0.5595522523 4292006107
-0.3695754409 -0.0793393478 0.5604420304 4292006107
-0.3690684736 -0.0786086768 0.5596732497 4292071900
-0.3691079319 -0.0779951736 0.5597330332 4292137693
-0.3691470623 -0.0773814768 0.5597923994 4292532451
-0.3686389625 -0.0766538531 0.5590218902 4292598244
-0.3686774671 -0.0760406777 0.5590802431 4292269279
-0.3687156439 -0.0754273161 0.5591381788 4292071900
-0.3665650785 -0.0743697584 0.5558769703 4292203486
-0.3660552502 -0.0736495629 0.5551038384 4292203486
-0.3655450344 -0.0729310066 0.5543301105 4292137693
-0.3672235310 -0.0726471618 0.5568754673 4292532703
-0.3705440164 -0.0726797283 0.5619108081 4291545808
-0.3667488694 -0.0713173971 0.5561556220 4283913819
-0.3483961821 -0.1660583615 0.5292161107 4290360243
-0.3479433358 -0.1652552933 0.5285282731 4290426036
-0.3481007814 -0.1641550660 0.5287674069 4290689208
-0.3487115502 -0.1638545543 0.5296951532 4290360243
-0.3493223190 -0.1635519862 0.5306228995 4290490799
-0.3488678336 -0.1627504081 0.5299325585 4290753971
-0.3494783938 -0.1624454260 0.5308600068 4291017143
-0.3495560884 -0.1618915796 0.5309780240 4290951350
-0.3506995142 -0.1618292481 0.5327149034 4290753714
-0.3513100743 -0.1615180820 0.5336423516 4290687921
-0.3524538577 -0.1614491045 0.5353797674 4290818735
-0.3498645425 -0.1596725434 0.5314465761 4290687149
-0.3526083231 -0.1603296399 0.5356143713 4290884271
-0.3526852131 -0.1597693712 0.5357311964 4290884271
-0.3538292050 -0.1596904546 0.5374689102 4290884528
-0.3544396460 -0.1593677551 0.5383961797 4290687149
-0.3545161784 -0.1588038355 0.5385124087 4290620329
-0.3545924425 -0.1582395434 0.5386282802 4290357157
-0.3546684980 -0.1576748937 0.5387437940 4289633175
-0.3552785516 -0.1573465019 0.5396704674 4288646280
-0.3553542197 -0.1567802727 0.5397854447 4288902001
-0.3559641540 -0.1564486027 0.5407118797 4288770415
-0.3544356823 -0.1551786363 0.5383901596 4288509812
-0.3561145067 -0.1553126425 0.5409403443 4289101949
-0.3561893404 -0.1547441185 0.5410539508 4289564812
-0.3562639356 -0.1541752517 0.5411672592 4290354328
-0.3563382626 -0.1536060125 0.5412802100 4290815906
-0.3548069000 -0.1523470730 0.5389540195 4291079078
-0.3564862013 -0.1524664909 0.5415049195 4291211947
-0.3565598130 -0.1518961936 0.5416166782 4291475119
-0.3571686447 -0.1515527666 0.5425415635 4291606452
-0.3577774465 -0.1512072682 0.5434663296 4291474866
-0.3578505516 -0.1506341994 0.5435773730 4291605169
-0.3579233885 -0.1500607729 0.5436879992 4291539376
-0.3585318923 -0.1497107893 0.5446122885 4291077285
-0.3586043417 -0.1491358131 0.5447223783 4290024597
-0.3586765230 -0.1485604942 0.5448319912 4289823103
-0.3587484658 -0.1479848325 0.5449413061 4288638829
-0.3588201702 -0.1474088132 0.5450502038 4288111198
-0.3588916063 -0.1468324512 0.5451587439 4288637542
-0.3584262431 -0.1460371315 0.5444518328 4289559158
-0.3584970534 -0.1454609483 0.5445594192 4290019709
-0.3585676551 -0.1448844224 0.5446666479 4290154891
-0.3586379886 -0.1443075538 0.5447734594 4291273372
-0.3587080538 -0.1437303573 0.5448799133 4291539629
-0.3587778807 -0.1431528032 0.5449859500 4292131766
-0.3588474393 -0.1425749362 0.5450916290 4291344818
-0.3589167595 -0.1419967115 0.5451969504 4290555302
-0.3589858115 -0.1414181739 0.5453018546 4289174939
-0.3096039891 -0.1214422584 0.4702905118 4290030248
-0.3591231704 -0.1402600706 0.5455104709 4292400341
-0.3575783074 -0.1390532255 0.5431638360 4292400341
-0.3087050021 -0.1195266098 0.4689249396 4291941078
-0.3076874018 -0.1186133176 0.4673792124 4291941078
-0.3066692054 -0.1177032217 0.4658325315 4292204250
-0.3067265749 -0.1172075793 0.4659197330 4292467422
-0.3067837656 -0.1167116612 0.4660065472 4292533215
-0.3068407178 -0.1162154600 0.4660930634 4292599008
-0.3068974316 -0.1157189906 0.4661792517 4292862181
-0.3069539368 -0.1152222380 0.4662650824 4292993767
-0.3064716160 -0.1145239472 0.4655323923 4292993513
-0.3065275550 -0.1140275225 0.4656174183 4293190892
-0.3065833151 -0.1135308295 0.4657020867 4293322478
-0.3066388369 -0.1130338684 0.4657863975 4293256685
-0.3066941202 -0.1125366315 0.4658704102 4293256687
-0.3067491949 -0.1120391339 0.4659540355 4293322480
-0.3068040311 -0.1115413606 0.4660373628 4293190894
-0.3073979318 -0.1112384796 0.4669395089 4292993515
-0.3074524403 -0.1107393056 0.4670222700 4292795877
-0.3080461919 -0.1104332656 0.4679241776 4293059049
-0.3081003129 -0.1099326834 0.4680064023 4293716979
-0.3081542253 -0.1094318405 0.4680882990 4294374909
-0.3082078993 -0.1089307293 0.4681698382 4294769663
-0.3077214658 -0.1082394645 0.4674309790 4294901247
-0.3072346449 -0.1075496972 0.4666914642 4294770175
-0.3083675504 -0.1074258387 0.4684123695 4294704382
-0.3062597513 -0.1061746627 0.4652105868 4294572796
-0.3057716787 -0.1054894030 0.4644692242 4294309624
-0.3063638508 -0.1051766425 0.4653687477 4294046454
-0.3058751523 -0.1044926345 0.4646264017 4293914868
-0.3065183163 -0.1036777049 0.4656033218 4293848822
-0.3108948171 -0.1046333238 0.4722512960 4293980408
-0.3093239963 -0.1035826057 0.4698652029 4294638335
-0.3109976053 -0.1036181599 0.4724074304 4294046455
-0.3165098727 -0.1043863744 0.4807806015 4292599009
-0.3231071532 -0.1054715589 0.4908019006 4292664802
-0.3439474702 -0.1093720049 0.5224584937 4294704383
-0.3477936387 -0.1100080684 0.5283008814 4294704383
-0.3500152826 -0.1101200432 0.5316755176 4294572799
-0.3544049263 -0.1109029576 0.5383434296 4294441213
-0.3587956727 -0.1116713881 0.5450130105 4293980662
-0.3588508964 -0.1110829338 0.5450968742 4293322732
-0.3605323136 -0.1109949425 0.5476509929 4292730595
-0.3616717160 -0.1107353196 0.5493817329 4292532962
-0.3633534610 -0.1106369942 0.5519363284 4292401376
-0.3644930422 -0.1103688180 0.5536673665 4292400865
-0.3656326830 -0.1100968122 0.5553984642 4292400865
-0.3656872213 -0.1094960570 0.5554813147 4292400865
-0.3684546947 -0.1097028553 0.5596851110 4292335072
-0.3695945144 -0.1094184518 0.5614165068 4292138204
-0.3701915741 -0.1089704260 0.5623234510 4292006618
-0.3707884848 -0.1085203514 0.5632301569 4292138204
-0.3724712133 -0.1083842069 0.5657862425 4292072411
-0.3736110628 -0.1080853418 0.5675176978 4292072154
-0.3725784719 -0.1071578041 0.5659492016 4291874775
-0.3748044670 -0.1071654558 0.5693304539 4291677396
-0.3754009604 -0.1067024320 0.5702365637 4291480017
-0.3759973049 -0.1062373593 0.5711424351 4291151309
-0.3765935302 -0.1057702303 0.5720480680 4290888137
-0.3766461015 -0.1051493213 0.5721279383 4290493633
-0.3772419393 -0.1046789810 0.5730330348 4289440945
-0.3778376579 -0.1042065993 0.5739378929 4289243565
-0.3773457408 -0.1034340784 0.5731906891 4291612113
-0.3768534064 -0.1026630998 0.5724428296 4292862181
-0.3752728701 -0.1015991718 0.5700420141 4292599009
-0.3736916184 -0.1005403772 0.5676400661 4292138204
-0.3731976449 -0.0997776240 0.5668897033 4291875032
-0.3721591532 -0.0988718718 0.5653122067 4292006618
-0.3711200655 -0.0979694724 0.5637338758 4292006618
-0.3706246614 -0.0972131789 0.5629813075 4291940825
-0.3701288104 -0.0964584351 0.5622280836 4292072411
-0.3690881431 -0.0955643132 0.5606473088 4292532962
-0.3685913384 -0.0948136002 0.5598926544 4292401376
-0.3680940866 -0.0940644518 0.5591374040 4292006620
-0.3681410253 -0.0934551284 0.5592086315 4291875034
-0.3681876659 -0.0928455666 0.5592795014 4291940314
-0.3682340086 -0.0922357738 0.5593498945 4292006107
-0.3682800233 -0.0916257501 0.5594198108 4292006107
-0.3688706458 -0.0911501348 0.5603169799 4292071900
-0.3689161837 -0.0905387551 0.5603861213 4292466658
-0.3684163988 -0.0897943154 0.5596269369 4292729830
-0.3690063357 -0.0893153176 0.5605230331 4292532451
-0.3690509498 -0.0887032673 0.5605908632 4292137693
-0.3690952957 -0.0880909935 0.5606582165 4292203486
-0.3691393435 -0.0874784961 0.5607250929 4292071900
-0.3691830933 -0.0868657827 0.5607915521 4292006107
-0.3697719276 -0.0863802582 0.5616860390 4292071900
-0.3698151410 -0.0857662112 0.5617516637 4292137693
-0.3693125546 -0.0850263536 0.5609881878 4292137693
-0.3693551123 -0.0844127759 0.5610528588 4292335072
-0.3688517213 -0.0836752132 0.5602881908 4292532451
-0.3683479130 -0.0829392523 0.5595229268 4292664037
-0.3683894575 -0.0823268667 0.5595859885 4292466658
-0.3678848445 -0.0815932155 0.5588195324 4292203486
-0.3673798442 -0.0808611736 0.5580524206 4292071900
-0.3668744266 -0.0801307410 0.5572847128 4292071900
-0.3663685918 -0.0794019327 0.5565162897 4292071900
-0.3669544458 -0.0789095834 0.5574062467 4292137693
-0.3669939935 -0.0782987103 0.5574663281 4292137693
-0.3664870858 -0.0775720254 0.5566962957 4292203486
-0.3665260077 -0.0769616663 0.5567554235 4292532451
-0.3660182953 -0.0762373284 0.5559842587 4292729830
-0.3660565615 -0.0756274909 0.5560423136 4292400865
-0.3677337468 -0.0753533617 0.5585899949 4292071900
-0.3677715659 -0.0747404173 0.5586474538 4292071900
-0.3656229973 -0.0736867040 0.5553837419 4292137693
-0.3678462803 -0.0735139549 0.5587609410 4292071900
-0.3678832054 -0.0729004443 0.5588170290 4292401119
-0.3646396995 -0.0716422945 0.5538901091 4291940568
-0.3635821939 -0.0708208978 0.5522837639 4285558647
-0.3461428881 -0.1670187265 0.5266819000 4287860620
-0.3468327522 -0.1661788970 0.5277315974 4290689462
-0.3463806212 -0.1653766781 0.5270436406 4290492083
-0.3459280431 -0.1645757854 0.5263550282 4290557876
-0.3465380073 -0.1642801166 0.5272830725 4290426290
-0.3460847139 -0.1634801477 0.5265933871 4290557875
-0.3466944396 -0.1631820649 0.5275211334 4290623668
-0.3473041952 -0.1628819108 0.5284489393 4290622898
-0.3473819792 -0.1623311192 0.5285672545 4290951863
-0.3474595249 -0.1617799401 0.5286852717 4291083449
-0.3475368619 -0.1612284034 0.5288029313 4290820277
-0.3481462598 -0.1609225571 0.5297302008 4290557105
-0.3487557173 -0.1606146544 0.5306575298 4290557105
-0.3472348750 -0.1593272239 0.5283434391 4290688432
-0.3505072594 -0.1602361947 0.5333226323 4290688432
-0.3500511944 -0.1594359130 0.5326287150 4290556333
-0.3501276076 -0.1588788033 0.5327449441 4290687919
-0.3518028855 -0.1590442359 0.5352939963 4290753712
-0.3513459861 -0.1582437158 0.5345988274 4290687919
-0.3519552052 -0.1579230875 0.5355257392 4290753712
-0.3525643647 -0.1576003879 0.5364526510 4290951091
-0.3526400626 -0.1570380628 0.5365678072 4291147443
-0.3527154922 -0.1564753652 0.5366826057 4290884271
-0.3533244133 -0.1561481804 0.5376091599 4290818729
-0.3517979980 -0.1548788399 0.5352865458 4290160799
-0.3534743488 -0.1550192833 0.5378372669 4289501074
-0.3540830016 -0.1546876132 0.5387634039 4288711558
-0.3541574776 -0.1541214138 0.5388767123 4288577405
-0.3542316854 -0.1535548568 0.5389896035 4288314233
-0.3543056846 -0.1529879421 0.5391021967 4288706167
-0.3543794155 -0.1524206847 0.5392143726 4288640374
-0.3544529080 -0.1518530548 0.5393262506 4289495683
-0.3550609052 -0.1515132785 0.5402513146 4289956234
-0.3556688428 -0.1511714160 0.5411763787 4290287253
-0.3536020517 -0.1496951580 0.5380315781 4290747804
-0.3558145761 -0.1500302851 0.5413981080 4290816164
-0.3558870554 -0.1494591981 0.5415083766 4291276715
-0.3559592962 -0.1488877684 0.5416183472 4291343790
-0.3565666974 -0.1485390067 0.5425425172 4291277997
-0.3566385508 -0.1479660124 0.5426518321 4291535516
-0.3567101359 -0.1473926753 0.5427607894 4290088070
-0.3567815125 -0.1468189955 0.5428693295 4288967786
-0.3568526208 -0.1462449729 0.5429775715 4288638821
-0.3569234610 -0.1456706077 0.5430853367 4288901478
-0.3569940627 -0.1450958997 0.5431928039 4288506720
-0.3570644259 -0.1445208490 0.5432998538 4288115305
-0.3571345210 -0.1439454556 0.5434064865 4289365372
-0.3572043777 -0.1433697194 0.5435127616 4290949546
-0.3572739661 -0.1427936554 0.5436186790 4291541683
-0.3573433161 -0.1422172636 0.5437241793 4290293933
-0.3584857285 -0.1420658678 0.5454624295 4289570210
-0.3580180109 -0.1412752569 0.5447507501 4288386966
-0.3586235344 -0.1409079283 0.5456721783 4288781724
-0.3103652894 -0.1214219257 0.4722436666 4291413960
-0.3576862216 -0.1393302530 0.5442459583 4292269269
-0.3094089031 -0.1200015992 0.4707884490 4291941076
-0.3073182404 -0.1186712161 0.4676073492 4291875283
-0.3068386614 -0.1179672927 0.4668776691 4292072664
-0.3063586950 -0.1172648370 0.4661473036 4292335836
-0.3064158261 -0.1167686954 0.4662342966 4292533215
-0.3064727783 -0.1162722707 0.4663209021 4292599008
-0.3065294921 -0.1157755777 0.4664072096 4292796388
-0.3065859973 -0.1152786091 0.4664931595 4292993767
-0.3061042726 -0.1145799905 0.4657602310 4293059560
-0.3066982925 -0.1142838448 0.4666640759 4293191146
-0.3067541122 -0.1137860566 0.4667490125 4293256685
-0.3068097234 -0.1132879928 0.4668336213 4293256685
-0.3068650961 -0.1127896607 0.4669178724 4293256685
-0.3069202602 -0.1122910604 0.4670017958 4293322478
-0.3069751859 -0.1117921919 0.4670853615 4293190894
-0.3070298731 -0.1112930551 0.4671685994 4292927722
-0.3076231182 -0.1109880283 0.4680712223 4292730084
-0.3076774478 -0.1104874834 0.4681539237 4292861670
-0.3082705140 -0.1101792976 0.4690563083 4293322219
-0.3083244860 -0.1096773446 0.4691384435 4293980149
-0.3083782494 -0.1091751307 0.4692202508 4294638078
-0.3078925610 -0.1084826663 0.4684812427 4294967039
-0.3063278496 -0.1074134856 0.4661003947 4294901503
-0.3074593544 -0.1072904617 0.4678220749 4294835711
-0.3069725335 -0.1066016182 0.4670813382 4294770175
-0.3064852655 -0.1059142798 0.4663399458 4294572796
-0.3070769906 -0.1055996194 0.4672402442 4294243833
-0.3071288466 -0.1050982326 0.4673191905 4294112247
-0.3066406548 -0.1044127718 0.4665763378 4294178041
-0.3066919744 -0.1039117575 0.4666544497 4294046455
-0.3078231514 -0.1037746221 0.4683756232 4294111994
-0.3089544773 -0.1036337018 0.4700970054 4294638335
-0.3095456958 -0.1033087075 0.4709965885 4294178041
-0.3128384054 -0.1038787439 0.4760066569 4292533216
-0.3123491406 -0.1031882390 0.4752622545 4292533216
-0.3194262683 -0.1049862355 0.4860306084 4292796388
-0.3183968365 -0.1041096225 0.4844642878 4292599009
-0.3413192034 -0.1092966795 0.5193423033 4294177787
-0.3424551487 -0.1090814844 0.5210707188 4294572543
-0.3462966084 -0.1097196564 0.5269157887 4294704127
-0.3517625034 -0.1108567789 0.5352326035 4294572543
-0.3534410298 -0.1107882410 0.5377866030 4294638335
-0.3556611240 -0.1108828709 0.5411646366 4294440959
-0.3578816354 -0.1109701172 0.5445432663 4293848822
-0.3595609963 -0.1108829826 0.5470985770 4293388271
-0.3606990278 -0.1106241420 0.5488301516 4293190892
-0.3612954021 -0.1101962477 0.5497375727 4292993513
-0.3624334335 -0.1099306345 0.5514692068 4292993002
-0.3635715246 -0.1096611768 0.5532008410 4292861416
-0.3647096455 -0.1093878895 0.5549325943 4292664037
-0.3663897812 -0.1092724130 0.5574890971 4292598244
-0.3675280809 -0.1089905575 0.5592210293 4292401376
-0.3681780100 -0.1079384387 0.5602099895 4292269790
-0.3693161607 -0.1076477468 0.5619417429 4292203997
-0.3699119389 -0.1071960330 0.5628482699 4292006618
-0.3710500300 -0.1068985611 0.5645799637 4291809239
-0.3732732832 -0.1069080159 0.5679628253 4291611860
-0.3738689423 -0.1064465716 0.5688691735 4291282895
-0.3745171130 -0.1053648144 0.5698553920 4290691526
-0.3745694458 -0.1047462970 0.5699350238 4290098875
-0.3751644194 -0.1042784303 0.5708402991 4289046187
-0.3757592440 -0.1038085148 0.5717453957 4289440944
-0.3752677739 -0.1030383185 0.5709975362 4292006871
-0.3747758269 -0.1022696644 0.5702490807 4292927973
-0.3726537824 -0.1010605916 0.5670201778 4292533215
-0.3710741699 -0.1000048816 0.5646166801 4292138458
-0.3705805540 -0.0992453545 0.5638656020 4292006872
-0.3695430458 -0.0983427614 0.5622869730 4291940825
-0.3685049713 -0.0974435210 0.5607074499 4292006618
-0.3674663007 -0.0965476409 0.5591270328 4291940825
-0.3669707179 -0.0957970396 0.5583730340 4292138204
-0.3659309745 -0.0949069858 0.5567909479 4292598755
-0.3654344678 -0.0941604152 0.5560354590 4292467169
-0.3654814065 -0.0935546309 0.5561068654 4292006620
-0.3655280471 -0.0929486156 0.5561778545 4291875034
-0.3655743897 -0.0923423693 0.5562483668 4292006107
-0.3656204343 -0.0917358920 0.5563184619 4292071900
-0.3656662107 -0.0911291912 0.5563880801 4292006107
-0.3662558794 -0.0906569585 0.5572853088 4292006107
-0.3663011491 -0.0900489017 0.5573541522 4292335072
-0.3663460910 -0.0894406140 0.5574225783 4292664037
-0.3663907349 -0.0888321027 0.5574905276 4292466658
-0.3669795990 -0.0883544683 0.5583865047 4292137693
-0.3664791882 -0.0876144245 0.5576250553 4292137693
-0.3665229380 -0.0870052576 0.5576916933 4292071900
-0.3665664196 -0.0863958672 0.5577578545 4292071900
-0.3666096032 -0.0857862607 0.5578235388 4292071900
-0.3666524887 -0.0851764455 0.5578888059 4292071900
-0.3666951060 -0.0845664144 0.5579535961 4292071900
-0.3667373955 -0.0839561671 0.5580179691 4292269279
-0.3662343919 -0.0832218751 0.5572526455 4292532451
-0.3662760258 -0.0826121122 0.5573160052 4292729830
-0.3663173914 -0.0820021555 0.5573788881 4292532451
-0.3658132553 -0.0812708661 0.5566118360 4292269279
-0.3653087020 -0.0805411860 0.5558441281 4292071900
-0.3648037314 -0.0798131302 0.5550757647 4292006107
-0.3642983437 -0.0790866837 0.5543068051 4292006107
-0.3643379509 -0.0784793422 0.5543670654 4292071900
-0.3621953726 -0.0774055049 0.5511069894 4292071900
-0.3616886437 -0.0766857490 0.5503359437 4292137693
-0.3639094532 -0.0765413865 0.5537150502 4292532451
-0.3639478087 -0.0759341717 0.5537734032 4292729830
-0.3618030548 -0.0748750344 0.5505099893 4292400865
-0.3640236557 -0.0747191757 0.5538887978 4292071900
-0.3635153174 -0.0740002841 0.5531153083 4292006107
-0.3635524213 -0.0733932257 0.5531718135 4292071900
-0.3630433381 -0.0726766959 0.5523971915 4292137693
-0.3625338078 -0.0719618127 0.5516219139 4292401376
-0.3620238900 -0.0712485611 0.5508460402 4292138204
-0.3609674573 -0.0704304054 0.5492386222 4286611592
-0.3452715874 -0.1662956178 0.5262454748 4290492340
-0.3442896903 -0.1652396768 0.5247489214 4290491312
-0.3448989391 -0.1649480164 0.5256775618 4290557105
-0.3439159989 -0.1638955325 0.5241793990 4290688945
-0.3439940810 -0.1633501947 0.5242983699 4290820531
-0.3446028829 -0.1630557477 0.5252262950 4290557359
-0.3446806371 -0.1625088304 0.5253447890 4290820531
-0.3452893496 -0.1622111052 0.5262725949 4290820277
-0.3458980918 -0.1619113237 0.5272004008 4291083449
-0.3454439342 -0.1611137390 0.5265081525 4290952633
-0.3455208838 -0.1605645120 0.5266254544 4290623668
-0.3455975950 -0.1600149125 0.5267423987 4290426289
-0.3467376828 -0.1599556059 0.5284800529 4290426289
-0.3473460972 -0.1596480757 0.5294073820 4290623152
-0.3474224806 -0.1590948403 0.5295237899 4290623152
-0.3459021747 -0.1578128785 0.5272065997 4290556846
-0.3481068313 -0.1582292169 0.5305668116 4290688432
-0.3492473960 -0.1581562310 0.5323052406 4290688178
-0.3498556912 -0.1578392386 0.5332323909 4290556592
-0.3499313891 -0.1572808027 0.5333477259 4290622385
-0.3505395353 -0.1569605321 0.5342746377 4290753971
-0.3511477113 -0.1566382051 0.5352016091 4290951604
-0.3512229025 -0.1560769677 0.5353162289 4291017397
-0.3512978554 -0.1555153728 0.5354304314 4291147189
-0.3513725996 -0.1549534202 0.5355443358 4291212982
-0.3519803584 -0.1546254009 0.5364707112 4291213495
-0.3520547152 -0.1540618837 0.5365840197 4291081909
-0.3505282402 -0.1528002769 0.5342574716 4290818478
-0.3516690731 -0.1527020484 0.5359961987 4290226341
-0.3517425954 -0.1521383226 0.5361082554 4289830554
-0.3518158793 -0.1515742391 0.5362199545 4289370003
-0.3524228632 -0.1512389481 0.5371451378 4288842374
-0.3530298769 -0.1509016007 0.5380702615 4288447616
-0.3531026244 -0.1503347456 0.5381811857 4288183416
-0.3531751633 -0.1497675478 0.5382917523 4287986037
-0.3537818491 -0.1494257152 0.5392163992 4288248437
-0.3538540006 -0.1488569528 0.5393263698 4288445816
-0.3549951613 -0.1487358510 0.5410656929 4289036926
-0.3545323014 -0.1479415298 0.5403602123 4289365891
-0.3529992700 -0.1467040479 0.5380236506 4290416521
-0.3546750844 -0.1467998773 0.5405778289 4289232247
-0.3547461033 -0.1462285221 0.5406860709 4288637792
-0.3548168540 -0.1456568390 0.5407939553 4288374620
-0.3548873961 -0.1450848132 0.5409014225 4288899934
-0.3549576700 -0.1445124447 0.5410085320 4288636762
-0.3555631638 -0.1441568285 0.5419313908 4288311912
-0.3556330502 -0.1435829103 0.5420379043 4290351495
-0.3557026684 -0.1430086643 0.5421440005 4291409586
-0.3557720482 -0.1424340755 0.5422497392 4291409586
-0.3563770652 -0.1420727968 0.5431718826 4289636522
-0.3575180471 -0.1419222355 0.5449109077 4289110178
-0.3570508659 -0.1411321312 0.5441988707 4288255896
-0.3115411103 -0.1226158366 0.4748352170 4288321689
-0.3577240407 -0.1401866525 0.5452249050 4290755516
-0.3577921987 -0.1396074593 0.5453287959 4292597720
-0.3095731437 -0.1202685535 0.4718357325 4291941076
-0.3080217838 -0.1191442385 0.4694712162 4291809490
-0.3070063293 -0.1182315573 0.4679235220 4291875285
-0.3059902489 -0.1173220724 0.4663748443 4292204250
-0.3060473800 -0.1168257147 0.4664619565 4292467422
-0.3061043024 -0.1163290739 0.4665487111 4292533215
-0.3061610162 -0.1158321574 0.4666351378 4292730594
-0.3056802750 -0.1151326224 0.4659024179 4292927973
-0.3057364225 -0.1146360263 0.4659880102 4293059560
-0.3057923615 -0.1141391620 0.4660732746 4293125353
-0.3058480620 -0.1136420220 0.4661581814 4293322219
-0.3059035540 -0.1131446138 0.4662427604 4293256426
-0.3059588373 -0.1126469299 0.4663269818 4293322221
-0.3060138822 -0.1121489778 0.4664108753 4293322221
-0.3060686886 -0.1116507575 0.4664944410 4293190635
-0.3071992993 -0.1115429699 0.4682176411 4293059049
-0.3072538674 -0.1110424623 0.4683007896 4292730084
-0.3078463972 -0.1107352898 0.4692038894 4292730084
-0.3079005778 -0.1102333739 0.4692865014 4292993254
-0.3079545498 -0.1097311974 0.4693687856 4293585391
-0.3080083132 -0.1092287526 0.4694507122 4294440699
-0.3080618382 -0.1087260470 0.4695322812 4294967039
-0.3081151247 -0.1082230806 0.4696134925 4294901503
-0.3081681728 -0.1077198535 0.4696943760 4294901503
-0.3076821566 -0.1070289314 0.4689536095 4294901503
-0.3071957529 -0.1063395068 0.4682122171 4294769918
-0.3077869713 -0.1060229465 0.4691133201 4294506492
-0.3067607582 -0.1051499769 0.4675492644 4294309113
-0.3068124056 -0.1046481058 0.4676279724 4294374907
-0.3074031174 -0.1043290198 0.4685283005 4294309114
-0.3079937994 -0.1040079147 0.4694285691 4294243580
-0.3102028370 -0.1042285934 0.4727955163 4294704127
-0.3102540970 -0.1037204191 0.4728736281 4294703871
-0.3119240999 -0.1037504897 0.4754189551 4293059047
-0.3152136505 -0.1043108478 0.4804327190 4292532703
-0.3185040355 -0.1048603281 0.4854477346 4292927461
-0.3217951953 -0.1053989381 0.4904639721 4292730084
-0.3398840725 -0.1084457934 0.5180341005 4293848565
-0.3448015153 -0.1094308943 0.5255290270 4293914358
-0.3486391902 -0.1100584716 0.5313782692 4293716979
-0.3519371748 -0.1105035916 0.5364048481 4293782772
-0.3541544974 -0.1106000692 0.5397844315 4293914358
-0.3563722372 -0.1106891558 0.5431645513 4293651186
-0.3591312170 -0.1109379232 0.5473696589 4293453807
-0.3586451113 -0.1101804152 0.5466287136 4293716725
-0.3603226244 -0.1100855917 0.5491855741 4293453553
-0.3614592850 -0.1098207459 0.5509179831 4293387760
-0.3625959754 -0.1095520705 0.5526504517 4293256174
-0.3631914258 -0.1091169342 0.5535579920 4292993002
-0.3643281162 -0.1088414788 0.5552905202 4292795623
-0.3649234176 -0.1084013432 0.5561978221 4292598755
-0.3660601079 -0.1081191003 0.5579303503 4292401376
-0.3666552603 -0.1076739728 0.5588374138 4292269790
-0.3677919209 -0.1073849425 0.5605698824 4292138204
-0.3683868945 -0.1069348082 0.5614766479 4291875032
-0.3689817190 -0.1064826325 0.5623832941 4291677653
-0.3706602156 -0.1063393280 0.5649415255 4291480528
-0.3712549210 -0.1058812514 0.5658479929 4291151563
-0.3723915517 -0.1055747941 0.5675804019 4290625733
-0.3724439442 -0.1049589291 0.5676602125 4290428354
-0.3730382323 -0.1044946983 0.5685660243 4289835702
-0.3736324012 -0.1040284038 0.5694715977 4288783014
-0.3742264211 -0.1035600677 0.5703769922 4289967288
-0.3731929958 -0.1026421040 0.5688018799 4292467422
-0.3716164529 -0.1015791893 0.5663990378 4292862181
-0.3700391948 -0.1005214155 0.5639950633 4292335837
-0.3684612215 -0.0994687900 0.5615899563 4292138458
-0.3679679632 -0.0987124965 0.5608381629 4292204251
-0.3663886487 -0.0976683721 0.5584310889 4292006618
-0.3653514981 -0.0967731923 0.5568502545 4292072411
-0.3643137515 -0.0958813801 0.5552686453 4292072154
-0.3638184667 -0.0951349214 0.5545136929 4292269533
-0.3633227348 -0.0943900347 0.5537581444 4292664037
-0.3628265858 -0.0936467052 0.5530019403 4292532451
-0.3628732264 -0.0930442438 0.5530730486 4292137693
-0.3629195690 -0.0924415439 0.5531436801 4291940314
-0.3635089993 -0.0919760987 0.5540420413 4292006107
-0.3635548353 -0.0913720429 0.5541118979 4292071900
-0.3636004031 -0.0907677561 0.5541813374 4292071900
-0.3636456430 -0.0901632383 0.5542502999 4292006107
-0.3636906147 -0.0895585045 0.5543188453 4292335072
-0.3637352884 -0.0889535397 0.5543869734 4292664037
-0.3643234372 -0.0884804130 0.5552833676 4292532451
-0.3643676043 -0.0878741071 0.5553506613 4292137693
-0.3638675809 -0.0871373266 0.5545885563 4292137693
-0.3639110923 -0.0865314826 0.5546548963 4292071900
-0.3639543056 -0.0859254226 0.5547207594 4292071900
-0.3639972210 -0.0853191465 0.5547861457 4292071900
-0.3640398383 -0.0847126618 0.5548511147 4292006107
-0.3635379374 -0.0839802399 0.5540861487 4292006107
-0.3641242087 -0.0834990516 0.5549796820 4292203486
-0.3636215925 -0.0827680230 0.5542136431 4292466658
-0.3636629879 -0.0821616054 0.5542767644 4292795623
-0.3637040854 -0.0815549716 0.5543393493 4292532451
-0.3637448549 -0.0809481442 0.5544015169 4292269279
-0.3632407784 -0.0802208334 0.5536332130 4292071900
-0.3627362549 -0.0794951469 0.5528643131 4292071900
-0.3622313440 -0.0787710696 0.5520946980 4292071900
-0.3633603156 -0.0784012526 0.5538154244 4292071900
-0.3633995652 -0.0777943209 0.5538752675 4292071900
-0.3618038595 -0.0768400356 0.5514431596 4292137693
-0.3634771705 -0.0765798837 0.5539935827 4292598244
-0.3613355458 -0.0755167678 0.5507293940 4292729830
-0.3613733947 -0.0749127120 0.5507870317 4292400865
-0.3608658016 -0.0741963908 0.5500134230 4292071900
-0.3603578210 -0.0734817013 0.5492391586 4292006107
-0.3609398901 -0.0729891658 0.5501263142 4292071900
-0.3598859310 -0.0721665844 0.5485199094 4292203486
-0.3588314354 -0.0713474751 0.5469127297 4292401376
-0.3594126105 -0.0708543882 0.5477985144 4292269790
-0.3567209244 -0.0697196648 0.5436959863 4287796120
-0.3420449495 -0.1661813408 0.5222116709 4290492340
-0.3421238661 -0.1656393409 0.5223321319 4290426289
-0.3422025740 -0.1650969535 0.5224522948 4290360496
-0.3422810435 -0.1645542085 0.5225721002 4290688945
-0.3423593044 -0.1640110761 0.5226915479 4290688945
-0.3419072330 -0.1632145345 0.5220013857 4290754225
-0.3419849277 -0.1626715064 0.5221199989 4291017397
-0.3425927162 -0.1623794734 0.5230479240 4290688430
-0.3426700830 -0.1618348509 0.5231660604 4290754223
-0.3432777822 -0.1615395546 0.5240938067 4290952117
-0.3433547914 -0.1609933674 0.5242114067 4291083703
-0.3434315920 -0.1604468077 0.5243286490 4290952117
-0.3435081542 -0.1598998755 0.5244455934 4290623152
-0.3441155553 -0.1595988870 0.5253729224 4290426287
-0.3447229564 -0.1592958421 0.5263002515 4290492080
-0.3447990716 -0.1587461233 0.5264164209 4290688945
-0.3459377587 -0.1586835533 0.5281549096 4290623152
-0.3438875973 -0.1571598053 0.5250248909 4290820018
-0.3466209471 -0.1578209847 0.5291979313 4290885811
-0.3472282290 -0.1575084925 0.5301251411 4290951350
-0.3478355110 -0.1571939290 0.5310522914 4290951350
-0.3473788500 -0.1563982815 0.5303550959 4290951350
-0.3485179842 -0.1563199610 0.5320942402 4290951350
-0.3491251469 -0.1560000628 0.5330212116 4290820531
-0.3491999805 -0.1554411501 0.5331354737 4290754738
-0.3492745757 -0.1548818797 0.5332493782 4290820278
-0.3493489325 -0.1543222517 0.5333628654 4290886071
-0.3494230509 -0.1537622660 0.5334760547 4290886841
-0.3500297070 -0.1534354538 0.5344022512 4290821048
-0.3501034677 -0.1528739035 0.5345148444 4290821047
-0.3501769900 -0.1523119956 0.5346270800 4290821047
-0.3486509621 -0.1510568112 0.5322972536 4290886838
-0.3503232896 -0.1511871219 0.5348504782 4290821045
-0.3503960967 -0.1506241560 0.5349616408 4291148981
-0.3510020971 -0.1502892524 0.5358868241 4291017395
-0.3510745168 -0.1497247219 0.5359973907 4291015855
-0.3516803384 -0.1493865401 0.5369223356 4290686890
-0.3517524004 -0.1488204598 0.5370323062 4290552992
-0.3518241942 -0.1482540369 0.5371419787 4289960855
-0.3518957496 -0.1476872712 0.5372511744 4289893522
-0.3508988917 -0.1466736495 0.5357292295 4289893522
-0.3531065285 -0.1469974667 0.5390997529 4290481549
-0.3531775773 -0.1464279294 0.5392081738 4289889412
-0.3527139425 -0.1456373930 0.5385003686 4289493365
-0.3527843654 -0.1450680494 0.5386078954 4289164400
-0.3528545499 -0.1444983631 0.5387150049 4289427824
-0.3529244959 -0.1439283341 0.5388218164 4289296238
-0.3535290062 -0.1435751766 0.5397447348 4289365373
-0.3535985649 -0.1430035979 0.5398509502 4291668128
-0.3536678553 -0.1424316913 0.5399567485 4291542201
-0.3537369072 -0.1418594569 0.5400621295 4290686892
-0.3548761904 -0.1417143643 0.5418015718 4288717219
-0.3565510213 -0.1417783648 0.5443585515 4288519840
-0.3560843766 -0.1409887671 0.5436460972 4288126111
-0.3133073747 -0.1235200912 0.4783369899 4288126111
-0.3572923541 -0.1402548999 0.5454903841 4289442225
-0.3573604822 -0.1396754533 0.5455943942 4291679187
-0.3102714121 -0.1207442284 0.4737018943 4291876055
-0.3081862032 -0.1194099784 0.4705183506 4291678676
-0.3071721196 -0.1184960008 0.4689701200 4291809492
-0.3066936135 -0.1177911609 0.4682395458 4292138457
-0.3062146604 -0.1170877740 0.4675083160 4292335836
-0.3062716722 -0.1165900454 0.4675953686 4292467422
-0.3057919741 -0.1158887222 0.4668630064 4292599008
-0.3058484495 -0.1153913066 0.4669492245 4292862180
-0.3059046865 -0.1148936152 0.4670350850 4292927974
-0.3059607148 -0.1143956557 0.4671206176 4293059560
-0.3060165048 -0.1138974205 0.4672058225 4293256426
-0.3060720861 -0.1133989096 0.4672906697 4293256426
-0.3061274588 -0.1129001305 0.4673751593 4293256426
-0.3061825633 -0.1124010831 0.4674593210 4293190633
-0.3062374890 -0.1119017601 0.4675431550 4293124842
-0.3062921464 -0.1114021763 0.4676266313 4293059049
-0.3068840504 -0.1110968888 0.4685303271 4292730084
-0.3069383800 -0.1105958894 0.4686132371 4292664291
-0.3075301051 -0.1102874354 0.4695166647 4292861668
-0.3075840771 -0.1097850278 0.4695990682 4293388012
-0.3081756532 -0.1094734147 0.4705022275 4294243320
-0.3082292378 -0.1089696065 0.4705840647 4294835455
-0.3082826138 -0.1084655300 0.4706655443 4294901503
-0.3083357513 -0.1079611927 0.4707466662 4294835711
-0.3083886802 -0.1074565947 0.4708274603 4294704382
-0.3079030812 -0.1067650914 0.4700860679 4294638589
-0.3068786561 -0.1058893204 0.4685220718 4294441212
-0.3069306016 -0.1053865924 0.4686013758 4294178040
-0.3075208962 -0.1050676182 0.4695025980 4294243834
-0.3081111312 -0.1047466248 0.4704037309 4294178041
-0.3081625700 -0.1042413786 0.4704822600 4294243580
-0.3087526262 -0.1039172262 0.4713830948 4294638335
-0.3093425930 -0.1035910621 0.4722838700 4294901759
-0.3137056231 -0.1045199856 0.4789450467 4293651697
-0.3142961264 -0.1041835845 0.4798465669 4292467423
-0.3203304112 -0.1050970852 0.4890593290 4292533216
-0.3427146375 -0.1095343605 0.5232340693 4293388271
-0.3433084190 -0.1091417819 0.5241406560 4293519857
-0.3471413851 -0.1097714603 0.5299925208 4293322478
-0.3531898856 -0.1104858592 0.5392270088 4293322478
-0.3554049432 -0.1105758995 0.5426087976 4293322478
-0.3570801616 -0.1104913875 0.5451664329 4293454064
-0.3576750159 -0.1100687236 0.5460745692 4293650932
-0.3593505025 -0.1099747568 0.5486326218 4293453553
-0.3604857624 -0.1097106934 0.5503658652 4293321967
-0.3610805273 -0.1092792004 0.5512738824 4293256174
-0.3622157872 -0.1090083495 0.5530071259 4293059049
-0.3628104031 -0.1085718572 0.5539149642 4292795877
-0.3639456630 -0.1082942188 0.5556482077 4292401376
-0.3645401001 -0.1078527272 0.5565557480 4292203997
-0.3656753600 -0.1075683087 0.5582889915 4292072665
-0.3662696183 -0.1071218103 0.5591962934 4291875286
-0.3668637574 -0.1066732630 0.5601033568 4291677907
-0.3674577773 -0.1062226593 0.5610102415 4291480528
-0.3685929179 -0.1059255525 0.5627433062 4291152077
-0.3697280586 -0.1056245938 0.5644763708 4290757319
-0.3703218400 -0.1051660404 0.5653828979 4290362816
-0.3714569509 -0.1048582941 0.5671159029 4290165437
-0.3715089560 -0.1042427793 0.5671953559 4289507507
-0.3721022904 -0.1037780643 0.5681012273 4288717991
-0.3726955056 -0.1033113003 0.5690068603 4290756804
-0.3711214364 -0.1022454351 0.5666037202 4292796387
-0.3690047860 -0.1010363400 0.5633721352 4292664802
-0.3674291670 -0.0999816433 0.5609665513 4292270044
-0.3658528030 -0.0989321023 0.5585598946 4292138458
-0.3648177981 -0.0980333835 0.5569797158 4292138458
-0.3637822270 -0.0971380174 0.5553987026 4292006618
-0.3627460897 -0.0962460041 0.5538167357 4292072411
-0.3617093563 -0.0953573659 0.5522339344 4292137693
-0.3612143993 -0.0946141556 0.5514783263 4292335072
-0.3607190251 -0.0938725099 0.5507220030 4292664037
-0.3607657552 -0.0932726935 0.5507932901 4292532451
-0.3602696061 -0.0925332904 0.5500358343 4292137695
-0.3603156507 -0.0919339135 0.5501061678 4292006109
-0.3609041572 -0.0914718583 0.5510046482 4291940314
-0.3609496951 -0.0908711255 0.5510741472 4292071900
-0.3609949648 -0.0902701616 0.5511432886 4292071900
-0.3610399663 -0.0896689743 0.5512119532 4292006107
-0.3610846400 -0.0890675560 0.5512802005 4292335072
-0.3611290455 -0.0884659216 0.5513479710 4292664037
-0.3611731529 -0.0878640637 0.5514153242 4292598244
-0.3617601693 -0.0873932093 0.5523115396 4292203486
-0.3612605035 -0.0866596997 0.5515486598 4292137693
-0.3613037467 -0.0860571861 0.5516147017 4292071900
-0.3613466918 -0.0854544565 0.5516802669 4292071900
-0.3613893390 -0.0848515183 0.5517453551 4292071900
-0.3608882129 -0.0841216743 0.5509802699 4292006107
-0.3609302044 -0.0835192129 0.5510444045 4292006107
-0.3609719276 -0.0829165503 0.5511080623 4292203486
-0.3610133529 -0.0823136717 0.5511713028 4292466658
-0.3610544801 -0.0817105845 0.5512341261 4292795623
-0.3610953093 -0.0811072960 0.5512964725 4292532451
-0.3611358404 -0.0805038065 0.5513583422 4292269279
-0.3611761034 -0.0799001157 0.5514197946 4292137693
-0.3612160385 -0.0792962164 0.5514808297 4292071900
-0.3601675928 -0.0784550980 0.5498800874 4292071900
-0.3596627116 -0.0777350217 0.5491092801 4292137693
-0.3591574430 -0.0770165697 0.5483378172 4292137693
-0.3591959774 -0.0764155239 0.5483967066 4292071900
-0.3592342138 -0.0758142918 0.5484550595 4292532451
-0.3587278128 -0.0750989020 0.5476819277 4292729830
-0.3582210243 -0.0743851513 0.5469081998 4292466658
-0.3582582474 -0.0737851709 0.5469650626 4292137693
-0.3582952321 -0.0731849968 0.5470214486 4291940314
-0.3583318889 -0.0725846440 0.5470774174 4292006107
-0.3583682477 -0.0719841048 0.5471329689 4292137693
-0.3573149443 -0.0711664185 0.5455248356 4292335583
-0.3568058610 -0.0704597756 0.5447476506 4292269790
-0.3562963903 -0.0697547719 0.5439698100 4288783015
-0.3399620056 -0.1660275608 0.5199131370 4289637803
-0.3395119309 -0.1652308553 0.5192248225 4290229940
-0.3401192725 -0.1649485230 0.5201537013 4290031789
-0.3396685123 -0.1641527414 0.5194643140 4290360754
-0.3402756751 -0.1638679802 0.5203928947 4290492082
-0.3403535485 -0.1633271575 0.5205119848 4290426289
-0.3404312134 -0.1627859622 0.5206307173 4290425773
-0.3405086100 -0.1622443944 0.5207490921 4290820531
-0.3400561512 -0.1614509672 0.5200571418 4290886324
-0.3406628072 -0.1611601561 0.5209848881 4291083703
-0.3412694633 -0.1608672738 0.5219126940 4291017656
-0.3413461149 -0.1603233963 0.5220299363 4291017656
-0.3414225578 -0.1597791463 0.5221468210 4290820531
-0.3420290053 -0.1594817787 0.5230742693 4290623152
-0.3421050906 -0.1589359641 0.5231906772 4290492080
-0.3427114785 -0.1586353332 0.5241180062 4290689459
-0.3433178663 -0.1583326608 0.5250453353 4290821047
-0.3418012559 -0.1570524424 0.5227259398 4290689461
-0.3445306420 -0.1577211171 0.5269000530 4290951863
-0.3440750539 -0.1569279134 0.5262033343 4290951863
-0.3452123106 -0.1568600237 0.5279425979 4291017143
-0.3452873826 -0.1563074291 0.5280573964 4291082936
-0.3458935320 -0.1559940875 0.5289844275 4291082936
-0.3464996815 -0.1556786895 0.5299113989 4291017143
-0.3465742767 -0.1551233083 0.5300254822 4290820277
-0.3466486335 -0.1545675546 0.5301392078 4290754484
-0.3472545445 -0.1542476714 0.5310658216 4290558388
-0.3473285437 -0.1536903679 0.5311790109 4290689974
-0.3468703032 -0.1528982073 0.5304781795 4290755254
-0.3474758565 -0.1525746882 0.5314042568 4290755254
-0.3475491405 -0.1520163119 0.5315163732 4290886070
-0.3476221859 -0.1514575928 0.5316280723 4290951863
-0.3455651700 -0.1499741822 0.5284821987 4291017143
-0.3483001590 -0.1505693197 0.5326648951 4291082936
-0.3483725786 -0.1500086784 0.5327757001 4291148983
-0.3489775956 -0.1496762186 0.5337009430 4291017397
-0.3490496576 -0.1491140276 0.5338111520 4291017397
-0.3496544957 -0.1487782896 0.5347361565 4291214776
-0.3497262001 -0.1482145339 0.5348458290 4291412155
-0.3497976661 -0.1476504505 0.5349550843 4291477948
-0.3488022089 -0.1466375887 0.5334327221 4291281082
-0.3510067463 -0.1469679475 0.5368041396 4291149496
-0.3510776758 -0.1464011073 0.5369126201 4291413695
-0.3516820371 -0.1460555494 0.5378369093 4291216316
-0.3512188196 -0.1452663839 0.5371285081 4291149492
-0.3512890041 -0.1446985155 0.5372358561 4290623148
-0.3513589799 -0.1441303045 0.5373428464 4290753193
-0.3514286876 -0.1435617507 0.5374494195 4290292642
-0.3514981270 -0.1429928690 0.5375556946 4290161057
-0.3521016538 -0.1426400840 0.5384786129 4291476917
-0.3521707058 -0.1420696527 0.5385842323 4291280315
-0.3527740240 -0.1417136192 0.5395069122 4289767076
-0.3539119363 -0.1415693611 0.5412471294 4288913058
-0.3555846810 -0.1416342854 0.5438053608 4288847265
-0.3551185727 -0.1408451945 0.5430924892 4288781474
-0.3557218015 -0.1404800117 0.5440150499 4289044646
-0.3563250005 -0.1401127577 0.5449375510 4289504938
-0.3569281399 -0.1397434324 0.5458599329 4291741900
-0.3115017712 -0.1214289367 0.4763881266 4291941848
-0.3088841140 -0.1198836789 0.4723848999 4291678676
-0.3073361218 -0.1187606379 0.4700174630 4291809492
-0.3068583310 -0.1180546060 0.4692867696 4292006871
-0.3058444858 -0.1171448678 0.4677362740 4292204250
-0.3064371943 -0.1168512031 0.4686427712 4292335836
-0.3059582412 -0.1161486804 0.4679102898 4292533216
-0.3054788709 -0.1154476330 0.4671771526 4292730595
-0.3055351079 -0.1149497256 0.4672631621 4292796388
-0.3055911064 -0.1144515350 0.4673488140 4292993767
-0.3056468964 -0.1139530763 0.4674341381 4293256426
-0.3057024777 -0.1134543493 0.4675191045 4293256426
-0.3057578206 -0.1129553467 0.4676037431 4293190635
-0.3058129251 -0.1124560684 0.4676880240 4293124842
-0.3058678210 -0.1119565293 0.4677719772 4293059049
-0.3064591885 -0.1116522551 0.4686763585 4292927463
-0.3065137267 -0.1111512929 0.4687597752 4292598755
-0.3071049154 -0.1108438522 0.4696639180 4292532962
-0.3071590960 -0.1103414893 0.4697467685 4292730595
-0.3072130680 -0.1098388582 0.4698292911 4293191146
-0.3072667718 -0.1093359590 0.4699114561 4293980661
-0.3083948195 -0.1092133299 0.4716365933 4294704383
-0.3084482849 -0.1087081507 0.4717183411 4294835967
-0.3085015118 -0.1082027033 0.4717997313 4294638589
-0.3085545003 -0.1076969951 0.4718807936 4294572796
-0.3075319827 -0.1068175435 0.4703170061 4294507003
-0.3075843155 -0.1063130796 0.4703970850 4294309626
-0.3076364398 -0.1058083624 0.4704767764 4294046454
-0.3071504235 -0.1051192880 0.4697335064 4293980662
-0.3082779944 -0.1049813703 0.4714579284 4293980662
-0.3083295226 -0.1044750065 0.4715367258 4293980408
-0.3094571829 -0.1043312773 0.4732612967 4294375166
-0.3111744821 -0.1038527712 0.4758876264 4294243833
-0.3139177859 -0.1042349190 0.4800830185 4292599008
-0.3161231875 -0.1044300571 0.4834557772 4291941078
-0.3347026110 -0.1077240780 0.5118697882 4292533216
-0.3385290504 -0.1083803922 0.5177217126 4292862181
-0.3461847603 -0.1096549109 0.5294297934 4293125353
-0.3500140011 -0.1102730855 0.5352859497 4292993513
-0.3522259593 -0.1103714705 0.5386687517 4292861927
-0.3549777865 -0.1106305942 0.5428771973 4292861927
-0.3561114967 -0.1103788167 0.5446109772 4293125099
-0.3577848971 -0.1102895513 0.5471701622 4293585139
-0.3583790362 -0.1098637506 0.5480788350 4293453553
-0.3595129251 -0.1096004620 0.5498128533 4293256428
-0.3601069152 -0.1091696620 0.5507213473 4293059049
-0.3612408042 -0.1088995859 0.5524553657 4292861927
-0.3618346751 -0.1084637865 0.5533636212 4292598755
-0.3629685342 -0.1081869230 0.5550976992 4292269790
-0.3635622561 -0.1077461243 0.5560056567 4292072411
-0.3646961153 -0.1074624732 0.5577396750 4291875286
-0.3652896285 -0.1070166677 0.5586473942 4291612114
-0.3658830523 -0.1065688059 0.5595548749 4291283663
-0.3664763272 -0.1061188877 0.5604622364 4291086284
-0.3670694530 -0.1056669205 0.5613692999 4290889160
-0.3676624596 -0.1052129045 0.5622762442 4290494402
-0.3682553470 -0.1047568247 0.5631829500 4290165437
-0.3699297607 -0.1046045572 0.5657436252 4289902265
-0.3705224991 -0.1041425839 0.5666501522 4289112749
-0.3705741465 -0.1035274193 0.5667291284 4289046956
-0.3706254661 -0.1029119939 0.5668076277 4291480527
-0.3685119748 -0.1016989723 0.5635753870 4292927973
-0.3669388294 -0.1006413177 0.5611695051 4292533216
-0.3648236394 -0.0994412750 0.5579347014 4292270044
-0.3637902737 -0.0985414609 0.5563544035 4292270044
-0.3622149229 -0.0974992663 0.5539451838 4292138458
-0.3611803651 -0.0966070741 0.5523629189 4292072411
-0.3601452112 -0.0957182348 0.5507798791 4292072411
-0.3591094613 -0.0948327705 0.5491958857 4292137693
-0.3586148918 -0.0940928012 0.5484395027 4292400865
-0.3586616814 -0.0934956446 0.5485110283 4292598246
-0.3581663072 -0.0927579179 0.5477534533 4292466660
-0.3576705158 -0.0920217633 0.5469952226 4292137695
-0.3577162921 -0.0914257169 0.5470652580 4292071902
-0.3577617705 -0.0908294395 0.5471348166 4292006107
-0.3578069806 -0.0902329311 0.5472039580 4292137693
-0.3583941162 -0.0897720158 0.5481018424 4292137693
-0.3584388196 -0.0891741514 0.5481702089 4292006107
-0.3584832251 -0.0885760710 0.5482381582 4292203486
-0.3585273325 -0.0879777670 0.5483056307 4292598244
-0.3585711718 -0.0873792395 0.5483726859 4292664037
-0.3586147130 -0.0867804959 0.5484392643 4292400865
-0.3586579859 -0.0861815363 0.5485054255 4292137693
-0.3587009609 -0.0855823606 0.5485711098 4292071900
-0.3587436378 -0.0849829689 0.5486363769 4292071900
-0.3587860167 -0.0843833610 0.5487012267 4292071900
-0.3582852781 -0.0836567953 0.5479354262 4292071900
-0.3583270013 -0.0830576792 0.5479992628 4292071900
-0.3583684564 -0.0824583471 0.5480626225 4292269279
-0.3584096134 -0.0818588138 0.5481256247 4292532451
-0.3589936197 -0.0813821927 0.5490186810 4292795623
-0.3590342402 -0.0807813406 0.5490808487 4292598244
-0.3585313857 -0.0800589770 0.5483117700 4292335072
-0.3591146469 -0.0795790181 0.5492038131 4292137693
-0.3586110771 -0.0788580775 0.5484336615 4292071900
