VERSION 0.7
FIELDS x y z rgba
SIZE 4 4 4 4
TYPE F F F U
COUNT 1 1 1 1
WIDTH 920
HEIGHT 1
VIEWPOINT 0.0 0.0 0.0 1.0 0.0 0.0 0.0
POINTS 920
DATA ascii
-0.2604698837 -0.1337771416 0.5668360591 4281679465
-0.2605236769 -0.1331748366 0.5669531226 4281613672
-0.2609856725 -0.1327799708 0.5679585934 4281482086
-0.2602221072 -0.1317622960 0.5662968755 4281350500
-0.2594579756 -0.1307480335 0.5646339655 4281350500
-0.2591019571 -0.1299421340 0.5638592243 4281218914
-0.2587455809 -0.1291377842 0.5630836487 4281153121
-0.2583887875 -0.1283349395 0.5623071790 4281087328
-0.2584405541 -0.1277357638 0.5624198318 4281087328
-0.2580830753 -0.1269350648 0.5616418719 4281087328
-0.2577252090 -0.1261358857 0.5608631372 4281021535
-0.2573669851 -0.1253382713 0.5600835085 4281021535
-0.2570083439 -0.1245421916 0.5593031049 4280955742
-0.2566493452 -0.1237476692 0.5585218072 4280889949
-0.2566993833 -0.1231511086 0.5586307049 4280955742
-0.2563396692 -0.1223587394 0.5578479171 4280824672
-0.2559796274 -0.1215679273 0.5570643544 4280824672
-0.2556191683 -0.1207786798 0.5562798977 4280758880
-0.2556680441 -0.1201835945 0.5563863516 4280758880
-0.2557167411 -0.1195881739 0.5564922690 4280693087
-0.2553552985 -0.1188017204 0.5557057261 4280758880
-0.2554034591 -0.1182065755 0.5558104515 4280955491
-0.2550413311 -0.1174223125 0.5550224781 4281021284
-0.2550889552 -0.1168274507 0.5551260710 4281087077
-0.2547261715 -0.1160453930 0.5543366075 4281218663
-0.2547732592 -0.1154508293 0.5544390678 4281349995
-0.2548201382 -0.1148559302 0.5545411110 4281481581
-0.2544563711 -0.1140767187 0.5537494421 4281547374
-0.2545027137 -0.1134821251 0.5538502932 4281547374
-0.2541382909 -0.1127051339 0.5530571938 4281547376
-0.2541840971 -0.1121108606 0.5531569123 4281481583
-0.2542296946 -0.1115162671 0.5532561541 4281285485
-0.2542750537 -0.1109213531 0.5533549190 4281285485
-0.2543202043 -0.1103261188 0.5534531474 4281219692
-0.2539542019 -0.1095532924 0.5526565909 4281219692
-0.2539988160 -0.1089583933 0.5527536869 4281678962
-0.2540431917 -0.1083631814 0.5528503060 4281876341
-0.2540873587 -0.1077676564 0.5529464483 4282203766
-0.2541312873 -0.1071718186 0.5530420542 4282269559
-0.2541750073 -0.1065756753 0.5531371236 4282334839
-0.2550411820 -0.1063221991 0.5550221205 4282400632
-0.2546731532 -0.1055529863 0.5542212129 4282401146
-0.2547162473 -0.1049549654 0.5543149710 4282466939
-0.2547591031 -0.1043566316 0.5544082522 4282402175
-0.2548017204 -0.1037580073 0.5545009971 4282599554
-0.2552558184 -0.1033257321 0.5554891825 4282600329
-0.2552980483 -0.1027255356 0.5555810928 4282731915
-0.2553400397 -0.1021250412 0.5556725264 4283977097
-0.2553818226 -0.1015242562 0.5557634234 4284108683
-0.2554233372 -0.1009231731 0.5558537841 4285747588
-0.2558766901 -0.1004836038 0.5568403602 4286010760
-0.2563299239 -0.1000418067 0.5578266978 4286601608
-0.2567830682 -0.0995977819 0.5588127971 4287259538
-0.2572360933 -0.0991515219 0.5597987175 4288768909
-0.2576890290 -0.0987030268 0.5607843399 4289558425
-0.2585541904 -0.0984092578 0.5626671910 4291588221
-0.2594194114 -0.0981113091 0.5645500422 4291061877
-0.2606971264 -0.0979641899 0.5673305988 4290399568
-0.2619749904 -0.0978109539 0.5701115131 4288359985
-0.2628403604 -0.0974985212 0.5719947219 4287373609
-0.2641184330 -0.0973339900 0.5747761130 4287570988
-0.2653966248 -0.0971633345 0.5775577426 4287963438
-0.2662621439 -0.0968364030 0.5794412494 4287963438
-0.2667148113 -0.0963561311 0.5804263353 4288292139
-0.2675802708 -0.0960218087 0.5823097229 4288357932
-0.2680326998 -0.0955360904 0.5832943916 4288424238
-0.2680719793 -0.0949019119 0.5833798647 4288555824
-0.2681110203 -0.0942674577 0.5834647417 4288621104
-0.2681497931 -0.0936327279 0.5835491419 4288686897
-0.2677750885 -0.0928544253 0.5827336907 4288949553
-0.2678132951 -0.0922201276 0.5828168392 4288817967
-0.2678512633 -0.0915855542 0.5828994513 4288948526
-0.2674755454 -0.0908103585 0.5820818543 4289277491
-0.2675129473 -0.0901762322 0.5821632743 4289672247
-0.2671365738 -0.0894034430 0.5813441873 4289869626
-0.2671734095 -0.0887697712 0.5814243555 4290198078
-0.2672100067 -0.0881358311 0.5815039873 4290592836
-0.2672463357 -0.0875016376 0.5815830827 4290856263
-0.2672824264 -0.0868671834 0.5816615820 4290658884
-0.2673182487 -0.0862324759 0.5817395449 4288956762
-0.2677676976 -0.0857300162 0.5827175975 4291785861
-0.2678030729 -0.0850938112 0.5827946067 4292401380
-0.2621780932 -0.1508672833 0.5719359517 4293192438
-0.2622380555 -0.1502661705 0.5720666647 4293126645
-0.2622977793 -0.1496646404 0.5721969604 4292797684
-0.2623572946 -0.1490626931 0.5723267794 4292468719
-0.2624165714 -0.1484603584 0.5724561810 4291876582
-0.2624756694 -0.1478575915 0.5725850463 4291284445
-0.2625345588 -0.1472544372 0.5727134943 4290889687
-0.2629990578 -0.1468775272 0.5737268329 4290363343
-0.2630575895 -0.1462726295 0.5738545060 4290297548
-0.2631159127 -0.1456673145 0.5739817619 4289508032
-0.2627678812 -0.1448377520 0.5732225180 4288389299
-0.2628256977 -0.1442325711 0.5733485818 4287073439
-0.2624769509 -0.1434050202 0.5725878477 4285626253
-0.2625342309 -0.1427999884 0.5727127790 4284639358
-0.2625912726 -0.1421945542 0.5728372335 4283981943
-0.2626481056 -0.1415887326 0.5729612708 4283587185
-0.2627047300 -0.1409825087 0.5730847716 4282995564
-0.2623544037 -0.1401586086 0.5723204613 4282535013
-0.2620036602 -0.1393361837 0.5715553761 4281811550
-0.2616524994 -0.1385152638 0.5707893372 4281350999
-0.2617079914 -0.1379103214 0.5709103942 4281153624
-0.2609490752 -0.1368779093 0.5692548156 4281087831
-0.2610039413 -0.1362740695 0.5693745017 4280956761
-0.2610585988 -0.1356698573 0.5694937110 4281088347
-0.2607056797 -0.1348545551 0.5687238574 4281284705
-0.2603523731 -0.1340407580 0.5679531097 4281350498
-0.2604061663 -0.1334373057 0.5680705309 4281416291
-0.2604597807 -0.1328334808 0.5681874156 4281350498
-0.2601054609 -0.1320223361 0.5674145222 4281284707
-0.2597507834 -0.1312127262 0.5666407347 4281284707
-0.2589878440 -0.1301995963 0.5649764538 4281284707
-0.2586322725 -0.1293939948 0.5642008185 4281284707
-0.2582763433 -0.1285899132 0.5634243488 4281152867
-0.2583281100 -0.1279895604 0.5635372996 4281152867
-0.2579714954 -0.1271875948 0.5627592802 4281218660
-0.2576144934 -0.1263871789 0.5619804859 4281218660
-0.2572570741 -0.1255882978 0.5612008572 4281218661
-0.2564908862 -0.1245925799 0.5595293641 4281152868
-0.2565411329 -0.1239951998 0.5596390367 4281087075
-0.2561826110 -0.1232009679 0.5588568449 4281021282
-0.2562323511 -0.1226038411 0.5589653850 4280956258
-0.2558731139 -0.1218117774 0.5581817031 4280890465
-0.2551046908 -0.1208276376 0.5565054417 4280824672
-0.2551535368 -0.1202323362 0.5566119552 4280824672
-0.2552021444 -0.1196366847 0.5567179918 4280824673
-0.2548414767 -0.1188499331 0.5559312105 4280824673
-0.2548895478 -0.1182545647 0.5560361147 4280824419
-0.2545282245 -0.1174699962 0.5552478433 4280758626
-0.2545757890 -0.1168749183 0.5553516150 4280955491
-0.2542137504 -0.1160925552 0.5545618534 4281021284
-0.2542608082 -0.1154977679 0.5546644926 4281021030
-0.2543076277 -0.1149026453 0.5547666550 4281152616
-0.2539446354 -0.1141231284 0.5539747477 4281218409
-0.2539909184 -0.1135283187 0.5540757775 4281218409
-0.2540369928 -0.1129331812 0.5541762710 4281218411
-0.2536730170 -0.1121565253 0.5533822775 4281152618
-0.2537185550 -0.1115617082 0.5534815788 4281086826
-0.2537638843 -0.1109665632 0.5535804629 4281021033
-0.2538089454 -0.1103711054 0.5536788106 4280889961
-0.2534437180 -0.1095979810 0.5528820753 4280955754
-0.2534882724 -0.1090028509 0.5529792905 4281087595
-0.2535326183 -0.1084074154 0.5530759692 4281350767
-0.2535767257 -0.1078116596 0.5531722307 4281482351
-0.2540310025 -0.1073890850 0.5541631579 4281416558
-0.2540747225 -0.1067917421 0.5542585850 4281678960
-0.2541182041 -0.1061941013 0.5543534756 4281678960
-0.2537508905 -0.1054255590 0.5535520911 4281810035
-0.2537938356 -0.1048282683 0.5536458492 4281875828
-0.2538365722 -0.1042306796 0.5537390709 4282007417
-0.2538791001 -0.1036327854 0.5538318157 4282073210
-0.2539213598 -0.1030345932 0.5539240241 4282073471
-0.2539634109 -0.1024361029 0.5540157557 4282205057
-0.2540052235 -0.1018373147 0.5541069508 4282009996
-0.2540467978 -0.1012382284 0.5541976690 4282141582
-0.2540881634 -0.1006388515 0.5542878509 4283125904
-0.2545404732 -0.1002010629 0.5552746058 4283454869
-0.2549926937 -0.0997610390 0.5562611222 4283587484
-0.2550334930 -0.0991588533 0.5563501120 4284179621
-0.2554854453 -0.0987153351 0.5573360324 4285819299
-0.2563487887 -0.0984275788 0.5592193604 4286543022
-0.2568005919 -0.0979786292 0.5602049828 4289555083
-0.2576639056 -0.0976834893 0.5620883107 4289752462
-0.2593505681 -0.0976943150 0.5657677054 4291059307
-0.2606257796 -0.0975429714 0.5685495138 4289151310
-0.2614893019 -0.0972323716 0.5704333186 4287440426
-0.2627647221 -0.0970697403 0.5732156038 4286914082
-0.2640402615 -0.0969009772 0.5759981871 4287045408
-0.2649039626 -0.0965758786 0.5778823495 4287242787
-0.2657676637 -0.0962465927 0.5797664523 4288029991
-0.2666313350 -0.0959131122 0.5816505551 4288029991
-0.2670828700 -0.0954281911 0.5826355815 4288358443
-0.2675342560 -0.0949410275 0.5836202502 4288621615
-0.2675732374 -0.0943063200 0.5837053061 4288752174
-0.2676119804 -0.0936713368 0.5837897658 4288752174
-0.2672380507 -0.0928927287 0.5829740763 4289015346
-0.2676886618 -0.0924005508 0.5839571357 4288949553
-0.2673141360 -0.0916233510 0.5831400752 4288816940
-0.2673518062 -0.0909882635 0.5832222104 4289277491
-0.2669765651 -0.0902134702 0.5824036598 4289803320
-0.2670136690 -0.0895788223 0.5824846029 4290198078
-0.2666377723 -0.0888064504 0.5816646218 4290395712
-0.2666743100 -0.0881722569 0.5817443132 4290461505
-0.2667106092 -0.0875378102 0.5818234682 4290528323
-0.2667466402 -0.0869031027 0.5819021463 4290923081
-0.2667824328 -0.0862681419 0.5819801688 4290080898
-0.2672310174 -0.0857654810 0.5829586983 4293831099
-0.2618258297 -0.1491220444 0.5725546479 4292929779
-0.2618850470 -0.1485194862 0.5726841688 4292469230
-0.2619440556 -0.1479165256 0.5728132129 4292008679
-0.2620028555 -0.1473131478 0.5729418397 4291679714
-0.2620614469 -0.1467093676 0.5730699301 4291416542
-0.2621198297 -0.1461051852 0.5731976032 4291350238
-0.2621779740 -0.1455005854 0.5733247399 4290955480
-0.2622359097 -0.1448955983 0.5734514594 4290363343
-0.2618882358 -0.1440671980 0.5726912022 4289442241
-0.2619456649 -0.1434623450 0.5728167295 4288192434
-0.2620028555 -0.1428570896 0.5729418397 4286810781
-0.2620598674 -0.1422514468 0.5730664730 4285428874
-0.2617108822 -0.1414261460 0.5723032951 4284441979
-0.2617673278 -0.1408206373 0.5724267960 4283784564
-0.2614176571 -0.1399973780 0.5716620684 4283455599
-0.2610675693 -0.1391755939 0.5708965659 4282863978
-0.2611232102 -0.1385708004 0.5710182190 4282337634
-0.2607724369 -0.1377510726 0.5702511668 4281877598
-0.2604212761 -0.1369328350 0.5694832206 4281482840
-0.2604760826 -0.1363287866 0.5696030855 4281153620
-0.2601242363 -0.1355126053 0.5688336492 4280956241
-0.2601785064 -0.1349087358 0.5689523220 4280890199
-0.2598259449 -0.1340946406 0.5681813955 4281021785
-0.2598797083 -0.1334909648 0.5682989359 4281284703
-0.2599332333 -0.1328869164 0.5684159994 4281350496
-0.2595796883 -0.1320754737 0.5676428676 4281284705
-0.2592257559 -0.1312655658 0.5668689013 4281153119
-0.2588714361 -0.1304571629 0.5660941005 4281153121
-0.2585167289 -0.1296503097 0.5653184056 4281153121
-0.2581616342 -0.1288449764 0.5645418763 4281284453
-0.2578061521 -0.1280411780 0.5637645125 4281218660
-0.2574502826 -0.1272389144 0.5629863143 4281218661
-0.2570940256 -0.1264381856 0.5622072816 4281284454
-0.2567374110 -0.1256390065 0.5614274144 4281218663
-0.2567879856 -0.1250398606 0.5615380406 4281218663
-0.2560229897 -0.1240453050 0.5598651767 4281152870
-0.2560729682 -0.1234473437 0.5599744320 4281087077
-0.2557148933 -0.1226534247 0.5591914058 4280890465
-0.2553564310 -0.1218610555 0.5584075451 4280890465
-0.2549975812 -0.1210702509 0.5576228499 4280824672
-0.2546383739 -0.1202810109 0.5568373203 4280824672
-0.2546869218 -0.1196851432 0.5569434762 4280824673
-0.2543270290 -0.1188980862 0.5561564565 4280824673
-0.2543750405 -0.1183024943 0.5562614799 4280824419
-0.2540144622 -0.1175176278 0.5554729700 4280824419
-0.2540619969 -0.1169223264 0.5555768609 4280758626
-0.2537007332 -0.1161396652 0.5547869205 4280758626
-0.2537477016 -0.1155446470 0.5548896790 4280823651
-0.2537944913 -0.1149493083 0.5549919009 4280889444
-0.2534322441 -0.1141694933 0.5541998148 4280889446
-0.2534784973 -0.1135744527 0.5543009043 4280889446
-0.2535245121 -0.1129790917 0.5544015169 4280955239
-0.2531613111 -0.1122021377 0.5536072850 4280889446
-0.2532067895 -0.1116070896 0.5537067652 4280496749
-0.2532520592 -0.1110117212 0.5538057685 4280496749
-0.2532970905 -0.1104160324 0.5539042354 4280693356
-0.2529326081 -0.1096426174 0.5531072021 4280693356
-0.2533864677 -0.1092237160 0.5540996790 4280693610
-0.2534308136 -0.1086270809 0.5541967154 4280890989
-0.2534749508 -0.1080301329 0.5542932153 4281087853
-0.2531093061 -0.1072593182 0.5534935594 4281087853
-0.2531528771 -0.1066627204 0.5535889268 4281087340
-0.2531962693 -0.1060658097 0.5536837578 4281087340
-0.2532393932 -0.1054685935 0.5537781119 4281218411
-0.2528724670 -0.1047013849 0.5529757142 4281218411
-0.2529150844 -0.1041045263 0.5530688763 4281349998
-0.2529574931 -0.1035073772 0.5531615615 4281415791
-0.2529996336 -0.1029099226 0.5532537699 4281416307
-0.2530415654 -0.1023121700 0.5533454418 4281613686
-0.2530832589 -0.1017141193 0.5534366369 4282072442
-0.2531247139 -0.1011157706 0.5535272956 4282204028
-0.2531659603 -0.1005171388 0.5536174774 4282664826
-0.2536173463 -0.1000801474 0.5546045303 4283059584
-0.2536581755 -0.0994799584 0.5546938777 4283454346
-0.2541092932 -0.0990394801 0.5556803346 4283914897
-0.2545603216 -0.0985967666 0.5566666126 4284113052
-0.2550112307 -0.0981518254 0.5576526523 4284573603
-0.2554620206 -0.0977046490 0.5586384535 4286149026
-0.2567342818 -0.0975674540 0.5614206195 4286083233
-0.2580066919 -0.0974241421 0.5642030835 4287981705
-0.2592792213 -0.0972746909 0.5669858456 4287389568
-0.2605518997 -0.0971191153 0.5697689056 4287972439
-0.2618247271 -0.0969574004 0.5725522637 4286853958
-0.2630976737 -0.0967895538 0.5753359199 4286785070
-0.2639595866 -0.0964653119 0.5772207379 4286390312
-0.2648214996 -0.0961368755 0.5791055560 4286651679
-0.2656834424 -0.0958042517 0.5809904337 4286717472
-0.2661340237 -0.0953201130 0.5819757581 4287964452
-0.2665844858 -0.0948337466 0.5829607844 4288556589
-0.2670347989 -0.0943451375 0.5839455724 4288883501
-0.2674849927 -0.0938542932 0.5849300623 4288949294
-0.2667003572 -0.0929309800 0.5832141638 4289145905
-0.2671501040 -0.0924386159 0.5841977000 4289080112
-0.2667763233 -0.0916611105 0.5833803415 4289342258
-0.2668139637 -0.0910257697 0.5834625959 4289539637
-0.2668513358 -0.0903901532 0.5835443139 4290130744
-0.2664765716 -0.0896157697 0.5827248693 4290657088
-0.2665133774 -0.0889806077 0.5828053355 4290199873
-0.2661379576 -0.0882086456 0.5819844007 4290068287
-0.2661742270 -0.0875739455 0.5820636749 4290598230
-0.2666223049 -0.0870735645 0.5830435157 4292506227
-0.2666580975 -0.0864373669 0.5831217766 4292260029
-0.2666936517 -0.0858009160 0.5831995606 4294958313
-0.2606037557 -0.1475179493 0.5712697506 4292798448
-0.2606622875 -0.1469162256 0.5713980794 4292206056
-0.2607206404 -0.1463140994 0.5715259910 4291811298
-0.2607787549 -0.1457115710 0.5716533661 4292008168
-0.2608366609 -0.1451086402 0.5717803240 4291481824
-0.2608943582 -0.1445052922 0.5719068050 4291021273
-0.2609518170 -0.1439015567 0.5720327497 4290626515
-0.2606044114 -0.1430752575 0.5712712407 4289968842
-0.2606613636 -0.1424716711 0.5713960528 4289113533
-0.2607181072 -0.1418676823 0.5715204477 4287666089
-0.2607746422 -0.1412633061 0.5716443658 4286218643
-0.2604259253 -0.1404401213 0.5708799362 4284968834
-0.2600768209 -0.1396184117 0.5701146722 4284245111
-0.2601325214 -0.1390147358 0.5702367425 4283521390
-0.2601879835 -0.1384106874 0.5703583956 4283258218
-0.2598378956 -0.1375915855 0.5695909262 4282864232
-0.2594873905 -0.1367739886 0.5688226223 4282469474
-0.2595420480 -0.1361706555 0.5689424276 4281943130
-0.2595964968 -0.1355669498 0.5690617561 4281548372
-0.2592450082 -0.1347519755 0.5682912469 4280956243
-0.2592989206 -0.1341484636 0.5684094429 4280956243
-0.2589467168 -0.1333355755 0.5676373839 4281087831
-0.2590001225 -0.1327322423 0.5677544475 4281153624
-0.2586472332 -0.1319214553 0.5669808984 4281219163
-0.2587001026 -0.1313183308 0.5670967698 4281153370
-0.2583465278 -0.1305096298 0.5663217306 4281153117
-0.2579925954 -0.1297024637 0.5655458570 4281153117
-0.2576382458 -0.1288968325 0.5647690892 4281218914
-0.2576899827 -0.1282950789 0.5648825169 4281153121
-0.2573349774 -0.1274915636 0.5641042590 4281218661
-0.2569795549 -0.1266895980 0.5633251667 4281218661
-0.2566237748 -0.1258891672 0.5625452399 4281152870
-0.2562676072 -0.1250902861 0.5617644787 4281218663
-0.2563179135 -0.1244905517 0.5618747473 4281218409
-0.2559610605 -0.1236938164 0.5610924959 4281086823
-0.2556038201 -0.1228986382 0.5603094101 4280890465
-0.2552461922 -0.1221050173 0.5595254898 4280890465
-0.2548882067 -0.1213129610 0.5587406754 4280824672
-0.2545298338 -0.1205224618 0.5579550862 4280824672
-0.2541710734 -0.1197335348 0.5571686625 4280824673
-0.2542193532 -0.1191371083 0.5572745204 4280824673
-0.2538599074 -0.1183503643 0.5564866066 4280824419
-0.2539076805 -0.1177542135 0.5565912724 4280824419
-0.2535475492 -0.1169696748 0.5558018684 4280758628
-0.2531870902 -0.1161867157 0.5550116897 4280758628
-0.2532339990 -0.1155914739 0.5551145077 4280627042
-0.2532806993 -0.1149959117 0.5552169085 4280627042
-0.2529192567 -0.1142157912 0.5544245839 4280757860
-0.2529654205 -0.1136205345 0.5545257926 4280757860
-0.2530113757 -0.1130249426 0.5546265244 4280823653
-0.2530571222 -0.1124290302 0.5547267795 4280823653
-0.2526943982 -0.1116524190 0.5539316535 4280757599
-0.2531479001 -0.1112362370 0.5549257994 4280757599
-0.2531929612 -0.1106393635 0.5550245643 4280889187
-0.2524209023 -0.1096871942 0.5533320904 4280889187
-0.2528738678 -0.1092681363 0.5543250442 4280626791
-0.2529181540 -0.1086712778 0.5544221997 4280626791
-0.2529622316 -0.1080741063 0.5545188189 4280627310
-0.2525973618 -0.1073029935 0.5537189245 4280627310
-0.2526409030 -0.1067061648 0.5538144112 4280693105
-0.2526842058 -0.1061090231 0.5539093614 4280561519
-0.2523183525 -0.1053408533 0.5531073809 4280561511
-0.2523611486 -0.1047440693 0.5532011390 4280627304
-0.2524037063 -0.1041469872 0.5532944798 4280889698
-0.2520368993 -0.1033817753 0.5524903536 4280955491
-0.2520789504 -0.1027850583 0.5525825024 4281218403
-0.2521207333 -0.1021880433 0.5526741743 4281284196
-0.2521623373 -0.1015907377 0.5527653098 4281153648
-0.2526130974 -0.1011570841 0.5537534356 4281416820
-0.2526542842 -0.1005582139 0.5538437366 4281811063
-0.2526952326 -0.0999590531 0.5539335012 4282271614
-0.2531455755 -0.0995206386 0.5549206734 4283058824
-0.2531861365 -0.0989199281 0.5550096035 4283453582
-0.2536362112 -0.0984780192 0.5559961796 4283651991
-0.2544959784 -0.0981919989 0.5578809381 4283849370
-0.2549459040 -0.0977446511 0.5588672161 4284375962
-0.2558056712 -0.0974512473 0.5607519150 4284573341
-0.2570754886 -0.0973088592 0.5635354519 4286407810
-0.2579353452 -0.0970061123 0.5654203296 4286999947
-0.2592053711 -0.0968524367 0.5682043433 4288833912
-0.2604755163 -0.0966926217 0.5709886551 4288110189
-0.2617458105 -0.0965266675 0.5737732649 4287188311
-0.2630162239 -0.0963545740 0.5765581131 4286398795
-0.2638763785 -0.0960269943 0.5784436464 4285868339
-0.2647365332 -0.0956952274 0.5803292394 4285473581
-0.2655966580 -0.0953592658 0.5822147727 4286784292
-0.2660462558 -0.0948727056 0.5832002759 4287310636
-0.2660850883 -0.0942384750 0.5832853913 4288292904
-0.2669450343 -0.0938928723 0.5851704478 4288490283
-0.2665727139 -0.0931126624 0.5843543410 4288817969
-0.2666108608 -0.0924766362 0.5844379663 4288949555
-0.2662378848 -0.0916988179 0.5836203694 4289408823
-0.2662754655 -0.0910632238 0.5837027431 4289474616
-0.2663127780 -0.0904273614 0.5837845206 4290066747
-0.2659388185 -0.0896526724 0.5829647779 4290658884
-0.2659755945 -0.0890172571 0.5830453634 4289612364
-0.2660121024 -0.0883815885 0.5831254125 4290270294
-0.2656371593 -0.0876100287 0.5823035240 4291462025
-0.2660843730 -0.0871094540 0.5832838416 4294291124
-0.2661201358 -0.0864730030 0.5833622217 4293517288
-0.2593243718 -0.1465188712 0.5698527098 4292930034
-0.2593824565 -0.1459183991 0.5699803233 4292798448
-0.2594403327 -0.1453175247 0.5701074600 4292863734
-0.2594980001 -0.1447162479 0.5702341795 4292271597
-0.2595554292 -0.1441145688 0.5703603625 4291876839
-0.2596126497 -0.1435124874 0.5704861283 4291350495
-0.2596696615 -0.1429100186 0.5706114173 4290824151
-0.2593225241 -0.1420858353 0.5698485970 4290429393
-0.2593790293 -0.1414835006 0.5699727535 4289771463
-0.2594352961 -0.1408807784 0.5700964332 4288784568
-0.2590871751 -0.1400591731 0.5693314075 4287535016
-0.2591429353 -0.1394566000 0.5694539547 4285955984
-0.2587940991 -0.1386370361 0.5686874390 4284574076
-0.2588493526 -0.1380346417 0.5688087940 4284113525
-0.2589043677 -0.1374318600 0.5689297318 4283916146
-0.2585545480 -0.1366149038 0.5681610107 4283587181
-0.2586090565 -0.1360123008 0.5682807565 4283061092
-0.2586633265 -0.1354093105 0.5684000254 4282600541
-0.2583125234 -0.1345949769 0.5676291585 4281680219
-0.2583662570 -0.1339921802 0.5677472949 4281351254
-0.2584198117 -0.1333890110 0.5678648949 4281022034
-0.2584731281 -0.1327854693 0.5679820776 4280956241
-0.2581210136 -0.1319743693 0.5672083497 4280956243
-0.2581738234 -0.1313710213 0.5673243403 4281022036
-0.2578210235 -0.1305620223 0.5665491223 4281021785
-0.2574678361 -0.1297545582 0.5657730103 4281087578
-0.2575198114 -0.1291520000 0.5658872128 4280955740
-0.2571659088 -0.1283466518 0.5651095510 4281021533
-0.2568116784 -0.1275428385 0.5643311143 4281218660
-0.2564570308 -0.1267405599 0.5635517836 4281218660
-0.2561019957 -0.1259398311 0.5627716184 4281152870
-0.2561525404 -0.1253392845 0.5628827214 4281152870
-0.2557968199 -0.1245406941 0.5621010661 4281152870
-0.2558468580 -0.1239403859 0.5622109771 4281087077
-0.2554904521 -0.1231439561 0.5614278316 4281022305
-0.2551336884 -0.1223490834 0.5606438518 4280956512
-0.2547765374 -0.1215557680 0.5598590374 4280890465
-0.2544189990 -0.1207640171 0.5590733886 4280824672
-0.2540611029 -0.1199738309 0.5582869053 4280824672
-0.2537028193 -0.1191852242 0.5574995875 4280824672
-0.2537508011 -0.1185882241 0.5576050282 4280824673
-0.2533918619 -0.1178018078 0.5568162203 4280890466
-0.2530325055 -0.1170169637 0.5560265779 4280758626
-0.2530796826 -0.1164208800 0.5561302304 4280824419
-0.2527196705 -0.1156382486 0.5553391576 4280692835
-0.2527663112 -0.1150424555 0.5554416180 4280692835
-0.2524056435 -0.1142620444 0.5546490550 4280627044
-0.2524517477 -0.1136665568 0.5547504425 4280627044
-0.2524976432 -0.1130707413 0.5548512936 4280889446
-0.2521359921 -0.1122931913 0.5540565848 4280889446
-0.2521813810 -0.1116976961 0.5541563034 4280561770
-0.2526339889 -0.1112813652 0.5551509261 4280561770
-0.2526789904 -0.1106842607 0.5552497506 4280692582
-0.2523161471 -0.1099092811 0.5544524193 4280692582
-0.2523606420 -0.1093125120 0.5545501709 4280692837
-0.2524048686 -0.1087154225 0.5546473861 4280692837
-0.2524488866 -0.1081180200 0.5547441244 4280627557
-0.2520847917 -0.1073466092 0.5539439917 4280627557
-0.2521282732 -0.1067495570 0.5540395975 4280693097
-0.2521715462 -0.1061521918 0.5541346669 4280429925
-0.2518064678 -0.1053837165 0.5533324480 4280560998
-0.2514410317 -0.1046168730 0.5525293946 4280692584
-0.2514834702 -0.1040205359 0.5526226759 4280757609
-0.2515256703 -0.1034238860 0.5527154207 4280823402
-0.2511592805 -0.1026600152 0.5519102812 4280889197
-0.2512009740 -0.1020637453 0.5520018935 4280823404
-0.2512424290 -0.1014671698 0.5520929694 4280692846
-0.2516922355 -0.1010343283 0.5530814528 4281021811
-0.2517333031 -0.1004361957 0.5531716943 4281611891
-0.2521828711 -0.0999998525 0.5541595817 4281940856
-0.2522235513 -0.0994001701 0.5542489290 4282335865
-0.2526728511 -0.0989603251 0.5552362204 4282664830
-0.2527131140 -0.0983590931 0.5553247333 4282798219
-0.2531621456 -0.0979157612 0.5563114285 4282995598
-0.2544291615 -0.0977846086 0.5590956807 4283520915
-0.2552872300 -0.0974910930 0.5609812140 4283915673
-0.2561452985 -0.0971933976 0.5628668070 4285160063
-0.2570033967 -0.0968915224 0.5647523999 4286278544
-0.2582708001 -0.0967387632 0.5675374866 4289037716
-0.2595383525 -0.0965798721 0.5703228712 4289366681
-0.2608060241 -0.0964148417 0.5731085539 4288444550
-0.2620738447 -0.0962436646 0.5758944750 4287260276
-0.2629322410 -0.0959169418 0.5777807236 4287125090
-0.2637906075 -0.0955860242 0.5796669722 4285875023
-0.2646490037 -0.0952509195 0.5815532207 4286657077
-0.2650976181 -0.0947651491 0.5825390816 4286393905
-0.2659559250 -0.0944226310 0.5844252110 4287506470
-0.2659945190 -0.0937868953 0.5845099688 4287769642
-0.2660328746 -0.0931508914 0.5845942497 4288294194
-0.2656609714 -0.0923720598 0.5837770700 4288688952
-0.2656987607 -0.0917364806 0.5838600993 4289081657
-0.2657362819 -0.0911006406 0.5839425325 4289410622
-0.2657735646 -0.0904645249 0.5840244889 4290134854
-0.2654004097 -0.0896895230 0.5832044482 4290661198
-0.2654371262 -0.0890538618 0.5832851529 4289353820
-0.2654736042 -0.0884179398 0.5833652616 4290801266
-0.2655098140 -0.0877817497 0.5834448338 4292062132
-0.2655457854 -0.0871453062 0.5835238695 4294891231
-0.2579891384 -0.1461210847 0.5683055520 4293258736
-0.2580469549 -0.1455222666 0.5684329867 4293192943
-0.2581045926 -0.1449230462 0.5685598850 4292798195
-0.2581619918 -0.1443234235 0.5686863065 4292403437
-0.2582191825 -0.1437234133 0.5688123107 4292008679
-0.2582761645 -0.1431229860 0.5689378381 4291679714
-0.2583329082 -0.1425221711 0.5690628290 4291285215
-0.2579863667 -0.1416995674 0.5682994723 4290890457
-0.2580426037 -0.1410989016 0.5684233308 4290429906
-0.2580986321 -0.1404978335 0.5685467720 4290035148
-0.2577510774 -0.1396778077 0.5677812099 4289311427
-0.2578065991 -0.1390769035 0.5679034591 4288192946
-0.2574583590 -0.1382589191 0.5671363473 4286942879
-0.2575133741 -0.1376581788 0.5672575235 4285692812
-0.2575681508 -0.1370570660 0.5673781633 4284377722
-0.2576227188 -0.1364555806 0.5674983859 4283653999
-0.2576770484 -0.1358536929 0.5676181316 4283258986
-0.2577311695 -0.1352514327 0.5677373409 4282798435
-0.2573810518 -0.1344377548 0.5669660568 4282469220
-0.2574346364 -0.1338356882 0.5670841336 4281877083
-0.2574880421 -0.1332332343 0.5672017336 4281482838
-0.2575412095 -0.1326304227 0.5673188567 4281022287
-0.2575941682 -0.1320272237 0.5674355030 4280627276
-0.2572424114 -0.1312173456 0.5666607022 4280298311
-0.2568902969 -0.1304089874 0.5658850074 4280494927
-0.2569424212 -0.1298065931 0.5659998655 4280429134
-0.2565896213 -0.1290003508 0.5652226806 4280560982
-0.2566412389 -0.1283981651 0.5653363466 4280626775
-0.2562877238 -0.1275940388 0.5645576715 4280626523
-0.2559338510 -0.1267914623 0.5637781620 4280758109
-0.2555795908 -0.1259904355 0.5629977584 4280758112
-0.2556300759 -0.1253896654 0.5631089807 4280692319
-0.2556803226 -0.1247885376 0.5632196665 4280757858
-0.2553250790 -0.1239902452 0.5624371171 4280626272
-0.2549694479 -0.1231935099 0.5616537333 4280955742
-0.2550188899 -0.1225932389 0.5617626309 4280955742
-0.2546626031 -0.1217986643 0.5609777570 4280955488
-0.2543058991 -0.1210056618 0.5601920485 4280955488
-0.2539488375 -0.1202142239 0.5594055057 4280890465
-0.2535914183 -0.1194243580 0.5586181283 4280890465
-0.2536394298 -0.1188261807 0.5587238669 4280758880
-0.2532812953 -0.1180385053 0.5579349995 4280890466
-0.2529228032 -0.1172524095 0.5571453571 4281021798
-0.2525639534 -0.1164678931 0.5563548207 4280956005
-0.2526108325 -0.1158712506 0.5564581156 4280759141
-0.2526575029 -0.1152742729 0.5565608740 4280759141
-0.2522976696 -0.1144926026 0.5557682514 4280824934
-0.2519374490 -0.1137125194 0.5549747348 4280759141
-0.2519832850 -0.1131164804 0.5550757647 4280759143
-0.2520289123 -0.1125201210 0.5551762581 4280824936
-0.2520743012 -0.1119234338 0.5552762151 4280759141
-0.2521194816 -0.1113264263 0.5553756952 4280759141
-0.2521644235 -0.1107290983 0.5554746985 4280824936
-0.2522091269 -0.1101314574 0.5555732250 4280890729
-0.2518467605 -0.1093568280 0.5547749996 4280890729
-0.2518909574 -0.1087595150 0.5548723340 4280824936
-0.2519349158 -0.1081618890 0.5549691916 4280759143
-0.2515715957 -0.1073901728 0.5541688204 4280759143
-0.2516150177 -0.1067928895 0.5542645454 4280824423
-0.2516582310 -0.1061953008 0.5543597341 4280758630
-0.2512939572 -0.1054265276 0.5535572171 4280758375
-0.2509292960 -0.1046593934 0.5527539253 4280758375
-0.2509716749 -0.1040628180 0.5528473258 4280824168
-0.2510138452 -0.1034659445 0.5529401898 4280824168
-0.2506482005 -0.1027017757 0.5521348119 4280824168
-0.2506898642 -0.1021052748 0.5522264838 4280758375
-0.2507312596 -0.1015084758 0.5523177385 4280822889
-0.2507724464 -0.1009113863 0.5524084568 4281151854
-0.2512212098 -0.1004771069 0.5533969998 4281217901
-0.2512620091 -0.0998784602 0.5534868836 4281678452
-0.2513025701 -0.0992795154 0.5535761714 4282007417
-0.2517509162 -0.0988404825 0.5545638204 4282139003
-0.2526072562 -0.0985584334 0.5564501882 4282206085
-0.2530554533 -0.0981139541 0.5574375391 4282337671
-0.2535035610 -0.0976672471 0.5584245920 4282073985
-0.2543598413 -0.0973745957 0.5603108406 4282468743
-0.2552161515 -0.0970777646 0.5621971488 4283911284
-0.2564808726 -0.0969310999 0.5649831295 4285095558
-0.2573372722 -0.0966249257 0.5668696165 4289960105
-0.2586022019 -0.0964669585 0.5696560740 4291275965
-0.2598672807 -0.0963028446 0.5724427700 4290487729
-0.2607238293 -0.0959821418 0.5743296146 4290027178
-0.2619890869 -0.0958067179 0.5771167874 4288511630
-0.2628456950 -0.0954766572 0.5790037513 4287656321
-0.2637023032 -0.0951424018 0.5808907151 4285881960
-0.2641500235 -0.0946574211 0.5818769336 4284631893
-0.2650065422 -0.0943157598 0.5837637186 4284367173
-0.2650450170 -0.0936807543 0.5838484764 4283972415
-0.2650832534 -0.0930454805 0.5839326978 4284493872
-0.2651212513 -0.0924099237 0.5840163827 4284362286
-0.2647497952 -0.0916324779 0.5831981301 4285410611
-0.2647872269 -0.0909973606 0.5832805634 4285805369
-0.2648243904 -0.0903619826 0.5833624601 4286399565
-0.2648613155 -0.0897263363 0.5834438205 4287320667
-0.2648980021 -0.0890904218 0.5835245848 4286801263
-0.2649344206 -0.0884542465 0.5836048126 4288511881
-0.2649706006 -0.0878178105 0.5836845040 4290096822
-0.2645969391 -0.0870463625 0.5828613639 4292333784
-0.2646325529 -0.0864103958 0.5829398632 4293585903
-0.2571733296 -0.1447543204 0.5678979158 4293192951
-0.2572305799 -0.1441554278 0.5680243373 4292929779
-0.2568855882 -0.1433318257 0.5672625303 4292600814
-0.2569423318 -0.1427330673 0.5673878193 4292271849
-0.2569988370 -0.1421339214 0.5675125718 4292008679
-0.2570551336 -0.1415343732 0.5676369071 4291679714
-0.2571112216 -0.1409344226 0.5677607656 4291284956
-0.2567646503 -0.1401144713 0.5669954419 4290955991
-0.2568202317 -0.1395146996 0.5671181679 4290693078
-0.2564729452 -0.1386967897 0.5663513541 4290035148
-0.2565280199 -0.1380971670 0.5664728880 4289311425
-0.2565828562 -0.1374971718 0.5665940046 4288456116
-0.2562345862 -0.1366818696 0.5658249855 4287271844
-0.2562889159 -0.1360820383 0.5659449100 4286087570
-0.2563430369 -0.1354818344 0.5660644174 4284903296
-0.2568000555 -0.1350933313 0.5670736432 4283982194
-0.2564505935 -0.1342802793 0.5663019419 4283522160
-0.2565040588 -0.1336789429 0.5664200187 4282798437
-0.2565572858 -0.1330772191 0.5665375590 4282338145
-0.2566103041 -0.1324751377 0.5666546226 4281877594
-0.2566631138 -0.1318726689 0.5667712688 4281548631
-0.2563120723 -0.1310634315 0.5659960508 4281088080
-0.2563643456 -0.1304611713 0.5661115050 4280758864
-0.2560125887 -0.1296540499 0.5653347373 4280232520
-0.2560643554 -0.1290520132 0.5654490590 4280298062
-0.2561158836 -0.1284496039 0.5655628443 4280561234
-0.2557631731 -0.1276451796 0.5647839308 4280627545
-0.2554100454 -0.1268423051 0.5640041828 4280693338
-0.2550565600 -0.1260409653 0.5632236004 4280561500
-0.2551069856 -0.1254399866 0.5633349419 4280627293
-0.2551571727 -0.1248386353 0.5634457469 4280889698
-0.2552071512 -0.1242369339 0.5635561347 4280823905
-0.2544478476 -0.1232430041 0.5618793964 4281021281
-0.2544972003 -0.1226425096 0.5619884133 4281021281
-0.2541416585 -0.1218476370 0.5612033010 4280956258
-0.2537857592 -0.1210543364 0.5604173541 4280890465
-0.2538343072 -0.1204547063 0.5605245829 4280956259
-0.2534777224 -0.1196635813 0.5597371459 4280956259
-0.2535257339 -0.1190642267 0.5598431826 4280890212
-0.2531684637 -0.1182752922 0.5590542555 4280956005
-0.2528108358 -0.1174879372 0.5582644939 4281153384
-0.2524528205 -0.1167021692 0.5574739575 4281153384
-0.2524997294 -0.1161043420 0.5575774908 4280956520
-0.2525463998 -0.1155061796 0.5576806068 4280824934
-0.2521874011 -0.1147232503 0.5568878651 4280824936
-0.2522335649 -0.1141253933 0.5569897890 4280759143
-0.2522794902 -0.1135272086 0.5570912361 4280759143
-0.2523252070 -0.1129286960 0.5571921468 4280824936
-0.2519649565 -0.1121492684 0.5563966036 4280824934
-0.2520101368 -0.1115510687 0.5564963818 4280759141
-0.2520551085 -0.1109525561 0.5565956831 4280759141
-0.2516938746 -0.1101760194 0.5557979941 4280759141
-0.2517383099 -0.1095778272 0.5558961630 4280824934
-0.2513764203 -0.1088035479 0.5550969839 4280824934
-0.2514203191 -0.1082056984 0.5551939607 4280759141
-0.2514640093 -0.1076075286 0.5552904606 4280759141
-0.2515074611 -0.1070090532 0.5553864241 4280890216
-0.2511443198 -0.1062383577 0.5545845032 4280824423
-0.2507807910 -0.1054692939 0.5537817478 4280824423
-0.2508234382 -0.1048718244 0.5538758636 4280758630
-0.2504592538 -0.1041050553 0.5530716777 4280758630
-0.2505013645 -0.1035079509 0.5531646609 4280758630
-0.2501365244 -0.1027434915 0.5523590446 4280758630
-0.2501780987 -0.1021467596 0.5524508357 4280758630
-0.2502194643 -0.1015497297 0.5525422096 4280757607
-0.2502605915 -0.1009524092 0.5526329875 4281020779
-0.2507084906 -0.1005179733 0.5536220670 4281152365
-0.2507492304 -0.0999190882 0.5537120104 4281547123
-0.2507897317 -0.0993199199 0.5538014770 4281876342
-0.2512372136 -0.0988807157 0.5547896028 4281876342
-0.2516845763 -0.0984392762 0.5557774901 4281811326
-0.2521318197 -0.0979956090 0.5567651391 4281877119
-0.2529863715 -0.0977070406 0.5586521626 4281547641
-0.2538409531 -0.0974142849 0.5605392456 4281942399
-0.2546955347 -0.0971173495 0.5624263287 4283648112
-0.2555501461 -0.0968162194 0.5643135309 4285424523
-0.2568123937 -0.0966643468 0.5671008825 4291013563
-0.2576670945 -0.0963538662 0.5689882040 4292724181
-0.2589295506 -0.0961906761 0.5717760324 4292527825
-0.2597843111 -0.0958708376 0.5736635923 4292527825
-0.2610469759 -0.0956963301 0.5764518380 4291605698
-0.2619017959 -0.0953671187 0.5783394575 4291210940
-0.2631646395 -0.0951812863 0.5811281204 4290094512
-0.2636114657 -0.0946961194 0.5821148157 4289173410
-0.2636500299 -0.0940631106 0.5821999311 4287990416
-0.2640965283 -0.0935744494 0.5831859708 4287003521
-0.2641346753 -0.0929399058 0.5832701325 4286540910
-0.2641725540 -0.0923050866 0.5833537579 4286080359
-0.2642101645 -0.0916699916 0.5834369063 4286406757
-0.2642475665 -0.0910346285 0.5835194588 4286867308
-0.2642847002 -0.0903989971 0.5836014152 4287723133
-0.2643215656 -0.0897631049 0.5836828947 4288775821
-0.2643581927 -0.0891269371 0.5837637782 4289173150
-0.2643945813 -0.0884905085 0.5838441253 4290291631
-0.2640220225 -0.0877180398 0.5830214024 4291412681
-0.2640578449 -0.0870820731 0.5831004977 4292860127
-0.2636846006 -0.0863120332 0.5822762847 4293585903
-0.2555547059 -0.1429398060 0.5657110810 4293126900
-0.2556111813 -0.1423427165 0.5658360720 4292929521
-0.2556674480 -0.1417452246 0.5659606457 4292601069
-0.2557235062 -0.1411473453 0.5660847425 4292337897
-0.2557793260 -0.1405490637 0.5662083626 4292008677
-0.2558349669 -0.1399503946 0.5663315058 4291679712
-0.2554886639 -0.1391325891 0.5655649304 4291284956
-0.2555437982 -0.1385340840 0.5656869411 4290890198
-0.2551968098 -0.1377183050 0.5649188161 4290626772
-0.2552514076 -0.1371199787 0.5650396943 4290232014
-0.2553057969 -0.1365212500 0.5651600957 4289377218
-0.2553599477 -0.1359221637 0.5652799606 4288456116
-0.2554139197 -0.1353226751 0.5653994083 4287337635
-0.2554676533 -0.1347228140 0.5655183792 4286350740
-0.2555211782 -0.1341225803 0.5656368732 4285101445
-0.2555744946 -0.1335219592 0.5657548904 4284048757
-0.2556275725 -0.1329209805 0.5658723712 4283324779
-0.2556804419 -0.1323196143 0.5659894347 4282798435
-0.2557331026 -0.1317178756 0.5661059618 4282403938
-0.2553827167 -0.1309092939 0.5653303862 4282009180
-0.2554348409 -0.1303077638 0.5654457808 4281811292
-0.2554867566 -0.1297058761 0.5655606985 4281153362
-0.2551354170 -0.1288999766 0.5647829175 4280824659
-0.2551867962 -0.1282982975 0.5648966432 4280693073
-0.2552379668 -0.1276962608 0.5650099516 4280430418
-0.2548856139 -0.1268930882 0.5642299652 4280101453
-0.2545329034 -0.1260914505 0.5634491444 4280166994
-0.2545832396 -0.1254902333 0.5635606050 4280495959
-0.2546333671 -0.1248886660 0.5636715889 4280693340
-0.2546832860 -0.1242867410 0.5637820959 4280627547
-0.2543292940 -0.1234884560 0.5629984140 4280824672
-0.2539748847 -0.1226917207 0.5622138977 4280890465
-0.2536201179 -0.1218965501 0.5614286065 4281022051
-0.2536689043 -0.1212960929 0.5615366101 4280956258
-0.2533134818 -0.1205030978 0.5607497692 4281022051
-0.2533617318 -0.1199029088 0.5608565807 4281087844
-0.2530056238 -0.1191120967 0.5600682497 4280956259
-0.2530533671 -0.1185121834 0.5601739287 4280956259
-0.2526965737 -0.1177235693 0.5593841076 4281021798
-0.2523393929 -0.1169365346 0.5585934520 4281021798
-0.2527907789 -0.1165239662 0.5595927238 4280890725
-0.2524330020 -0.1157381833 0.5588006973 4280759139
-0.2524794936 -0.1151385084 0.5589035749 4280824934
-0.2521210611 -0.1143549532 0.5581101179 4280824934
-0.2517622411 -0.1135729849 0.5573158264 4280890727
-0.2518078983 -0.1129742488 0.5574169159 4280890727
-0.2514483929 -0.1121945232 0.5566211343 4280890212
-0.2518985271 -0.1117758006 0.5576175451 4280956005
-0.2519434988 -0.1111760959 0.5577170849 4280956005
-0.2515831292 -0.1103982925 0.5569193363 4280956005
-0.2516275644 -0.1097989157 0.5570177436 4281021798
-0.2516717911 -0.1091992185 0.5571156144 4281021798
-0.2513104379 -0.1084243283 0.5563157797 4280956007
-0.2513541579 -0.1078249663 0.5564125180 4280890214
-0.2513976395 -0.1072252989 0.5565087199 4280890727
-0.2510353327 -0.1064533368 0.5557067394 4280890727
-0.2506726384 -0.1056830063 0.5549038649 4280824934
-0.2503096163 -0.1049143076 0.5541002750 4280759141
-0.2503519654 -0.1043163091 0.5541940331 4280693348
-0.2499882728 -0.1035499126 0.5533888936 4280693348
-0.2500301003 -0.1029522792 0.5534815192 4280759141
-0.2500717044 -0.1023543477 0.5535736084 4280759141
-0.2497070581 -0.1015909314 0.5527663827 4280758375
-0.2497481257 -0.1009933800 0.5528573394 4280824168
-0.2501951456 -0.1005587801 0.5538468361 4281021547
-0.2506420612 -0.1001219451 0.5548361540 4281350512
-0.2506825626 -0.0995215699 0.5549258590 4281678963
-0.2507228553 -0.0989209041 0.5550150275 4281744756
-0.2511693537 -0.0984793007 0.5560033917 4281548154
-0.2516157329 -0.0980354622 0.5569915175 4281613947
-0.2524685562 -0.0977467895 0.5588794351 4281350775
-0.2529147863 -0.0972974971 0.5598672032 4281877119
-0.2537676096 -0.0970014259 0.5617550611 4283517298
-0.2550271749 -0.0968556404 0.5645433068 4285096330
-0.2558800578 -0.0965502188 0.5664313436 4291014335
-0.2571398318 -0.0963931233 0.5692200661 4292988125
-0.2579928339 -0.0960783362 0.5711082816 4292923611
-0.2588458359 -0.0957593545 0.5729964972 4293186783
-0.2601058781 -0.0955857635 0.5757858157 4292397267
-0.2605518103 -0.0951088071 0.5767729878 4292463060
-0.2618119717 -0.0949248672 0.5795625448 4292267737
-0.2622577846 -0.0944414735 0.5805494189 4292201944
-0.2627034783 -0.0939558446 0.5815360546 4291677396
-0.2627416849 -0.0933232903 0.5816206336 4291348431
-0.2631870806 -0.0928341672 0.5826065540 4291085259
-0.2632248402 -0.0922000781 0.5826901793 4290887880
-0.2632623613 -0.0915657207 0.5827732086 4290953160
-0.2632996440 -0.0909310877 0.5828557611 4290953160
-0.2633366883 -0.0902961940 0.5829377174 4291412941
-0.2633734643 -0.0896610320 0.5830191374 4291741906
-0.2634100020 -0.0890256017 0.5831000209 4292005332
-0.2634462714 -0.0883899033 0.5831803083 4292268504
-0.2630744278 -0.0876181126 0.5823572278 4292728795
-0.2631101608 -0.0869828761 0.5824362636 4293320932
-0.2542827129 -0.1419519335 0.5642827153 4293192691
-0.2543387413 -0.1413561106 0.5644069910 4292930032
-0.2543945312 -0.1407599002 0.5645308495 4292732653
-0.2544501424 -0.1401632875 0.5646542311 4292469483
-0.2545055151 -0.1395662874 0.5647771358 4292206311
-0.2545606792 -0.1389688998 0.5648995638 4292074470
-0.2546156347 -0.1383711249 0.5650215149 4291679712
-0.2542693317 -0.1375560015 0.5642530322 4291350749
-0.2543237805 -0.1369583905 0.5643738508 4291087577
-0.2543780208 -0.1363604069 0.5644941926 4290693332
-0.2544320226 -0.1357620358 0.5646140575 4290364367
-0.2544858158 -0.1351632774 0.5647334456 4289837769
-0.2545394003 -0.1345641464 0.5648523569 4289179839
-0.2545927763 -0.1339646429 0.5649707913 4288061358
-0.2542442977 -0.1331544071 0.5641974211 4287074463
-0.2546988726 -0.1327645034 0.5652062297 4286087568
-0.2547515929 -0.1321638674 0.5653232336 4285034880
-0.2544021904 -0.1313553452 0.5645478368 4284114295
-0.2544544041 -0.1307549179 0.5646637082 4283390572
-0.2545063794 -0.1301541179 0.5647790432 4282995818
-0.2545581758 -0.1295529604 0.5648939610 4282403681
-0.2542074919 -0.1287477165 0.5641157627 4282206050
-0.2542587221 -0.1281467676 0.5642294884 4281745499
-0.2543097734 -0.1275454611 0.5643427372 4281351001
-0.2543605566 -0.1269437969 0.5644554496 4280824657
-0.2540086210 -0.1261418611 0.5636744499 4280495440
-0.2536562681 -0.1253414750 0.5628925562 4280561233
-0.2537062466 -0.1247406378 0.5630034804 4280495441
-0.2537560165 -0.1241394430 0.5631139278 4280429648
-0.2538055778 -0.1235379055 0.5632238388 4280693338
-0.2534519434 -0.1227408722 0.5624391437 4280759131
-0.2535009682 -0.1221395805 0.5625479221 4280890719
-0.2531466782 -0.1213447228 0.5617617369 4280824926
-0.2531951964 -0.1207436919 0.5618693233 4280824926
-0.2528402209 -0.1199510098 0.5610816479 4280956512
-0.2528882027 -0.1193502545 0.5611881018 4280825183
-0.2533393502 -0.1189385504 0.5621892810 4280825183
-0.2529834807 -0.1181477159 0.5613995790 4280890978
-0.2526272535 -0.1173584685 0.5606090426 4280890978
-0.2522706091 -0.1165708005 0.5598176122 4280890978
-0.2523173392 -0.1159702763 0.5599213243 4280825185
-0.2519600391 -0.1151848286 0.5591284037 4280825186
-0.2520062327 -0.1145845950 0.5592309237 4280890979
-0.2516482770 -0.1138013676 0.5584365726 4280890979
-0.2516939342 -0.1132014468 0.5585379004 4280890979
-0.2513352931 -0.1124204546 0.5577420592 4280824419
-0.2513804436 -0.1118208468 0.5578422546 4280956005
-0.2518295944 -0.1113997251 0.5588389635 4281022311
-0.2514700592 -0.1106206626 0.5580410957 4280956518
-0.2515145242 -0.1100200936 0.5581398010 4280956518
-0.2515587807 -0.1094192043 0.5582379699 4280956518
-0.2516027987 -0.1088179946 0.5583356619 4280956518
-0.2512420118 -0.1080424935 0.5575349927 4280890725
-0.2512854934 -0.1074416265 0.5576314926 4280956518
-0.2509240210 -0.1066684052 0.5568293929 4280890725
-0.2505622208 -0.1058968082 0.5560264587 4280824934
-0.2502000332 -0.1051268429 0.5552227497 4280759141
-0.2498374730 -0.1043585092 0.5544182062 4280759141
-0.2498795539 -0.1037599817 0.5545115471 4280759141
-0.2499213964 -0.1031611562 0.5546044111 4280824934
-0.2499630153 -0.1025620252 0.5546967983 4280890727
-0.2495992035 -0.1017973423 0.5538894534 4280890216
-0.2496403009 -0.1011985913 0.5539806485 4280890216
-0.2500864863 -0.1007628515 0.5549708009 4281022060
-0.2505325973 -0.1003248766 0.5559607148 4281219439
-0.2505731285 -0.0997232944 0.5560507178 4281482098
-0.2506134212 -0.0991214290 0.5561401248 4281613684
-0.2506535053 -0.0985192657 0.5562290549 4281548154
-0.2510989904 -0.0980752632 0.5572176576 4281679740
-0.2519501150 -0.0977864861 0.5591064095 4281482361
-0.2528012395 -0.0974935144 0.5609951615 4282140291
-0.2536523938 -0.0971963629 0.5628839135 4283452276
-0.2545035481 -0.0968950167 0.5647727847 4284899722
-0.2553547323 -0.0965894759 0.5666616559 4291278536
-0.2562059462 -0.0962797478 0.5685505271 4293383912
-0.2570571303 -0.0959658176 0.5704394579 4293122017
-0.2579083443 -0.0956477001 0.5723283887 4292924638
-0.2591657937 -0.0954750329 0.5751187801 4292464599
-0.2600170672 -0.0951475427 0.5770078897 4292530392
-0.2608683407 -0.0948158503 0.5788969398 4292596186
-0.2613132000 -0.0943332538 0.5798841715 4292596186
-0.2613514960 -0.0937026888 0.5799691677 4292465116
-0.2617960572 -0.0932165906 0.5809556842 4292596702
-0.2618339062 -0.0925844982 0.5810396671 4292728290
-0.2618715167 -0.0919521227 0.5811231732 4292794083
-0.2619088888 -0.0913194865 0.5812060833 4292662499
-0.2619459927 -0.0906865746 0.5812884569 4292596706
-0.2619828880 -0.0900533944 0.5813702345 4292663010
-0.2620194852 -0.0894199461 0.5814515352 4292728803
-0.2620558739 -0.0887862369 0.5815322399 4292795617
-0.2620919943 -0.0881522596 0.5816124082 4293124582
-0.2621278763 -0.0875180289 0.5816919804 4293519336
-0.2530682683 -0.1403720230 0.5629752874 4293193204
-0.2531236112 -0.1397770941 0.5630983710 4292930034
-0.2531787455 -0.1391817629 0.5632210374 4292798448
-0.2532336712 -0.1385860443 0.5633432269 4292732655
-0.2532883883 -0.1379899383 0.5634649396 4292337897
-0.2533428967 -0.1373934448 0.5635862350 4292008677
-0.2529968619 -0.1365804523 0.5628164411 4291679712
-0.2530508637 -0.1359841377 0.5629365444 4291285469
-0.2531046569 -0.1353874505 0.5630561709 4291088090
-0.2531582117 -0.1347903609 0.5631753802 4290824918
-0.2532115579 -0.1341929138 0.5632940531 4290430160
-0.2532646954 -0.1335950792 0.5634122491 4290495440
-0.2533176243 -0.1329968721 0.5635299683 4289903303
-0.2533703148 -0.1323982924 0.5636472106 4289245119
-0.2534227967 -0.1317993402 0.5637639761 4288126638
-0.2534750700 -0.1312000155 0.5638802648 4287008672
-0.2535271347 -0.1306003183 0.5639960766 4285758605
-0.2535789609 -0.1300002486 0.5641113520 4284771457
-0.2536305785 -0.1293998212 0.5642262101 4283916148
-0.2536819875 -0.1287990212 0.5643405318 4283653494
-0.2533316910 -0.1279950142 0.5635613203 4283061357
-0.2533825934 -0.1273944378 0.5636745095 4282863725
-0.2534332573 -0.1267935038 0.5637872219 4282337381
-0.2530819774 -0.1259922236 0.5630057454 4281482074
-0.2531321049 -0.1253915131 0.5631173253 4280889937
-0.2531820536 -0.1247904673 0.5632283688 4280495179
-0.2532317340 -0.1241890565 0.5633389354 4280429386
-0.2528792024 -0.1233911216 0.5625546575 4280364371
-0.2529283762 -0.1227899566 0.5626640916 4280298578
-0.2529773414 -0.1221884489 0.5627729893 4280364373
-0.2526238263 -0.1213932857 0.5619865656 4280298580
-0.2530746162 -0.1209843829 0.5629893541 4280364373
-0.2531228960 -0.1203818321 0.5630968213 4280627545
-0.2523659766 -0.1193980798 0.5614129305 4280759131
-0.2528162599 -0.1189862266 0.5624146461 4280890717
-0.2524611652 -0.1181950942 0.5616247058 4280890976
-0.2525084019 -0.1175930947 0.5617297888 4280890976
-0.2521526217 -0.1168041676 0.5609383583 4280956769
-0.2517964840 -0.1160168350 0.5601460934 4280890976
-0.2518429160 -0.1154157445 0.5602493882 4280890978
-0.2514860928 -0.1146306321 0.5594555736 4280890978
-0.2515320182 -0.1140298471 0.5595577359 4280890978
-0.2511745393 -0.1132469550 0.5587624311 4280890978
-0.2508166730 -0.1124656722 0.5579663515 4280890466
-0.2512650788 -0.1120456830 0.5589638948 4280956259
-0.2513100207 -0.1114445627 0.5590638518 4281022052
-0.2513547242 -0.1108431220 0.5591633320 4280956259
-0.2509956658 -0.1100644022 0.5583645701 4280956259
-0.2510398626 -0.1094632894 0.5584628582 4280956259
