VERSION 0.7
FIELDS x y z rgba
SIZE 4 4 4 4
TYPE F F F U
COUNT 1 1 1 1
WIDTH 920
HEIGHT 1
VIEWPOINT 0.0 0.0 0.0 1.0 0.0 0.0 0.0
POINTS 920
DATA ascii
-0.2529889047 -0.1100144908 0.5518898964 4280824683
-0.2526235282 -0.1092432961 0.5510928035 4280890476
-0.2526679337 -0.1086500958 0.5511896610 4280824944
-0.2531223595 -0.1082319990 0.5521810651 4280956530
-0.2531664073 -0.1076372042 0.5522770882 4281088886
-0.2532102168 -0.1070421040 0.5523726940 4281220472
-0.2532537878 -0.1064466983 0.5524677634 4281285747
-0.2532971501 -0.1058509871 0.5525622964 4281285747
-0.2529296875 -0.1050843745 0.5517606735 4281547891
-0.2533831894 -0.1046586409 0.5527499914 4281613684
-0.2534258366 -0.1040620208 0.5528430343 4281810035
-0.2530574799 -0.1032974049 0.5520394444 4281941621
-0.2530996203 -0.1027011424 0.5521313548 4282204024
-0.2535524666 -0.1022703424 0.5531192422 4282269817
-0.2535942197 -0.1016725302 0.5532103181 4282007674
-0.2540467978 -0.1012382284 0.5541976690 4282205053
-0.2540881634 -0.1006388515 0.5542878509 4282599300
-0.2549516857 -0.1003629416 0.5561716557 4283059851
-0.2554039955 -0.0999219418 0.5571583509 4283258262
-0.2562675178 -0.0996386483 0.5590420961 4283718813
-0.2571310997 -0.0993511826 0.5609259605 4284573093
-0.2584061623 -0.0992175266 0.5637074709 4285099437
-0.2600929141 -0.0992347673 0.5673871040 4286475933
-0.2617799342 -0.0992439315 0.5710673332 4287002277
-0.2626439035 -0.0989348814 0.5729520917 4290407558
-0.2639196217 -0.0987757444 0.5757349730 4289749628
-0.2647836804 -0.0984573513 0.5776199102 4289413455
-0.2656477392 -0.0981347710 0.5795048475 4287505458
-0.2665117979 -0.0978080034 0.5813897848 4286914606
-0.2669638693 -0.0973268524 0.5823760033 4286848813
-0.2670037746 -0.0966942459 0.5824630260 4287241507
-0.2670434415 -0.0960613564 0.5825495720 4287767851
-0.2666707039 -0.0952809229 0.5817364454 4288226861
-0.2662975788 -0.0945021585 0.5809224844 4288292654
-0.2659240961 -0.0937250778 0.5801077485 4288620590
-0.2659626007 -0.0930940136 0.5801916718 4288752176
-0.2655884326 -0.0923193172 0.5793754458 4289080628
-0.2656263709 -0.0916886777 0.5794582367 4289080628
-0.2652515173 -0.0909163803 0.5786405206 4289211444
-0.2657014728 -0.0904266089 0.5796220899 4289408823
-0.2653260231 -0.0896557346 0.5788030624 4289606456
-0.2653628886 -0.0890250131 0.5788834691 4289738042
-0.2653995156 -0.0883940309 0.5789633989 4290263873
-0.2654359043 -0.0877627879 0.5790427327 4290527045
-0.2658848763 -0.0872667953 0.5800221562 4290724426
-0.2659208179 -0.0866340548 0.5801005363 4291448149
-0.2663694620 -0.0861345977 0.5810793042 4290670971
-0.2664049566 -0.0855003670 0.5811566710 4294158000
-0.2606707513 -0.1478308290 0.5700287819 4292666607
-0.2607294917 -0.1472306699 0.5701572299 4292271849
-0.2607880235 -0.1466300786 0.5702852011 4291877093
-0.2608463168 -0.1460290998 0.5704127550 4291482335
-0.2609044313 -0.1454277188 0.5705397725 4291613919
-0.2609623075 -0.1448259354 0.5706663728 4291021782
-0.2610200047 -0.1442237496 0.5707924962 4290495440
-0.2610774338 -0.1436211616 0.5709181428 4289771717
-0.2611346841 -0.1430181861 0.5710433125 4289179326
-0.2615973055 -0.1426359564 0.5720549226 4287863466
-0.2616541982 -0.1420312375 0.5721793771 4286284694
-0.2613051236 -0.1412068754 0.5714160204 4284968834
-0.2613614798 -0.1406023204 0.5715392828 4284048504
-0.2610117197 -0.1397799850 0.5707744360 4283522160
-0.2610675693 -0.1391755939 0.5708965659 4283127661
-0.2611232102 -0.1385708004 0.5710182190 4282469731
-0.2607724369 -0.1377510726 0.5702511668 4281943389
-0.2604212761 -0.1369328350 0.5694832206 4281811803
-0.2604760826 -0.1363287866 0.5696030855 4281482840
-0.2601242363 -0.1355126053 0.5688336492 4280824910
-0.2601785064 -0.1349087358 0.5689523220 4280758359
-0.2598259449 -0.1340946406 0.5681813955 4280955738
-0.2594729960 -0.1332820654 0.5674095750 4281153117
-0.2587128878 -0.1322630346 0.5657473803 4281218910
-0.2591728270 -0.1318684667 0.5667531490 4281153119
-0.2584118545 -0.1308534294 0.5650891066 4281153119
-0.2580573857 -0.1300469190 0.5643138885 4281218914
-0.2577024996 -0.1292419583 0.5635378957 4281218914
-0.2573472261 -0.1284385175 0.5627610087 4281218661
-0.2569915950 -0.1276366115 0.5619832873 4281152868
-0.2566355765 -0.1268362552 0.5612047315 4281087077
-0.2566865981 -0.1262378097 0.5613163114 4281087077
-0.2563298643 -0.1254395843 0.5605362654 4281152616
-0.2555651665 -0.1244444326 0.5588640571 4281152616
-0.2552076280 -0.1236502528 0.5580821633 4281086823
-0.2552574575 -0.1230541989 0.5581911206 4281021030
-0.2548992038 -0.1222621799 0.5574077368 4280824673
-0.2545405924 -0.1214717254 0.5566235185 4280824673
-0.2545895875 -0.1208765358 0.5567306280 4280824419
-0.2542302907 -0.1200882569 0.5559449196 4280824419
-0.2542787790 -0.1194933355 0.5560509562 4280824421
-0.2539187968 -0.1187072396 0.5552637577 4280824421
-0.2539667487 -0.1181126013 0.5553686023 4280758628
-0.2536060810 -0.1173286960 0.5545799732 4280758628
-0.2532450557 -0.1165463701 0.5537904501 4280824423
-0.2528836727 -0.1157656237 0.5530001521 4280758630
-0.2525218725 -0.1149864644 0.5522090197 4280758375
-0.2525684237 -0.1143939942 0.5523107648 4280692582
-0.2526147366 -0.1138012037 0.5524120331 4280692582
-0.2526608109 -0.1132080853 0.5525128245 4280758375
-0.2522977591 -0.1124324128 0.5517189503 4280824170
-0.2519343495 -0.1116583496 0.5509242415 4280889963
-0.2519796193 -0.1110661849 0.5510231853 4281021032
-0.2524337769 -0.1106530428 0.5520163774 4280889446
-0.2524786890 -0.1100592762 0.5521145463 4280889193
-0.2517047822 -0.1091103703 0.5504222512 4280889193
-0.2521584332 -0.1086943597 0.5514142513 4280758125
-0.2526119947 -0.1082761064 0.5524060726 4280889711
-0.2526559830 -0.1076810881 0.5525022745 4281021297
-0.2522901595 -0.1069122031 0.5517023206 4281021297
-0.2523336411 -0.1063175350 0.5517973304 4280889963
-0.2523768544 -0.1057225540 0.5518919230 4280955756
-0.2520100772 -0.1049566120 0.5510898232 4281218412
-0.2524626255 -0.1045316905 0.5520794988 4281349998
-0.2525051832 -0.1039358005 0.5521724820 4281349744
-0.2525475025 -0.1033396125 0.5522650480 4281415537
-0.2521795332 -0.1025763378 0.5514603853 4281547127
-0.2522213161 -0.1019805223 0.5515517592 4281612920
-0.2522628903 -0.1013844088 0.5516426563 4281481073
-0.2527144849 -0.1009518877 0.5526301861 4281678452
-0.2531659603 -0.1005171388 0.5536174774 4282007674
-0.2536173463 -0.1000801474 0.5546045303 4282468225
-0.2544790804 -0.0998018980 0.5564889908 4282536330
-0.2553408444 -0.0995194763 0.5583734512 4282931088
-0.2562026381 -0.0992328748 0.5602580309 4284045468
-0.2570644617 -0.0989420936 0.5621426105 4284440226
-0.2587477267 -0.0989613011 0.5658235550 4284965792
-0.2604312599 -0.0989724323 0.5695050359 4285426343
-0.2617042363 -0.0988203436 0.5722887516 4286604939
-0.2625664473 -0.0985079706 0.5741742253 4286802318
-0.2634286582 -0.0981914103 0.5760596991 4287325038
-0.2647019029 -0.0980228707 0.5788440108 4286338143
-0.2655642033 -0.0976969600 0.5807296634 4286660429
-0.2660153508 -0.0972165987 0.5817162395 4285739327
-0.2664663792 -0.0967340022 0.5827025175 4286061347
-0.2665059865 -0.0961008593 0.5827891231 4286785070
-0.2661340237 -0.0953201130 0.5819757581 4287768878
-0.2661730945 -0.0946873948 0.5820611715 4287834671
-0.2658004463 -0.0939090252 0.5812462568 4288424236
-0.2654274106 -0.0931323394 0.5804305673 4288555822
-0.2654656172 -0.0925007463 0.5805140734 4289015344
-0.2655035555 -0.0918688849 0.5805971026 4289146930
-0.2655412555 -0.0912367553 0.5806795359 4289145645
-0.2655787170 -0.0906043500 0.5807613730 4289408817
-0.2652041018 -0.0898321941 0.5799422264 4289868856
-0.2652409971 -0.0892002434 0.5800228715 4290329407
-0.2652776241 -0.0885680243 0.5801029801 4290265415
-0.2653140128 -0.0879355520 0.5801825523 4290265415
-0.2653501630 -0.0873028189 0.5802615881 4290729052
-0.2657981217 -0.0868044049 0.5812411904 4292768635
-0.2658338249 -0.0861701742 0.5813192725 4292784315
-0.2658692598 -0.0855356827 0.5813967586 4294957797
-0.2597956657 -0.1470605284 0.5694983602 4292930034
-0.2602581680 -0.1466884464 0.5705122352 4292666607
-0.2599121928 -0.1458604187 0.5697538257 4292403435
-0.2599701285 -0.1452597529 0.5698807836 4292271338
-0.2604322433 -0.1448836625 0.5708938241 4292008166
-0.2600853741 -0.1440572143 0.5701334476 4291548126
-0.2601426542 -0.1434553564 0.5702590346 4290758610
-0.2601997554 -0.1428530961 0.5703841448 4290429647
-0.2602566183 -0.1422504485 0.5705088377 4289837510
-0.2603132725 -0.1416473985 0.5706329942 4288587702
-0.2603697181 -0.1410439461 0.5707567334 4287140256
-0.2600209117 -0.1402217001 0.5699921250 4285824143
-0.2600768209 -0.1396184117 0.5701146722 4284639869
-0.2601325214 -0.1390147358 0.5702367425 4283522158
-0.2601879835 -0.1384106874 0.5703583956 4282995814
-0.2598378956 -0.1375915855 0.5695909262 4282798437
-0.2598928511 -0.1369877011 0.5697113872 4282864230
-0.2595420480 -0.1361706555 0.5689424276 4282337886
-0.2591908574 -0.1353551298 0.5681725740 4281614163
-0.2592450082 -0.1347519755 0.5682912469 4281087829
-0.2588931322 -0.1339385211 0.5675199032 4281022036
-0.2589467168 -0.1333355755 0.5676373839 4281087831
-0.2585941553 -0.1325242072 0.5668645501 4281153624
-0.2582412064 -0.1317143440 0.5660908222 4281021784
-0.2578878701 -0.1309060156 0.5653162599 4281021784
-0.2575341165 -0.1300992221 0.5645408630 4281087324
-0.2571800053 -0.1292939484 0.5637645721 4281021531
-0.2568255067 -0.1284902096 0.5629875064 4281153121
-0.2564706206 -0.1276880056 0.5622095466 4281087328
-0.2565219104 -0.1270887554 0.5623219609 4281021282
-0.2561663389 -0.1262886822 0.5615425110 4281021282
-0.2558103800 -0.1254901588 0.5607622266 4281152870
-0.2554540634 -0.1246931702 0.5599811077 4281152870
-0.2550973296 -0.1238977388 0.5591991544 4281152616
-0.2547402382 -0.1231038645 0.5584163666 4281152616
-0.2547897995 -0.1225072443 0.5585249662 4280956259
-0.2544320226 -0.1217155308 0.5577406883 4280956259
-0.2544810176 -0.1211191714 0.5578481555 4280956259
-0.2541225851 -0.1203296259 0.5570623875 4280890466
-0.2537637353 -0.1195416600 0.5562757850 4280890212
-0.2538119555 -0.1189461797 0.5563814640 4280824419
-0.2534524500 -0.1181603968 0.5555933714 4280824419
-0.2530925572 -0.1173761934 0.5548044443 4280824419
-0.2527323067 -0.1165935621 0.5540147424 4280890214
-0.2523716688 -0.1158125252 0.5532242060 4280824421
-0.2524184287 -0.1152191982 0.5533267260 4280758375
-0.2520571351 -0.1144403741 0.5525346994 4280758375
-0.2521033883 -0.1138473600 0.5526360869 4280758375
-0.2521494031 -0.1132540107 0.5527369976 4280824168
-0.2517871261 -0.1124780476 0.5519428849 4280824936
-0.2514244914 -0.1117036790 0.5511478782 4280890729
-0.2514697015 -0.1111112908 0.5512470007 4280693348
-0.2519229949 -0.1106979996 0.5522406697 4280561762
-0.2519678175 -0.1101040095 0.5523389578 4280495971
-0.2511955500 -0.1091547310 0.5506460071 4280495971
-0.2512397766 -0.1085620448 0.5507429838 4280430438
-0.2521009743 -0.1083201617 0.5526308417 4280430438
-0.2521449029 -0.1077249125 0.5527271628 4280365159
-0.2517798841 -0.1069557294 0.5519269705 4280365159
-0.2518232763 -0.1063608378 0.5520220995 4280168033
-0.2518664598 -0.1057656333 0.5521167517 4280299619
-0.2515004873 -0.1049993932 0.5513144732 4280562275
-0.2515431345 -0.1044045463 0.5514079928 4280628068
-0.2515855432 -0.1038093939 0.5515009761 4280693095
-0.2516277432 -0.1032139510 0.5515934825 4280693095
-0.2516697347 -0.1026182026 0.5516854525 4280758638
-0.2517114580 -0.1020221561 0.5517769456 4280824431
-0.2517529726 -0.1014258191 0.5518679619 4280890476
-0.2517942488 -0.1008291841 0.5519584417 4280956269
-0.2522448003 -0.1003952324 0.5529460907 4281612405
-0.2526952326 -0.0999590531 0.5539335012 4282072956
-0.2535551786 -0.0996816754 0.5558186173 4282467968
-0.2540054917 -0.0992400572 0.5568057299 4282928519
-0.2548654675 -0.0989552960 0.5586908460 4283126673
-0.2561352551 -0.0988244787 0.5614743829 4283324052
-0.2578150928 -0.0988446698 0.5651566982 4283980956
-0.2590852380 -0.0987006202 0.5679410100 4284112542
-0.2603555620 -0.0985504389 0.5707256794 4285619084
-0.2616260052 -0.0983941182 0.5735106468 4286079635
-0.2624864280 -0.0980784148 0.5753968358 4287718271
-0.2637570798 -0.0979107916 0.5781822205 4288705166
-0.2642073631 -0.0974344388 0.5791692138 4288373113
-0.2650678158 -0.0971061662 0.5810554624 4286925667
-0.2655178905 -0.0966243595 0.5820420980 4286728530
-0.2655574083 -0.0959919542 0.5821287036 4285675842
-0.2655966580 -0.0953592658 0.5822147727 4285735978
-0.2656356990 -0.0947262943 0.5823003054 4285472806
-0.2652638257 -0.0939476192 0.5814850926 4286850086
-0.2653022707 -0.0933150724 0.5815694332 4287573809
-0.2653405070 -0.0926822498 0.5816531777 4288360237
-0.2649676502 -0.0919066668 0.5808358788 4288360237
-0.2650052905 -0.0912742913 0.5809184313 4289344309
-0.2650426924 -0.0906416401 0.5810003877 4289475895
-0.2650798559 -0.0900087208 0.5810818076 4289804351
-0.2651167512 -0.0893755332 0.5811627507 4290330695
-0.2647423148 -0.0886045024 0.5803419352 4289809238
-0.2647786736 -0.0879717767 0.5804215670 4290269789
-0.2648147643 -0.0873387903 0.5805007219 4291527307
-0.2652618587 -0.0868401825 0.5814808011 4294685371
-0.2652975023 -0.0862056985 0.5815589428 4293581540
-0.2589790821 -0.1456914693 0.5690938830 4292929521
-0.2590368390 -0.1450915188 0.5692208409 4293192442
-0.2590944171 -0.1444911808 0.5693473220 4292600305
-0.2591517568 -0.1438904405 0.5694733858 4292139752
-0.2588051558 -0.1430661082 0.5687116981 4291613408
-0.2588619888 -0.1424655020 0.5688365698 4291219163
-0.2589186132 -0.1418645084 0.5689610243 4290627026
-0.2589749992 -0.1412631273 0.5690849423 4290100428
-0.2590312064 -0.1406613439 0.5692084432 4289442498
-0.2590871751 -0.1400591731 0.5693314075 4288390325
-0.2591429353 -0.1394566000 0.5694539547 4286942879
-0.2587940991 -0.1386370361 0.5686874390 4285560971
-0.2588493526 -0.1380346417 0.5688087940 4284508283
-0.2589043677 -0.1374318600 0.5689297318 4283916146
-0.2589591742 -0.1368286908 0.5690501332 4283652974
-0.2586090565 -0.1360123008 0.5682807565 4283193193
-0.2582585216 -0.1351974010 0.5675105453 4282864228
-0.2583125234 -0.1345949769 0.5676291585 4282074975
-0.2579613030 -0.1337821633 0.5668573976 4281614424
-0.2576097250 -0.1329708695 0.5660848022 4281153875
-0.2576628625 -0.1323692203 0.5662015676 4280956496
-0.2573105991 -0.1315600127 0.5654274821 4280890450
-0.2573632300 -0.1309585571 0.5655431151 4281022036
-0.2570102513 -0.1301514506 0.5647674799 4281153370
-0.2566569149 -0.1293458790 0.5639910102 4281153370
-0.2567087114 -0.1287452281 0.5641048551 4280955740
-0.2559490502 -0.1277393401 0.5624355674 4280955740
-0.2560002506 -0.1271398664 0.5625480413 4280955488
-0.2556454539 -0.1263394803 0.5617684126 4281087074
-0.2552902699 -0.1255406588 0.5609878898 4281218663
-0.2553406358 -0.1249420121 0.5610986352 4281284456
-0.2549847662 -0.1241453290 0.5603166223 4281218409
-0.2550346255 -0.1235469282 0.5604261756 4281218409
-0.2546781003 -0.1227523983 0.5596426725 4280890465
-0.2543211579 -0.1219594330 0.5588583350 4280956258
-0.2543701828 -0.1213618964 0.5589661002 4280956258
-0.2540125847 -0.1205710992 0.5581802726 4280890465
-0.2536545992 -0.1197818741 0.5573936105 4280890466
-0.2532962561 -0.1189942211 0.5566061139 4280824673
-0.2533441484 -0.1183981821 0.5567114353 4280759393
-0.2529851198 -0.1176127195 0.5559224486 4280759393
-0.2522189021 -0.1166407093 0.5542387366 4280759139
-0.2518590391 -0.1158593670 0.5534479618 4280693346
-0.2519057691 -0.1152658239 0.5535506010 4280693350
-0.2519522607 -0.1146719456 0.5536527634 4280627557
-0.2515914142 -0.1138934568 0.5528598428 4280627557
-0.2516373992 -0.1132998914 0.5529608727 4280693350
-0.2516831458 -0.1127059981 0.5530614257 4280759141
-0.2513213456 -0.1119303703 0.5522664189 4280824934
-0.2509591877 -0.1111563519 0.5514705181 4280300647
-0.2514115870 -0.1107429042 0.5524646640 4280234854
-0.2518638968 -0.1103272140 0.5534586310 4280430438
-0.2510932982 -0.1093766019 0.5517652631 4280430438
-0.2511375546 -0.1087827235 0.5518625379 4280757609
-0.2515893579 -0.1083641574 0.5528553128 4280691816
-0.2512253821 -0.1075940281 0.5520555377 4280691814
-0.2512689829 -0.1069992110 0.5521513224 4280823400
-0.2513123155 -0.1064040884 0.5522465706 4280691554
-0.2513554394 -0.1058086529 0.5523413420 4280823140
-0.2509902418 -0.1050421149 0.5515388250 4280889185
-0.2510328293 -0.1044470444 0.5516324043 4280823392
-0.2510752082 -0.1038516685 0.5517255068 4280757860
-0.2511173487 -0.1032559946 0.5518181324 4280757860
-0.2507508993 -0.1024930850 0.5510128736 4280757609
-0.2507925034 -0.1018977836 0.5511043072 4280823402
-0.2512424290 -0.1014671698 0.5520929694 4280561762
-0.2512836456 -0.1008703113 0.5521835685 4280561762
-0.2513246536 -0.1002731472 0.5522736907 4280366703
-0.2517741621 -0.0998377800 0.5532613993 4280827254
-0.2522235513 -0.0994001701 0.5542489290 4282006396
-0.2530817091 -0.0991204530 0.5561347008 4282466947
-0.2539398670 -0.0988365635 0.5580204725 4282665096
-0.2556160688 -0.0988648608 0.5617038012 4282730889
-0.2568834722 -0.0987278670 0.5644888878 4283387791
-0.2581510246 -0.0985847488 0.5672742724 4283585170
-0.2594187260 -0.0984354913 0.5700599551 4284372354
-0.2602773309 -0.0981258079 0.5719467402 4284767112
-0.2615452409 -0.0979652479 0.5747328997 4287063681
-0.2624039054 -0.0976462141 0.5766198039 4289629608
-0.2632625997 -0.0973229855 0.5785067081 4288712609
-0.2641212940 -0.0969955698 0.5803936720 4287988886
-0.2645704448 -0.0965145528 0.5813806057 4287262332
-0.2646098435 -0.0958828777 0.5814672112 4286275437
-0.2646490037 -0.0952509195 0.5815532207 4286597973
-0.2646878958 -0.0946186781 0.5816387534 4285808457
-0.2651363611 -0.0941316485 0.5826241970 4286459441
-0.2651748061 -0.0934978798 0.5827087164 4286262062
-0.2648031414 -0.0927203000 0.5818919539 4287047977
-0.2644310594 -0.0919444114 0.5810743570 4287376942
-0.2644686699 -0.0913117751 0.5811570287 4288096813
-0.2645060420 -0.0906788781 0.5812391043 4288688950
-0.2645431459 -0.0900457129 0.5813206434 4289346372
-0.2645800114 -0.0894122794 0.5814016461 4290201681
-0.2646166086 -0.0887785777 0.5814821124 4289288548
-0.2646529675 -0.0881446227 0.5815619826 4290078064
-0.2646890581 -0.0875103995 0.5816413164 4291008931
-0.2647249401 -0.0868759230 0.5817201138 4294035409
-0.2647605240 -0.0862411857 0.5817983747 4292993515
-0.2577019334 -0.1446969658 0.5676729083 4292863986
-0.2577592432 -0.1440982819 0.5677991509 4292535021
-0.2578163445 -0.1434991956 0.5679249167 4292140778
-0.2574703097 -0.1426764280 0.5671626329 4291811813
-0.2575268745 -0.1420774907 0.5672873259 4291548641
-0.2575832605 -0.1414781511 0.5674114823 4291219676
-0.2576394081 -0.1408784240 0.5675352216 4290759125
-0.2576953471 -0.1402783096 0.5676584244 4290298574
-0.2577510774 -0.1396778077 0.5677812099 4289837769
-0.2578065991 -0.1390769035 0.5679034591 4289048253
-0.2574583590 -0.1382589191 0.5671363473 4287864751
-0.2575133741 -0.1376581788 0.5672575235 4286746270
-0.2575681508 -0.1370570660 0.5673781633 4285430155
-0.2576227188 -0.1364555806 0.5674983859 4284443260
-0.2576770484 -0.1358536929 0.5676181316 4283916401
-0.2573272288 -0.1350394487 0.5668474436 4283587436
-0.2573810518 -0.1344377548 0.5669660568 4282996077
-0.2570305169 -0.1336255819 0.5661938787 4282272354
-0.2570838332 -0.1330240816 0.5663112998 4281811803
-0.2567326128 -0.1322139949 0.5655376315 4281417045
-0.2563810050 -0.1314054281 0.5647631288 4280759117
-0.2564334869 -0.1308047175 0.5648787618 4280495945
-0.2560811937 -0.1299982518 0.5641027093 4280364622
-0.2561331689 -0.1293977499 0.5642171502 4280167243
-0.2561849058 -0.1287968755 0.5643311739 4280430164
-0.2558316290 -0.1279931217 0.5635529757 4280430164
-0.2554779649 -0.1271909028 0.5627739429 4280429398
-0.2551239431 -0.1263902336 0.5619940162 4280495191
-0.2551745474 -0.1257907599 0.5621055365 4280561500
-0.2548198402 -0.1249922290 0.5613241196 4280561500
-0.2548699379 -0.1243930086 0.5614345074 4280495708
-0.2545145154 -0.1235966235 0.5606516004 4280693087
-0.2545641065 -0.1229976565 0.5607607961 4280890465
-0.2542080283 -0.1222034320 0.5599764585 4280824672
-0.2538515627 -0.1214107722 0.5591912270 4280890466
-0.2539003193 -0.1208126694 0.5592985749 4280758880
-0.2535431683 -0.1200221851 0.5585119128 4280824419
-0.2531856596 -0.1192332730 0.5577243567 4280956005
-0.2528277636 -0.1184459403 0.5569359660 4280824421
-0.2528754175 -0.1178493425 0.5570408702 4280956007
-0.2521108687 -0.1168759912 0.5553567410 4280890727
-0.2517518401 -0.1160933971 0.5545659065 4280890727
-0.2513924539 -0.1153123826 0.5537742376 4280890725
-0.2514388859 -0.1147182882 0.5538765192 4280890725
-0.2514851093 -0.1141238660 0.5539783239 4280825443
-0.2511247396 -0.1133457050 0.5531845093 4280759650
-0.2511704564 -0.1127515882 0.5532851815 4280825443
-0.2512159050 -0.1121571511 0.5533853173 4280825443
-0.2508545816 -0.1113818735 0.5525894165 4280759143
-0.2513061762 -0.1109673083 0.5535842180 4280759143
-0.2509442568 -0.1101933196 0.5527869463 4280824936
-0.2505819798 -0.1094209328 0.5519888997 4280824936
-0.2506261766 -0.1088268235 0.5520862341 4280759143
-0.2510770857 -0.1084081084 0.5530795455 4280824936
-0.2507139146 -0.1076376736 0.5522795320 4280759143
-0.2507574558 -0.1070426330 0.5523753762 4280561764
-0.2508007288 -0.1064472869 0.5524708033 4280759143
-0.2508438230 -0.1058516279 0.5525656343 4280693350
-0.2504793704 -0.1050847918 0.5517628789 4280693350
-0.2505219281 -0.1044894904 0.5518565774 4280693350
-0.2505642474 -0.1038938835 0.5519498587 4280693350
-0.2506063581 -0.1032979786 0.5520425439 4280693350
-0.2506482005 -0.1027017757 0.5521348119 4280693095
-0.2502822280 -0.1019392535 0.5513285995 4280758888
-0.2507312596 -0.1015084758 0.5523177385 4280954980
-0.2507724464 -0.1009113863 0.5524084568 4280889187
-0.2508133948 -0.1003139988 0.5524986386 4280824421
-0.2512620091 -0.0998784602 0.5534868836 4281219179
-0.2517105043 -0.0994406864 0.5544748306 4281417081
-0.2521589398 -0.0990006775 0.5554626584 4281680253
-0.2534234226 -0.0988768786 0.5582481027 4282270589
-0.2546880841 -0.0987469479 0.5610339046 4282336382
-0.2559528649 -0.0986108854 0.5638200045 4281547377
-0.2572178245 -0.0984686911 0.5666064620 4282271100
-0.2584829032 -0.0983203650 0.5693932772 4283123588
-0.2593397200 -0.0980115458 0.5712807178 4283452553
-0.2606050372 -0.0978519097 0.5740679502 4286408314
-0.2614619434 -0.0975337327 0.5759555697 4290882238
-0.2623188496 -0.0972113609 0.5778431892 4291539655
-0.2631757855 -0.0968848020 0.5797308683 4291473862
-0.2636239827 -0.0964045748 0.5807181597 4290290604
-0.2636632621 -0.0957736298 0.5808047056 4289303709
-0.2637023032 -0.0951424018 0.5808907151 4287856520
-0.2637411058 -0.0945108980 0.5809761882 4286606453
-0.2641886175 -0.0940246582 0.5819619894 4285751144
-0.2642269731 -0.0933916196 0.5820465088 4285027421
-0.2638560236 -0.0926147103 0.5812293291 4284303441
-0.2638938427 -0.0919821039 0.5813125968 4283711304
-0.2639313936 -0.0913492218 0.5813953280 4283842890
-0.2639687061 -0.0907160714 0.5814775229 4283908683
-0.2640057802 -0.0900826603 0.5815591812 4284435538
-0.2640425861 -0.0894489735 0.5816402435 4285488226
-0.2640791535 -0.0888150260 0.5817208290 4286606707
-0.2641154528 -0.0881808177 0.5818008184 4287922567
-0.2641515136 -0.0875463486 0.5818802118 4290093223
-0.2641873360 -0.0869116187 0.5819591284 4292132806
-0.2642228901 -0.0862766355 0.5820374489 4292927460
-0.2564835846 -0.1431075186 0.5663747787 4292667120
-0.2565402091 -0.1425096989 0.5664998889 4292403948
-0.2565966547 -0.1419114769 0.5666244626 4292140776
-0.2566528618 -0.1413128674 0.5667486191 4291877604
-0.2567088604 -0.1407138705 0.5668722391 4291613921
-0.2563621998 -0.1398948580 0.5661067367 4291284956
-0.2564176917 -0.1392960250 0.5662292838 4290824918
-0.2564729452 -0.1386967897 0.5663513541 4290364367
-0.2565280199 -0.1380971670 0.5664728880 4289837771
-0.2565828562 -0.1374971718 0.5665940046 4289179841
-0.2566374838 -0.1368967742 0.5667146444 4288127923
-0.2566919029 -0.1362960041 0.5668348074 4287141028
-0.2563430369 -0.1354818344 0.5660644174 4286087570
-0.2563969195 -0.1348812431 0.5661834478 4284969089
-0.2564505935 -0.1342802793 0.5663019419 4283785845
-0.2565040588 -0.1336789429 0.5664200187 4283325294
-0.2561539114 -0.1328679770 0.5656467676 4283061609
-0.2558033764 -0.1320585459 0.5648726821 4282601058
-0.2558560073 -0.1314579695 0.5649889708 4281811290
-0.2555047870 -0.1306506395 0.5642133355 4281153360
-0.2555568814 -0.1300502717 0.5643284321 4280693069
-0.2556087971 -0.1294495463 0.5644430518 4280364104
-0.2556604743 -0.1288484633 0.5645571947 4280562003
-0.2553079724 -0.1280443966 0.5637787580 4280496210
-0.2549550831 -0.1272418797 0.5629994869 4280363601
-0.2550059259 -0.1266416013 0.5631117821 4280232015
-0.2546523511 -0.1258412302 0.5623310208 4280298580
-0.2547026873 -0.1252411902 0.5624421835 4280495959
-0.2543484271 -0.1244429499 0.5616598725 4280495707
-0.2543982565 -0.1238431558 0.5617699027 4280561500
-0.2540433109 -0.1230470687 0.5609861016 4280824673
-0.2536880076 -0.1222525463 0.5602014661 4280890466
-0.2537370026 -0.1216536164 0.5603097081 4280956259
-0.2533809841 -0.1208612621 0.5595235825 4280890466
-0.2534294724 -0.1202625930 0.5596306324 4280956259
-0.2530727983 -0.1194724292 0.5588430166 4280956259
-0.2527157664 -0.1186838299 0.5580545664 4280890466
-0.2523583472 -0.1178968176 0.5572652817 4280956259
-0.2520005405 -0.1171113774 0.5564752221 4280956772
-0.2516423762 -0.1163275242 0.5556842685 4280956772
-0.2512838244 -0.1155452505 0.5548925400 4280890979
-0.2513302863 -0.1149499714 0.5549951196 4280890979
-0.2509710789 -0.1141699255 0.5542019010 4280825186
-0.2514225245 -0.1137584299 0.5551988482 4280825186
-0.2506571412 -0.1127971336 0.5535086393 4280824932
-0.2507025301 -0.1122024655 0.5536089540 4280824932
-0.2507477403 -0.1116074845 0.5537087321 4280758626
-0.2507927120 -0.1110121757 0.5538080335 4280824419
-0.2508374453 -0.1104165539 0.5539067984 4280890212
-0.2504760027 -0.1096429080 0.5531086922 4280890212
-0.2501142025 -0.1088708714 0.5523096919 4280759139
-0.2505642176 -0.1084519997 0.5533034801 4280759139
-0.2506079972 -0.1078560799 0.5534000993 4280759141
-0.2502453029 -0.1070860028 0.5525991917 4280693348
-0.2502885461 -0.1064904258 0.5526946783 4280759141
-0.2503315508 -0.1058945432 0.5527896881 4280759141
-0.2499679029 -0.1051274166 0.5519866347 4280759141
-0.2500104010 -0.1045318842 0.5520805120 4280759141
-0.2500526607 -0.1039360538 0.5521738529 4280759141
-0.2500947118 -0.1033399254 0.5522667170 4280759141
-0.2501365244 -0.1027434915 0.5523590446 4280693348
-0.2501780987 -0.1021467596 0.5524508357 4280759141
-0.2502194643 -0.1015497297 0.5525422096 4280955237
-0.2502605915 -0.1009524092 0.5526329875 4280823651
-0.2503015101 -0.1003547907 0.5527233481 4280824419
-0.2503421605 -0.0997568816 0.5528131127 4281153384
-0.2507897317 -0.0993199199 0.5538014770 4281351286
-0.2516444027 -0.0990409777 0.5556887388 4281482872
-0.2529063225 -0.0989171416 0.5584754348 4281876088
-0.2541684508 -0.0987871736 0.5612624288 4281941881
-0.2550233006 -0.0984937325 0.5631501675 4281087340
-0.2562856376 -0.0983524695 0.5659376979 4281679477
-0.2575481236 -0.0982050598 0.5687255263 4282532478
-0.2584031522 -0.0978971049 0.5706136823 4283058822
-0.2596658468 -0.0977383927 0.5734019876 4286343549
-0.2605209947 -0.0974210724 0.5752903223 4291541196
-0.2613761127 -0.0970995650 0.5771786571 4292987612
-0.2622312605 -0.0967738554 0.5790669918 4292724440
-0.2626785040 -0.0962944254 0.5800546408 4291937485
-0.2631256580 -0.0958127603 0.5810419917 4291805899
-0.2631646395 -0.0951812863 0.5811281204 4291608520
-0.2636114657 -0.0946961194 0.5821148157 4291213762
-0.2636500299 -0.0940631106 0.5821999311 4290687931
-0.2632801533 -0.0932851955 0.5813832283 4289964208
-0.2633181810 -0.0926526114 0.5814671516 4289174179
-0.2633559406 -0.0920197517 0.5815505385 4288582042
-0.2633934617 -0.0913866237 0.5816333890 4288319381
-0.2634307146 -0.0907532275 0.5817156434 4288319381
-0.2634677291 -0.0901195556 0.5817974210 4288779932
-0.2635045052 -0.0894856304 0.5818786025 4289635241
-0.2635410130 -0.0888514295 0.5819592476 4290293684
-0.2635772824 -0.0882169679 0.5820393562 4290885821
-0.2636133134 -0.0875822529 0.5821188688 4291806410
-0.2636490762 -0.0869472697 0.5821978450 4292859098
-0.2636846006 -0.0863120332 0.5822762847 4293124839
-0.2548647225 -0.1413001865 0.5641837120 4292798448
-0.2549206018 -0.1407041848 0.5643073916 4292535276
-0.2549762726 -0.1401077807 0.5644305944 4292271849
-0.2550317049 -0.1395109892 0.5645533800 4292008677
-0.2550869584 -0.1389138252 0.5646756291 4291351262
-0.2551419735 -0.1383162588 0.5647974610 4291088090
-0.2551968098 -0.1377183050 0.5649188161 4290890457
-0.2552514076 -0.1371199787 0.5650396943 4290495699
-0.2553057969 -0.1365212500 0.5651600957 4290035150
-0.2553599477 -0.1359221637 0.5652799606 4289574599
-0.2554139197 -0.1353226751 0.5653994083 4288521911
-0.2550653517 -0.1345106512 0.5646278262 4287206051
-0.2551187873 -0.1339113563 0.5647460818 4286219926
-0.2551720142 -0.1333116889 0.5648639202 4285298824
-0.2552250028 -0.1327116489 0.5649812222 4284311929
-0.2552777827 -0.1321112365 0.5650981069 4283588206
-0.2549276352 -0.1313030124 0.5643229485 4283061609
-0.2549799085 -0.1307028085 0.5644387007 4282666851
-0.2546290755 -0.1298967004 0.5636620522 4282074977
-0.2546808124 -0.1292967051 0.5637766123 4281417047
-0.2547323406 -0.1286963373 0.5638906956 4281022036
-0.2547836602 -0.1280956119 0.5640042424 4280956243
-0.2544315457 -0.1272927970 0.5632247925 4280693073
-0.2544823289 -0.1266922951 0.5633372068 4280495694
-0.2541295290 -0.1258916259 0.5625562072 4280364625
-0.2541798055 -0.1252913624 0.5626674891 4280496211
-0.2538262904 -0.1244928241 0.5618849993 4280495957
-0.2538760602 -0.1238928065 0.5619951487 4280495957
-0.2539255917 -0.1232924387 0.5621047616 4280890212
-0.2535711229 -0.1224966645 0.5613201261 4280956005
-0.2532162666 -0.1217024475 0.5605345964 4280824673
-0.2532649934 -0.1211029440 0.5606424212 4280824673
-0.2529094517 -0.1203109100 0.5598554015 4280890465
-0.2529576421 -0.1197116747 0.5599620938 4280890465
-0.2526014447 -0.1189218238 0.5591735840 4280956512
-0.2522448897 -0.1181335449 0.5583842397 4280956512
-0.2518879473 -0.1173468530 0.5575941205 4281088355
-0.2515306175 -0.1165617406 0.5568031073 4281088355
-0.2519818544 -0.1161510870 0.5578020215 4281022564
-0.2512193918 -0.1151817515 0.5561141968 4280956771
-0.2508610189 -0.1144004390 0.5553208590 4280956772
-0.2513116598 -0.1139878407 0.5563184619 4280956772
-0.2513574660 -0.1133903936 0.5564198494 4280890725
-0.2509982288 -0.1126109883 0.5556245446 4280890725
-0.2506385744 -0.1118331850 0.5548284650 4280890466
-0.2506835759 -0.1112366915 0.5549280643 4280890466
-0.2507283390 -0.1106398776 0.5550271273 4280956259
-0.2503677309 -0.1098649725 0.5542289019 4281022052
-0.2500067651 -0.1090916768 0.5534298420 4280956259
-0.2500507236 -0.1084958389 0.5535271168 4280890466
-0.2500944436 -0.1078996956 0.5536239147 4280956259
-0.2501379251 -0.1073032320 0.5537201762 4280956259
-0.2501811981 -0.1067064628 0.5538159609 4280824419
-0.2498186678 -0.1059374064 0.5530134439 4280824419
-0.2498614192 -0.1053409874 0.5531080961 4280824932
-0.2494982332 -0.1045742258 0.5523041487 4280824932
-0.2495404631 -0.1039781719 0.5523976088 4280824932
-0.2491766214 -0.1032137126 0.5515921712 4280824932
-0.2492183149 -0.1026180163 0.5516844988 4280759139
-0.2492597848 -0.1020220295 0.5517762899 4280759139
-0.2493010312 -0.1014257446 0.5518675447 4280956005
-0.2497481257 -0.1009933800 0.5528573394 4280758626
-0.2497889847 -0.1003955379 0.5529477596 4280824419
-0.2498296052 -0.0997973979 0.5530376434 4281087591
-0.2506825626 -0.0995215699 0.5549258590 4281219952
-0.2515355945 -0.0992415547 0.5568141341 4281351538
-0.2519821823 -0.0987979993 0.5578027964 4281744502
-0.2532416880 -0.0986689702 0.5605908632 4281810295
-0.2545013130 -0.0985337943 0.5633792281 4281022062
-0.2557610869 -0.0983924866 0.5661679506 4281285234
-0.2566143572 -0.0980895832 0.5680567622 4282139003
-0.2578743696 -0.0979369655 0.5708460212 4282862726
-0.2587276995 -0.0976247042 0.5727350116 4286213505
-0.2595810592 -0.0973082483 0.5746240616 4291674324
-0.2604343891 -0.0969875902 0.5765130520 4293449703
-0.2612877488 -0.0966627449 0.5784021020 4293186531
-0.2617340684 -0.0961841121 0.5793901086 4292530393
-0.2625873685 -0.0958518460 0.5812790394 4292464600
-0.2626263201 -0.0952201262 0.5813652277 4292267991
-0.2626650333 -0.0945881233 0.5814509392 4292202198
-0.2627034783 -0.0939558446 0.5815360546 4292136405
-0.2627416849 -0.0933232903 0.5816206336 4292136405
-0.2623722553 -0.0925467536 0.5808027983 4292202198
-0.2624098957 -0.0919146314 0.5808861852 4292267991
-0.2624473274 -0.0912822336 0.5809689760 4292005331
-0.2624844909 -0.0906495675 0.5810512304 4291873745
-0.2625213861 -0.0900166407 0.5811329484 4291874515
-0.2625580728 -0.0893834382 0.5812141299 4292203480
-0.2625944912 -0.0887499750 0.5812947750 4292400859
-0.2626306415 -0.0881162509 0.5813748240 4292532445
-0.2622587085 -0.0873464271 0.5805514455 4292861410
-0.2622943223 -0.0867131650 0.5806303024 4293124582
-0.2536486983 -0.1397218257 0.5628758073 4292666862
-0.2537039220 -0.1391267031 0.5629982948 4292403690
-0.2537589073 -0.1385312080 0.5631203651 4292337642
-0.2538137138 -0.1379353106 0.5632418990 4292074470
-0.2538682818 -0.1373390257 0.5633630157 4291680227
-0.2543237805 -0.1369583905 0.5643738508 4291285469
-0.2543780208 -0.1363604069 0.5644941926 4290890457
-0.2544320226 -0.1357620358 0.5646140575 4290824664
-0.2544858158 -0.1351632774 0.5647334456 4290364115
-0.2541379333 -0.1343519092 0.5639613867 4289574599
-0.2541912198 -0.1337533444 0.5640796423 4288982714
-0.2542442977 -0.1331544071 0.5641974211 4288258991
-0.2542971373 -0.1325550824 0.5643147230 4287206049
-0.2543497980 -0.1319554001 0.5644315481 4286021775
-0.2540003061 -0.1311478317 0.5636560321 4284837248
-0.2540524304 -0.1305483580 0.5637716651 4283981939
-0.2537022531 -0.1297428906 0.5629945993 4283258990
-0.2537538707 -0.1291436255 0.5631091595 4282798439
-0.2538052499 -0.1285440028 0.5632231832 4282535526
-0.2538564205 -0.1279440075 0.5633367300 4282206561
-0.2539073825 -0.1273436546 0.5634497404 4281746012
-0.2539581060 -0.1267429292 0.5635623336 4281219668
-0.2536060512 -0.1259419471 0.5627810955 4280824657
-0.2536562681 -0.1253414750 0.5628925562 4280495692
-0.2533035576 -0.1245426312 0.5621098280 4280233038
-0.2533532381 -0.1239423975 0.5622200966 4280233038
-0.2534027100 -0.1233418062 0.5623298287 4280429914
-0.2530490160 -0.1225457340 0.5615449548 4280495707
-0.2526949346 -0.1217512190 0.5607592463 4280495707
-0.2527435720 -0.1211514920 0.5608671904 4280693086
-0.2527920008 -0.1205514222 0.5609746575 4280890719
-0.2524369657 -0.1197597012 0.5601867437 4280956512
-0.2520815432 -0.1189695522 0.5593979955 4281022305
-0.2525325418 -0.1185597628 0.5603988767 4280956512
-0.2517730296 -0.1175824180 0.5587134361 4280890719
-0.2514165640 -0.1167960465 0.5579223633 4280956512
-0.2518669963 -0.1163842902 0.5589219332 4280890978
-0.2519136369 -0.1157847270 0.5590254068 4280890978
-0.2515562475 -0.1150002331 0.5582323670 4280890979
-0.2511985302 -0.1142173409 0.5574384928 4280890979
-0.2512443364 -0.1136187017 0.5575401783 4280890979
-0.2508859336 -0.1128380373 0.5567448735 4280825186
-0.2505271435 -0.1120589748 0.5559486747 4281021281
-0.2505721450 -0.1114612967 0.5560485125 4281021281
-0.2506169379 -0.1108632907 0.5561478734 4281087074
-0.2502571940 -0.1100871265 0.5553495884 4281152867
-0.2503014505 -0.1094894484 0.5554478168 4281152868
-0.2499410361 -0.1087155417 0.5546479821 4281087075
-0.2499847561 -0.1081181988 0.5547450781 4280956259
-0.2500282824 -0.1075205505 0.5548415780 4280956259
-0.2500715554 -0.1069225818 0.5549376607 4280890212
-0.2497098893 -0.1061522663 0.5541350842 4280890212
-0.2493478507 -0.1053835750 0.5533316731 4280890212
-0.2493903190 -0.1047866270 0.5534259081 4280956005
-0.2490276247 -0.1040202305 0.5526210666 4280890725
-0.2490695715 -0.1034236476 0.5527141094 4280890725
-0.2487062216 -0.1026595607 0.5519078374 4280890725
-0.2487476319 -0.1020633429 0.5519997478 4280890725
-0.2487888187 -0.1014668271 0.5520911217 4280890725
-0.2492350489 -0.1010343060 0.5530813336 4280759139
-0.2492758483 -0.1004362330 0.5531718731 4280824419
-0.2501271963 -0.1001625359 0.5550611019 4281087591
-0.2501676679 -0.0995619372 0.5551509261 4281219692
-0.2510189414 -0.0992818177 0.5570400357 4281417071
-0.2514646947 -0.0988380983 0.5580291748 4281875829
-0.2527216077 -0.0987090245 0.5608184338 4282007415
-0.2539786994 -0.0985738114 0.5636080503 4281088368
-0.2548301518 -0.0982759669 0.5654975176 4281285747
-0.2560874522 -0.0981294438 0.5682876110 4282205823
-0.2569389939 -0.0978222415 0.5701773167 4282929546
-0.2577905655 -0.0975108370 0.5720670223 4286675085
-0.2586421371 -0.0971952453 0.5739567280 4292004318
-0.2594937086 -0.0968754515 0.5758464932 4293319657
-0.2603452802 -0.0965514556 0.5777362585 4293122278
-0.2611968517 -0.0962232724 0.5796259642 4292595673
-0.2612358928 -0.0955935419 0.5797125697 4292595673
-0.2612746656 -0.0949635357 0.5797986388 4292596186
-0.2617196143 -0.0944799557 0.5807859898 4292661979
-0.2617579401 -0.0938484147 0.5808711052 4292661979
-0.2617960572 -0.0932165906 0.5809556842 4292661979
-0.2614273429 -0.0924407318 0.5801374316 4292531163
-0.2614648938 -0.0918093398 0.5802207589 4292596956
-0.2615022063 -0.0911776870 0.5803035498 4292597469
-0.2615392506 -0.0905457586 0.5803858042 4292663262
-0.2615760565 -0.0899135619 0.5804675221 4292597983
-0.2616126239 -0.0892810971 0.5805486441 4292729569
-0.2612420321 -0.0885104984 0.5797262192 4292861410
-0.2612780333 -0.0878784955 0.5798061490 4293190375
-0.2524335682 -0.1381481737 0.5615633130 4292863986
-0.2524881065 -0.1375539452 0.5616846681 4292600814
-0.2529426813 -0.1371763945 0.5626958609 4292337644
-0.2529968619 -0.1365804523 0.5628164411 4291877093
-0.2530508637 -0.1359841377 0.5629365444 4291416801
-0.2531046569 -0.1353874505 0.5630561709 4291219422
-0.2531582117 -0.1347903609 0.5631753802 4291022043
-0.2528108954 -0.1339805871 0.5624027252 4290758871
-0.2528639436 -0.1333836913 0.5625207424 4290824403
-0.2529167831 -0.1327864379 0.5626382828 4290495438
-0.2529694140 -0.1321887970 0.5627553463 4290035402
-0.2530218065 -0.1315907985 0.5628719330 4289245886
-0.2530740201 -0.1309924126 0.5629880428 4288061360
-0.2531259954 -0.1303936690 0.5631036758 4286877086
-0.2531777322 -0.1297945529 0.5632187724 4285824143
-0.2532292604 -0.1291950643 0.5633334517 4284968834
-0.2532805800 -0.1285952181 0.5634475946 4284180090
-0.2533316910 -0.1279950142 0.5635613203 4283719539
-0.2533825934 -0.1273944378 0.5636745095 4283127661
-0.2530316114 -0.1265925616 0.5628936887 4282732903
-0.2530819774 -0.1259922236 0.5630057454 4282140770
-0.2531321049 -0.1253915131 0.5631173253 4281482840
-0.2527801692 -0.1245923862 0.5623343587 4281022034
-0.2528297901 -0.1239919290 0.5624447465 4280824655
-0.2528792024 -0.1233911216 0.5625546575 4280430418
-0.2525262535 -0.1225947440 0.5617695451 4280430418
-0.2521729767 -0.1217999309 0.5609835982 4280298578
-0.2522215545 -0.1211999878 0.5610916615 4280364371
-0.2522699237 -0.1205996946 0.5611992478 4280430166
-0.2519156337 -0.1198076680 0.5604111552 4280430166
-0.2515609860 -0.1190172210 0.5596221685 4280627547
-0.2520110905 -0.1186072901 0.5606235266 4280561754
-0.2516558468 -0.1178180799 0.5598332286 4280824672
-0.2517029643 -0.1172179952 0.5599380136 4280890465
-0.2513470352 -0.1164309904 0.5591462255 4280956258
-0.2513936162 -0.1158312038 0.5592498183 4280956258
-0.2514399588 -0.1152310818 0.5593529344 4280956258
-0.2510830760 -0.1144469231 0.5585590005 4280956258
-0.2507258058 -0.1136643663 0.5577642918 4280890465
-0.2507713437 -0.1130651832 0.5578655601 4280824672
-0.2504134178 -0.1122848615 0.5570693016 4280955742
-0.2504584491 -0.1116859913 0.5571694374 4280955742
-0.2505032420 -0.1110867932 0.5572690964 4280955488
-0.2505477965 -0.1104872823 0.5573682189 4281087074
-0.2501886189 -0.1097104996 0.5565692186 4281087074
-0.2498290539 -0.1089353263 0.5557693243 4281087074
-0.2498728037 -0.1083367988 0.5558666587 4281087074
-0.2499163151 -0.1077379510 0.5559634566 4281087074
-0.2499596179 -0.1071387902 0.5560597777 4281022052
-0.2495988011 -0.1063672081 0.5552570820 4281022052
-0.2496415824 -0.1057683975 0.5553522706 4281022052
-0.2492800951 -0.1049991101 0.5545481443 4280956259
-0.2489182651 -0.1042314470 0.5537431836 4280956259
-0.2489602119 -0.1036336645 0.5538365245 4281022052
-0.2490019500 -0.1030355766 0.5539293289 4281021798
-0.2490434349 -0.1024371907 0.5540216565 4281021798
-0.2486803532 -0.1016731858 0.5532138944 4280890979
-0.2487213314 -0.1010751799 0.5533050895 4280825186
-0.2491665632 -0.1006402522 0.5542955399 4280956005
-0.2496117055 -0.1002030820 0.5552858114 4281153384
-0.2500567436 -0.0997636765 0.5562758446 4281350763
-0.2505016923 -0.0993220359 0.5572656989 4281416556
-0.2513512969 -0.0990376323 0.5591557026 4281940854
-0.2522009015 -0.0987490341 0.5610457659 4282204026
-0.2530505657 -0.0984562486 0.5629358888 4281613945
-0.2539002299 -0.0981592759 0.5648260117 4281679738
-0.2551549077 -0.0980136842 0.5676171780 4282337662
-0.2560046613 -0.0977073386 0.5695075989 4283061385
-0.2568544447 -0.0973967984 0.5713979602 4287662237
-0.2577042282 -0.0970820636 0.5732884407 4293123056
-0.2589984834 -0.0962893143 0.5761676431 4293518319
-0.2590374649 -0.0956635475 0.5762543678 4293319909
-0.2598870993 -0.0953349546 0.5781444311 4293122530
-0.2603312135 -0.0948544070 0.5791323781 4292990944
-0.2603696287 -0.0942248628 0.5792178512 4292925151
-0.2604078054 -0.0935950279 0.5793027878 4292925151
-0.2608514428 -0.0931097344 0.5802896619 4292859358
-0.2604834437 -0.0923345461 0.5794710517 4292794335
-0.2605209053 -0.0917038918 0.5795543790 4292794335
-0.2605580986 -0.0910729691 0.5796371102 4292597468
-0.2605950534 -0.0904417783 0.5797193050 4292926433
-0.2606317699 -0.0898103192 0.5798010230 4293124582
-0.2602621913 -0.0890396833 0.5789788365 4293321961
-0.2602983415 -0.0884086788 0.5790593028 4293519340
-0.2516726851 -0.1362021118 0.5612573624 4292666607
-0.2517264187 -0.1356074661 0.5613772273 4292206056
-0.2517799735 -0.1350124478 0.5614966750 4291877091
-0.2518332899 -0.1344170570 0.5616155863 4291679714
-0.2518863976 -0.1338212788 0.5617340207 4291482335
-0.2519392967 -0.1332251132 0.5618519783 4291548126
-0.2519919872 -0.1326285899 0.5619694591 4291219161
-0.2520444393 -0.1320316941 0.5620865226 4291153370
-0.2520967126 -0.1314344108 0.5622030497 4291087577
-0.2521487474 -0.1308367699 0.5623190999 4290627285
-0.2522005737 -0.1302387565 0.5624346733 4290035148
-0.2522521913 -0.1296403706 0.5625497699 4289179841
-0.2523035705 -0.1290416270 0.5626643300 4288192946
-0.2523547411 -0.1284425110 0.5627784729 4287140003
-0.2524057031 -0.1278430223 0.5628920794 4286087315
-0.2524564266 -0.1272431910 0.5630052686 4284903813
-0.2521061599 -0.1264419705 0.5622240901 4284180090
-0.2521563768 -0.1258423626 0.5623360872 4283522162
-0.2522063851 -0.1252423972 0.5624476075 4282864232
-0.2518551052 -0.1244439110 0.5616642237 4282403681
-0.2519046068 -0.1238441914 0.5617746115 4282074716
-0.2519538701 -0.1232441142 0.5618844628 4281679964
-0.2520028949 -0.1226436868 0.5619938374 4281350999
-0.2512490153 -0.1216542423 0.5603125691 4280890450
-0.2512974739 -0.1210550368 0.5604206324 4280429899
-0.2517471910 -0.1206478998 0.5614235997 4280100682
-0.2517952919 -0.1200470403 0.5615308285 4280034889
-0.2514414787 -0.1192553341 0.5607417822 4280297808
-0.2514890432 -0.1186547503 0.5608478785 4280495187
-0.2515363693 -0.1180538237 0.5609534383 4280495189
-0.2511816025 -0.1172649413 0.5601622462 4280560982
-0.2512284219 -0.1166643053 0.5602666736 4280626777
-0.2512750030 -0.1160633266 0.5603705645 4280758363
-0.2509192824 -0.1152772829 0.5595772266 4280693338
-0.2509653568 -0.1146766022 0.5596799850 4280759131
-0.2506089509 -0.1138927862 0.5588851571 4280759131
-0.2506544888 -0.1132924110 0.5589867234 4280759131
-0.2502973974 -0.1125108302 0.5581904054 4280889947
-0.2503424287 -0.1119107679 0.5582908392 4280889947
-0.2503872514 -0.1113103852 0.5583907366 4280955740
-0.2504318357 -0.1107096821 0.5584901571 4281021533
-0.2500734925 -0.1099316329 0.5576910377 4281087326
-0.2501175404 -0.1093312576 0.5577892661 4281087326
-0.2497585416 -0.1085554734 0.5569886565 4281087328
-0.2498020828 -0.1079554334 0.5570857525 4281218914
-0.2498453856 -0.1073550880 0.5571823716 4281218914
-0.2498884797 -0.1067544222 0.5572784543 4281218914
-0.2495282143 -0.1059822291 0.5564749837 4281153121
-0.2491675913 -0.1052116752 0.5556707978 4281153121
-0.2492098510 -0.1046120226 0.5557650328 4280956512
-0.2488485724 -0.1038437709 0.5549593568 4281022305
-0.2488903105 -0.1032444835 0.5550523996 4281022051
-0.2493352890 -0.1028112620 0.5560447574 4281022051
-0.2489731163 -0.1020450145 0.5552370548 4280890978
-0.2490141690 -0.1014448330 0.5553286076 4280890978
-0.2490549982 -0.1008443534 0.5554196835 4281152616
-0.2494993210 -0.1004060507 0.5564105511 4281349995
-0.2495397478 -0.0998040065 0.5565007329 4281481832
-0.2503876686 -0.0995227173 0.5583916903 4281547625
-0.2508316934 -0.0990776941 0.5593819022 4281940852
-0.2516795695 -0.0987889916 0.5612728000 4282269817
-0.2525275052 -0.0984961018 0.5631636977 4281876858
-0.2533754408 -0.0981990173 0.5650547147 4282008444
-0.2542234063 -0.0978977382 0.5669457912 4282271351
-0.2550713718 -0.0975922644 0.5688368082 4283389832
-0.2559193671 -0.0972825885 0.5707279444 4288912558
-0.2590223551 -0.0939694718 0.5776479840 4293584363
-0.2594651580 -0.0934872106 0.5786354542 4293453547
-0.2595029771 -0.0928578377 0.5787197948 4293519340
-0.2504046857 -0.1352303922 0.5598162413 4292995056
-0.2504579723 -0.1346370429 0.5599353909 4292732142
-0.2505110800 -0.1340433210 0.5600541234 4292469228
-0.2505639493 -0.1334492266 0.5601723194 4292074470
-0.2506166101 -0.1328547597 0.5602900386 4292074472
-0.2506690621 -0.1322599053 0.5604072809 4291942886
-0.2507213056 -0.1316646785 0.5605241060 4291811300
-0.2507733107 -0.1310690939 0.5606403947 4291548128
-0.2508251369 -0.1304731220 0.5607562065 4291087836
-0.2508767247 -0.1298767924 0.5608715415 4290890457
-0.2509281039 -0.1292800903 0.5609863997 4290824151
-0.2509792447 -0.1286830306 0.5611007810 4290626772
-0.2510302067 -0.1280855983 0.5612146854 4289969357
-0.2514807284 -0.1276908219 0.5622219443 4289179841
-0.2511314452 -0.1268896610 0.5614410043 4288061875
-0.2511817217 -0.1262911409 0.5615534782 4287074980
-0.2512318194 -0.1256922781 0.5616654158 4286088087
-0.2512816787 -0.1250930429 0.5617768764 4285166985
-0.2509311140 -0.1242952198 0.5609931350 4284310904
-0.2513807416 -0.1238935143 0.5619983077 4283455595
-0.2514299154 -0.1232932210 0.5621083379 4282929253
-0.2510784566 -0.1224972010 0.5613225698 4282666081
-0.2511271536 -0.1218971610 0.5614314079 4282402911
-0.2511756122 -0.1212967783 0.5615397692 4282139739
-0.2512238622 -0.1206960455 0.5616475940 4281810522
-0.2512718737 -0.1200949624 0.5617549419 4281481557
-0.2509188354 -0.1193029583 0.5609657168 4280824142
-0.2509663403 -0.1187021583 0.5610719323 4280495177
-0.2510136366 -0.1181010082 0.5611776114 4280363595
-0.2506596148 -0.1173118204 0.5603861809 4280297802
-0.2507063746 -0.1167109609 0.5604907274 4280363342
-0.2507529259 -0.1161097661 0.5605947971 4280494928
-0.2507992387 -0.1155082360 0.5606983304 4280560723
-0.2504439652 -0.1147225201 0.5599040389 4280560723
-0.2504897714 -0.1141212881 0.5600064397 4280560980
-0.2501338124 -0.1133378074 0.5592107177 4280626773
-0.2497775257 -0.1125559285 0.5584141612 4280692566
-0.2498224974 -0.1119556427 0.5585147142 4280758359
-0.2498672456 -0.1113550365 0.5586147308 4280758359
-0.2499117702 -0.1107541025 0.5587142706 4280692566
-0.2499560714 -0.1101528555 0.5588133335 4280824152
-0.2500001490 -0.1095512882 0.5589118600 4280955738
-0.2500439882 -0.1089494005 0.5590098500 4281021533
-0.2496855408 -0.1081730053 0.5582085252 4281153119
-0.2497288734 -0.1075714603 0.5583053827 4281087326
-0.2497719675 -0.1069696024 0.5584017038 4281087326
-0.2494125515 -0.1061961502 0.5575981736 4281087326
