VERSION 0.7
FIELDS x y z rgba
SIZE 4 4 4 4
TYPE F F F U
COUNT 1 1 1 1
WIDTH 920
HEIGHT 1
VIEWPOINT 0.0 0.0 0.0 1.0 0.0 0.0 0.0
POINTS 920
DATA ascii
-0.2931883037 -0.1248707995 0.5607788563 4290296361
-0.2936976552 -0.1244635880 0.5617530346 4290295333
-0.2942069471 -0.1240541786 0.5627271533 4289966368
-0.2942613363 -0.1234517694 0.5628311634 4290032419
-0.2943154871 -0.1228490248 0.5629347563 4290098212
-0.2948243618 -0.1224348918 0.5639080405 4289770527
-0.2953331470 -0.1220185608 0.5648812056 4289638941
-0.2958418727 -0.1216000319 0.5658542514 4289835291
-0.2963504791 -0.1211793125 0.5668271184 4289835291
-0.2968590260 -0.1207563952 0.5677998066 4289835545
-0.2973675132 -0.1203312799 0.5687723160 4289835545
-0.2983313501 -0.1200873032 0.5706158280 4289639195
-0.2988397181 -0.1196568608 0.5715882182 4289704988
-0.2998036146 -0.1194056869 0.5734318495 4290032159
-0.3007675707 -0.1191504449 0.5752756000 4290295331
-0.3017316163 -0.1188911274 0.5771195292 4290361639
-0.3031515777 -0.1188063994 0.5798354745 4290295846
-0.3050276935 -0.1188934371 0.5834239125 4290494071
-0.3069041967 -0.1189726368 0.5870130658 4292533654
-0.3438096941 -0.1892100126 0.6590018868 4287665814
-0.3434421718 -0.1882763356 0.6582974195 4285429329
-0.3426257372 -0.1870990694 0.6567324996 4284442434
-0.3418085873 -0.1859249324 0.6551662683 4284508689
-0.3396447897 -0.1840246022 0.6510187387 4284442896
-0.3352357745 -0.1809218079 0.6425676942 4285034255
-0.3065849543 -0.1648064405 0.5876508355 4285034255
-0.3003697991 -0.1608257741 0.5757378340 4285100041
-0.2977441847 -0.1587858647 0.5707052350 4285165834
-0.2964647114 -0.1574721485 0.5682527423 4285165833
-0.2960829735 -0.1566388309 0.5675210357 4285165833
-0.2948020399 -0.1553333253 0.5650657415 4285166336
-0.2944192290 -0.1545046121 0.5643320084 4285297922
-0.2940360010 -0.1536773145 0.5635975003 4285429765
-0.2932026386 -0.1526173353 0.5620001554 4285429765
-0.2928184569 -0.1517937630 0.5612637401 4285561094
-0.2933336496 -0.1514361352 0.5622512698 4285626887
-0.2929488122 -0.1506135762 0.5615136027 4285561094
-0.2930136621 -0.1500228941 0.5616378784 4285495301
-0.2926280797 -0.1492022723 0.5608988404 4285495299
-0.2926923633 -0.1486117095 0.5610220432 4285626885
-0.2923060358 -0.1477930397 0.5602815151 4285626885
-0.2923697531 -0.1472026259 0.5604037046 4285626885
-0.2924332619 -0.1466118097 0.5605254173 4285626883
-0.2920458615 -0.1457956284 0.5597828627 4285692676
-0.2921088338 -0.1452049613 0.5599035025 4285758469
-0.2921715379 -0.1446139067 0.5600237250 4285758469
-0.2922340333 -0.1440224946 0.5601435304 4285824262
-0.2918452322 -0.1432093382 0.5593982935 4285890055
-0.2919071615 -0.1426180750 0.5595170259 4285890049
-0.2919688821 -0.1420264244 0.5596352816 4286021635
-0.2915790081 -0.1412158012 0.5588879585 4286219265
-0.2916401625 -0.1406243294 0.5590052009 4286416644
-0.2912495136 -0.1398157030 0.5582564473 4286745089
-0.2913101315 -0.1392244101 0.5583726168 4287008261
-0.2909187376 -0.1384177953 0.5576224327 4287336968
-0.2909787893 -0.1378266811 0.5577375293 4287468554
-0.2910386026 -0.1372351944 0.5578521490 4287665164
-0.2906461656 -0.1364311725 0.5570999384 4287928336
-0.2907054126 -0.1358398795 0.5572134852 4287993618
-0.2907644212 -0.1352482289 0.5573266149 4287927825
-0.2903709114 -0.1344467849 0.5565723777 4288125202
-0.2904293537 -0.1338553429 0.5566844344 4288125202
-0.2904875875 -0.1332635283 0.5567960143 4287927565
-0.2905455828 -0.1326713711 0.5569071770 4287861772
-0.2910559773 -0.1322845817 0.5578854680 4287862543
-0.2911135852 -0.1316908002 0.5579959154 4288125715
-0.2911709547 -0.1310966462 0.5581058264 4288520211
-0.2912280858 -0.1305021644 0.5582153797 4288520211
-0.2912849784 -0.1299073100 0.5583243966 4288388877
-0.2913416326 -0.1293121278 0.5584329963 4288454670
-0.2918512225 -0.1289167702 0.5594097972 4288520463
-0.2919074893 -0.1283199489 0.5595176220 4288717842
-0.2919635177 -0.1277227998 0.5596250296 4288718103
-0.2920193076 -0.1271253079 0.5597319603 4288783896
-0.2925283909 -0.1267239302 0.5607077479 4288849689
-0.2925837934 -0.1261248291 0.5608139038 4288783896
-0.2926389277 -0.1255253702 0.5609196424 4288914967
-0.2931476235 -0.1251192689 0.5618946552 4289046553
-0.2932023704 -0.1245182231 0.5619996190 4289375258
-0.2937108576 -0.1241086498 0.5629742146 4289638430
-0.2937651873 -0.1235059947 0.5630784035 4289770019
-0.2942734063 -0.1230929643 0.5640525222 4289770019
-0.2943273485 -0.1224887073 0.5641559362 4289638943
-0.2948353291 -0.1220722124 0.5651296377 4289507357
-0.2953432500 -0.1216535270 0.5661031604 4289769498
-0.2958510816 -0.1212326363 0.5670765042 4289769498
-0.2963587940 -0.1208095476 0.5680497289 4289769752
-0.2973210812 -0.1205686256 0.5698941946 4289835545
-0.2982834280 -0.1203236282 0.5717387795 4289507609
-0.2987910509 -0.1198920757 0.5727117658 4289639195
-0.2997534573 -0.1196398735 0.5745564699 4290032413
-0.3002609909 -0.1192029864 0.5755293369 4290163999
-0.3016784787 -0.1191232502 0.5782462955 4290230053
-0.3026410639 -0.1188588291 0.5800913572 4290559018
-0.3036037087 -0.1185903251 0.5819365382 4291020417
-0.3050216734 -0.1184946001 0.5846544504 4292533656
-0.3414345086 -0.1883037388 0.6558454037 4287402638
-0.3410672545 -0.1873732805 0.6551399827 4285560913
-0.3406995237 -0.1864441484 0.6544336677 4284508225
-0.3394357562 -0.1850281358 0.6520060897 4284442898
-0.3363794386 -0.1826442331 0.6461353898 4284442898
-0.3310813606 -0.1790609360 0.6359585524 4285165842
-0.3047190905 -0.1641529053 0.5853205323 4285034256
-0.2994107008 -0.1606542617 0.5751238465 4285100040
-0.2972378433 -0.1588540077 0.5709501505 4285165833
-0.2946153283 -0.1568236798 0.5659126639 4285231624
-0.2942339778 -0.1559927315 0.5651801825 4285231624
-0.2938522100 -0.1551631987 0.5644468665 4285166082
-0.2934700251 -0.1543350667 0.5637127161 4285166082
-0.2930874228 -0.1535083354 0.5629777908 4285298182
-0.2931532860 -0.1529171914 0.5631043315 4285363975
-0.2927699089 -0.1520923823 0.5623679161 4285363975
-0.2924511433 -0.1506784707 0.5617555976 4285363974
-0.2925159335 -0.1500875652 0.5618799925 4285363974
-0.2921310365 -0.1492666155 0.5611407161 4285495047
-0.2917457521 -0.1484471112 0.5604006648 4285626633
-0.2918096483 -0.1478568465 0.5605233908 4285561094
-0.2918733358 -0.1472661942 0.5606456995 4285495301
-0.2919367850 -0.1466751546 0.5607675910 4285429508
-0.2915500998 -0.1458586454 0.5600247979 4285429508
-0.2916130126 -0.1452677548 0.5601456165 4285495301
-0.2916756570 -0.1446764767 0.5602660179 4285561094
-0.2912878990 -0.1438624710 0.5595211983 4285626885
-0.2913500071 -0.1432713419 0.5596405268 4285692678
-0.2914119065 -0.1426798403 0.5597593784 4285824002
-0.2914735675 -0.1420879662 0.5598778129 4285955588
-0.2910844088 -0.1412770301 0.5591303110 4286153472
-0.2911455035 -0.1406853199 0.5592476726 4286285058
-0.2912063897 -0.1400932372 0.5593645573 4286547712
-0.2908161283 -0.1392848343 0.5586149693 4286745089
-0.2904254794 -0.1384779066 0.5578646064 4287073796
-0.2904854715 -0.1378865540 0.5579798222 4287271175
-0.2905452251 -0.1372948438 0.5580946207 4287533578
-0.2901535034 -0.1364904940 0.5573421717 4287796750
-0.2902126908 -0.1358989626 0.5574558973 4287862032
-0.2902716696 -0.1353070736 0.5575691462 4287862032
-0.2898788750 -0.1345053166 0.5568146706 4287993616
-0.2899372876 -0.1339136362 0.5569268465 4287993616
-0.2899954617 -0.1333215982 0.5570386052 4288059151
-0.2900533974 -0.1327292025 0.5571498871 4288059151
-0.2901110947 -0.1321364492 0.5572606921 4287862289
-0.2906205356 -0.1317482442 0.5582392812 4287730703
-0.2906778753 -0.1311538517 0.5583493710 4287862543
-0.2907349467 -0.1305591315 0.5584590435 4287994129
-0.2907918096 -0.1299640387 0.5585682392 4287863312
-0.2908484042 -0.1293686181 0.5586769581 4287665933
-0.2909047902 -0.1287728399 0.5587852597 4287796747
-0.2914134264 -0.1283760518 0.5597622991 4288059919
-0.2914693952 -0.1277786642 0.5598698258 4288257552
-0.2915251553 -0.1271809340 0.5599768758 4288586517
-0.2920334041 -0.1267794073 0.5609531999 4289046555
-0.2920887470 -0.1261800528 0.5610594749 4288980762
-0.2925967872 -0.1257750690 0.5620353818 4288717842
-0.2926517427 -0.1251741052 0.5621408820 4288652049
-0.2931595445 -0.1247656420 0.5631163120 4288915731
-0.2932140827 -0.1241630763 0.5632210970 4289244696
-0.2937216759 -0.1237511486 0.5641961098 4289375258
-0.2937758267 -0.1231469810 0.5643000603 4289309465
-0.2942831516 -0.1227315962 0.5652745962 4289309976
-0.2943368852 -0.1221258268 0.5653778315 4289375769
-0.2948439717 -0.1217069700 0.5663518906 4289572121
-0.2953509986 -0.1212859154 0.5673257709 4289637914
-0.2963116765 -0.1210480407 0.5691711307 4289703707
-0.2968186140 -0.1206216514 0.5701448321 4289703707
-0.2977793515 -0.1203765646 0.5719903111 4289507355
-0.2982861996 -0.1199448481 0.5729638338 4289638941
-0.2992470264 -0.1196925491 0.5748094320 4290032413
-0.3002079129 -0.1194361821 0.5766552091 4290032413
-0.3011688590 -0.1191757396 0.5785010457 4290098212
-0.3034928739 -0.1194476560 0.5829651356 4290887728
-0.3039997816 -0.1189983636 0.5839387774 4291480715
-0.3049610555 -0.1187238023 0.5857852697 4292533403
-0.3395113945 -0.1876434535 0.6535456777 4287271306
-0.3391445279 -0.1867153347 0.6528394818 4285560913
-0.3383302391 -0.1855434328 0.6512720585 4284771397
-0.3375153244 -0.1843746454 0.6497033238 4284573971
-0.3340168297 -0.1817491502 0.6429688931 4284376592
-0.3273856938 -0.1774407327 0.6302042603 4285034256
-0.3033044934 -0.1637401879 0.5838488936 4284968463
-0.2988999188 -0.1607230902 0.5753702521 4285100040
-0.2967308462 -0.1589221060 0.5711948872 4285165833
-0.2950081825 -0.1573685259 0.5678787827 4285165831
-0.2941799760 -0.1562975496 0.5662845969 4285100038
-0.2937990129 -0.1554667801 0.5655512214 4284968706
-0.2934176326 -0.1546374261 0.5648170710 4284837120
-0.2930358350 -0.1538094580 0.5640821457 4285034756
-0.2926535904 -0.1529829204 0.5633463264 4285232135
-0.2922709286 -0.1521577835 0.5626097322 4285297928
-0.2923362255 -0.1515665352 0.5627353787 4285363721
-0.2919528186 -0.1507433206 0.5619973540 4285297928
-0.2920175493 -0.1501521915 0.5621219277 4285297928
-0.2916333675 -0.1493309140 0.5613824725 4285363462
-0.2912487984 -0.1485110819 0.5606421232 4285495048
-0.2913126349 -0.1479205936 0.5607650280 4285495047
-0.2913762629 -0.1473297179 0.5608875155 4285429254
-0.2909906209 -0.1465123445 0.5601451397 4285298181
-0.2910536826 -0.1459216028 0.5602665544 4285298181
-0.2911165357 -0.1453304887 0.5603875518 4285429254
-0.2907297909 -0.1445156187 0.5596430898 4285495047
-0.2907921076 -0.1439246535 0.5597630143 4285561094
-0.2908541560 -0.1433333009 0.5598825216 4285626887
-0.2909159958 -0.1427415758 0.5600015521 4285758209
-0.2905278802 -0.1419297606 0.5592544079 4285955588
-0.2905891538 -0.1413381994 0.5593723655 4286153472
-0.2906502187 -0.1407462507 0.5594899058 4286219265
-0.2902610004 -0.1399369836 0.5587407351 4286416128
-0.2903214991 -0.1393452287 0.5588571429 4286547712
-0.2903817892 -0.1387530863 0.5589731932 4286876417
-0.2899914980 -0.1379463822 0.5582219362 4287073796
-0.2900512218 -0.1373544335 0.5583368540 4287401992
-0.2896602154 -0.1365497559 0.5575841665 4287599371
-0.2892687917 -0.1357465535 0.5568307042 4287664651
-0.2893276215 -0.1351553649 0.5569439530 4287664651
-0.2893862128 -0.1345638037 0.5570567250 4287730444
-0.2894445658 -0.1339718848 0.5571690798 4287796237
-0.2895026803 -0.1333796084 0.5572809577 4287862029
-0.2895605862 -0.1327869743 0.5573924184 4287796236
-0.2896182239 -0.1321939826 0.5575034022 4287598858
-0.2896756530 -0.1316006482 0.5576139092 4287664651
-0.2901841402 -0.1312110126 0.5585927367 4287730703
-0.2902411819 -0.1306160539 0.5587025285 4287796496
-0.2902979851 -0.1300207227 0.5588118434 4287797264
-0.2903545499 -0.1294250637 0.5589207411 4287994643
-0.2904108763 -0.1288290471 0.5590291619 4288060689
-0.2909186780 -0.1284321100 0.5600066781 4288192275
-0.2909746170 -0.1278344840 0.5601143837 4288322830
-0.2910303175 -0.1272365004 0.5602216125 4288520209
-0.2915377617 -0.1268348247 0.5611984134 4288848914
-0.2915930748 -0.1262352318 0.5613048673 4288914707
-0.2921002805 -0.1258300841 0.5622812510 4288783632
-0.2921552062 -0.1252288818 0.5623869300 4288783632
-0.2926622033 -0.1248202696 0.5633628964 4288784145
-0.2927166820 -0.1242174581 0.5634678006 4288784145
-0.2932234704 -0.1238053739 0.5644432902 4289243154
-0.2937301397 -0.1233910844 0.5654186606 4289243154
-0.2937840819 -0.1227854043 0.5655224919 4289178133
-0.2942905128 -0.1223676503 0.5664973259 4289309719
-0.2943440378 -0.1217603758 0.5666003823 4289506330
-0.2953031659 -0.1215255484 0.5684466362 4289572123
-0.2958093584 -0.1211011931 0.5694210529 4289703709
-0.2967685461 -0.1208591536 0.5712674260 4289703709
-0.2972746491 -0.1204294637 0.5722416639 4289441562
-0.2982338965 -0.1201802120 0.5740882158 4289573148
-0.2987399101 -0.1197451800 0.5750622153 4290097952
-0.2996992171 -0.1194887236 0.5769088864 4290032159
-0.3006585836 -0.1192281768 0.5787556171 4290295595
-0.3020715714 -0.1191424504 0.5814755559 4291282490
-0.3034847975 -0.1190507635 0.5841959715 4291743638
-0.3044444919 -0.1187760979 0.5860433578 4292598947
-0.3375921249 -0.1869824529 0.6512435079 4287337099
-0.3372256160 -0.1860566884 0.6505365372 4285758545
-0.3364125192 -0.1848870069 0.6489679813 4285100615
-0.3355987072 -0.1837204546 0.6473981142 4284640018
-0.3321059942 -0.1810965687 0.6406603456 4284245260
-0.3241465092 -0.1760615408 0.6253058314 4284902412
-0.3023388982 -0.1635686159 0.5832371116 4284902412
-0.2979418039 -0.1605511457 0.5747547150 4284968452
-0.2962231934 -0.1589901298 0.5714393854 4285034245
-0.2945035100 -0.1574359238 0.5681220293 4285034247
-0.2936767936 -0.1563645303 0.5665271878 4285034247
-0.2932965457 -0.1555334330 0.5657936931 4284836868
-0.2929158807 -0.1547037363 0.5650593042 4284573696
-0.2920874953 -0.1536401659 0.5634612441 4284836866
-0.2921532691 -0.1530485898 0.5635881424 4285100038
-0.2917712927 -0.1522231251 0.5628513098 4285232137
-0.2918365300 -0.1516316384 0.5629771352 4285297930
-0.2914538383 -0.1508081108 0.5622388721 4285297930
-0.2915185094 -0.1502167583 0.5623636842 4285232137
-0.2911350429 -0.1493951678 0.5616239309 4285231876
-0.2907511890 -0.1485749930 0.5608834028 4285231876
-0.2908149958 -0.1479842812 0.5610064864 4285363462
-0.2908785641 -0.1473931819 0.5611291528 4285363462
-0.2909418941 -0.1468016803 0.5612513423 4285363461
-0.2905566394 -0.1459845155 0.5605081320 4285363461
-0.2906194329 -0.1453931779 0.5606292486 4285429254
-0.2906819880 -0.1448014379 0.5607499480 4285495047
-0.2902956605 -0.1439867765 0.5600046515 4285561094
-0.2903576791 -0.1433952004 0.5601242781 4285626887
-0.2904194593 -0.1428032517 0.5602434874 4285824003
-0.2904810011 -0.1422109157 0.5603622198 4285955589
-0.2900932729 -0.1413993090 0.5596142411 4286218496
-0.2901542783 -0.1408071518 0.5597319603 4286284289
-0.2902150452 -0.1402146071 0.5598491430 4286416128
-0.2898262441 -0.1394055635 0.5590991378 4286613505
-0.2898864448 -0.1388131976 0.5592153072 4286810369
-0.2894968987 -0.1380061656 0.5584638119 4287007748
-0.2895565629 -0.1374139786 0.5585789084 4287204359
-0.2891662717 -0.1366089731 0.5578259826 4287401738
-0.2887755632 -0.1358054578 0.5570722818 4287467531
-0.2888343334 -0.1352140158 0.5571857095 4287533324
-0.2884429097 -0.1344125420 0.5564305782 4287730444
-0.2885011137 -0.1338213086 0.5565428734 4287796237
-0.2885591090 -0.1332297176 0.5566547513 4287862029
-0.2886168659 -0.1326377839 0.5567661524 4287730443
-0.2886743844 -0.1320454776 0.5568770766 4287401738
-0.2887316644 -0.1314528286 0.5569875836 4287533324
-0.2892392278 -0.1310639828 0.5579667687 4287796239
-0.2892961204 -0.1304696947 0.5580765009 4287796239
-0.2893528044 -0.1298750639 0.5581858158 4287862029
-0.2898600101 -0.1294814646 0.5591642857 4288190994
-0.2899163067 -0.1288852096 0.5592728853 4288257550
-0.2899723351 -0.1282886118 0.5593809485 4288257550
-0.2900281549 -0.1276916713 0.5594885945 4288454669
-0.2905348539 -0.1272920370 0.5604661107 4288520462
-0.2910414934 -0.1268902123 0.5614434481 4288585742
-0.2915480435 -0.1264861673 0.5624206662 4288585742
-0.2916031480 -0.1258850694 0.5625269413 4288651535
-0.2916580141 -0.1252836287 0.5626327395 4288717328
-0.2921641767 -0.1248748451 0.5636092424 4288717842
-0.2922186255 -0.1242717952 0.5637142658 4288717842
-0.2927245796 -0.1238595471 0.5646902919 4289046545
-0.2932304442 -0.1234451011 0.5656661391 4289046545
-0.2937362492 -0.1230284497 0.5666418672 4289178133
-0.2937899828 -0.1224212572 0.5667455196 4289309719
-0.2947475910 -0.1221885458 0.5685928464 4289571868
-0.2948009968 -0.1215788200 0.5686958432 4289571868
-0.2953063548 -0.1211543009 0.5696707964 4289572637
-0.2962639630 -0.1209121794 0.5715180635 4289572637
-0.2967692614 -0.1204823181 0.5724928379 4289375769
-0.2977269292 -0.1202329770 0.5743402243 4289507355
-0.2986846566 -0.1199795604 0.5761877894 4290097954
-0.2996424735 -0.1197220683 0.5780354738 4290295333
-0.3006003499 -0.1194604859 0.5798832774 4290887227
-0.3015582860 -0.1191948280 0.5817312002 4291742536
-0.3043277264 -0.1196372136 0.5870737433 4291677860
-0.3057390451 -0.1195367202 0.5897962451 4292664755
-0.3361218870 -0.1865678877 0.6497995853 4287600271
-0.3357558846 -0.1856435388 0.6490920186 4286021713
-0.3349440396 -0.1844752133 0.6475225091 4285297990
-0.3332404792 -0.1828211695 0.6442291737 4284574475
-0.3297533989 -0.1801998019 0.6374878287 4284311303
-0.3173500597 -0.1727401316 0.6135094166 4284902410
-0.3013741374 -0.1633967608 0.5826243162 4284902410
-0.2974304855 -0.1606197506 0.5750003457 4284902659
-0.2952688634 -0.1588182002 0.5708214045 4284968452
-0.2939982116 -0.1575032622 0.5683649778 4285034247
-0.2931729853 -0.1564314365 0.5667695999 4285100040
-0.2927934527 -0.1556000113 0.5660358667 4284902662
-0.2924134731 -0.1547700018 0.5653013587 4284573697
-0.2915865481 -0.1537059993 0.5637027025 4284705280
-0.2912056446 -0.1528797150 0.5629662871 4285034245
-0.2912710309 -0.1522884071 0.5630927086 4285100551
-0.2913362086 -0.1516967118 0.5632187128 4285166344
-0.2909542024 -0.1508728564 0.5624802709 4285297417
-0.2905718088 -0.1500504166 0.5617409348 4285231624
-0.2906360924 -0.1494593471 0.5618652701 4285100290
-0.2907001674 -0.1488678902 0.5619891286 4285034497
-0.2903166711 -0.1480479240 0.5612477660 4285166082
-0.2903802097 -0.1474565864 0.5613705516 4285231875
-0.2904434800 -0.1468648612 0.5614929199 4285297668
-0.2905065715 -0.1462727636 0.5616148114 4285297668
-0.2901216745 -0.1454558074 0.5608707666 4285363461
-0.2901841998 -0.1448638439 0.5609916449 4285429254
-0.2902464867 -0.1442715079 0.5611120462 4285560581
-0.2898605168 -0.1434570551 0.5603659153 4285626374
-0.2899222672 -0.1428648680 0.5604852438 4285954821
-0.2899837494 -0.1422723085 0.5606041551 4286086407
-0.2895967364 -0.1414603889 0.5598559380 4286152449
-0.2896576822 -0.1408679783 0.5599737763 4286284035
-0.2897184193 -0.1402752101 0.5600911379 4286481920
-0.2893303335 -0.1394658387 0.5593408942 4286679298
-0.2893904746 -0.1388732493 0.5594571829 4286941955
-0.2890016437 -0.1380658895 0.5587055087 4287073541
-0.2890612781 -0.1374734789 0.5588207245 4287138566
-0.2886717021 -0.1366681457 0.5580676198 4287335945
-0.2882817090 -0.1358643025 0.5573136806 4287401738
-0.2883404195 -0.1352726370 0.5574272275 4287467531
-0.2883989215 -0.1346806139 0.5575402975 4287533065
-0.2880078852 -0.1338793635 0.5567843318 4287533065
-0.2880658209 -0.1332875490 0.5568963289 4287533064
-0.2881235182 -0.1326953620 0.5570078492 4287401478
-0.2881809771 -0.1321028322 0.5571189523 4287270670
-0.2882382274 -0.1315099448 0.5572296381 4287270670
-0.2887449861 -0.1311209500 0.5582093000 4287730192
-0.2888018489 -0.1305264384 0.5583192110 4287861778
-0.2888584435 -0.1299315691 0.5584286451 4287927563
-0.2893648446 -0.1295378208 0.5594076514 4287993356
-0.2894210815 -0.1289413273 0.5595163703 4287994119
-0.2894770801 -0.1283444911 0.5596246123 4287994119
-0.2895328403 -0.1277472973 0.5597323775 4288126215
-0.2900387347 -0.1273475289 0.5607103705 4288389387
-0.2905445397 -0.1269455403 0.5616882443 4288520463
-0.2910502851 -0.1265413463 0.5626659989 4288388877
-0.2911053300 -0.1259400100 0.5627723932 4288519698
-0.2916108668 -0.1255323440 0.5637497306 4288519698
-0.2916655242 -0.1249293834 0.5638553500 4288847895
-0.2917199433 -0.1243260875 0.5639605522 4289111067
-0.2922250628 -0.1239136830 0.5649371147 4288914961
-0.2927301228 -0.1234990731 0.5659134984 4288980754
-0.2932350934 -0.1230822578 0.5668897033 4289046293
-0.2932887673 -0.1224748194 0.5669934750 4289177879
-0.2942447960 -0.1222420260 0.5688416958 4289440282
-0.2947495282 -0.1218186095 0.5698174834 4289506075
-0.2952541709 -0.1213929802 0.5707930326 4289375258
-0.2957587540 -0.1209651530 0.5717684627 4289506844
-0.2967148423 -0.1207188666 0.5736168027 4289376280
-0.2972193062 -0.1202856973 0.5745920539 4289376280
-0.2981754541 -0.1200321838 0.5764405131 4289966881
-0.2991316617 -0.1197745949 0.5782890916 4290361639
-0.3000879586 -0.1195129231 0.5801377892 4291216711
-0.3014962971 -0.1194262207 0.5828604698 4291940434
-0.3029048741 -0.1193335429 0.5855835676 4291743663
-0.3342095613 -0.1859056056 0.6474928856 4288323483
-0.3338439465 -0.1849835962 0.6467845440 4286284634
-0.3330332339 -0.1838175058 0.6452139020 4285560911
-0.3308876455 -0.1819209754 0.6410570145 4284706585
-0.3265165091 -0.1788149029 0.6325885057 4284246034
-0.3110193610 -0.1696584672 0.6025645137 4284640519
-0.3004102707 -0.1632246524 0.5820106268 4284772105
-0.2969185114 -0.1606883109 0.5752457380 4284837126
-0.2947606444 -0.1588860005 0.5710651278 4284968712
-0.2934922576 -0.1575705409 0.5686078072 4285100038
-0.2926685214 -0.1564982831 0.5670118332 4284968452
-0.2922896743 -0.1556665450 0.5662779212 4284968193
-0.2919104397 -0.1548362076 0.5655431747 4284639232
-0.2910849750 -0.1537717879 0.5639439225 4284771073
-0.2911506593 -0.1531797498 0.5640711784 4284836866
-0.2907701135 -0.1523536444 0.5633339286 4284902659
-0.2904539406 -0.1509375274 0.5627213717 4284968706
-0.2900722623 -0.1501147747 0.5619819164 4284968706
-0.2901364863 -0.1495234817 0.5621063709 4285034497
-0.2902005017 -0.1489317864 0.5622303486 4285034497
-0.2902643085 -0.1483397186 0.5623539686 4285100290
-0.2898811996 -0.1475199461 0.5616117716 4285231876
-0.2899444401 -0.1469279975 0.5617342591 4285297669
-0.2900074422 -0.1463356614 0.5618563294 4285363462
-0.2896232903 -0.1455183774 0.5611120462 4285429254
-0.2896857560 -0.1449261904 0.5612331033 4285429254
-0.2897479832 -0.1443336308 0.5613536239 4285561092
-0.2898099720 -0.1437406689 0.5614737868 4285692678
-0.2894244194 -0.1429264396 0.5607268214 4285824005
-0.2890384495 -0.1421136558 0.5599790215 4285889798
-0.2890995741 -0.1415213943 0.5600974560 4286152453
-0.2891604602 -0.1409287751 0.5602154136 4286284039
-0.2892211378 -0.1403357685 0.5603329539 4286415875
-0.2888337672 -0.1395260692 0.5595824718 4286547461
-0.2888938785 -0.1389332414 0.5596989393 4286876166
-0.2885057628 -0.1381255686 0.5589470267 4287073545
-0.2881172299 -0.1373193562 0.5581942797 4286941441
-0.2881764770 -0.1367272735 0.5583090186 4287138820
-0.2877871990 -0.1359231025 0.5575549006 4287138817
-0.2878458798 -0.1353311986 0.5576685667 4287270403
-0.2879043221 -0.1347389370 0.5577817559 4287467525
-0.2879625261 -0.1341463178 0.5578945875 4287533318
-0.2875718772 -0.1333453208 0.5571377277 4287664650
-0.2876295447 -0.1327529103 0.5572494268 4287598857
-0.2876869738 -0.1321601421 0.5573606491 4287467785
-0.2877441347 -0.1315670311 0.5574714541 4287467785
-0.2882500887 -0.1311778724 0.5584516525 4287665164
-0.2883068919 -0.1305831224 0.5585616827 4287928336
-0.2883634567 -0.1299880296 0.5586712956 4288059408
-0.2888690531 -0.1295941174 0.5596508384 4287927822
-0.2889252305 -0.1289974004 0.5597596765 4287928076
-0.2889811695 -0.1284003109 0.5598680377 4287993869
-0.2890368700 -0.1278028935 0.5599759817 4288257039
-0.2895419598 -0.1274029613 0.5609545112 4288454418
-0.2900469601 -0.1270008236 0.5619328618 4288454416
-0.2905518711 -0.1265964806 0.5629111528 4288454416
-0.2906068861 -0.1259948909 0.5630176663 4288651536
-0.2911115885 -0.1255870759 0.5639954805 4288651536
-0.2911662161 -0.1249838695 0.5641012788 4288717328
-0.2916706800 -0.1245725751 0.5650786757 4288914707
-0.2917248905 -0.1239677668 0.5651836991 4288914961
-0.2922291160 -0.1235530004 0.5661605597 4288980754
-0.2931836247 -0.1233254597 0.5680098534 4289046543
-0.2932373583 -0.1227168441 0.5681139231 4289178129
-0.2937413454 -0.1222954616 0.5690903664 4289636885
-0.2942452729 -0.1218718737 0.5700666308 4289702678
-0.2947491109 -0.1214460880 0.5710427165 4289637401
-0.2952528298 -0.1210180894 0.5720186830 4289703194
-0.2962073386 -0.1207717136 0.5738679171 4289309978
-0.2971619070 -0.1205212548 0.5757173300 4289704736
-0.2981165648 -0.1202667132 0.5775668025 4290032672
-0.2990712821 -0.1200080886 0.5794164538 4290624809
-0.3000260293 -0.1197453812 0.5812662244 4291216984
-0.3014321029 -0.1196577176 0.5839903355 4291874914
-0.3023870885 -0.1193858981 0.5858404636 4291547573
-0.3327447772 -0.1854899377 0.6460452080 4288915620
-0.3319358826 -0.1843229532 0.6444746852 4286745187
-0.3311263323 -0.1831590980 0.6429028511 4286021464
-0.3285402060 -0.1810198873 0.6378817558 4285035552
-0.3237321973 -0.1776724011 0.6285467148 4284640794
-0.3078171611 -0.1682737917 0.5976466537 4284706312
-0.2994472682 -0.1630522758 0.5813959837 4284706312
-0.2964058816 -0.1607567966 0.5754909515 4284837126
-0.2942517996 -0.1589537561 0.5713086724 4284902919
-0.2929856777 -0.1576377600 0.5688503385 4284836868
-0.2921634018 -0.1565650851 0.5672538280 4284771075
-0.2917852700 -0.1557330191 0.5665197372 4284836609
-0.2914067209 -0.1549023539 0.5657847524 4284705024
-0.2910277545 -0.1540730894 0.5650489330 4284836868
-0.2906483710 -0.1532452404 0.5643123388 4284836868
-0.2907137573 -0.1526525915 0.5644392967 4284836868
-0.2903335989 -0.1518266648 0.5637012124 4284836868
-0.2899530530 -0.1510021538 0.5629623532 4284902659
-0.2904630601 -0.1506411731 0.5639525056 4284968452
-0.2896362543 -0.1495875567 0.5623472333 4285034499
-0.2897002101 -0.1489956379 0.5624713898 4285034499
-0.2897639275 -0.1484033465 0.5625951290 4285100292
-0.2898274362 -0.1478106380 0.5627184510 4285166085
-0.2894447446 -0.1469910741 0.5619754195 4285297669
-0.2895076871 -0.1463985145 0.5620976686 4285363462
-0.2891242504 -0.1455809027 0.5613531470 4285363462
-0.2891866565 -0.1449884921 0.5614743233 4285429255
-0.2892488241 -0.1443956941 0.5615950227 4285495301
-0.2893107831 -0.1438025087 0.5617153049 4285626887
-0.2889259458 -0.1429879516 0.5609681606 4285692165
-0.2885406911 -0.1421748400 0.5602201223 4285692165
-0.2886017561 -0.1415823549 0.5603386760 4285758210
-0.2886626124 -0.1409894973 0.5604568124 4285889796
-0.2887232006 -0.1403962672 0.5605745316 4286218242
-0.2883365750 -0.1395862550 0.5598238111 4286481414
-0.2883966267 -0.1389931887 0.5599403977 4286744580
-0.2880092263 -0.1381851882 0.5591883063 4286876166
-0.2876214385 -0.1373786628 0.5584353209 4286875648
-0.2876805961 -0.1367863417 0.5585502386 4287073027
-0.2872920632 -0.1359818429 0.5577958226 4287204099
-0.2873506844 -0.1353897154 0.5579096675 4287269892
-0.2874090970 -0.1347972304 0.5580230355 4287401478
-0.2874672413 -0.1342043728 0.5581359863 4287467271
-0.2875251770 -0.1336111575 0.5582484603 4287598600
-0.2875828743 -0.1330175996 0.5583604574 4287598600
-0.2876403332 -0.1324236691 0.5584720373 4287467785
-0.2876975536 -0.1318293959 0.5585831404 4287401992
-0.2877545357 -0.1312347502 0.5586938262 4287599370
-0.2878113091 -0.1306397766 0.5588039756 4287862542
-0.2878678143 -0.1300444305 0.5589137077 4287993615
-0.2879241109 -0.1294487417 0.5590230227 4287993615
-0.2884287238 -0.1290534139 0.5600027442 4287993869
-0.2889332771 -0.1286558807 0.5609823465 4288059662
-0.2889890373 -0.1280572861 0.5610905886 4288257039
-0.2890445292 -0.1274583489 0.5611984134 4288388625
-0.2895487249 -0.1270560622 0.5621773005 4288454416
-0.2900528312 -0.1266515553 0.5631560683 4288454416
-0.2901077867 -0.1260497272 0.5632627606 4288585743
-0.2906116843 -0.1256417632 0.5642411113 4288651536
-0.2906662226 -0.1250383109 0.5643470287 4288717329
-0.2911698818 -0.1246268600 0.5653249025 4288848915
-0.2912240624 -0.1240218058 0.5654300451 4288783375
-0.2921769619 -0.1237973347 0.5672802329 4288980754
-0.2926803827 -0.1233792603 0.5682576299 4289112591
-0.2931837440 -0.1229589880 0.5692349076 4289178384
-0.2932372391 -0.1223488525 0.5693387985 4289506069
-0.2937403321 -0.1219251007 0.5703155994 4289571862
-0.2942433655 -0.1214991435 0.5712922215 4289637401
-0.2951962650 -0.1212558225 0.5731423497 4289703194
-0.2956991792 -0.1208245158 0.5741188526 4289244185
-0.2966521680 -0.1205739677 0.5759691000 4289836322
-0.2976052165 -0.1203193367 0.5778195262 4290492970
-0.2985583544 -0.1200606152 0.5796700716 4291150900
-0.2995115221 -0.1197978109 0.5815207362 4291611489
-0.3009152412 -0.1197101250 0.5842460990 4292072040
-0.3023191690 -0.1196164638 0.5869719386 4291547321
-0.3303965330 -0.1845789403 0.6428722739 4288981672
-0.3300316930 -0.1836616248 0.6421623826 4286876773
-0.3292233050 -0.1825000048 0.6405894160 4286153050
-0.3266414106 -0.1803626269 0.6355656385 4285430312
-0.3209548891 -0.1765287966 0.6245010495 4285101347
-0.3055103719 -0.1673736721 0.5944496989 4284969232
-0.2984851599 -0.1628796309 0.5807803869 4284706060
-0.2954489887 -0.1605841070 0.5748727322 4284837128
-0.2937423289 -0.1590214521 0.5715519190 4284902921
-0.2924784422 -0.1577049196 0.5690927505 4284902661
-0.2916576266 -0.1566318125 0.5674956441 4284771075
-0.2912802100 -0.1557994187 0.5667613149 4284770562
-0.2913465202 -0.1552050263 0.5668902993 4284704769
-0.2905241251 -0.1541388482 0.5652901530 4284771076
-0.2905897796 -0.1535454690 0.5654178858 4284705283
-0.2902107835 -0.1527177989 0.5646803975 4284639236
-0.2898313403 -0.1518915594 0.5639421344 4284639236
-0.2894515097 -0.1510667205 0.5632030368 4284705283
-0.2899606824 -0.1507056057 0.5641937852 4284836869
-0.2895801663 -0.1498818099 0.5634534359 4284902661
-0.2891992629 -0.1490594447 0.5627122521 4284968454
-0.2892629504 -0.1484669149 0.5628361702 4285100292
-0.2893263996 -0.1478739828 0.5629596114 4285231878
-0.2889443934 -0.1470540911 0.5622163415 4285363464
-0.2890073061 -0.1464613080 0.5623387694 4285363464
-0.2886245847 -0.1456433833 0.5615940094 4285363462
-0.2886869311 -0.1450507343 0.5617153645 4285429255
-0.2887490392 -0.1444577128 0.5618362427 4285495048
-0.2888109386 -0.1438643038 0.5619566441 4285560841
-0.2884268165 -0.1430494189 0.5612092614 4285692167
-0.2880422771 -0.1422359794 0.5604610443 4285692167
-0.2881032825 -0.1416432709 0.5605797768 4285692419
-0.2881640792 -0.1410501897 0.5606980324 4285824005
-0.2882246375 -0.1404567212 0.5608158708 4286218244
-0.2878387272 -0.1396463811 0.5600649714 4286481416
-0.2878987193 -0.1390530914 0.5601817369 4286744326
-0.2875120640 -0.1382447630 0.5594293475 4286875912
-0.2875715196 -0.1376516521 0.5595450401 4286875394
-0.2871840894 -0.1368453503 0.5587912202 4287006980
-0.2867962718 -0.1360405385 0.5580366254 4287072513
-0.2868548632 -0.1354481727 0.5581505895 4287269892
-0.2869131863 -0.1348554492 0.5582641363 4287401478
-0.2869713008 -0.1342623681 0.5583772063 4287401478
-0.2865821123 -0.1334607154 0.5576198697 4287467014
-0.2870868444 -0.1330751330 0.5586019754 4287598600
-0.2871442437 -0.1324809641 0.5587136745 4287467784
-0.2872014344 -0.1318864524 0.5588249564 4287467784
-0.2872583568 -0.1312915832 0.5589357018 4287599370
-0.2873150706 -0.1306963712 0.5590460896 4287730956
-0.2873715460 -0.1301007867 0.5591559410 4287928076
-0.2878754735 -0.1297065914 0.5601364970 4287993869
-0.2879315615 -0.1291093826 0.5602456331 4288059660
-0.2879874110 -0.1285118312 0.5603542924 4288125453
-0.2884910107 -0.1281128675 0.5613341331 4288257037
-0.2889945209 -0.1277116984 0.5623138547 4288322830
-0.2890498340 -0.1271112561 0.5624215007 4288388623
-0.2895531058 -0.1267066002 0.5634007454 4288388623
-0.2896080315 -0.1261045337 0.5635076165 4288519950
-0.2901110947 -0.1256963909 0.5644864440 4288585743
-0.2906140983 -0.1252860576 0.5654651523 4288651536
-0.2906684577 -0.1246811002 0.5655709505 4288783122
-0.2911711931 -0.1242672801 0.5665491819 4288783375
-0.2916738987 -0.1238512546 0.5675272942 4289046547
-0.2921764851 -0.1234330162 0.5685052276 4289178384
-0.2926790118 -0.1230125800 0.5694829822 4289244177
-0.2931814492 -0.1225899309 0.5704606175 4289637653
-0.2936838269 -0.1221650764 0.5714381337 4289769239
-0.2937369347 -0.1215521544 0.5715414882 4289768987
-0.2946882844 -0.1213087440 0.5733925700 4289834780
-0.2956396639 -0.1210612506 0.5752437115 4289507104
-0.2961417735 -0.1206266284 0.5762206912 4290099241
-0.2970932126 -0.1203719079 0.5780720115 4290821939
-0.2980447412 -0.1201130971 0.5799234509 4291414076
-0.2994459569 -0.1200304180 0.5826498270 4291874409
-0.3003976643 -0.1197624877 0.5845016837 4292203374
-0.3017992377 -0.1196688041 0.5872287750 4291547322
-0.3289379776 -0.1841620803 0.6414204240 4288850084
-0.3281314075 -0.1829995960 0.6398475766 4286482783
-0.3273241520 -0.1818402261 0.6382734776 4285890646
-0.3243040740 -0.1794598401 0.6323844194 4285298983
-0.3186270595 -0.1756280363 0.6213144064 4284904225
-0.3045369685 -0.1672017276 0.5938390493 4285298455
-0.2979666591 -0.1629488319 0.5810271502 4284772111
-0.2949358225 -0.1606523693 0.5751171112 4284902923
-0.2932321727 -0.1590890884 0.5717950463 4284902923
-0.2924135923 -0.1580114365 0.5701988339 4284902662
-0.2915943563 -0.1569370031 0.5686013699 4284771076
-0.2907745242 -0.1558657736 0.5670026541 4284638979
-0.2908407450 -0.1552711576 0.5671318173 4284704772
-0.2904633284 -0.1544403434 0.5663958192 4284770822
-0.2900854647 -0.1536109447 0.5656589866 4284705029
-0.2897071540 -0.1527829617 0.5649213195 4284639236
-0.2893284559 -0.1519563943 0.5641828775 4284639236
-0.2893931568 -0.1513633877 0.5643090606 4284705029
-0.2894576490 -0.1507699937 0.5644348264 4284770822
-0.2890778780 -0.1499458700 0.5636942387 4284902661
-0.2891418338 -0.1493525952 0.5638189316 4284968454
-0.2887612879 -0.1485304236 0.5630769134 4285100038
-0.2888246775 -0.1479372829 0.5632005334 4285231624
-0.2884434164 -0.1471170634 0.5624570847 4285363462
-0.2885062695 -0.1465240419 0.5625796318 4285429255
-0.2881242335 -0.1457057893 0.5618346930 4285429255
-0.2881865501 -0.1451129168 0.5619561672 4285429255
-0.2882486284 -0.1445196718 0.5620772243 4285429255
-0.2878655195 -0.1437039226 0.5613301992 4285495048
-0.2879270613 -0.1431108266 0.5614501834 4285561094
-0.2875432372 -0.1422970742 0.5607017279 4285561094
-0.2876041830 -0.1417041272 0.5608206391 4285692419
-0.2876649201 -0.1411108077 0.5609390736 4285824005
-0.2877254486 -0.1405171156 0.5610570312 4286218244
-0.2877857089 -0.1399230510 0.5611745715 4286415623
-0.2874001861 -0.1391129345 0.5604228377 4286744326
-0.2874599099 -0.1385190487 0.5605392456 4286810119
-0.2870736420 -0.1377109438 0.5597860217 4286941187
-0.2871327996 -0.1371172369 0.5599014163 4286941187
-0.2867457867 -0.1363111734 0.5591467619 4286940928
-0.2863583863 -0.1355065852 0.5583912730 4287204099
-0.2864166796 -0.1349136382 0.5585049987 4287467014
-0.2864747345 -0.1343203187 0.5586181879 4287467014
-0.2865325511 -0.1337266415 0.5587309599 4287532807
-0.2865901589 -0.1331326067 0.5588432550 4287598600
-0.2866475284 -0.1325382143 0.5589551330 4287467784
-0.2867046297 -0.1319434643 0.5590665340 4287467784
-0.2872081995 -0.1315529644 0.5600484610 4287533575
-0.2872649431 -0.1309565753 0.5601590872 4287665161
-0.2873214781 -0.1303598434 0.5602692962 4287862283
-0.2873777449 -0.1297627538 0.5603790283 4287993869
-0.2878808081 -0.1293661892 0.5613600016 4288125453
-0.2879366875 -0.1287674755 0.5614689589 4288125453
-0.2879923284 -0.1281684041 0.5615774989 4288125451
-0.2884950340 -0.1277670860 0.5625576973 4288257037
-0.2889976501 -0.1273635477 0.5635378361 4288322830
-0.2890527546 -0.1267615855 0.5636453032 4288322830
-0.2891076207 -0.1261592805 0.5637522936 4288454157
-0.2896098793 -0.1257509887 0.5647316575 4288519950
-0.2901120484 -0.1253404915 0.5657108426 4288651536
-0.2906141281 -0.1249277815 0.5666899085 4288914708
-0.2911161482 -0.1245128661 0.5676688552 4288783373
-0.2916181087 -0.1240957454 0.5686476231 4289046545
-0.2916719317 -0.1234867275 0.5687525868 4289244177
-0.2921736240 -0.1230661273 0.5697308779 4289309970
-0.2926752567 -0.1226433143 0.5707090497 4289769239
-0.2931768000 -0.1222182959 0.5716870427 4290032411
-0.2936782539 -0.1217910647 0.5726648569 4290098206
-0.2941796184 -0.1213616282 0.5736424923 4290032413
-0.2951294184 -0.1211140454 0.5754945874 4289901862
-0.2960792780 -0.1208623797 0.5773468018 4290165034
-0.2970292270 -0.1206066236 0.5791991949 4290821687
-0.2979792356 -0.1203467771 0.5810516477 4291348031
-0.2989293039 -0.1200828329 0.5829042792 4291677547
-0.3003283441 -0.1199941710 0.5856323838 4292006512
-0.3017276227 -0.1198995262 0.5883609056 4291613117
-0.3274817467 -0.1837447435 0.6399668455 4288521373
-0.3266764283 -0.1825836003 0.6383931041 4286614622
-0.3254289031 -0.1811797321 0.6359551549 4286088278
-0.3219721615 -0.1785561442 0.6291999817 4285430569
-0.3163047135 -0.1747263670 0.6181246042 4284904225
-0.3035644293 -0.1670295149 0.5932274461 4285890596
-0.2974475026 -0.1630179882 0.5812737346 4285232666
-0.2939799130 -0.1604792476 0.5744973421 4285034255
-0.2927213907 -0.1591566503 0.5720378757 4284836876
-0.2919042706 -0.1580785811 0.5704411268 4284836615
-0.2910865545 -0.1570037156 0.5688430667 4284705029
-0.2907106578 -0.1561697721 0.5681085587 4284573186
-0.2903343439 -0.1553372294 0.5673731565 4284770565
-0.2899576128 -0.1545060873 0.5666369796 4284902408
-0.2895804644 -0.1536763757 0.5658999085 4284836615
-0.2892028987 -0.1528480649 0.5651620626 4284836615
-0.2892678678 -0.1522543281 0.5652890801 4284836615
-0.2888895571 -0.1514279395 0.5645497441 4284836615
-0.2889539897 -0.1508343220 0.5646756291 4284902408
-0.2890182137 -0.1502403170 0.5648011565 4284968455
-0.2886388302 -0.1494163871 0.5640597343 4285034248
-0.2882589996 -0.1485938877 0.5633174777 4285100038
-0.2883223295 -0.1480005085 0.5634412766 4285231624
-0.2879417837 -0.1471799612 0.5626975894 4285429255
-0.2880045772 -0.1465867311 0.5628203154 4285495048
-0.2876232862 -0.1457681507 0.5620751381 4285429255
-0.2876855135 -0.1451750547 0.5621967912 4285429255
-0.2877475321 -0.1445815712 0.5623179674 4285363462
-0.2873651683 -0.1437655091 0.5615707636 4285429255
-0.2874266505 -0.1431721747 0.5616908669 4285429508
-0.2870435417 -0.1423580945 0.5609422326 4285429508
-0.2871044576 -0.1417649388 0.5610612631 4285495297
-0.2871651351 -0.1411713809 0.5611798763 4285692676
-0.2872256041 -0.1405774653 0.5612980127 4286021635
-0.2872858047 -0.1399831623 0.5614156723 4286284807
-0.2869009972 -0.1391727179 0.5606637001 4286613253
-0.2869606614 -0.1385786086 0.5607802868 4286679046
-0.2865751386 -0.1377701908 0.5600268245 4287006980
-0.2866342366 -0.1371762455 0.5601423979 4286941187
-0.2862479687 -0.1363698542 0.5593875051 4287006721
-0.2863065302 -0.1357761174 0.5595019460 4287204100
-0.2859194875 -0.1349717677 0.5587456226 4287269892
-0.2859775126 -0.1343782246 0.5588589907 4287335685
-0.2860352695 -0.1337843090 0.5589718819 4287664393
-0.2860928178 -0.1331900507 0.5590843558 4287730186
-0.2861501276 -0.1325954199 0.5591963530 4287467782
-0.2862072289 -0.1320004314 0.5593078732 4287533575
-0.2867099643 -0.1316097826 0.5602903366 4287533575
-0.2867666483 -0.1310131550 0.5604011416 4287599368
-0.2868231237 -0.1304161847 0.5605114698 4287796490
-0.2868793309 -0.1298188567 0.5606213808 4287993869
-0.2873815894 -0.1294221580 0.5616028309 4288125453
-0.2874374092 -0.1288231909 0.5617119670 4288125453
-0.2874930203 -0.1282238960 0.5618206263 4288125451
-0.2879948914 -0.1278224140 0.5628013611 4288257037
-0.2884967029 -0.1274187267 0.5637819767 4288191498
-0.2885517478 -0.1268165261 0.5638895631 4288191498
-0.2886065543 -0.1262139827 0.5639967322 4288519950
-0.2891079783 -0.1258055270 0.5649765730 4288585743
-0.2900562584 -0.1255883873 0.5668297410 4288717328
-0.2905576229 -0.1251745820 0.5678094625 4288980500
-0.2906118035 -0.1245669350 0.5679153800 4288914957
-0.2911129296 -0.1241496578 0.5688946247 4289112336
-0.2916139662 -0.1237301603 0.5698738098 4289178895
-0.2916675806 -0.1231196225 0.5699785948 4289310481
-0.2921683788 -0.1226966456 0.5709572434 4289769239
-0.2926690876 -0.1222714633 0.5719357133 4290163997
-0.2936173081 -0.1220300868 0.5737887621 4290295585
-0.2941179276 -0.1215995476 0.5747670531 4290098206
-0.2946184874 -0.1211667955 0.5757452250 4290033450
-0.2955667675 -0.1209150329 0.5775983334 4290099243
-0.2965151072 -0.1206591800 0.5794516206 4290559030
-0.2974635065 -0.1203992441 0.5813049674 4291216960
-0.2984119654 -0.1201352105 0.5831584930 4291677549
-0.2998086512 -0.1200465187 0.5858879089 4292072307
-0.3255873322 -0.1830791831 0.6376487613 4287995282
-0.3252238631 -0.1821671128 0.6369369030 4286811997
-0.3239783347 -0.1807644963 0.6344976425 4286285653
-0.3209684193 -0.1783866733 0.6286028028 4285759534
-0.3144288361 -0.1740679443 0.6157953143 4285298983
-0.3030338585 -0.1671002656 0.5934787393 4286022700
-0.2969276905 -0.1630870700 0.5815200210 4285627942
-0.2939075232 -0.1607887149 0.5756052136 4285363737
-0.2922099233 -0.1592241675 0.5722805262 4285034772
-0.2909528017 -0.1579060555 0.5698184967 4285099789
-0.2905780673 -0.1570703834 0.5690845847 4284770824
-0.2897611856 -0.1559983045 0.5674847960 4284573447
-0.2898273170 -0.1554032415 0.5676142573 4284770826
-0.2894513011 -0.1545717865 0.5668778419 4284770822
-0.2890748382 -0.1537417322 0.5661406517 4284770822
-0.2891401052 -0.1531472802 0.5662683845 4284770822
-0.2887629271 -0.1523191482 0.5655297041 4284770822
-0.2888276279 -0.1517247856 0.5656564236 4284705283
-0.2884496748 -0.1508986056 0.5649162531 4284705283
-0.2885138392 -0.1503043622 0.5650418997 4284771076
-0.2885777652 -0.1497097164 0.5651671290 4284771076
-0.2881987691 -0.1488859802 0.5644248724 4284968452
-0.2878193557 -0.1480636895 0.5636817813 4285165831
-0.2874395251 -0.1472428143 0.5629379153 4285363464
-0.2875022590 -0.1466493607 0.5630607605 4285429257
-0.2871216834 -0.1458304524 0.5623154044 4285429255
-0.2867406607 -0.1450130045 0.5615692139 4285363462
-0.2868025303 -0.1444202065 0.5616903901 4285297671
-0.2868641615 -0.1438270360 0.5618110895 4285297671
-0.2869255841 -0.1432334781 0.5619313717 4285363715
-0.2865431905 -0.1424190849 0.5611824989 4285429508
-0.2866040468 -0.1418256760 0.5613017082 4285560833
-0.2866646945 -0.1412319094 0.5614204407 4285758212
-0.2867251039 -0.1406377554 0.5615387559 4286087428
-0.2867852747 -0.1400432289 0.5616565943 4286350600
-0.2864011824 -0.1392324716 0.5609043241 4286679046
-0.2864607871 -0.1386381090 0.5610210896 4286744839
-0.2860759795 -0.1378293782 0.5602674484 4286810371
-0.2861350477 -0.1372352093 0.5603831410 4286810371
-0.2857494652 -0.1364284903 0.5596280098 4287007234
-0.2858079672 -0.1358345151 0.5597426295 4287138820
-0.2858662605 -0.1352401674 0.5598567724 4287072514
-0.2854796350 -0.1344360709 0.5590995550 4287204100
-0.2855373621 -0.1338419318 0.5592126250 4287598857
-0.2860397100 -0.1334549785 0.5601964593 4287730443
-0.2860970497 -0.1328591853 0.5603087544 4287467782
-0.2861541808 -0.1322630495 0.5604206324 4287533575
-0.2862110734 -0.1316665411 0.5605320334 4287533575
-0.2862676978 -0.1310696900 0.5606429577 4287533575
-0.2867694199 -0.1306753904 0.5616255403 4287796488
-0.2868256867 -0.1300769001 0.5617357492 4287993867
-0.2868817151 -0.1294780672 0.5618454814 4288059660
-0.2869375050 -0.1288788766 0.5619547367 4288125453
-0.2874386907 -0.1284785271 0.5629363060 4288125451
-0.2874940932 -0.1278777122 0.5630447865 4288257037
-0.2879950702 -0.1274738610 0.5640259385 4288059912
-0.2880500853 -0.1268714219 0.5641336441 4288125705
-0.2885508239 -0.1264640987 0.5651143789 4288651535
-0.2886054516 -0.1258600354 0.5652213097 4288783121
-0.2895521224 -0.1256428063 0.5670753717 4288783121
-0.2900526524 -0.1252288520 0.5680556297 4288980500
-0.2901068032 -0.1246209592 0.5681616664 4289046798
-0.2906070948 -0.1242035180 0.5691414475 4289178384
-0.2911073267 -0.1237838566 0.5701211095 4289244434
-0.2916074395 -0.1233619899 0.5711005926 4289310227
-0.2916608453 -0.1227499396 0.5712051988 4289703448
-0.2921607494 -0.1223245859 0.5721842051 4290098206
-0.2931073606 -0.1220831275 0.5740381479 4290229538
-0.2936071754 -0.1216524169 0.5750169754 4289966366
-0.2945538461 -0.1214037165 0.5768710375 4290033450
-0.2950535417 -0.1209676415 0.5778496861 4290099243
-0.2960003018 -0.1207116991 0.5797038078 4290559032
-0.2969470918 -0.1204516664 0.5815581083 4291282755
-0.2983412743 -0.1203679964 0.5842884779 4291743088
-0.2992882729 -0.1200988218 0.5861431360 4292006260
-0.3241366148 -0.1826607585 0.6361914277 4287732110
-0.3233337104 -0.1815032065 0.6346155405 4287009630
-0.3225301504 -0.1803487688 0.6330384016 4286154321
-0.3199654818 -0.1782169342 0.6280046105 4285694256
-0.3134373426 -0.1738972962 0.6151916385 4285365291
-0.3025026023 -0.1671709567 0.5937297940 4285890861
-0.2959667742 -0.1629136652 0.5809017420 4285693482
-0.2933923900 -0.1608567983 0.5758489370 4285561120
-0.2916978300 -0.1592916101 0.5725229979 4285363741
-0.2908836901 -0.1582126915 0.5709250569 4285297427
-0.2900689244 -0.1571369767 0.5693259239 4284836876
-0.2896944880 -0.1563023776 0.5685909390 4284639498
-0.2893196046 -0.1554691941 0.5678551793 4284639498
-0.2889443040 -0.1546374112 0.5671185851 4284639240
-0.2890098095 -0.1540422291 0.5672471523 4284639240
-0.2886337638 -0.1532123536 0.5665090680 4284573443
-0.2886987329 -0.1526172608 0.5666365623 4284507650
-0.2883219421 -0.1517893225 0.5658970475 4284507650
-0.2883863747 -0.1511943489 0.5660234690 4284507650
-0.2880088389 -0.1503683478 0.5652824640 4284441857
-0.2880727053 -0.1497734934 0.5654078126 4284441857
-0.2876944244 -0.1489494294 0.5646653771 4284639490
-0.2873157263 -0.1481268108 0.5639221072 4284836869
-0.2873787284 -0.1475325972 0.5640457273 4285100040
-0.2869992852 -0.1467119306 0.5633010268 4285297419
-0.2866194248 -0.1458927095 0.5625554323 4285297417
-0.2866815627 -0.1452991515 0.5626773834 4285297417
-0.2863009572 -0.1444819123 0.5619303584 4285297417
-0.2863625288 -0.1438885033 0.5620512366 4285297417
-0.2864238918 -0.1432947218 0.5621716380 4285429508
-0.2864850163 -0.1427005678 0.5622916222 4285495301
-0.2861030400 -0.1418863833 0.5615419149 4285626372
-0.2861635983 -0.1412923783 0.5616608262 4285823751
-0.2862239480 -0.1406979859 0.5617792606 4286021381
-0.2862840593 -0.1401032358 0.5618972182 4286284553
-0.2859007120 -0.1392921507 0.5611447692 4286679047
-0.2859602571 -0.1386975646 0.5612617135 4286810633
-0.2855761647 -0.1378885061 0.5605078340 4286678785
-0.2856351733 -0.1372941136 0.5606236458 4286876164
-0.2852503359 -0.1364870816 0.5598683357 4287072773
-0.2853088081 -0.1358928680 0.5599830747 4287006980
-0.2853670418 -0.1352982968 0.5600973368 4286940930
-0.2854250371 -0.1347033530 0.5602111816 4287006723
-0.2850387990 -0.1338994950 0.5594531298 4287467272
-0.2855403125 -0.1335123926 0.5604375005 4287598858
-0.2855976224 -0.1329163760 0.5605499148 4287401991
-0.2856546938 -0.1323200017 0.5606619716 4287533577
-0.2857115269 -0.1317232698 0.5607734919 4287533575
-0.2857681215 -0.1311261803 0.5608845949 4287599368
-0.2858244777 -0.1305287331 0.5609952211 4287796488
-0.2863252163 -0.1301330030 0.5619779825 4287993867
-0.2863811851 -0.1295339316 0.5620878935 4288059658
-0.2864369452 -0.1289345026 0.5621972680 4288125451
-0.2869372964 -0.1285340041 0.5631793737 4288191498
-0.2869926691 -0.1279329509 0.5632880330 4288257291
-0.2874928117 -0.1275289506 0.5642696619 4288125705
-0.2875477672 -0.1269262731 0.5643775463 4288191498
-0.2880477011 -0.1265187860 0.5653587580 4288783121
-0.2889928520 -0.1263037026 0.5672138333 4288914707
-0.2890473306 -0.1256971806 0.5673207641 4288849168
-0.2895470560 -0.1252830774 0.5683015585 4288914961
-0.2900466621 -0.1248667389 0.5692821741 4289112336
-0.2905462384 -0.1244482026 0.5702626705 4289243922
-0.2910456955 -0.1240274459 0.5712430477 4289376021
-0.2910993099 -0.1234154850 0.5713482499 4289441814
