VERSION 0.7
FIELDS x y z rgba
SIZE 4 4 4 4
TYPE F F F U
COUNT 1 1 1 1
WIDTH 920
HEIGHT 1
VIEWPOINT 0.0 0.0 0.0 1.0 0.0 0.0 0.0
POINTS 920
DATA ascii
-0.2936623394 -0.1255264133 0.5500014424 4289440022
-0.2941797078 -0.1251354069 0.5509704351 4289571608
-0.2942351401 -0.1245466918 0.5510742068 4289900320
-0.2942903042 -0.1239576489 0.5511775613 4289439769
-0.2943452299 -0.1233682781 0.5512804389 4289571618
-0.2943999469 -0.1227785721 0.5513828993 4289637411
-0.2944543958 -0.1221885458 0.5514848828 4289704224
-0.2940462530 -0.1214072928 0.5507205129 4289901603
-0.2945625782 -0.1210075021 0.5516874790 4289508911
-0.2946162820 -0.1204164997 0.5517880917 4289574704
-0.2946697772 -0.1198251694 0.5518882871 4289838140
-0.2942603230 -0.1190463379 0.5511214137 4290430277
-0.2947759926 -0.1186415479 0.5520871878 4290824534
-0.2948287427 -0.1180492565 0.5521860123 4291219292
-0.2948812544 -0.1174566522 0.5522843599 4291547754
-0.2949334979 -0.1168637350 0.5523822308 4291218789
-0.2949855030 -0.1162704974 0.5524796247 4290363738
-0.2955004275 -0.1158585399 0.5534440279 4290429531
-0.2955520451 -0.1152637526 0.5535406470 4290890851
-0.2960667014 -0.1148483753 0.5545045733 4291417195
-0.2961179018 -0.1142520308 0.5546004772 4290891105
-0.2966323197 -0.1138332412 0.5555639267 4290825312
-0.2976101935 -0.1135892048 0.5573953986 4291680619
-0.2967335880 -0.1126371399 0.5557535887 4292141170
-0.2981750071 -0.1125638112 0.5584532619 4291482971
-0.2986890674 -0.1121363193 0.5594159961 4290496076
-0.2992030084 -0.1117066443 0.5603786111 4289905465
-0.2983250022 -0.1107580438 0.5587341785 4289642293
-0.2993025482 -0.1104981527 0.5605649948 4289444662
-0.2998160422 -0.1100638285 0.5615267754 4289049904
-0.3003294468 -0.1096273363 0.5624883175 4289115432
-0.3008427322 -0.1091886684 0.5634496212 4289115432
-0.3018202484 -0.1089153811 0.5652804375 4288655647
-0.3014045656 -0.1081381813 0.5645019412 4289313577
-0.3028464615 -0.1080252901 0.5672023892 4291744700
-0.3664698601 -0.1806644648 0.6877937317 4291154132
-0.3660905957 -0.1797140986 0.6870818734 4288126604
-0.3657108545 -0.1787650734 0.6863691807 4286876537
-0.3653306067 -0.1778173894 0.6856555343 4287861577
-0.3644914329 -0.1766488701 0.6840805411 4287729991
-0.3627344072 -0.1750409454 0.6807829738 4288518168
-0.3609763086 -0.1734398305 0.6774833798 4288583961
-0.3573821187 -0.1709676683 0.6707377434 4288650003
-0.3028518856 -0.1442494839 0.5683949590 4288715796
-0.3006202877 -0.1425596923 0.5642066598 4288715796
-0.2988465726 -0.1410953850 0.5608777404 4288650003
-0.2970718443 -0.1396380067 0.5575469136 4288452878
-0.2962146103 -0.1386173815 0.5559380651 4288255499
-0.2958161235 -0.1378140450 0.5551901460 4288189706
-0.2958766520 -0.1372252554 0.5553037524 4288189706
-0.2945583463 -0.1359996051 0.5528295636 4288058631
-0.2955373526 -0.1358353496 0.5546669364 4288190217
-0.2946776450 -0.1348257214 0.5530534387 4288321801
-0.2947369218 -0.1342382431 0.5531647205 4288453387
-0.2947959900 -0.1336504221 0.5532755852 4288650766
-0.2943948507 -0.1328546554 0.5525226593 4288716559
-0.2944533527 -0.1322670430 0.5526325107 4288913938
-0.2945116162 -0.1316790730 0.5527418256 4289111317
-0.2936491072 -0.1306810975 0.5511230826 4289045264
-0.2941670716 -0.1302981973 0.5520952344 4289176850
-0.2937640846 -0.1295071244 0.5513389111 4289046547
-0.2938212156 -0.1289196163 0.5514461398 4288980754
-0.2934174836 -0.1281306148 0.5506883860 4288981265
-0.2934740782 -0.1275433451 0.5507946014 4289047058
-0.2935304046 -0.1269557476 0.5509002805 4289178131
-0.2935864925 -0.1263677925 0.5510056019 4289243924
-0.2931813598 -0.1255820543 0.5502452254 4289440276
-0.2932369113 -0.1249943674 0.5503494740 4289506069
-0.2937533259 -0.1246019453 0.5513187051 4289703196
-0.2933472395 -0.1238179803 0.5505565405 4289571610
-0.2934020460 -0.1232292950 0.5506594181 4289769251
-0.2934566140 -0.1226402745 0.5507618189 4289637665
-0.2939724326 -0.1222428307 0.5517299175 4289638690
-0.2935650349 -0.1214612573 0.5509653091 4289770276
-0.2936188579 -0.1208712608 0.5510663390 4289508395
-0.2936724722 -0.1202809364 0.5511669517 4289837360
-0.2937258184 -0.1196902990 0.5512670875 4289508913
-0.2937789261 -0.1190993339 0.5513667464 4289640499
-0.2938317955 -0.1185080484 0.5514659882 4290495305
-0.2938844264 -0.1179164425 0.5515647531 4290890063
-0.2939367890 -0.1173245236 0.5516630411 4290692437
-0.2939889431 -0.1167322844 0.5517609119 4290626644
-0.2945031524 -0.1163223460 0.5527259707 4290363732
-0.2945548892 -0.1157285497 0.5528230667 4290429525
-0.2950688601 -0.1153151840 0.5537876487 4290824542
-0.2951201499 -0.1147198305 0.5538839698 4291219300
-0.2951712310 -0.1141241714 0.5539798141 4291548265
-0.2956847548 -0.1137061417 0.5549436212 4292403574
-0.2961982191 -0.1132859439 0.5559073091 4293127297
-0.2967115939 -0.1128635630 0.5568707585 4292798332
-0.2967618704 -0.1122638658 0.5569651723 4291680350
-0.2972749770 -0.1118380725 0.5579281449 4290693455
-0.2977879643 -0.1114100963 0.5588909388 4290102590
-0.2983008921 -0.1109799519 0.5598535538 4289707832
-0.2988136709 -0.1105476320 0.5608159900 4289575478
-0.2993263900 -0.1101131290 0.5617782474 4289180720
-0.2998389900 -0.1096764579 0.5627403259 4289246505
-0.3003514707 -0.1092376038 0.5637021661 4289180712
-0.2999367118 -0.1084613055 0.5629237294 4288655899
-0.3018397987 -0.1085200757 0.5664954782 4288721692
-0.3028157949 -0.1082395166 0.5683271885 4290034827
-0.3037917912 -0.1079548970 0.5701590180 4292732340
-0.3640365303 -0.1798397452 0.6846539974 4288785061
-0.3632001281 -0.1786676049 0.6830809116 4286612324
-0.3623630404 -0.1774986088 0.6815066338 4286941289
-0.3615252972 -0.1763328016 0.6799310446 4288190276
-0.3542787433 -0.1720580012 0.6663022041 4287795518
-0.3598477840 -0.1740107089 0.6767760515 4288781342
-0.3567184210 -0.1717520505 0.6708906293 4288583963
-0.3036638200 -0.1455728859 0.5711092949 4288650005
-0.3005207479 -0.1434381455 0.5651980042 4288518419
-0.2992089093 -0.1421867758 0.5627307892 4288452624
-0.2974379659 -0.1407236755 0.5594001412 4288321038
-0.2965828180 -0.1396993399 0.5577918291 4288123659
-0.2961855531 -0.1388933063 0.5570446849 4287992073
-0.2953292727 -0.1378746331 0.5554342270 4287992327
-0.2953897417 -0.1372856051 0.5555480123 4287926534
-0.2949911952 -0.1364839673 0.5547984242 4287861252
-0.2945922613 -0.1356837898 0.5540481210 4288058631
-0.2941928804 -0.1348850876 0.5532969832 4288124424
-0.2942521274 -0.1342973858 0.5534084439 4288256010
-0.2938520014 -0.1335007250 0.5526559353 4288519180
-0.2939106822 -0.1329132318 0.5527663231 4288716559
-0.2935098112 -0.1321186125 0.5520123839 4288913938
-0.2935679555 -0.1315313429 0.5521216989 4289111317
-0.2931663394 -0.1307387948 0.5513663888 4289045264
-0.2932239175 -0.1301517338 0.5514746308 4289111057
-0.2928215563 -0.1293612570 0.5507178903 4288980752
-0.2928785384 -0.1287744343 0.5508251190 4288980752
-0.2929353118 -0.1281872690 0.5509318709 4288784143
-0.2929918468 -0.1275997609 0.5510382056 4288915729
-0.2925880849 -0.1268125176 0.5502788424 4289112849
-0.2926440537 -0.1262252629 0.5503841043 4289178642
-0.2926997840 -0.1256376654 0.5504888892 4289374740
-0.2927552760 -0.1250497252 0.5505932570 4289374740
-0.2928104997 -0.1244614646 0.5506971478 4289506330
-0.2928655148 -0.1238728687 0.5508006215 4289572123
-0.2929202914 -0.1232839376 0.5509036183 4289441565
-0.2929747999 -0.1226946786 0.5510061383 4289309979
-0.2930290997 -0.1221050918 0.5511082411 4289704746
-0.2930831313 -0.1215151846 0.5512098670 4289902125
-0.2931369245 -0.1209249422 0.5513110757 4289639983
-0.2931905091 -0.1203343794 0.5514118075 4290034741
-0.2932438254 -0.1197434887 0.5515120625 4289968694
-0.2932968736 -0.1191522852 0.5516119003 4289837108
-0.2933497131 -0.1185607538 0.5517112613 4289969211
-0.2934022844 -0.1179689020 0.5518101454 4290035004
-0.2934546471 -0.1173767373 0.5519085526 4289968961
-0.2935067415 -0.1167842597 0.5520065427 4290429512
-0.2935585976 -0.1161914617 0.5521040559 4289902919
-0.2940718532 -0.1157801077 0.5530693531 4289837126
-0.2941232920 -0.1151857525 0.5531660914 4290297937
-0.2946362793 -0.1147709787 0.5541309118 4291087453
-0.2946873009 -0.1141750738 0.5542268753 4292271729
-0.2952000499 -0.1137568727 0.5551912189 4293784968
-0.2952506542 -0.1131594107 0.5552864075 4293982093
-0.2957631350 -0.1127377972 0.5562502742 4292929405
-0.2958133221 -0.1121387929 0.5563446283 4291943265
-0.2967878580 -0.1118880361 0.5581774116 4290890577
-0.2968376875 -0.1112865508 0.5582711697 4290364482
-0.2973497212 -0.1108571589 0.5592341423 4289969724
-0.2973991334 -0.1102541313 0.5593270659 4289706805
-0.2979108691 -0.1098213345 0.5602895617 4289443633
-0.2984225452 -0.1093863547 0.5612518191 4289509677
-0.2989340723 -0.1089491993 0.5622138977 4289312298
-0.2989827096 -0.1083421633 0.5623053908 4289115679
-0.2999568582 -0.1080683693 0.5641375184 4288589335
-0.3009310663 -0.1077905223 0.5659697056 4288391508
-0.3019053042 -0.1075086147 0.5678019524 4290957435
-0.3601607382 -0.1790516675 0.6787825227 4290823868
-0.3616084456 -0.1790141761 0.6815109849 4286942081
-0.3616864681 -0.1782954186 0.6816580296 4286809176
-0.3608506322 -0.1771277785 0.6800827384 4287072348
-0.3600141406 -0.1759632975 0.6785062551 4287926580
-0.3587200046 -0.1745796055 0.6760672331 4287860787
-0.3565108776 -0.1727579534 0.6719037890 4288386584
-0.3520146906 -0.1698420793 0.6634299755 4288518170
-0.3013332188 -0.1447579861 0.5679123402 4288584212
-0.2991096973 -0.1430635005 0.5637217760 4288321040
-0.2977998853 -0.1418134272 0.5612531900 4288057868
-0.2964892983 -0.1405684650 0.5587831736 4287992075
-0.2956355214 -0.1395446211 0.5571740866 4287992073
-0.2952388525 -0.1387391686 0.5564265251 4287926280
-0.2948417962 -0.1379351765 0.5556781292 4287860487
-0.2944442928 -0.1371326447 0.5549290180 4287860487
-0.2940463722 -0.1363315880 0.5541790724 4287729668
-0.2931899130 -0.1353205740 0.5525649190 4287927047
-0.2932492793 -0.1347339004 0.5526767969 4288058631
-0.2933083773 -0.1341468692 0.5527881980 4288124424
-0.2929088771 -0.1333508044 0.5520352721 4288387596
-0.2929674387 -0.1327639818 0.5521456599 4288650768
-0.2925671935 -0.1319699734 0.5513913035 4288913940
-0.2926251888 -0.1313833743 0.5515006185 4289111319
-0.2922241986 -0.1305914223 0.5507448912 4288979473
-0.2922816277 -0.1300050467 0.5508531332 4289111059
-0.2923388183 -0.1294183284 0.5509608984 4288980752
-0.2919367552 -0.1286290288 0.5502031446 4288980752
-0.2919933796 -0.1280425489 0.5503098965 4288849938
-0.2920497954 -0.1274557263 0.5504161716 4288915731
-0.2921059430 -0.1268685609 0.5505220294 4288981776
-0.2917024791 -0.1260825098 0.5497616529 4289047569
-0.2917580903 -0.1254955977 0.5498664379 4288914961
-0.2918134332 -0.1249083504 0.5499707460 4289112340
-0.2918685675 -0.1243207753 0.5500746369 4289177879
-0.2919234335 -0.1237328574 0.5501780510 4289177879
-0.2919780910 -0.1231446192 0.5502810478 4289178905
-0.2920324802 -0.1225560457 0.5503835678 4289507870
-0.2920866311 -0.1219671443 0.5504856110 4289968696
-0.2921405435 -0.1213779151 0.5505872369 4290363454
-0.2921942174 -0.1207883656 0.5506883860 4289837376
-0.2922476530 -0.1201984882 0.5507891178 4289574204
-0.2927611768 -0.1197966486 0.5517568588 4289968961
-0.2928141952 -0.1192051917 0.5518568158 4290166340
-0.2928669751 -0.1186134219 0.5519562960 4290100801
-0.2929195464 -0.1180213317 0.5520553589 4290166594
-0.2929718196 -0.1174289212 0.5521539450 4290166340
-0.2925631702 -0.1166524887 0.5513837337 4290100547
-0.2930757105 -0.1162431538 0.5523496866 4289903171
-0.2931272686 -0.1156497970 0.5524468422 4289574206
-0.2936395705 -0.1152370349 0.5534123778 4290034764
-0.2936907113 -0.1146421209 0.5535087585 4291087452
-0.2942027450 -0.1142259315 0.5544737577 4292600694
-0.2947146893 -0.1138075665 0.5554386377 4293916554
-0.2947652638 -0.1132098585 0.5555339456 4293784714
-0.2948155999 -0.1126118451 0.5556287766 4292863612
-0.2957885563 -0.1123641059 0.5574625134 4292009057
-0.2963000536 -0.1119379699 0.5584264994 4291087955
-0.2963498533 -0.1113362238 0.5585203767 4290561863
-0.2968610823 -0.1109066680 0.5594838858 4290035519
-0.2969104648 -0.1103033796 0.5595769286 4289838130
-0.2974214256 -0.1098704040 0.5605399013 4289574958
-0.2988561094 -0.1097745821 0.5632438064 4289443629
-0.2984430194 -0.1089979187 0.5624653101 4289246250
-0.2989536822 -0.1085584089 0.5634276867 4289049887
-0.2994642258 -0.1081167236 0.5643898845 4288589336
-0.2999746501 -0.1076728627 0.5653519034 4287997745
-0.3009472489 -0.1073917821 0.5671849251 4289510984
-0.3581963778 -0.1784486324 0.6764964461 4288717460
-0.3591856360 -0.1781877577 0.6783648133 4286283119
-0.3588072658 -0.1772471368 0.6776502132 4287400786
-0.3584284186 -0.1763078570 0.6769347191 4287269200
-0.3575929999 -0.1751465499 0.6753568649 4287531558
-0.3558444679 -0.1735434383 0.6720545888 4287597351
-0.3025321066 -0.1469084471 0.5713678598 4287926290
-0.2989449501 -0.1445392370 0.5645930767 4288386841
-0.2976385057 -0.1432830095 0.5621256828 4288452627
-0.2967878580 -0.1422507316 0.5605191588 4288123662
-0.2954798937 -0.1410037875 0.5580489039 4287860490
-0.2950846851 -0.1401959956 0.5573025346 4287794697
-0.2942321897 -0.1391735524 0.5556924939 4287926282
-0.2938360572 -0.1383696049 0.5549443364 4287926282
-0.2934395075 -0.1375671178 0.5541954041 4287926280
-0.2934997082 -0.1369794607 0.5543090701 4287860487
-0.2931024134 -0.1361789852 0.5535587072 4287795207
-0.2927046716 -0.1353799850 0.5528075695 4287861000
-0.2927639782 -0.1347930878 0.5529195666 4288058633
-0.2923655212 -0.1339961290 0.5521670580 4288190219
-0.2924242616 -0.1334094256 0.5522779822 4288256012
-0.2924827635 -0.1328223795 0.5523884892 4288519184
-0.2920832336 -0.1320280433 0.5516338944 4288848147
-0.2916832864 -0.1312351823 0.5508785844 4288979733
-0.2917408943 -0.1306489259 0.5509873629 4288978704
-0.2917982936 -0.1300623268 0.5510957837 4289044497
-0.2918554544 -0.1294753700 0.5512037277 4288914191
-0.2919123471 -0.1288880706 0.5513111949 4289045777
-0.2915107012 -0.1280990243 0.5505526066 4288981014
-0.2915670276 -0.1275119632 0.5506590009 4288981014
-0.2916231453 -0.1269245595 0.5507649779 4288981265
-0.2912204266 -0.1261381805 0.5500043631 4288981265
-0.2912759781 -0.1255510300 0.5501093268 4289046293
-0.2913312912 -0.1249635443 0.5502137542 4289177879
-0.2913863659 -0.1243757308 0.5503177643 4289177880
-0.2914412022 -0.1237875745 0.5504213572 4289177880
-0.2914958000 -0.1231990978 0.5505244732 4289573663
-0.2915501595 -0.1226102859 0.5506271124 4290560558
-0.2916042805 -0.1220211387 0.5507293344 4290626894
-0.2916581333 -0.1214316711 0.5508310795 4290626894
-0.2917117774 -0.1208418757 0.5509323478 4290495328
-0.2917651832 -0.1202517599 0.5510331988 4290561121
-0.2918183208 -0.1196613163 0.5511335731 4291284583
-0.2918712199 -0.1190705523 0.5512335300 4291021411
-0.2923836112 -0.1186660454 0.5522012115 4290034765
-0.2924361229 -0.1180737093 0.5523003936 4290034765
-0.2924883962 -0.1174810603 0.5523990989 4290232397
-0.2925404012 -0.1168880835 0.5524973273 4289903432
-0.2921321094 -0.1161119491 0.5517262220 4289771844
-0.2921835780 -0.1155192778 0.5518233776 4289442879
-0.2926949859 -0.1151072830 0.5527892709 4289640260
-0.2927460074 -0.1145130619 0.5528856516 4290100811
-0.2937175333 -0.1142767593 0.5547205210 4291087452
-0.2937682271 -0.1136800423 0.5548162460 4291942761
-0.2942792177 -0.1132602692 0.5557813048 4291876968
-0.2947901189 -0.1128383055 0.5567461848 4291548003
-0.2953009009 -0.1124141738 0.5577108860 4291351125
-0.2958116233 -0.1119878590 0.5586754084 4290824781
-0.2958613932 -0.1113858670 0.5587694049 4290758729
-0.2959108949 -0.1107835695 0.5588629246 4290298178
-0.2964211404 -0.1103525907 0.5598266125 4290035508
-0.2969312966 -0.1099194363 0.5607900620 4289574957
-0.2974413633 -0.1094841063 0.5617533922 4289312045
-0.2970288694 -0.1087089851 0.5609743595 4289246252
-0.2994322777 -0.1083319560 0.5655134916 4288720924
-0.2999419868 -0.1078869700 0.5664761066 4288327462
-0.3009131253 -0.1076048464 0.5683102012 4288656427
-0.3000378907 -0.1066622734 0.5666572452 4291086519
-0.3575228155 -0.1792392731 0.6766437292 4290363844
-0.3571456969 -0.1782992035 0.6759299636 4287466869
-0.3558579981 -0.1769080311 0.6734928489 4286414181
-0.3563900590 -0.1764231175 0.6744998097 4287400260
-0.3560115099 -0.1754871011 0.6737834215 4287466053
-0.3547217846 -0.1741054654 0.6713424921 4287728929
-0.3520648479 -0.1720610559 0.6663140059 4287531550
-0.3074959219 -0.1496327221 0.5819633007 4287992084
-0.3007263839 -0.1457061917 0.5691514015 4288321049
-0.2975997031 -0.1435654759 0.5632338524 4288189455
-0.2962947786 -0.1423129141 0.5607641935 4288057869
-0.2954449654 -0.1412834823 0.5591558218 4287794697
-0.2945945561 -0.1402573287 0.5575463772 4287728904
-0.2941996455 -0.1394506693 0.5567989349 4287860490
-0.2938043177 -0.1386454850 0.5560507774 4287926283
-0.2929522693 -0.1376273781 0.5544381738 4287926282
-0.2930124104 -0.1370394826 0.5545520186 4287926282
-0.2926158011 -0.1362386942 0.5538014174 4287861000
-0.2922188044 -0.1354393661 0.5530500412 4287926793
-0.2922780514 -0.1348522305 0.5531622171 4288124172
-0.2918803096 -0.1340549439 0.5524094105 4288189965
-0.2919389904 -0.1334680170 0.5525205135 4288190219
-0.2915405035 -0.1326727867 0.5517663360 4288453391
-0.2915986478 -0.1320860684 0.5518763661 4288716563
-0.2916565537 -0.1314989924 0.5519859195 4288782356
-0.2912569940 -0.1307063848 0.5512297153 4289043473
-0.2913143337 -0.1301195472 0.5513382554 4289043473
-0.2909140289 -0.1293290108 0.5505806208 4288978703
-0.2909708023 -0.1287423968 0.5506880879 4289176082
-0.2910273373 -0.1281554401 0.5507951379 4289112089
-0.2910836637 -0.1275681555 0.5509017110 4289177882
-0.2906819582 -0.1267808676 0.5501414537 4289047058
-0.2907377183 -0.1261938065 0.5502469540 4288981265
-0.2907932103 -0.1256064177 0.5503519773 4288783124
-0.2903904617 -0.1248218194 0.5495897532 4288848917
-0.2904454172 -0.1242346913 0.5496937633 4288914456
-0.2905001044 -0.1236472279 0.5497972965 4288782870
-0.2905545831 -0.1230594292 0.5499003530 4289244443
-0.2906088233 -0.1224713027 0.5500029922 4290428717
-0.2906627953 -0.1218828559 0.5501051545 4289836877
-0.2907165587 -0.1212940738 0.5502068996 4289376326
-0.2912286818 -0.1208953485 0.5511761904 4290298226
-0.2912820280 -0.1203049943 0.5512771606 4291877258
-0.2913351357 -0.1197143048 0.5513776541 4293127062
-0.2913880050 -0.1191233024 0.5514777303 4292337546
-0.2914406359 -0.1185319722 0.5515773296 4291021935
-0.2914930284 -0.1179403216 0.5516764522 4290692970
-0.2915451527 -0.1173483580 0.5517750978 4290298715
-0.2915970683 -0.1167560741 0.5518733263 4289574992
-0.2916487157 -0.1161634773 0.5519710779 4289377348
-0.2917001247 -0.1155705601 0.5520683527 4289772106
-0.2917512655 -0.1149773374 0.5521652102 4290100811
-0.2922617197 -0.1145639345 0.5531312823 4289969225
-0.2927720845 -0.1141483486 0.5540971756 4290232395
-0.2932823598 -0.1137305796 0.5550628901 4290692946
-0.2933327556 -0.1131333113 0.5551583171 4290692944
-0.2938427627 -0.1127121150 0.5561235547 4290561358
-0.2943526804 -0.1122887507 0.5570886135 4290430023
-0.2948625088 -0.1118631959 0.5580534935 4290364230
-0.2949121594 -0.1112618893 0.5581474900 4290692934
-0.2954217196 -0.1108329222 0.5591118336 4290495555
-0.2954709530 -0.1102300733 0.5592049956 4290298164
-0.2955199182 -0.1096269190 0.5592976809 4289640234
-0.2960290313 -0.1091932878 0.5602612495 4289312043
-0.2965380251 -0.1087574810 0.5612245798 4289443629
-0.2970469296 -0.1083194911 0.5621876717 4288654877
-0.2980163395 -0.1080463231 0.5640223622 4288654877
-0.2985250950 -0.1076030359 0.5649852753 4288590365
-0.3004160225 -0.1076529026 0.5685640574 4288261400
-0.3013856411 -0.1073665991 0.5703991055 4289837450
-0.3028161824 -0.1072394624 0.5731065273 4293192893
-0.3555640876 -0.1786327809 0.6743541360 4288455328
-0.3556415737 -0.1779222786 0.6745011210 4286676571
-0.3543558717 -0.1765323579 0.6720626950 4286610778
-0.3530693054 -0.1751474291 0.6696226001 4287136049
-0.3522363901 -0.1739919931 0.6680428982 4287465014
-0.3487497568 -0.1707999259 0.6614302397 4287399446
-0.3042545915 -0.1483673304 0.5770418048 4287728914
-0.2993153930 -0.1453280300 0.5676742792 4287926293
-0.2966487408 -0.1434081793 0.5626167655 4287991822
-0.2958010435 -0.1423750520 0.5610089898 4287860236
-0.2944975197 -0.1411270648 0.5585368276 4287728650
-0.2936484814 -0.1401014179 0.5569265485 4287728650
-0.2932541966 -0.1392953396 0.5561787486 4287860490
-0.2928594947 -0.1384907365 0.5554301143 4287992076
-0.2924643457 -0.1376875937 0.5546807647 4287992076
-0.2920688093 -0.1368859112 0.5539305806 4287926283
-0.2916728258 -0.1360857040 0.5531795621 4287926795
-0.2917322814 -0.1354987025 0.5532923341 4287926795
-0.2913355827 -0.1347005218 0.5525398850 4288124172
-0.2913944423 -0.1341137141 0.5526515841 4288189965
-0.2914531231 -0.1335265487 0.5527628064 4288255758
-0.2910553217 -0.1327309906 0.5520083904 4288387344
-0.2906571329 -0.1319369227 0.5512531996 4288584723
-0.2907148898 -0.1313505322 0.5513627529 4288650516
-0.2903159559 -0.1305585206 0.5506061316 4288912146
-0.2903731763 -0.1299723685 0.5507146120 4288780560
-0.2904301286 -0.1293858737 0.5508226752 4288781324
-0.2900301218 -0.1285964996 0.5500640273 4289044496
-0.2900865376 -0.1280102432 0.5501710176 4288914456
-0.2901427150 -0.1274236292 0.5502775908 4289111835
-0.2897416651 -0.1266369373 0.5495169163 4289112597
-0.2897972763 -0.1260505766 0.5496224165 4289046804
-0.2898526490 -0.1254638731 0.5497274399 4288783383
-0.2899077833 -0.1248768419 0.5498320460 4288980762
-0.2895053327 -0.1240934357 0.5490687490 4289507108
-0.2895599306 -0.1235066578 0.5491722226 4288914971
-0.2896683514 -0.1223321185 0.5493779182 4289837863
-0.2897222340 -0.1217443496 0.5494800806 4289442386
-0.2902336121 -0.1213476583 0.5504499674 4289639765
-0.2902870774 -0.1207583100 0.5505514145 4290167164
-0.2903403044 -0.1201686412 0.5506523252 4291154059
-0.2903932929 -0.1195786446 0.5507528186 4291811728
-0.2904460430 -0.1189883277 0.5508528352 4291482763
-0.2904985547 -0.1183976904 0.5509524345 4291416705
-0.2905507982 -0.1178067252 0.5510515571 4291614084
-0.2906028330 -0.1172154546 0.5511502028 4290825067
-0.2906545997 -0.1166238561 0.5512483716 4289180242
-0.2911646366 -0.1162149608 0.5522157550 4288982338
-0.2912160158 -0.1156218052 0.5523131490 4289837647
-0.2912671268 -0.1150283366 0.5524101257 4290297936
-0.2917767763 -0.1146147624 0.5533766747 4290166350
-0.2922863364 -0.1141990125 0.5543431044 4290232136
-0.2923368812 -0.1136027426 0.5544389486 4290495308
-0.2928461730 -0.1131835580 0.5554049015 4290561098
-0.2928963006 -0.1125857309 0.5554999709 4290429512
-0.2934053540 -0.1121631265 0.5564653873 4290166853
-0.2939142883 -0.1117383465 0.5574306250 4290232646
-0.2944231331 -0.1113113761 0.5583957434 4291021384
-0.2944725156 -0.1107095182 0.5584893227 4290955591
-0.2945216000 -0.1101073548 0.5585824847 4290363955
-0.2950300276 -0.1096757278 0.5595467091 4289508646
-0.2955383360 -0.1092419177 0.5605107546 4289180197
-0.2951271236 -0.1084680259 0.5597308874 4289311783
-0.2965546250 -0.1083677635 0.5624382496 4288457498
-0.2970626354 -0.1079274192 0.5634016991 4288325912
-0.2975704968 -0.1074848920 0.5643649697 4288392724
-0.2985382974 -0.1072053686 0.5662004352 4288261138
-0.2995060980 -0.1069217846 0.5680359602 4288851548
-0.3004739583 -0.1066341326 0.5698715448 4291812233
-0.3539849818 -0.1789623499 0.6727764010 4291547591
-0.3540624678 -0.1782538593 0.6729236841 4286744702
-0.3536862433 -0.1773175895 0.6722086668 4286347596
-0.3533095717 -0.1763826609 0.6714927554 4286742354
-0.3520251215 -0.1749980599 0.6690515876 4287201834
-0.3507398069 -0.1736184657 0.6666087508 4287399213
-0.3494536579 -0.1722438633 0.6641643047 4287662359
-0.3449890912 -0.1693148017 0.6556790471 4287530773
-0.3014757931 -0.1473225802 0.5729785562 4287465488
-0.2979067862 -0.1449494362 0.5661953688 4287860246
-0.2961528897 -0.1434706897 0.5628619790 4287794956
-0.2948523462 -0.1422179937 0.5603901744 4287663370
-0.2940053940 -0.1411886364 0.5587804914 4287597577
-0.2931578159 -0.1401625574 0.5571696162 4287663370
-0.2927642465 -0.1393561661 0.5564215779 4287794954
-0.2923702300 -0.1385512203 0.5556727648 4288058126
-0.2919758260 -0.1377477497 0.5549231172 4288123662
-0.2915809751 -0.1369457543 0.5541726947 4287926283
-0.2911857367 -0.1361452192 0.5534214973 4287992075
-0.2907900512 -0.1353461742 0.5526694655 4288057868
-0.2908491194 -0.1347594857 0.5527817607 4288189454
-0.2909079790 -0.1341724396 0.5528935790 4288255247
-0.2905112207 -0.1333759874 0.5521395206 4288386831
-0.2905695140 -0.1327891499 0.5522503257 4288452624
-0.2901720107 -0.1319947541 0.5514948368 4288584210
-0.2902297378 -0.1314081401 0.5516045690 4288650003
-0.2898315191 -0.1306158006 0.5508477092 4288715280
-0.2898886800 -0.1300294101 0.5509563684 4288517901
-0.2899456024 -0.1294426769 0.5510645509 4288387849
-0.2900023162 -0.1288556010 0.5511723161 4288585228
-0.2896026969 -0.1280664951 0.5504127741 4288520213
-0.2896588147 -0.1274796426 0.5505194664 4288717592
-0.2897147238 -0.1268924624 0.5506257415 4288784915
-0.2893140614 -0.1261060387 0.5498642325 4288784915
-0.2893693745 -0.1255190969 0.5499693751 4288718619
-0.2894244790 -0.1249318272 0.5500741005 4289179170
-0.2894793451 -0.1243442148 0.5501783490 4290166067
-0.2890772820 -0.1235610768 0.5494142175 4289113379
-0.2891315818 -0.1229737327 0.5495173931 4288062481
-0.2891856432 -0.1223860607 0.5496201515 4289509927
-0.2892394662 -0.1217980534 0.5497224331 4289969760
-0.2892930508 -0.1212097257 0.5498242974 4291417206
-0.2893463671 -0.1206210628 0.5499256849 4291680917
-0.2898566723 -0.1202217042 0.5508955121 4291351952
-0.2899096012 -0.1196314692 0.5509961247 4291285388
-0.2899623215 -0.1190409064 0.5510962605 4291351181
-0.2900147736 -0.1184500307 0.5511959791 4291417222
-0.2900669873 -0.1178588271 0.5512952209 4291943566
-0.2901189625 -0.1172673032 0.5513940454 4291614587
-0.2901706994 -0.1166754663 0.5514923334 4289706590
-0.2902221978 -0.1160833165 0.5515902042 4289114441
-0.2902734280 -0.1154908463 0.5516875982 4289772371
-0.2912402749 -0.1152605191 0.5535251498 4290166350
-0.2917492092 -0.1148458496 0.5544924140 4290034764
-0.2917999625 -0.1142496392 0.5545888543 4290034755
-0.2918504477 -0.1136531159 0.5546848774 4290034755
-0.2919006944 -0.1130562872 0.5547803640 4290166594
-0.2924090326 -0.1126356944 0.5557464957 4290100801
-0.2924588621 -0.1120373160 0.5558412075 4290101061
-0.2929669321 -0.1116132960 0.5568068027 4290166854
-0.2934749126 -0.1111871004 0.5577722788 4291152970
-0.2939828038 -0.1107587144 0.5587375164 4291218763
-0.2940318584 -0.1101563051 0.5588307977 4290626868
-0.2940806746 -0.1095535904 0.5589236021 4289639973
-0.2950469851 -0.1092905104 0.5607600808 4289114656
-0.2955543697 -0.1088543460 0.5617244244 4289180449
-0.2960616648 -0.1084159985 0.5626885891 4288523032
-0.2970279455 -0.1081426218 0.5645250678 4288325653
-0.2975351214 -0.1076989695 0.5654889941 4288392206
-0.2985014021 -0.1074183956 0.5673254728 4288589585
-0.2994677126 -0.1071337536 0.5691620708 4288391228
-0.2995153069 -0.1065183058 0.5692524910 4290496604
-0.3515809178 -0.1781229526 0.6696208119 4290099124
-0.3516579568 -0.1774178147 0.6697675586 4285559407
-0.3512820601 -0.1764847934 0.6690515876 4286151230
-0.3509056568 -0.1755531281 0.6683347225 4286282816
-0.3496230543 -0.1741716117 0.6658918858 4287136801
-0.3478865921 -0.1725703776 0.6625846028 4287465766
-0.3456960320 -0.1707521975 0.6584124565 4287597341
-0.2968274951 -0.1459860802 0.5653374791 4287597341
-0.3005169928 -0.1471647024 0.5723644495 4287467284
-0.2951404750 -0.1439072341 0.5621243715 4287467284
-0.2938425541 -0.1426525712 0.5596523881 4287925515
-0.2929974198 -0.1416222453 0.5580427051 4287991308
-0.2921516299 -0.1405952126 0.5564318299 4288057099
-0.2917590141 -0.1397888511 0.5556840301 4287991306
-0.2918197811 -0.1392004490 0.5557998419 4287926283
-0.2914264202 -0.1383960992 0.5550506115 4288057869
-0.2910326123 -0.1375932246 0.5543005466 4287992076
-0.2906384170 -0.1367918104 0.5535497665 4287860490
-0.2902437747 -0.1359918714 0.5527981520 4287860489
-0.2898487151 -0.1351934075 0.5520457029 4287992075
-0.2903620601 -0.1348183900 0.5530233979 4288124174
-0.2899663448 -0.1340210587 0.5522697568 4288189967
-0.2900248170 -0.1334343404 0.5523810983 4288189965
-0.2896283567 -0.1326390505 0.5516260266 4288255758
-0.2896862924 -0.1320525557 0.5517363548 4288321551
-0.2892890871 -0.1312593222 0.5509798527 4288255758
-0.2888914943 -0.1304675788 0.5502225757 4288322323
-0.2889485359 -0.1298818737 0.5503312349 4287927565
-0.2890053093 -0.1292958260 0.5504393578 4288518671
-0.2890618742 -0.1287094355 0.5505471230 4288781843
-0.2891182005 -0.1281227022 0.5506543517 4288783121
-0.2887189090 -0.1273347735 0.5498938560 4288717328
-0.2887746692 -0.1267482787 0.5500000715 4288654608
-0.2883746326 -0.1259624511 0.5492381454 4288523022
-0.2884298265 -0.1253762096 0.5493432879 4288784921
-0.2884847820 -0.1247896180 0.5494479537 4288784921
-0.2885395288 -0.1242027059 0.5495522022 4290953790
-0.2885940075 -0.1236154512 0.5496559739 4290230067
-0.2881922722 -0.1228335127 0.5488908291 4287929103
-0.2882461846 -0.1222465262 0.5489935279 4289244963
-0.2887560725 -0.1218517125 0.5499646068 4290363514
-0.2888095975 -0.1212631464 0.5500665903 4292008339
-0.2888628840 -0.1206742451 0.5501680970 4292535455
-0.2889159620 -0.1200850233 0.5502691865 4292206490
-0.2889687717 -0.1194954738 0.5503697395 4292337306
-0.2890213430 -0.1189056039 0.5504699349 4292271513
-0.2890736759 -0.1183154136 0.5505695939 4291811212
-0.2895825207 -0.1179108843 0.5515387654 4292008591
-0.2896344662 -0.1173191220 0.5516376495 4292140677
-0.2896861732 -0.1167270392 0.5517361164 4291087989
-0.2897376120 -0.1161346436 0.5518341064 4289706831
-0.2897888124 -0.1155419350 0.5519316196 4290364761
-0.2902969420 -0.1151302159 0.5528993607 4290364490
-0.2908049822 -0.1147163138 0.5538669825 4290627662
-0.2908555865 -0.1141207963 0.5539634228 4290166853
-0.2913633883 -0.1137034595 0.5549305677 4290166853
-0.2914136052 -0.1131063849 0.5550261736 4289772355
-0.2919211090 -0.1126856208 0.5559928417 4289706562
-0.2919709086 -0.1120869890 0.5560876727 4290232133
-0.2924781740 -0.1116628051 0.5570538044 4290561098
-0.2925275564 -0.1110626236 0.5571478605 4290693439
-0.2930345535 -0.1106350049 0.5581134558 4290890818
-0.2930835187 -0.1100332811 0.5582067370 4290693439
-0.2931322157 -0.1094312593 0.5582994819 4289640751
-0.2940968573 -0.1091690212 0.5601367354 4288917788
-0.2941452265 -0.1085645184 0.5602288246 4289049374
-0.2946515679 -0.1081278771 0.5611932278 4288852258
-0.2951577902 -0.1076890528 0.5621573925 4288786465
-0.2961223423 -0.1074143276 0.5639944673 4288523796
-0.2966284454 -0.1069701985 0.5649583340 4288852761
-0.2975929677 -0.1066882834 0.5667954087 4288852256
-0.3003920019 -0.1070560664 0.5721264482 4289181221
-0.2999808192 -0.1062747315 0.5713433027 4291875742
-0.3064506352 -0.1079183072 0.5836657286 4294507462
-0.3496339023 -0.1775120348 0.6673241854 4288783517
-0.3497105837 -0.1768093556 0.6674705744 4285428074
-0.3488831520 -0.1756511629 0.6658912897 4286282555
-0.3485070765 -0.1747227609 0.6651734710 4286348348
-0.3472262919 -0.1733442992 0.6627289653 4287136800
-0.3454924524 -0.1717460603 0.6594196558 4287268386
-0.3419483006 -0.1692591012 0.6526551247 4287400216
-0.3071860671 -0.1514008939 0.5863066316 4287531802
-0.2986540198 -0.1465624422 0.5700221062 4287467023
-0.2960019410 -0.1446332335 0.5649602413 4287532816
-0.2942538559 -0.1431550831 0.5616238117 4287794697
-0.2929575741 -0.1419031769 0.5591496825 4287926283
-0.2921133935 -0.1408748031 0.5575383902 4288057869
-0.2912685871 -0.1398497075 0.5559259653 4287992076
-0.2908762395 -0.1390444934 0.5551771522 4287926283
-0.2904834747 -0.1382407397 0.5544275045 4287926283
-0.2905435562 -0.1376531869 0.5545421839 4287926282
-0.2901500762 -0.1368514597 0.5537911057 4287860489
-0.2897561491 -0.1360511929 0.5530393124 4287729416
-0.2893618047 -0.1352524161 0.5522866249 4287729416
-0.2894206941 -0.1346661747 0.5523990393 4287861002
-0.2894793451 -0.1340795904 0.5525109768 4287992588
-0.2890839279 -0.1332834065 0.5517563224 4288058381
-0.2891420424 -0.1326970309 0.5518671870 4288124174
-0.2887459099 -0.1319029033 0.5511111021 4288124174
-0.2888034284 -0.1313167512 0.5512208939 4288058381
-0.2884065509 -0.1305246800 0.5504634380 4287927563
-0.2884635329 -0.1299387515 0.5505721569 4287861770
-0.2885202765 -0.1293524653 0.5506804585 4288321292
-0.2885767817 -0.1287658364 0.5507883430 4288189706
-0.2886330783 -0.1281788647 0.5508957505 4287994119
-0.2882345021 -0.1273906082 0.5501350164 4288520463
-0.2882902026 -0.1268038750 0.5502413511 4288917528
-0.2878908813 -0.1260177344 0.5494791865 4288391184
-0.2879460454 -0.1254312545 0.5495844483 4288126993
-0.2880009711 -0.1248444244 0.5496892929 4288455958
-0.2880556583 -0.1242572740 0.5497936606 4290362164
-0.2881101072 -0.1236697882 0.5498976111 4290362164
-0.2877090871 -0.1228875220 0.5491321683 4288323861
-0.2877629697 -0.1223002970 0.5492350459 4288915998
-0.2878166139 -0.1217127442 0.5493374467 4290297975
-0.2883255184 -0.1213165224 0.5503087044 4291877007
-0.2883787751 -0.1207273826 0.5504103899 4291811477
-0.2884317935 -0.1201379225 0.5505115390 4292074649
-0.2884845734 -0.1195481345 0.5506122708 4292271514
-0.2885370851 -0.1189580262 0.5507125854 4291942549
-0.2885893881 -0.1183675900 0.5508123636 4291548042
-0.2886414528 -0.1177768409 0.5509117246 4291416456
-0.2891493142 -0.1173708960 0.5518810749 4291153784
-0.2892009914 -0.1167785749 0.5519796610 4290693233
-0.2892523706 -0.1161859334 0.5520777702 4289575245
-0.2893035412 -0.1155929789 0.5521754622 4290364761
-0.2898108661 -0.1151810959 0.5531437397 4290496329
-0.2903181016 -0.1147670299 0.5541118383 4291417431
-0.2903686762 -0.1141712591 0.5542083979 4290693446
-0.2908756733 -0.1137537658 0.5551760197 4289903930
-0.2909258306 -0.1131564379 0.5552718043 4289969723
-0.2914325595 -0.1127355099 0.5562389493 4290167102
-0.2914823294 -0.1121366322 0.5563338995 4290495555
-0.2919887900 -0.1117122695 0.5573005676 4291021899
-0.2920381129 -0.1111118421 0.5573947430 4291153987
-0.2925443053 -0.1106840521 0.5583608747 4291022401
-0.2925932109 -0.1100820750 0.5584542155 4290561850
-0.2926418781 -0.1094797999 0.5585471392 4289706541
-0.2931476235 -0.1090473458 0.5595124364 4289049374
-0.2936532795 -0.1086127087 0.5604774952 4288917788
-0.2941588163 -0.1081758887 0.5614423752 4288654879
-0.2946642637 -0.1077368855 0.5624070764 4288786465
-0.2951695919 -0.1072957069 0.5633715987 4288720660
-0.2961325049 -0.1070177406 0.5652094483 4288852246
-0.2970954776 -0.1067357138 0.5670474172 4288918301
-0.2980584800 -0.1064496115 0.5688854456 4288918301
-0.3008531928 -0.1068097278 0.5742195249 4290625406
-0.2990685701 -0.1055419371 0.5708133578 4293783470
-0.3476907015 -0.1769004613 0.6650251150 4287402113
-0.3473159671 -0.1759717017 0.6643083692 4285559909
-0.3469407558 -0.1750442982 0.6635906696 4286480439
-0.3461138308 -0.1738915443 0.6620090008 4286283060
-0.3452862501 -0.1727419645 0.6604260802 4287071261
-0.3431036472 -0.1709208935 0.6562514305 4287137054
-0.3382104933 -0.1677645743 0.6468923688 4287399446
-0.3044095635 -0.1503511965 0.5822416544 4287662618
-0.2972467542 -0.1461817026 0.5685413480 4287532556
-0.2950508296 -0.1444747597 0.5643412471 4287664142
-0.2933056653 -0.1429969072 0.5610032678 4287926795
-0.2924635410 -0.1419648230 0.5593925714 4287926795
-0.2916208208 -0.1409360319 0.5577807426 4288058381
-0.2903252840 -0.1396929324 0.5553027391 4288058381
-0.2899335623 -0.1388882995 0.5545535088 4287926795
-0.2895414233 -0.1380851269 0.5538034439 4287795209
-0.2891488671 -0.1372834444 0.5530526042 4287729416
-0.2892085016 -0.1366971433 0.5531666279 4287729416
-0.2892678678 -0.1361104697 0.5532802343 4287663623
-0.2888742685 -0.1353113651 0.5525273681 4287532037
-0.2884802222 -0.1345137358 0.5517737269 4287597830
-0.2885387242 -0.1339278370 0.5518856049 4287729416
-0.2881439626 -0.1331322491 0.5511305332 4287795209
-0.2882019281 -0.1325465590 0.5512413979 4287861002
-0.2882596552 -0.1319605112 0.5513517857 4287926795
-0.2883171439 -0.1313741207 0.5514617562 4287861002
-0.2879209816 -0.1305817366 0.5507040024 4287861000
-0.2879779041 -0.1299955696 0.5508129001 4287926793
-0.2880346179 -0.1294090450 0.5509213805 4288189706
-0.2876373827 -0.1286193132 0.5501616001 4288123913
-0.2876935303 -0.1280330271 0.5502690077 4287796486
-0.2877494395 -0.1274464130 0.5503759384 4288454416
-0.2878051102 -0.1268594414 0.5504824519 4288917277
-0.2874065042 -0.1260729581 0.5497200489 4288061968
-0.2874616385 -0.1254862398 0.5498254299 4288390167
-0.2875165045 -0.1248991936 0.5499303937 4288324374
-0.2875711620 -0.1243117973 0.5500349402 4289046303
-0.2876255512 -0.1237240732 0.5501389503 4289441061
-0.2872252464 -0.1229414865 0.5493733287 4288192788
-0.2872790992 -0.1223540232 0.5494763255 4288719132
-0.2873327136 -0.1217662394 0.5495788455 4290297973
-0.2873860598 -0.1211781204 0.5496808887 4291284868
-0.2878940105 -0.1207804754 0.5506524444 4291088005
-0.2879469693 -0.1201907769 0.5507537723 4290890626
-0.2879997194 -0.1196007505 0.5508546233 4290759040
-0.2880522013 -0.1190103963 0.5509550571 4291285384
-0.2881044447 -0.1184197217 0.5510549545 4292272016
-0.2881564796 -0.1178287342 0.5511544347 4291877258
-0.2882082462 -0.1172374189 0.5512534976 4290693231
-0.2882597744 -0.1166457832 0.5513520241 4290364266
-0.2887665331 -0.1162371784 0.5523213148 4289706578
-0.2892732024 -0.1158263832 0.5532904267 4290101336
-0.2893241644 -0.1152319312 0.5533878803 4290101322
-0.2898305655 -0.1148177013 0.5543565154 4291746147
-0.2898811102 -0.1142216921 0.5544531941 4291351379
-0.2903873026 -0.1138040274 0.5554213524 4289903933
-0.2904374301 -0.1132064536 0.5555172563 4289772345
-0.2909433544 -0.1127853543 0.5564848781 4289838138
-0.2909930646 -0.1121862307 0.5565800071 4290495806
-0.2910425365 -0.1115867943 0.5566745996 4290956357
-0.2910917699 -0.1109870598 0.5567687750 4290891067
-0.2915970683 -0.1105600372 0.5577352643 4290430516
-0.2921022773 -0.1101308316 0.5587015748 4289904172
-0.2921509147 -0.1095283031 0.5587946177 4289509414
-0.2921992838 -0.1089254767 0.5588871241 4289115422
-0.2927040458 -0.1084916070 0.5598526001 4288786457
-0.2932087183 -0.1080555543 0.5608178377 4288786206
-0.2941700518 -0.1077846810 0.5626565814 4288786206
-0.2946745753 -0.1073433161 0.5636215806 4288720914
-0.2956359386 -0.1070652530 0.5654603839 4288720914
-0.2961403131 -0.1066185758 0.5664250851 4288983832
-0.2975587547 -0.1064969003 0.5691381097 4288852246
-0.2989773750 -0.1063692495 0.5718514919 4289178712
-0.3008533716 -0.1063973382 0.5754396915 4292665741
-0.3461252153 -0.1772159785 0.6634401679 4291218648
-0.3457513452 -0.1762882173 0.6627235413 4286875761
-0.3453769982 -0.1753618270 0.6620060205 4286152038
-0.3445518017 -0.1742090583 0.6604242921 4286743347
-0.3437259495 -0.1730594784 0.6588413119 4286217003
-0.3428994119 -0.1719130874 0.6572570801 4286873880
-0.3407201767 -0.1700948924 0.6530799866 4287005466
-0.3353841901 -0.1667167991 0.6428521872 4287399446
-0.3016400635 -0.1493004709 0.5781726837 4287662618
-0.2962928414 -0.1460227966 0.5679233074 4287532554
-0.2941006124 -0.1443160623 0.5637212992 4287861519
-0.2928095162 -0.1430589259 0.5612465739 4287992333
-0.2915176153 -0.1418069154 0.5587702990 4287926540
-0.2906762660 -0.1407786012 0.5571576953 4287926540
-0.2898343205 -0.1397535950 0.5555438995 4287992333
-0.2894433141 -0.1389486343 0.5547944307 4287926540
-0.2890519202 -0.1381451488 0.5540441275 4287794954
-0.2891117930 -0.1375580579 0.5541589260 4287729161
-0.2882678211 -0.1365425885 0.5525411963 4287729161
-0.2883270681 -0.1359566152 0.5526548028 4287597575
-0.2879340649 -0.1351580918 0.5519015193 4287465989
-0.2884448767 -0.1347835809 0.5528805852 4287531782
-0.2880512178 -0.1339861900 0.5521260500 4287597575
-0.2876571715 -0.1331902742 0.5513707399 4287597577
-0.2877150774 -0.1326043606 0.5514817238 4287597577
-0.2873202860 -0.1318105012 0.5507250428 4287729163
-0.2873776257 -0.1312247962 0.5508349538 4287860749
-0.2874347568 -0.1306387484 0.5509444475 4287926282
-0.2870388925 -0.1298475415 0.5501856804 4287860489
-0.2870954573 -0.1292617023 0.5502941012 4287992073
-0.2871517837 -0.1286755353 0.5504021049 4288386831
-0.2872079015 -0.1280890107 0.5505096316 4288125453
-0.2868106663 -0.1273010522 0.5497481823 4288322832
-0.2868661880 -0.1267147660 0.5498546362 4288521500
-0.2869215012 -0.1261281520 0.5499606729 4287797777
-0.2869765759 -0.1255411953 0.5500662327 4288389914
-0.2870314121 -0.1249539107 0.5501713157 4288192535
-0.2870860100 -0.1243662834 0.5502759814 4288388373
-0.2871403694 -0.1237783208 0.5503801703 4288651545
-0.2867407799 -0.1229954064 0.5496142507 4287863569
-0.2867945731 -0.1224077120 0.5497174263 4288521499
-0.2868481576 -0.1218196824 0.5498200655 4289706085
-0.2869014740 -0.1212313250 0.5499222875 4289837671
-0.2869545519 -0.1206426397 0.5500240326 4289377902
-0.2870074213 -0.1200536340 0.5501253009 4289377902
-0.2870600224 -0.1194642931 0.5502261519 4289180262
-0.2871123850 -0.1188746393 0.5503265262 4289443434
-0.2871645093 -0.1182846576 0.5504264832 4290627959
-0.2876708508 -0.1178805828 0.5513970256 4290956924
-0.2877225876 -0.1172890291 0.5514961481 4290298727
-0.2882286906 -0.1168815121 0.5524662137 4290035555
-0.2882800102 -0.1162883863 0.5525646210 4289640787
-0.2887858748 -0.1158774272 0.5535342097 4290101338
-0.2888368070 -0.1152827293 0.5536318421 4290495828
-0.2888874710 -0.1146877259 0.5537289381 4292009067
-0.2893929183 -0.1142720804 0.5546978116 4291745886
-0.2894431949 -0.1136755124 0.5547941327 4290166854
-0.2899483740 -0.1132564247 0.5557624698 4289640761
-0.2899982333 -0.1126582995 0.5558580160 4289574968
-0.2905031741 -0.1122357845 0.5568258762 4289903922
-0.2905525863 -0.1116361022 0.5569205880 4290232887
-0.2906017900 -0.1110361218 0.5570148826 4290035756
-0.2911062837 -0.1106089279 0.5579819083 4289509412
-0.2911550403 -0.1100073904 0.5580753684 4289377826
-0.2916592658 -0.1095767692 0.5590418577 4289312033
-0.2917076051 -0.1089736968 0.5591344833 4289049627
-0.2922115624 -0.1085396484 0.5601004958 4288720662
-0.2927154303 -0.1081034169 0.5610662699 4288786204
-0.2932191789 -0.1076649949 0.5620318055 4288786204
-0.2941789031 -0.1073908955 0.5638713837 4288589327
-0.2946825325 -0.1069471687 0.5648367405 4288786706
-0.2956422567 -0.1066658646 0.5666763186 4289049625
-0.2966020405 -0.1063804850 0.5685159564 4288983832
-0.2961927056 -0.1056028754 0.5677313805 4288718406
-0.2998910546 -0.1062828004 0.5748202205 4291481712
-0.3441892266 -0.1766007245 0.6611368656 4290495180
-0.3442651927 -0.1759049743 0.6612827778 4286941802
-0.3438913822 -0.1749800295 0.6605647206 4286612837
-0.3430674374 -0.1738286167 0.6589820385 4286875438
-0.3422428668 -0.1726803929 0.6573981643 4286020129
-0.3409677744 -0.1713093519 0.6549488902 4286610706
-0.3383421004 -0.1692680568 0.6499053240 4286939671
-0.3316647708 -0.1652196497 0.6370792389 4287267862
-0.3002278805 -0.1489185393 0.5766935945 4287399448
-0.2957900465 -0.1460859925 0.5681691170 4287465991
-0.2936015725 -0.1443785429 0.5639653802 4287992335
-0.2923127115 -0.1431208998 0.5614897013 4288058126
-0.2910230756 -0.1418683678 0.5590124726 4287860747
-0.2901832163 -0.1408396363 0.5573992133 4287794956
-0.2893427312 -0.1398141980 0.5557848215 4287860749
-0.2889524698 -0.1390089244 0.5550351143 4287860749
-0.2885617614 -0.1382051110 0.5542846322 4287794956
-0.2886216044 -0.1376177967 0.5543996096 4287729163
-0.2882301509 -0.1368160099 0.5536476970 4287794956
-0.2878382802 -0.1360156983 0.5528949499 4287597577
-0.2874459922 -0.1352168620 0.5521414876 4287597577
-0.2875046432 -0.1346308589 0.5522541404 4287531784
-0.2875630558 -0.1340444833 0.5523663163 4287465991
-0.2871697247 -0.1332482547 0.5516107678 4287465991
-0.2872276008 -0.1326621026 0.5517219305 4287465991
-0.2868335247 -0.1318679303 0.5509649515 4287531786
-0.2864390314 -0.1310752481 0.5502071977 4287729165
-0.2864960134 -0.1304898858 0.5503166318 4287925512
-0.2865527570 -0.1299041659 0.5504256487 4287859719
-0.2866092920 -0.1293181181 0.5505342484 4287663111
-0.2866655588 -0.1287316978 0.5506423712 4288255248
-0.2867216170 -0.1281449497 0.5507500172 4288190735
-0.2863250971 -0.1273566633 0.5499883890 4288124942
-0.2863805890 -0.1267701536 0.5500949621 4288060440
-0.2864358723 -0.1261833012 0.5502011180 4287665682
-0.2864908874 -0.1255961061 0.5503067970 4288192024
-0.2865456641 -0.1250085831 0.5504120588 4287994645
-0.2866002321 -0.1244207174 0.5505168438 4288322581
-0.2866545320 -0.1238325164 0.5506211519 4288190995
-0.2862556875 -0.1230492890 0.5498550534 4287468299
-0.2863094509 -0.1224613488 0.5499582887 4288192022
-0.2863629758 -0.1218730882 0.5500611067 4289771868
-0.2864162326 -0.1212844923 0.5501634479 4290561384
-0.2864692807 -0.1206955686 0.5502653122 4289969788
-0.2865220904 -0.1201063171 0.5503667593 4290232960
-0.2865746617 -0.1195167452 0.5504677296 4290627454
-0.2866269946 -0.1189268455 0.5505682230 4290232696
-0.2866790593 -0.1183366254 0.5506682992 4289509729
-0.2867309153 -0.1177460849 0.5507678390 4288720213
-0.2876900434 -0.1175259650 0.5526102185 4288456772
-0.2877415717 -0.1169329137 0.5527092218 4288719944
-0.2877928615 -0.1163395494 0.5528077483 4289114690
-0.2878439128 -0.1157458648 0.5529057384 4290035792
-0.2883487940 -0.1153334901 0.5538755655 4290890834
-0.2883994281 -0.1147382408 0.5539728403 4291548764
-0.2884498239 -0.1141426712 0.5540696383 4291088204
-0.2889542878 -0.1137256101 0.5550386310 4289903930
-0.2890042663 -0.1131284907 0.5551346540 4289378091
-0.2895084918 -0.1127079874 0.5561031699 4289575470
-0.2895580530 -0.1121093109 0.5561983585 4289509165
-0.2900620103 -0.1116853729 0.5571663976 4289772337
-0.2901111543 -0.1110851392 0.5572608113 4289509162
-0.2906148434 -0.1106577814 0.5582283139 4289245990
-0.2906635702 -0.1100559980 0.5583218932 4289246753
-0.2907120287 -0.1094539091 0.5584150553 4289246753
-0.2912153006 -0.1090218723 0.5593817234 4288983836
-0.2917184234 -0.1085876450 0.5603481531 4288720664
-0.2922214866 -0.1081512347 0.5613144636 4288720409
-0.2927244306 -0.1077126414 0.5622805357 4288654616
-0.2932272553 -0.1072718650 0.5632464290 4288523281
-0.2941854000 -0.1069945246 0.5650868416 4288983832
-0.2946880758 -0.1065484285 0.5660524368 4288917788
-0.2970128357 -0.1067550853 0.5705179572 4288983581
-0.2988824546 -0.1067892015 0.5741091967 4288850241
-0.3427056670 -0.1762154698 0.6596945524 4290034625
-0.3423327208 -0.1752915233 0.6589766145 4287204714
-0.3419592977 -0.1743689328 0.6582577825 4286809956
-0.3411365151 -0.1732198000 0.6566740274 4287072299
-0.3403131068 -0.1720738411 0.6550889611 4286151197
-0.3390399814 -0.1707049757 0.6526382565 4286413582
-0.3364185393 -0.1686655581 0.6475920677 4286808340
-0.3275060952 -0.1634967923 0.6304360032 4287004690
-0.2992674708 -0.1487595141 0.5760777593 4286938897
-0.2948371172 -0.1459266990 0.5675495267 4287136774
-0.2931018770 -0.1444409788 0.5642092824 4287663118
-0.2918152809 -0.1431828141 0.5617325902 4287926031
-0.2905278802 -0.1419297606 0.5592544079 4287860238
-0.2896895111 -0.1409006119 0.5576405525 4287794445
-0.2888505161 -0.1398747563 0.5560255647 4287860238
-0.2884609401 -0.1390691698 0.5552756786 4287794958
-0.2880709469 -0.1382650286 0.5545249581 4287794958
-0.2876805365 -0.1374623626 0.5537734032 4287794958
-0.2868394256 -0.1364469677 0.5521543026 4287794958
-0.2873488665 -0.1360747367 0.5531349778 4287729165
-0.2869573236 -0.1352755725 0.5523812175 4287663372
-0.2865653336 -0.1344778985 0.5516266823 4287531786
-0.2866236269 -0.1338922232 0.5517388582 4287400200
-0.2866816521 -0.1333061904 0.5518506169 4287465993
-0.2862886190 -0.1325111240 0.5510939956 4287400200
-0.2863461077 -0.1319253147 0.5512046814 4287400200
-0.2859523594 -0.1311323047 0.5504466891 4287531786
-0.2860092819 -0.1305467039 0.5505563021 4287728134
-0.2860659957 -0.1299607605 0.5506654382 4287991306
-0.2861224711 -0.1293744743 0.5507741570 4287728652
-0.2857273221 -0.1285846978 0.5500135422 4287991824
-0.2857832313 -0.1279986352 0.5501211882 4287927565
