VERSION 0.7
FIELDS x y z rgba
SIZE 4 4 4 4
TYPE F F F U
COUNT 1 1 1 1
WIDTH 920
HEIGHT 1
VIEWPOINT 0.0 0.0 0.0 1.0 0.0 0.0 0.0
POINTS 920
DATA ascii
-0.2981953919 -0.1283515841 0.5596556067 4290097434
-0.2982521057 -0.1277540773 0.5597620606 4289835032
-0.2983086109 -0.1271562129 0.5598680973 4290098204
-0.2983648479 -0.1265580207 0.5599736571 4290493223
-0.2984208465 -0.1259594858 0.5600787401 4290559016
-0.2984766066 -0.1253606230 0.5601834059 4290625076
-0.2985321283 -0.1247614101 0.5602875948 4291283006
-0.2985873818 -0.1241618767 0.5603913069 4291612231
-0.2986423969 -0.1235620007 0.5604945421 4291678024
-0.2991588414 -0.1231518537 0.5614638329 4291217473
-0.2992134392 -0.1225503907 0.5615662932 4291151680
-0.2992678285 -0.1219485998 0.5616683364 4291085877
-0.2993219197 -0.1213464886 0.5617699027 4291020084
-0.2993758023 -0.1207440495 0.5618709922 4290888246
-0.2994294167 -0.1201412827 0.5619716048 4291019832
-0.2994827926 -0.1195381880 0.5620718002 4291282755
-0.2999981344 -0.1191183254 0.5630390048 4291216962
-0.3000510931 -0.1185136586 0.5631384254 4291940166
-0.3001037836 -0.1179086789 0.5632373095 4291808580
-0.3001562357 -0.1173033789 0.5633357167 4291874110
-0.3006710112 -0.1168775707 0.5643018484 4291874110
-0.3007230163 -0.1162707061 0.5643994808 4291676986
-0.3017002642 -0.1160194129 0.5662335753 4291479607
-0.3017519414 -0.1154100522 0.5663305521 4291151404
-0.3022662401 -0.1149764508 0.5672957897 4290822439
-0.3023175001 -0.1143655330 0.5673919916 4290888749
-0.3028315306 -0.1139285043 0.5683567524 4291480886
-0.3038085699 -0.1136625558 0.5701904893 4291150904
-0.3038592935 -0.1130478978 0.5702856183 4291874627
-0.3043729961 -0.1126043275 0.5712497830 4292071752
-0.3048866391 -0.1121585742 0.5722137690 4291940166
-0.3054001331 -0.1117106378 0.5731775165 4291348801
-0.3063770533 -0.1114291027 0.5750110149 4290954043
-0.3073540032 -0.1111434996 0.5768445730 4290625587
-0.3078673184 -0.1106871441 0.5778079629 4290428208
-0.3069893718 -0.1097313315 0.5761601925 4289836847
-0.3084298372 -0.1096030623 0.5788637400 4290297398
-0.3094066381 -0.1093049794 0.5806969404 4291941545
-0.3606595993 -0.1842006296 0.6783028841 4289901244
-0.3534335494 -0.1797715127 0.6647126675 4286086467
-0.3589925468 -0.1818488985 0.6751676202 4286020674
-0.3572443426 -0.1802168339 0.6718797088 4286942496
-0.3545812070 -0.1781324297 0.6668710709 4286416152
-0.3148967922 -0.1575379819 0.5922354460 4286547478
-0.3067370057 -0.1528148204 0.5768890977 4286218513
-0.3040602207 -0.1508458853 0.5718547702 4285955848
-0.3022966683 -0.1493392885 0.5685380101 4285890055
-0.3014469743 -0.1482896060 0.5669399500 4285692678
-0.3010541499 -0.1474672854 0.5662012100 4285692678
-0.3006609082 -0.1466463953 0.5654616356 4286021645
-0.3007249832 -0.1460492313 0.5655820966 4286153231
-0.3003309667 -0.1452303082 0.5648410916 4286349828
-0.2999365330 -0.1444128156 0.5640993118 4286547207
-0.2995416820 -0.1435967833 0.5633566976 4286942219
-0.2996045351 -0.1430008411 0.5634748340 4287008012
-0.2996671200 -0.1424045265 0.5635925531 4287008011
-0.2997294664 -0.1418078393 0.5637098551 4287008011
-0.2993331850 -0.1409948468 0.5629645586 4287205129
-0.2984780073 -0.1399683207 0.5613561869 4287270922
-0.2980807722 -0.1391591728 0.5606091022 4287533577
-0.2986004949 -0.1387778372 0.5615865588 4287665163
-0.2982026339 -0.1379697919 0.5608382225 4287797001
-0.2982631922 -0.1373745501 0.5609521270 4287862794
-0.2978645563 -0.1365685314 0.5602024198 4287994119
-0.2979245484 -0.1359734833 0.5603152514 4288257291
-0.2975251675 -0.1351694912 0.5595641136 4288520460
-0.2971253395 -0.1343669593 0.5588122010 4288586253
-0.2976437807 -0.1339794397 0.5597872138 4288849166
-0.2972432971 -0.1331780553 0.5590339899 4288980752
-0.2973019183 -0.1325830668 0.5591442585 4289046029
-0.2973603010 -0.1319877356 0.5592540503 4289177615
-0.2974184453 -0.1313920468 0.5593633652 4289506580
-0.2974763215 -0.1307960004 0.5594722629 4289638166
-0.2975339890 -0.1301996261 0.5595807433 4289637652
-0.2971314490 -0.1294025779 0.5588236451 4289637652
-0.2976485789 -0.1290058196 0.5597962141 4289834264
-0.2977055013 -0.1284084022 0.5599033237 4289768471
-0.2973019779 -0.1276130974 0.5591443777 4289636631
-0.2973583341 -0.1270159185 0.5592503548 4289899803
-0.2978748381 -0.1266141087 0.5602217913 4290690602
-0.2979308069 -0.1260153204 0.5603270531 4291151153
-0.2979865074 -0.1254162043 0.5604317784 4290954300
-0.2980419993 -0.1248167604 0.5605361462 4291546437
-0.2980972230 -0.1242169738 0.5606399775 4292269668
-0.2981521785 -0.1236168593 0.5607433915 4292467047
-0.2982069254 -0.1230164096 0.5608463287 4291940721
-0.2987223864 -0.1226048395 0.5618157983 4291677549
-0.2987767160 -0.1220028028 0.5619179606 4291677531
-0.2983696163 -0.1212130934 0.5611523390 4291611738
-0.2988846004 -0.1207977459 0.5621209145 4291480653
-0.2989381850 -0.1201947331 0.5622216463 4291480653
-0.2989915311 -0.1195913926 0.5623219609 4291546186
-0.2990446091 -0.1189877316 0.5624217987 4291151428
-0.2990974188 -0.1183837503 0.5625211000 4291743559
-0.2991499901 -0.1177794561 0.5626199841 4291480387
-0.2996640503 -0.1173556596 0.5635868311 4291611201
-0.3001780212 -0.1169296801 0.5645534396 4291611201
-0.3006919026 -0.1165015250 0.5655199289 4291544897
-0.3012056947 -0.1160711795 0.5664861798 4291544897
-0.3012573123 -0.1154615581 0.5665833354 4291413561
-0.3017708361 -0.1150277853 0.5675491095 4291018803
-0.3018220365 -0.1144166067 0.5676453710 4290822188
-0.3023352921 -0.1139793992 0.5686106682 4291480118
-0.3028484285 -0.1135400161 0.5695757270 4290887478
-0.3033614457 -0.1130984426 0.5705406070 4291874373
-0.3034118712 -0.1124832183 0.5706353784 4292071752
-0.3043872118 -0.1122087538 0.5724697709 4291676994
-0.3048999310 -0.1117606312 0.5734340549 4291414592
-0.3054125309 -0.1113103330 0.5743981004 4290954041
-0.3059250116 -0.1108578444 0.5753619671 4290756912
-0.3069002926 -0.1105699539 0.5771962404 4290559533
-0.3074126542 -0.1101121604 0.5781598091 4290297122
-0.3083879352 -0.1098170802 0.5799940228 4289836571
-0.3098263443 -0.1096818894 0.5826993585 4290691955
-0.3112649620 -0.1095407382 0.5854049325 4293586847
-0.3586955369 -0.1835809946 0.6760210991 4288322464
-0.3578634858 -0.1824057847 0.6744530201 4286021931
-0.3561188281 -0.1807708144 0.6711648703 4285561380
-0.3534609079 -0.1786814779 0.6661556363 4286152977
-0.3489768207 -0.1756839156 0.6577045918 4286416149
-0.3107258379 -0.1557767242 0.5856142640 4286284556
-0.3053170741 -0.1524258107 0.5754205585 4286087177
-0.3026445806 -0.1504578590 0.5703837872 4285890057
-0.3013403714 -0.1491784751 0.5679258108 4285758471
-0.3009487092 -0.1483543962 0.5671876669 4285561090
-0.3000998199 -0.1473075300 0.5655878186 4285561090
-0.3001640737 -0.1467105150 0.5657088757 4285955598
-0.2997711003 -0.1458907276 0.5649682879 4286218770
-0.2998347878 -0.1452938765 0.5650883317 4286416393
-0.2994410694 -0.1444760561 0.5643462539 4286547979
-0.2990469337 -0.1436596811 0.5636034608 4286744586
-0.2991096973 -0.1430635005 0.5637217760 4286876172
-0.2991722524 -0.1424669474 0.5638396144 4287008012
-0.2987770140 -0.1416531056 0.5630947351 4287073805
-0.2988390028 -0.1410567164 0.5632115602 4287139597
-0.2979852557 -0.1400297582 0.5616025925 4287139597
-0.2975887656 -0.1392202824 0.5608552694 4287270922
-0.2981076539 -0.1388388127 0.5618332624 4287336715
-0.2972524762 -0.1378180683 0.5602214932 4287665161
-0.2973129153 -0.1372235119 0.5603353977 4287796747
-0.2973730862 -0.1366285980 0.5604488254 4287862279
-0.2969747484 -0.1358237118 0.5596980453 4288125451
-0.2970343530 -0.1352289915 0.5598104000 4288323084
-0.2966352701 -0.1344261318 0.5590582490 4288388877
-0.2971528769 -0.1340384632 0.5600337982 4288783121
-0.2967531085 -0.1332367510 0.5592803955 4288914707
-0.2968116999 -0.1326415241 0.5593907833 4288979723
-0.2968700230 -0.1320459396 0.5595006943 4289177102
-0.2969281077 -0.1314500123 0.5596101880 4289308949
-0.2965269685 -0.1306514889 0.5588541627 4289374742
-0.2965844870 -0.1300557852 0.5589625835 4289506067
-0.2966417670 -0.1294597387 0.5590705276 4289506067
-0.2966988087 -0.1288633496 0.5591779947 4289636885
-0.2967556119 -0.1282666177 0.5592850447 4289571092
-0.2968121767 -0.1276695430 0.5593916774 4289570840
-0.2968684733 -0.1270721257 0.5594977736 4289768219
-0.2969245613 -0.1264743656 0.5596034527 4290624807
-0.2969803810 -0.1258762628 0.5597087145 4291216944
-0.2970359623 -0.1252778322 0.5598134398 4290756921
-0.2975511849 -0.1248720661 0.5607845187 4291283265
-0.2976063788 -0.1242720336 0.5608884692 4292269937
-0.2976613045 -0.1236716732 0.5609920025 4292927867
-0.2977159917 -0.1230709776 0.5610951185 4292994446
-0.2977704406 -0.1224699542 0.5611976981 4292994446
-0.2978246510 -0.1218686029 0.5612998605 4293059728
-0.2978785932 -0.1212669164 0.5614015460 4293059728
-0.2983927727 -0.1208514124 0.5623705983 4292927372
-0.2984463274 -0.1202481464 0.5624715090 4292598407
-0.2984996140 -0.1196445599 0.5625719428 4292335477
-0.2985526323 -0.1190406457 0.5626718998 4291809133
-0.2986054420 -0.1184364185 0.5627713799 4291809368
-0.2986579537 -0.1178318635 0.5628703833 4291480403
-0.2991712391 -0.1174079031 0.5638377070 4291480387
-0.2992233336 -0.1168017834 0.5639359355 4291348801
-0.3001974821 -0.1165534183 0.5657718182 4291348031
-0.3007104695 -0.1161229014 0.5667386651 4291348031
-0.3007620573 -0.1155130342 0.5668358803 4291281983
-0.3012747765 -0.1150790825 0.5678021908 4291018811
-0.3013259470 -0.1144676507 0.5678986311 4291019834
-0.3018383682 -0.1140302643 0.5688644052 4291283006
-0.3023506999 -0.1135906950 0.5698300004 4290821685
-0.3028629422 -0.1131489426 0.5707953572 4291545408
-0.3029133081 -0.1125334650 0.5708903074 4291809083
-0.3034252822 -0.1120882854 0.5718551874 4291480118
-0.3039371073 -0.1116409227 0.5728198290 4291217465
-0.3044488430 -0.1111913696 0.5737842321 4290954293
-0.3049604595 -0.1107396409 0.5747485161 4290953273
-0.3054719865 -0.1102857292 0.5757125616 4290755894
-0.3064455986 -0.1099955365 0.5775474906 4290756646
-0.3069569468 -0.1095363200 0.5785112381 4290427681
-0.3074682057 -0.1090749204 0.5794747472 4290034254
-0.3089042008 -0.1089374945 0.5821810961 4292139630
-0.3553701639 -0.1822605729 0.6711587906 4286875269
-0.3540838361 -0.1808578521 0.6687294245 4286022431
-0.3491548896 -0.1776075959 0.6594204903 4285890845
-0.3437681198 -0.1741461009 0.6492469907 4285955852
-0.3142412901 -0.1585289985 0.5934820771 4285955852
-0.3070218265 -0.1542426497 0.5798472166 4285823751
-0.3038995266 -0.1520363539 0.5739503503 4286152716
-0.3016870320 -0.1502964199 0.5697718263 4285824266
-0.3008407652 -0.1492435485 0.5681735873 4285692680
-0.2999938726 -0.1481939107 0.5665740967 4285692678
-0.2996023893 -0.1473718435 0.5658347607 4285692678
-0.2992104590 -0.1465511918 0.5650945306 4285824012
-0.2992743254 -0.1459544748 0.5652151704 4286152977
-0.2988816500 -0.1451358050 0.5644735098 4286547726
-0.2989449501 -0.1445392370 0.5645930767 4286547726
-0.2985514998 -0.1437225342 0.5638499856 4286745356
-0.2986142337 -0.1431261152 0.5639684796 4286745356
-0.2986767292 -0.1425293386 0.5640864968 4286942219
-0.2982822061 -0.1417151541 0.5633413792 4287008012
-0.2978872657 -0.1409024298 0.5625954866 4286942218
-0.2974918783 -0.1400911510 0.5618487597 4287008011
-0.2975531518 -0.1394956261 0.5619645119 4287139338
-0.2971570194 -0.1386863589 0.5612163544 4287205131
-0.2967604697 -0.1378785670 0.5604674220 4287467785
-0.2968208492 -0.1372837722 0.5605814457 4287533578
-0.2964235246 -0.1364780068 0.5598310828 4287599111
-0.2964833379 -0.1358834058 0.5599440336 4287928076
-0.2965429127 -0.1352884322 0.5600565672 4287993867
-0.2966022491 -0.1346931159 0.5601686239 4287928074
-0.2962035239 -0.1338905096 0.5594155788 4288125451
-0.2962622941 -0.1332954019 0.5595265627 4288059658
-0.2963208258 -0.1326999366 0.5596371293 4288256259
-0.2963791192 -0.1321041137 0.5597472191 4288519431
-0.2964371741 -0.1315079480 0.5598568320 4288782605
-0.2960367203 -0.1307090968 0.5591005087 4288914191
-0.2960941792 -0.1301131546 0.5592091084 4289045518
-0.2961514294 -0.1295168698 0.5593171716 4289111311
-0.2962084413 -0.1289202273 0.5594248176 4289242643
-0.2962651849 -0.1283232570 0.5595320463 4289308436
-0.2963216901 -0.1277259290 0.5596387386 4289308438
-0.2963779569 -0.1271282732 0.5597450137 4289374231
-0.2964339852 -0.1265302747 0.5598508716 4290164510
-0.2964897752 -0.1259319335 0.5599561930 4290625061
-0.2965453267 -0.1253332496 0.5600610971 4290427956
-0.2970597744 -0.1249273270 0.5610326529 4291217472
-0.2971149087 -0.1243270561 0.5611367822 4292467316
-0.2971698046 -0.1237264425 0.5612404943 4293585797
-0.2972244322 -0.1231255010 0.5613436699 4293389464
-0.2972788513 -0.1225242317 0.5614464283 4293652636
-0.2973330021 -0.1219226345 0.5615487099 4293586593
-0.2973869145 -0.1213207021 0.5616505146 4293455007
-0.2974405587 -0.1207184494 0.5617518425 4293454750
-0.2979537845 -0.1203015149 0.5627211332 4293125785
-0.2980070412 -0.1196976826 0.5628216863 4292993417
-0.2980600297 -0.1190935224 0.5629218221 4292796038
-0.2981127799 -0.1184890419 0.5630214214 4292401775
-0.2981652617 -0.1178842410 0.5631205440 4292007017
-0.2982175350 -0.1172791198 0.5632192492 4291809618
-0.2987298071 -0.1168537363 0.5641867518 4291480653
-0.2997023761 -0.1166052818 0.5660235882 4291151931
-0.2997541130 -0.1159964055 0.5661212802 4291020345
-0.3002661169 -0.1155644655 0.5670882463 4291151670
-0.3007780313 -0.1151303351 0.5680550933 4291151670
-0.3008291721 -0.1145186499 0.5681516528 4291414852
-0.3013408184 -0.1140810922 0.5691179633 4291151680
-0.3018523455 -0.1136413440 0.5700840354 4291084857
-0.3023637831 -0.1131994128 0.5710499287 4291479615
-0.3024141192 -0.1125836745 0.5711449981 4291874874
-0.3029252589 -0.1121383086 0.5721103549 4291809081
-0.3034363091 -0.1116907597 0.5730755329 4291283256
-0.3034860194 -0.1110722274 0.5731694102 4291085877
-0.3039967716 -0.1106212512 0.5741340518 4290887227
-0.3045074046 -0.1101680920 0.5750984550 4290755641
-0.3054793775 -0.1098787338 0.5769341588 4290821929
-0.3059898913 -0.1094202623 0.5778982639 4290821929
-0.3065002561 -0.1089596152 0.5788621306 4289771064
-0.3079338372 -0.1088230833 0.5815696716 4290889545
-0.3089058697 -0.1085183918 0.5834054351 4293060551
-0.3537910879 -0.1825760901 0.6695811152 4289638824
-0.3525073528 -0.1811723560 0.6671515107 4286349174
-0.3507683873 -0.1795410067 0.6638603210 4285891097
-0.3485738933 -0.1776847690 0.6597070098 4285956890
-0.3041705489 -0.1537710428 0.5756698251 4285758471
-0.3051468134 -0.1536229253 0.5775174499 4285955591
-0.3024843335 -0.1516464502 0.5724784732 4285889798
-0.3011853099 -0.1503618807 0.5700199604 4285890059
-0.3003405035 -0.1493085623 0.5684210658 4285824266
-0.2994950712 -0.1482585073 0.5668210387 4285890055
-0.2991043031 -0.1474360973 0.5660814643 4285890055
-0.2987130880 -0.1466151178 0.5653410554 4285824012
-0.2983214259 -0.1457955837 0.5645998120 4286152977
-0.2983849049 -0.1451991647 0.5647199750 4286744335
-0.2984481752 -0.1446023583 0.5648396611 4286810128
-0.2980554402 -0.1437853277 0.5640963912 4286942733
-0.2976622880 -0.1429697424 0.5633522868 4286811147
-0.2977246344 -0.1423736364 0.5634703040 4286876426
-0.2973307073 -0.1415600330 0.5627248287 4286744840
-0.2973925173 -0.1409640908 0.5628417134 4286744839
-0.2969978452 -0.1401524991 0.5620948076 4286810632
-0.2970590591 -0.1395567358 0.5622106791 4287073545
-0.2966636419 -0.1387471408 0.5614622831 4287139338
-0.2962678075 -0.1379390210 0.5607131124 4287336713
-0.2963281274 -0.1373439878 0.5608273149 4287270920
-0.2959315479 -0.1365378797 0.5600767136 4287467784
-0.2959913015 -0.1359430403 0.5601898432 4287665163
-0.2955939472 -0.1351389736 0.5594378114 4287730697
-0.2956531644 -0.1345443428 0.5595498681 4287533318
-0.2957121134 -0.1339493394 0.5596614480 4287401732
-0.2953136861 -0.1331478804 0.5589073896 4287335939
-0.2953720689 -0.1325531006 0.5590178967 4287269888
-0.2954302430 -0.1319579780 0.5591279864 4287796227
-0.2954881489 -0.1313624829 0.5592375398 4288519433
-0.2955458164 -0.1307666451 0.5593467355 4288716812
-0.2956032455 -0.1301704645 0.5594553947 4288848139
-0.2956604362 -0.1295739412 0.5595636368 4288848139
-0.2957173884 -0.1289770603 0.5596714616 4288913678
-0.2957741022 -0.1283798516 0.5597788095 4289111057
-0.2958305776 -0.1277822852 0.5598856807 4289045264
-0.2958868146 -0.1271843761 0.5599920750 4289111057
-0.2959427834 -0.1265861392 0.5600980520 4289506326
-0.2959985435 -0.1259875596 0.5602035522 4289901084
-0.2960540354 -0.1253886372 0.5603085756 4289967657
-0.2965676785 -0.1249825507 0.5612806678 4290691380
-0.2966227531 -0.1243820265 0.5613849163 4291678299
-0.2966776192 -0.1237811744 0.5614887476 4292665194
-0.2967322171 -0.1231799871 0.5615921021 4292731528
-0.2967865765 -0.1225784719 0.5616949797 4292994700
-0.2968406975 -0.1219766214 0.5617973804 4292731027
-0.2968945503 -0.1213744506 0.5618993640 4292402062
-0.2969481945 -0.1207719445 0.5620008111 4292533133
-0.2970015407 -0.1201691180 0.5621018410 4292598926
-0.2970546782 -0.1195659637 0.5622023940 4292861829
-0.2971075475 -0.1189624891 0.5623024106 4293059208
-0.2976194620 -0.1185416281 0.5632712841 4292927867
-0.2976719141 -0.1179365739 0.5633705854 4292401523
-0.2977241278 -0.1173312068 0.5634693503 4292204127
-0.2986951470 -0.1170857772 0.5653070807 4291809369
-0.2992066145 -0.1166571006 0.5662751198 4291349059
-0.2992583215 -0.1160479710 0.5663729310 4290954301
-0.2997695208 -0.1156158596 0.5673404932 4290954554
-0.2998207808 -0.1150051653 0.5674374700 4291086140
-0.3003317416 -0.1145696118 0.5684044957 4291284030
-0.3008425832 -0.1141318753 0.5693712831 4290889272
-0.3013533056 -0.1136919484 0.5703378916 4291282490
-0.3018639386 -0.1132498384 0.5713043213 4291414076
-0.3019142449 -0.1126338392 0.5713995099 4291874878
-0.3024245799 -0.1121882945 0.5723654032 4292138050
-0.3024744391 -0.1115707457 0.5724597573 4291349049
-0.3029845059 -0.1111217737 0.5734251142 4291217463
-0.3030339181 -0.1105026752 0.5735186338 4290821939
-0.3035436869 -0.1100502685 0.5744833946 4290821939
-0.3040533364 -0.1095956862 0.5754479766 4290690343
-0.3050236404 -0.1093040258 0.5772843361 4290821929
-0.3055331409 -0.1088441238 0.5782486200 4289837100
-0.3069643378 -0.1087084934 0.5809572935 4290231858
-0.3079347312 -0.1084046215 0.5827938318 4292271027
-0.3495731950 -0.1807794273 0.6629920006 4287270777
-0.3423953354 -0.1763459295 0.6493785977 4286349675
-0.3470076621 -0.1779902279 0.6581262350 4285890845
-0.3352883756 -0.1712725163 0.6358997226 4285627673
-0.3058651388 -0.1555979848 0.5800963640 4285824002
-0.3077481687 -0.1559074074 0.5836676359 4285758209
-0.3014596701 -0.1520863622 0.5717410445 4286086407
-0.3001632988 -0.1507998258 0.5692823529 4285757442
-0.2993203104 -0.1497455686 0.5676835775 4285955337
-0.2984766662 -0.1486945599 0.5660835505 4285889544
-0.2989956439 -0.1483230442 0.5670678020 4285956102
-0.2986055613 -0.1475003064 0.5663279891 4285890309
-0.2982150614 -0.1466789991 0.5655873418 4285955337
-0.2978241146 -0.1458591372 0.5648459196 4286218509
-0.2978875339 -0.1452624798 0.5649662018 4286678285
-0.2979507446 -0.1446654499 0.5650860667 4286744078
-0.2975587249 -0.1438480765 0.5643425584 4286876423
-0.2971662581 -0.1430321634 0.5635982752 4286810630
-0.2972285748 -0.1424358189 0.5637164116 4286744837
-0.2968353629 -0.1416218877 0.5629706979 4286744837
-0.2964417338 -0.1408094168 0.5622241497 4286678787
-0.2965031564 -0.1402137876 0.5623406172 4286744580
-0.2956532240 -0.1391888559 0.5607286692 4286941957
-0.2961696088 -0.1388078630 0.5617080331 4287007750
-0.2957744896 -0.1379994154 0.5609586835 4287467785
-0.2953789234 -0.1371924281 0.5602084398 4287270406
-0.2954388857 -0.1365977228 0.5603221655 4287467272
-0.2950425744 -0.1357927620 0.5595705509 4287598858
-0.2951019704 -0.1351982504 0.5596832037 4287533064
-0.2947049141 -0.1343953311 0.5589301586 4287204099
-0.2947637439 -0.1338010132 0.5590416789 4286940928
-0.2948223352 -0.1332063526 0.5591527820 4286940928
-0.2948806882 -0.1326113343 0.5592634678 4286941184
-0.2944822311 -0.1318116039 0.5585077405 4287467523
-0.2945399880 -0.1312167943 0.5586173534 4288322054
-0.2945975363 -0.1306216419 0.5587264895 4288651019
-0.2946548462 -0.1300261468 0.5588351488 4288716299
-0.2947118878 -0.1294303089 0.5589433908 4288584713
-0.2947687209 -0.1288341135 0.5590511560 4288716046
-0.2948252857 -0.1282375753 0.5591584444 4288847632
-0.2948816419 -0.1276406944 0.5592653155 4288979471
-0.2953950167 -0.1272404492 0.5602389574 4288979471
-0.2954509556 -0.1266419590 0.5603450537 4289111570
-0.2955066562 -0.1260431260 0.5604506731 4289177363
-0.2955620885 -0.1254439652 0.5605558157 4289243675
-0.2956173122 -0.1248444691 0.5606605411 4289441054
-0.2961299717 -0.1244369596 0.5616328716 4289704233
-0.2961847782 -0.1238358617 0.5617368221 4290230577
-0.2962393463 -0.1232344285 0.5618402958 4290889535
-0.2962936759 -0.1226326674 0.5619432926 4291284293
-0.2963477373 -0.1220305711 0.5620458722 4291282791
-0.2964015603 -0.1214281470 0.5621479750 4291480170
-0.2964551449 -0.1208254024 0.5622495413 4292071301
-0.2965084612 -0.1202223226 0.5623506904 4292926610
-0.2965615690 -0.1196189225 0.5624513626 4293715862
-0.2966143787 -0.1190152019 0.5625515580 4294044827
-0.2971254885 -0.1185941696 0.5635209680 4293058171
-0.2971779108 -0.1179888695 0.5636203885 4292334448
-0.2972300947 -0.1173832491 0.5637192726 4292006999
-0.2977407575 -0.1169575229 0.5646878481 4291875413
-0.2982513607 -0.1165296063 0.5656562448 4291349312
-0.2987618744 -0.1160994992 0.5666244626 4290822968
-0.2992722690 -0.1156672090 0.5675924420 4290756924
-0.2993234992 -0.1150562689 0.5676895976 4290756924
-0.2998336256 -0.1146205366 0.5686571002 4291086397
-0.2998844385 -0.1140080318 0.5687534809 4290823225
-0.3003942966 -0.1135688648 0.5697204471 4291216184
-0.3009040356 -0.1131275073 0.5706872344 4291216184
-0.3009542227 -0.1125121936 0.5707824230 4291742010
-0.3014636934 -0.1120674089 0.5717486739 4292136768
-0.3019730747 -0.1116204411 0.5727147460 4291545911
-0.3020226359 -0.1110023260 0.5728086829 4291414325
-0.3025316894 -0.1105519235 0.5737742186 4291084849
-0.3030406535 -0.1100993305 0.5747395158 4290887470
-0.3035495281 -0.1096445546 0.5757045746 4290886698
-0.3040582538 -0.1091875955 0.5766694546 4290952491
-0.3050269485 -0.1088926941 0.5785066485 4290296873
-0.3059956729 -0.1085937172 0.5803439021 4290165287
-0.3069644272 -0.1082906723 0.5821812153 4291284116
-0.3083934784 -0.1081449613 0.5848915577 4293981629
-0.3502670825 -0.1822602749 0.6657102704 4287008660
-0.3489878476 -0.1808576733 0.6632789969 4286087008
-0.3468022346 -0.1789926887 0.6591250300 4286218594
-0.3423511088 -0.1759724319 0.6506653428 4285890847
-0.3084562421 -0.1578987092 0.5862454772 4285364503
-0.3107897639 -0.1584369391 0.5906804800 4285692672
-0.3013422489 -0.1529843658 0.5727247596 4285495296
-0.3023149669 -0.1528398097 0.5745734572 4285494272
-0.3010210991 -0.1515500247 0.5721144080 4285757442
-0.2997264266 -0.1502652913 0.5696537495 4285823233
-0.2988844812 -0.1492120326 0.5680535436 4285889026
-0.2984955311 -0.1483875364 0.5673143268 4285758464
-0.2981061637 -0.1475644559 0.5665743351 4285824256
-0.2977163494 -0.1467428207 0.5658334494 4286152198
-0.2973261476 -0.1459226310 0.5650917888 4286283784
-0.2973895073 -0.1453257501 0.5652122498 4286349319
-0.2969985306 -0.1445075125 0.5644691586 4286349319
-0.2970613539 -0.1439107805 0.5645885468 4286481920
-0.2966696024 -0.1430945396 0.5638440251 4286547712
-0.2967318594 -0.1424979568 0.5639623404 4286810371
-0.2963393629 -0.1416836977 0.5632163882 4286876164
-0.2959464490 -0.1408708990 0.5624696016 4286744578
-0.2955531180 -0.1400595605 0.5617220402 4286744578
-0.2951593697 -0.1392496824 0.5609737039 4286810369
-0.2952200770 -0.1386549026 0.5610890388 4286876162
-0.2948255539 -0.1378470361 0.5603392720 4287138820
-0.2948856950 -0.1372524500 0.5604535341 4287073027
-0.2944904268 -0.1364466101 0.5597023368 4287335686
-0.2945500016 -0.1358522177 0.5598155856 4287467272
-0.2946093380 -0.1352574676 0.5599283576 4287401479
-0.2942129970 -0.1344542205 0.5591750741 4287006721
-0.2942717969 -0.1338596791 0.5592867732 4286611968
-0.2943303287 -0.1332647800 0.5593980551 4286743552
-0.2943886220 -0.1326695085 0.5595088601 4287138820
-0.2939908803 -0.1318694502 0.5587528944 4287401992
-0.2940486073 -0.1312744170 0.5588626266 4288124675
-0.2941060960 -0.1306790262 0.5589718819 4288387847
-0.2941633761 -0.1300832927 0.5590807199 4288583945
-0.2942203879 -0.1294872016 0.5591890812 4288518152
-0.2942771614 -0.1288907677 0.5592969656 4288649485
-0.2943336964 -0.1282939911 0.5594044328 4288781071
-0.2943899930 -0.1276968718 0.5595114231 4288650760
-0.2944460511 -0.1270994097 0.5596179962 4288848139
-0.2949584424 -0.1266977340 0.5605918169 4288847885
-0.2950141132 -0.1260986626 0.5606976151 4288847885
-0.2950695157 -0.1254992634 0.5608029366 4289045526
-0.2951246798 -0.1248995140 0.5609077811 4289177112
-0.2951796055 -0.1242994368 0.5610121489 4288914961
-0.2956913114 -0.1238905042 0.5619847178 4289178133
-0.2957458198 -0.1232888326 0.5620883107 4289112087
-0.2958000898 -0.1226868182 0.5621914864 4289572638
-0.2958541214 -0.1220844835 0.5622941256 4289703731
-0.2959079146 -0.1214818135 0.5623963475 4290098489
-0.2959614396 -0.1208788157 0.5624980927 4290821963
-0.2960147262 -0.1202754900 0.5625994205 4291743065
-0.2960677743 -0.1196718439 0.5627002120 4292400482
-0.2961205840 -0.1190678701 0.5628005266 4292466275
-0.2966308892 -0.1186466739 0.5637704134 4292466025
-0.2966832519 -0.1180411205 0.5638699532 4291610716
-0.2967353761 -0.1174352467 0.5639690161 4291348560
-0.2972452641 -0.1170093492 0.5649381280 4291545939
-0.2977550626 -0.1165812686 0.5659070015 4291283519
-0.2978065908 -0.1159725711 0.5660049319 4290888761
-0.2987743616 -0.1157185286 0.5678442717 4290822705
-0.2988255322 -0.1151073277 0.5679415464 4290756912
-0.2993348837 -0.1146714240 0.5689095855 4290625595
-0.2993856370 -0.1140586585 0.5690060258 4290625595
-0.2998946905 -0.1136193126 0.5699735284 4291018805
-0.3004036248 -0.1131777838 0.5709408522 4291018805
-0.3004537821 -0.1125622094 0.5710361600 4291610164
-0.3009624481 -0.1121172458 0.5720028877 4292070715
-0.3010121584 -0.1115001217 0.5720973611 4291875128
-0.3015205264 -0.1110517159 0.5730636120 4291743542
-0.3015697896 -0.1104330420 0.5731572509 4291282226
-0.3020778894 -0.1099812090 0.5741229057 4290755882
-0.3025858700 -0.1095271930 0.5750883222 4290886449
-0.3035529554 -0.1092362478 0.5769263506 4290886449
-0.3040607870 -0.1087769121 0.5778915286 4290362918
-0.3050278723 -0.1084787622 0.5797295570 4289836574
-0.3064544201 -0.1083389670 0.5824408531 4290231669
-0.3060430586 -0.1075472757 0.5816590190 4293455526
-0.3495998383 -0.1830376983 0.6658476591 4287401864
-0.3483234048 -0.1816322953 0.6634165645 4284770144
-0.3461422920 -0.1797624826 0.6592624187 4286678355
-0.3430559635 -0.1774336845 0.6533842087 4286349390
-0.3105823994 -0.1599806398 0.5915350914 4285758746
-0.3021268845 -0.1543465257 0.5754306912 4285692676
-0.3035507500 -0.1544315666 0.5781425834 4285626883
-0.3013550639 -0.1526768059 0.5739607215 4285757440
-0.3000633717 -0.1513874084 0.5715005398 4285691648
-0.2992234826 -0.1503304839 0.5699009299 4285822976
-0.2983829975 -0.1492767930 0.5683001280 4285888769
-0.2970890105 -0.1480007470 0.5658355951 4285889028
-0.2967001498 -0.1471791565 0.5650949478 4285954821
-0.2967639565 -0.1465828121 0.5652164817 4286086656
-0.2963743210 -0.1457631886 0.5644744039 4286152449
-0.2964375615 -0.1451669931 0.5645948052 4286021635
-0.2960472107 -0.1443493366 0.5638513565 4286021635
-0.2961098552 -0.1437532902 0.5639706850 4286415364
-0.2957187593 -0.1429376304 0.5632257462 4286481157
-0.2953271866 -0.1421234161 0.5624800324 4286743557
-0.2953889668 -0.1415280551 0.5625976920 4286875143
-0.2949966788 -0.1407158375 0.5618505478 4286875398
-0.2946648598 -0.1393104494 0.5612185001 4286744326
-0.2947255075 -0.1387154460 0.5613340139 4286744326
-0.2943316996 -0.1379072517 0.5605840087 4286941957
-0.2943918109 -0.1373124272 0.5606984496 4287007750
-0.2939972579 -0.1365062594 0.5599470139 4287270406
-0.2940567732 -0.1359116286 0.5600603819 4287336199
-0.2941160798 -0.1353166401 0.5601733327 4287401991
-0.2937204540 -0.1345130801 0.5594198108 4287336198
-0.2937791646 -0.1339182854 0.5595316887 4287008003
-0.2933828235 -0.1331167668 0.5587767363 4287008003
-0.2934409678 -0.1325221956 0.5588875413 4287400966
-0.2930438519 -0.1317227185 0.5581311584 4287664138
-0.2931014597 -0.1311283708 0.5582408905 4287927563
-0.2931588292 -0.1305336654 0.5583501458 4288190735
-0.2932159305 -0.1299386173 0.5584589243 4288322573
-0.2932728231 -0.1293432117 0.5585672855 4288190987
-0.2933294773 -0.1287474632 0.5586751699 4288453642
-0.2933858633 -0.1281513721 0.5587825775 4288782607
-0.2934420407 -0.1275549382 0.5588895082 4288979471
-0.2939536870 -0.1271553040 0.5598640442 4288782092
-0.2940094769 -0.1265572608 0.5599702597 4288716553
-0.2945209146 -0.1261541545 0.5609443784 4288519174
-0.2945762575 -0.1255545020 0.5610498190 4289241873
-0.2946313918 -0.1249545217 0.5611547828 4288847115
-0.2946862876 -0.1243541986 0.5612593293 4289044496
-0.2951971591 -0.1239451095 0.5622323751 4289176082
-0.2952516377 -0.1233431846 0.5623361468 4288650766
-0.2953058779 -0.1227409318 0.5624394417 4289242903
-0.2953598797 -0.1221383438 0.5625422597 4289242903
-0.2954136133 -0.1215354279 0.5626446009 4289308696
-0.2954671085 -0.1209321842 0.5627464652 4289835040
-0.2955203354 -0.1203286126 0.5628479123 4289966626
-0.2955733538 -0.1197247207 0.5629488230 4290164007
-0.2960830033 -0.1193046123 0.5639195442 4290690351
-0.2961356044 -0.1186991334 0.5640196800 4290887730
-0.2966450155 -0.1182755753 0.5649899244 4291019316
-0.2966971695 -0.1176685169 0.5650892854 4291019316
-0.2967490852 -0.1170611456 0.5651881695 4291216695
-0.2972580791 -0.1166328862 0.5661575794 4291019316
-0.2973095775 -0.1160239428 0.5662556291 4291150902
-0.2978183031 -0.1155922413 0.5672245622 4291019318
-0.2983269095 -0.1151583493 0.5681932569 4290756146
-0.2983778119 -0.1145465821 0.5682902336 4291150900
-0.2988861501 -0.1141092479 0.5692583919 4291348279
-0.2989366055 -0.1134959236 0.5693545341 4291085362
-0.2994447052 -0.1130551472 0.5703222156 4290756397
-0.2999526560 -0.1126121879 0.5712896585 4291019066
-0.3004605174 -0.1121670380 0.5722569823 4291611203
-0.3005101979 -0.1115496606 0.5723515749 4291809851
-0.3010177612 -0.1111010760 0.5733183026 4291941437
-0.3010669947 -0.1104821414 0.5734120607 4291349562
-0.3015742898 -0.1100301221 0.5743781924 4290954804
-0.3020814657 -0.1095759198 0.5753441453 4290757425
-0.3025885224 -0.1091195270 0.5763099194 4290428460
-0.3035539985 -0.1088253334 0.5781487823 4290296871
-0.3045195043 -0.1085270643 0.5799877048 4289967906
-0.3054850698 -0.1082247272 0.5818266869 4290097494
-0.3073681593 -0.1082414091 0.5854132175 4293123972
-0.3480300903 -0.1833401471 0.6642630696 4288060318
-0.3472071290 -0.1821703166 0.6626923680 4284770144
-0.3459324837 -0.1807679534 0.6602595448 4284704351
-0.3433036208 -0.1786662042 0.6552419662 4287138897
-0.3384171426 -0.1754054725 0.6459154487 4286546760
-0.3172805309 -0.1637772918 0.6055733562 4285889814
-0.3042598367 -0.1564109176 0.5807216167 4285429263
-0.3052303791 -0.1562625468 0.5825739503 4285626372
-0.3021364510 -0.1540378928 0.5766687989 4285626372
-0.2990408838 -0.1518255323 0.5707604885 4285757442
-0.2982028425 -0.1507676691 0.5691609383 4285889028
-0.2973641455 -0.1497130394 0.5675601959 4285954562
-0.2969768643 -0.1488882601 0.5668209791 4285954562
-0.2965891361 -0.1480649263 0.5660809875 4285954562
-0.2962009907 -0.1472430229 0.5653401613 4286020355
-0.2958123982 -0.1464225501 0.5645985007 4286020864
-0.2958758175 -0.1458264887 0.5647194982 4286086656
-0.2954864800 -0.1450079829 0.5639764071 4286021635
-0.2955493331 -0.1444120854 0.5640963912 4286087428
-0.2951592505 -0.1435955614 0.5633518696 4286283524
-0.2952215374 -0.1429997981 0.5634707808 4286349317
-0.2952836156 -0.1424036771 0.5635892153 4286611971
-0.2948924303 -0.1415896714 0.5628426075 4286809350
-0.2945008576 -0.1407771260 0.5620952249 4286875143
-0.2945620418 -0.1401817054 0.5622119904 4286809350
-0.2941696942 -0.1393711716 0.5614631772 4286678533
-0.2942303121 -0.1387759298 0.5615788102 4286744326
-0.2938372195 -0.1379674077 0.5608285666 4287072775
-0.2934437096 -0.1371603608 0.5600774884 4287204361
-0.2935034335 -0.1365658641 0.5601915121 4287270406
-0.2935629189 -0.1359709948 0.5603049994 4287336199
-0.2936221361 -0.1353757679 0.5604180694 4287467272
-0.2932272553 -0.1345718801 0.5596643686 4287533065
-0.2928319275 -0.1337694526 0.5589098334 4287401992
-0.2928902805 -0.1331750005 0.5590211749 4287467785
-0.2924942076 -0.1323746443 0.5582652688 4287401479
-0.2925519943 -0.1317804009 0.5583755374 4287533065
-0.2921551764 -0.1309821010 0.5576182008 4287795977
-0.2922123969 -0.1303880811 0.5577273965 4288059149
-0.2922694087 -0.1297937185 0.5578361750 4288256780
-0.2923261523 -0.1291989982 0.5579444766 4288256780
-0.2923826575 -0.1286039352 0.5580523610 4288387594
-0.2928937376 -0.1282076091 0.5590277910 4288650766
-0.2929498553 -0.1276109368 0.5591349006 4288651021
-0.2930057347 -0.1270139217 0.5592415333 4288519435
-0.2930613458 -0.1264165640 0.5593477488 4288584713
-0.2935718894 -0.1260142326 0.5603221655 4288453127
-0.2940823734 -0.1256097108 0.5612965226 4288847885
-0.2941374481 -0.1250094771 0.5614016056 4288255748
-0.2941922843 -0.1244089156 0.5615062714 4288583946
-0.2942468822 -0.1238080114 0.5616105199 4288847118
-0.2947568297 -0.1233974993 0.5625837445 4288584973
-0.2948110104 -0.1227950007 0.5626871586 4288979731
-0.2948649526 -0.1221921667 0.5627901554 4289045524
-0.2949186563 -0.1215890050 0.5628926158 4289111317
-0.2949720919 -0.1209855154 0.5629946589 4289242903
-0.2950252891 -0.1203816980 0.5630961657 4289242903
-0.2950782478 -0.1197775528 0.5631972551 4289440282
-0.2955871224 -0.1193572804 0.5641685128 4289637661
-0.2960959077 -0.1189348102 0.5651395917 4290098214
-0.2961482704 -0.1183278263 0.5652395487 4290229800
-0.2962003946 -0.1177205220 0.5653390288 4290098212
-0.2962522805 -0.1171128973 0.5654380322 4290427177
-0.2967604399 -0.1166844666 0.5664079785 4290624556
-0.2968119085 -0.1160752699 0.5665061474 4291085107
-0.2973197997 -0.1156433895 0.5674755573 4291085109
-0.2973708510 -0.1150326282 0.5675729513 4290887730
-0.2978784740 -0.1145973057 0.5685418844 4291282486
-0.2979290783 -0.1139849722 0.5686384439 4291348279
-0.2984364331 -0.1135462150 0.5696068406 4291019569
-0.2989437282 -0.1131052673 0.5705749989 4290624811
-0.2994508743 -0.1126621291 0.5715430379 4290755894
-0.2995006740 -0.1120457351 0.5716381073 4291216445
-0.3000075519 -0.1115991548 0.5726055503 4291415093
-0.3005143404 -0.1111503914 0.5735727549 4291415093
-0.3005635142 -0.1105311960 0.5736666322 4290823217
-0.3010700047 -0.1100789905 0.5746333599 4290494252
-0.3015763760 -0.1096246019 0.5755997896 4290362154
-0.3020826280 -0.1091680229 0.5765660405 4290230568
-0.3030465543 -0.1088737175 0.5784058571 4290231078
-0.3040104806 -0.1085753366 0.5802456737 4289967906
-0.3036006987 -0.1077851579 0.5794635415 4289900366
-0.3045644760 -0.1074814498 0.5813030005 4292203121
-0.3464628756 -0.1836385578 0.6626766324 4290428866
-0.3460917175 -0.1827063411 0.6619666815 4284902254
-0.3452699184 -0.1815387458 0.6603948474 4284111951
-0.3435469270 -0.1799027473 0.6570993066 4285230432
-0.3395710588 -0.1770990938 0.6494947076 4287204423
-0.3328903615 -0.1729074270 0.6367166042 4286546493
-0.3081839383 -0.1594196558 0.5894607902 4286086933
-0.3059992790 -0.1576392651 0.5852822661 4285363210
-0.3029118776 -0.1554050297 0.5793769956 4285889030
-0.2993719578 -0.1529527158 0.5726062059 4285757444
-0.2985360026 -0.1518911868 0.5710073113 4285756931
-0.2976993918 -0.1508328915 0.5694071651 4285954310
-0.2977645099 -0.1502330750 0.5695316792 4286085378
-0.2969268560 -0.1491794437 0.5679295063 4286019585
-0.2965399623 -0.1483548731 0.5671894550 4286020354
-0.2957011461 -0.1473068297 0.5655851364 4286086147
-0.2953132987 -0.1464860290 0.5648432374 4286020864
-0.2953766584 -0.1458897442 0.5649644136 4286086656
-0.2954397798 -0.1452930719 0.5650851727 4286087175
-0.2950508296 -0.1444747597 0.5643412471 4286152968
-0.2951134145 -0.1438782513 0.5644609332 4286349317
-0.2947236896 -0.1430619210 0.5637155771 4286283524
-0.2947857082 -0.1424655616 0.5638341308 4286414594
-0.2943952680 -0.1416512430 0.5630873442 4286611973
-0.2940043807 -0.1408383697 0.5623397231 4286875143
-0.2940655053 -0.1402427107 0.5624566078 4286875143
-0.2936739028 -0.1394318491 0.5617075562 4286875398
-0.2937344313 -0.1388363689 0.5618234277 4287072777
-0.2933420837 -0.1380275190 0.5610729456 4287006982
-0.2929492891 -0.1372201443 0.5603216290 4287072775
-0.2930089533 -0.1366254091 0.5604357719 4287204102
-0.2926154137 -0.1358200610 0.5596830845 4287335688
-0.2926745117 -0.1352255195 0.5597960949 4287467272
-0.2922802567 -0.1344222128 0.5590419769 4287467272
-0.2923387885 -0.1338278800 0.5591539145 4287533065
-0.2919437587 -0.1330266297 0.5583983660 4287598858
-0.2920017540 -0.1324325055 0.5585092902 4287467274
-0.2916059792 -0.1316333115 0.5577523112 4287598860
-0.2912097871 -0.1308356076 0.5569944978 4287730186
-0.2912668884 -0.1302422732 0.5571036935 4287861772
-0.2913237214 -0.1296485960 0.5572124720 4288124940
-0.2913803458 -0.1290545613 0.5573207736 4288124940
-0.2914367318 -0.1284601837 0.5574285984 4288256778
-0.2914928496 -0.1278654784 0.5575359464 4288454157
-0.2920028865 -0.1274686456 0.5585114956 4288716814
-0.2920586169 -0.1268723160 0.5586180687 4288585228
-0.2925684452 -0.1264720410 0.5595932007 4288453642
-0.2930781841 -0.1260695606 0.5605681539 4288322056
-0.2935878336 -0.1256648749 0.5615429878 4288716301
-0.2936428785 -0.1250644028 0.5616482496 4288124164
-0.2936976552 -0.1244635880 0.5617530346 4288321288
-0.2937522233 -0.1238624454 0.5618574023 4288781839
-0.2938065231 -0.1232609600 0.5619612932 4288716559
-0.2943154871 -0.1228490248 0.5629347563 4288716559
-0.2943693697 -0.1222459450 0.5630378127 4288782607
-0.2944230437 -0.1216425374 0.5631404519 4288848400
-0.2944764495 -0.1210388020 0.5632426143 4288650766
-0.2945295870 -0.1204347387 0.5633442998 4288584973
-0.2945825160 -0.1198303476 0.5634455085 4288782352
-0.2950905561 -0.1194099039 0.5644172430 4288782352
-0.2955985367 -0.1189872697 0.5653888583 4289111317
-0.2956508696 -0.1183800325 0.5654889345 4289242903
-0.2957029641 -0.1177724823 0.5655885339 4289111317
-0.2962104976 -0.1173451394 0.5665593147 4289506075
-0.2962621450 -0.1167360023 0.5666581392 4290032419
-0.2963135540 -0.1161265522 0.5667564869 4290624556
-0.2968206704 -0.1156945080 0.5677264333 4290690349
-0.2973276675 -0.1152602658 0.5686961412 4290558763
-0.2973784804 -0.1146479920 0.5687933564 4290690349
-0.2974290550 -0.1140354052 0.5688900352 4290821935
-0.2979356050 -0.1135964692 0.5698589683 4290756397
-0.2979857326 -0.1129823253 0.5699548125 4290559018
-0.2984920144 -0.1125399470 0.5709231496 4290558513
-0.2989982069 -0.1120953783 0.5718913674 4290755892
-0.2995042801 -0.1116486192 0.5728592873 4290757163
-0.2995536029 -0.1110304147 0.5729536414 4290625577
-0.3000593781 -0.1105802134 0.5739210844 4290296360
-0.3005650640 -0.1101278290 0.5748882294 4290098981
-0.3010706306 -0.1096732542 0.5758552551 4290098981
-0.3015760779 -0.1092164814 0.5768219829 4290230567
-0.3025384247 -0.1089220643 0.5786626935 4290296614
-0.3021295369 -0.1081327945 0.5778806210 4290230821
-0.3053774834 -0.1086462736 0.5840929747 4290163530
-0.3072544932 -0.1086611077 0.5876830816 4291479390
-0.3445279300 -0.1830017269 0.6603785753 4286876296
-0.3441571593 -0.1820718497 0.6596678495 4283652439
-0.3428871036 -0.1806697100 0.6572334766 4284836176
-0.3411667049 -0.1790366471 0.6539359093 4285296727
-0.3362980485 -0.1757654846 0.6446038485 4286809665
-0.3260305524 -0.1697048694 0.6249234676 4286217528
-0.3099108040 -0.1606542319 0.5940256715 4286152980
-0.3086301982 -0.1593331099 0.5915710926 4285495050
-0.3001487851 -0.1543152928 0.5753142834 4286020616
-0.3002152145 -0.1537100822 0.5754415989 4285757444
-0.2989308238 -0.1524158567 0.5729797482 4285756929
-0.2980959117 -0.1513553113 0.5713793635 4285822722
-0.2972603738 -0.1502980143 0.5697778463 4286019585
-0.2964242101 -0.1492439508 0.5681750774 4286019585
-0.2960380018 -0.1484190524 0.5674348474 4285954562
-0.2956513762 -0.1475955695 0.5666937828 4286086148
-0.2948135436 -0.1465494484 0.5650877953 4286086660
-0.2948768437 -0.1459529251 0.5652091503 4286086660
-0.2949399054 -0.1453560293 0.5653300285 4286021130
-0.2945516706 -0.1445374042 0.5645859241 4286086923
-0.2946141958 -0.1439406425 0.5647057295 4286415110
-0.2937739491 -0.1429044902 0.5630951524 4286283524
-0.2938358188 -0.1423088014 0.5632137656 4286283778
-0.2934459746 -0.1414950639 0.5624665618 4286546950
-0.2935072780 -0.1408995539 0.5625840425 4286875143
-0.2935683429 -0.1403036714 0.5627011061 4286875143
-0.2931774259 -0.1394924819 0.5619518161 4286941191
-0.2932379544 -0.1388967633 0.5620678067 4287138570
-0.2928462923 -0.1380875856 0.5613170862 4286941189
-0.2924542129 -0.1372798830 0.5605655909 4287006982
-0.2925138474 -0.1366849095 0.5606798530 4287072514
-0.2921210229 -0.1358792484 0.5599269271 4287204100
-0.2921800613 -0.1352844685 0.5600401163 4287335686
-0.2917865217 -0.1344808340 0.5592857599 4287401479
-0.2913925350 -0.1336786896 0.5585305691 4287401478
-0.2914507091 -0.1330846846 0.5586420894 4287335685
-0.2910559773 -0.1322845817 0.5578854680 4287466761
-0.2906608284 -0.1314859837 0.5571280718 4287598347
-0.2907181084 -0.1308927685 0.5572378635 4287664393
-0.2907751501 -0.1302991956 0.5573472381 4287795979
-0.2908319831 -0.1297052801 0.5574560761 4287993354
-0.2908885479 -0.1291110218 0.5575645566 4288059147
-0.2909448743 -0.1285164058 0.5576725006 4288190985
-0.2910009623 -0.1279214472 0.5577800274 4288454157
-0.2915101647 -0.1275244802 0.5587560534 4288716814
-0.2915658653 -0.1269278973 0.5588628054 4288651021
-0.2920748591 -0.1265274584 0.5598384142 4288519435
-0.2921301723 -0.1259292811 0.5599444509 4288387849
-0.2926389277 -0.1255253702 0.5609196424 4288651021
-0.2926938534 -0.1249255911 0.5610249043 4288387849
-0.2927485108 -0.1243254691 0.5611296296 4288584460
-0.2932568789 -0.1239168271 0.5621041059 4288847632
-0.2933111489 -0.1233151034 0.5622081161 4288847632
-0.2933651805 -0.1227130443 0.5623116493 4288716046
-0.2938731611 -0.1222996861 0.5632853508 4288716559
-0.2939267457 -0.1216960326 0.5633881092 4288782352
-0.2939801216 -0.1210920438 0.5634903908 4288387594
-0.2940332294 -0.1204877347 0.5635921955 4288387594
-0.2940861285 -0.1198830977 0.5636935234 4288716559
-0.2945933640 -0.1194624901 0.5646657944 4288650766
-0.2951005101 -0.1190396845 0.5656378865 4288387594
-0.2951528132 -0.1184322014 0.5657381415 4288650766
-0.2952048481 -0.1178243980 0.5658378601 4288650766
-0.2957115769 -0.1173968837 0.5668091774 4289045524
-0.2957631946 -0.1167875007 0.5669081211 4289440282
-0.2958145738 -0.1161778048 0.5670065880 4289966626
-0.2963208556 -0.1157455817 0.5679770112 4289966626
-0.2968270779 -0.1153111681 0.5689473152 4289769247
-0.2968778312 -0.1146986410 0.5690445900 4289703709
-0.2969283462 -0.1140858009 0.5691414475 4289966881
-0.2974341214 -0.1136466861 0.5701108575 4290164260
-0.2974841893 -0.1130322814 0.5702068806 4290230053
-0.2979896665 -0.1125897244 0.5711757541 4290229800
-0.2984950542 -0.1121449769 0.5721443892 4290295593
-0.2990002930 -0.1116980389 0.5731128454 4290165026
-0.2990495861 -0.1110795736 0.5732073784 4290099233
-0.2995545566 -0.1106291935 0.5741752982 4290099233
-0.3000594378 -0.1101766229 0.5751429796 4290165026
-0.3005641997 -0.1097218618 0.5761104822 4290165026
-0.3010688424 -0.1092649102 0.5770777464 4290428198
-0.3015733659 -0.1088057607 0.5780448318 4290362407
-0.3025340736 -0.1085080951 0.5798863173 4290296614
-0.3039512336 -0.1083690524 0.5826026201 4290295106
-0.3049120605 -0.1080622673 0.5844443440 4290887243
-0.3063294590 -0.1079122275 0.5871611238 4292009169
-0.3421483934 -0.1821255237 0.6572166681 4284836713
-0.3417778909 -0.1811988801 0.6565049887 4283915611
-0.3405096829 -0.1797997952 0.6540689468 4285362761
-0.3387918472 -0.1781696826 0.6507692933 4285494347
-0.3330334723 -0.1744306087 0.6397082806 4287006278
-0.3182935417 -0.1660310775 0.6113950610 4286150969
-0.3044447899 -0.1581574231 0.5847936273 4286218260
-0.3076566756 -0.1591693759 0.5909631848 4285626123
-0.3018850386 -0.1555390656 0.5798767209 4285954819
-0.2997052670 -0.1537763476 0.5756896734 4285757440
-0.2988725305 -0.1527112424 0.5740901232 4286019584
-0.2975896597 -0.1514206231 0.5716259480 4286019584
-0.2963059545 -0.1501350701 0.5691601038 4286085377
-0.2954711616 -0.1490814984 0.5675566196 4286019584
-0.2950855792 -0.1482571661 0.5668159723 4285954310
-0.2946995497 -0.1474342793 0.5660744905 4286020103
-0.2943131328 -0.1466128230 0.5653321743 4285954821
-0.2943763733 -0.1460160762 0.5654536486 4286020614
-0.2939891815 -0.1451965868 0.5647099614 4285889548
-0.2940518856 -0.1445999891 0.5648303628 4285955341
-0.2936639190 -0.1437824667 0.5640851855 4286217733
-0.2932755649 -0.1429664195 0.5633391738 4286151940
-0.2933373749 -0.1423705071 0.5634579062 4286283526
-0.2933989465 -0.1417742074 0.5635762215 4286612491
-0.2930095196 -0.1409606934 0.5628281236 4286678282
-0.2926803529 -0.1395530552 0.5621958375 4286875143
-0.2922897339 -0.1387429982 0.5614455342 4287072522
-0.2923498452 -0.1381476074 0.5615610480 4287072777
-0.2919585109 -0.1373395771 0.5608093143 4287072777
-0.2920180559 -0.1367443651 0.5609236956 4287072775
-0.2916259766 -0.1359383613 0.5601705313 4287138568
-0.2916849852 -0.1353433579 0.5602838993 4287204102
-0.2912921309 -0.1345393956 0.5595293045 4287269895
-0.2908988595 -0.1337369233 0.5587739348 4287335686
-0.2909570038 -0.1331426799 0.5588855743 4287335686
-0.2905629873 -0.1323422641 0.5581287146 4287335175
-0.2901685834 -0.1315433383 0.5573710799 4287532554
-0.2902258039 -0.1309498847 0.5574810505 4287598600
-0.2902827859 -0.1303560734 0.5575905442 4287795979
-0.2903395593 -0.1297619194 0.5576995611 4288059147
-0.2903960645 -0.1291674227 0.5578081012 4288059147
-0.2904523611 -0.1285725683 0.5579162240 4288190215
-0.2905084193 -0.1279773712 0.5580238700 4288453387
-0.2905642092 -0.1273818314 0.5581310987 4288519435
-0.2910724580 -0.1269834340 0.5591073632 4288585228
-0.2915806472 -0.1265828460 0.5600835085 4288519435
-0.2916359007 -0.1259844303 0.5601896048 4288387849
-0.2921438515 -0.1255803704 0.5611653328 4288650253
-0.2921987176 -0.1249803379 0.5612707138 4288650253
-0.2922533453 -0.1243799701 0.5613756180 4288781839
-0.2923077047 -0.1237792671 0.5614801049 4288650253
-0.2928151190 -0.1233692020 0.5624547601 4288847632
-0.2928690910 -0.1227669045 0.5625584126 4288781839
-0.2933762670 -0.1223533750 0.5635326505 4288847632
-0.2934298217 -0.1217494756 0.5636355281 4288847632
-0.2934831679 -0.1211452484 0.5637379289 4288452874
-0.2935362458 -0.1205406860 0.5638399124 4288387081
-0.2935890555 -0.1199358031 0.5639413595 4288716559
-0.2945493460 -0.1196994707 0.5657859445 4288716559
-0.2946018279 -0.1190920621 0.5658867955 4288321801
-0.2946541011 -0.1184843257 0.5659871101 4288584973
-0.2947060764 -0.1178762764 0.5660870075 4288650766
-0.2952120006 -0.1174485907 0.5670588017 4288913938
-0.2952635884 -0.1168389544 0.5671578646 4289045524
-0.2953149080 -0.1162290052 0.5672565103 4289440282
-0.2958204150 -0.1157966107 0.5682274699 4289440282
-0.2958713174 -0.1151850894 0.5683252215 4289308696
-0.2963765264 -0.1147492453 0.5692957044 4289374742
-0.2964270115 -0.1141361520 0.5693926215 4289440535
-0.2969319522 -0.1136968657 0.5703625679 4289572121
-0.2969819903 -0.1130822077 0.5704587102 4289637914
-0.2974866629 -0.1126394719 0.5714280605 4289703454
-0.2979912162 -0.1121945381 0.5723972321 4289900833
-0.2984956801 -0.1117474213 0.5733662248 4289966877
-0.2985449135 -0.1111287028 0.5734608173 4290032670
-0.2990490794 -0.1106781363 0.5744292736 4290032670
-0.2995531559 -0.1102253795 0.5753974915 4290230049
-0.3000570834 -0.1097704321 0.5763655305 4290230819
-0.3005609214 -0.1093132943 0.5773332715 4290428198
