VERSION 0.7
FIELDS x y z rgba
SIZE 4 4 4 4
TYPE F F F U
COUNT 1 1 1 1
WIDTH 920
HEIGHT 1
VIEWPOINT 0.0 0.0 0.0 1.0 0.0 0.0 0.0
POINTS 920
DATA ascii
-0.2796073854 -0.1530580819 0.5927241445 4279801680
-0.2796694934 -0.1524333805 0.5928558111 4278219827
-0.2797313631 -0.1518082619 0.5929870009 4278214944
-0.2797930241 -0.1511827260 0.5931177139 4279585075
-0.2798544466 -0.1505567729 0.5932479501 4279716661
-0.2799156606 -0.1499304175 0.5933777094 4280503609
-0.2803926468 -0.1495254934 0.5943888426 4281358918
-0.2804534733 -0.1488973796 0.5945178270 4281751623
-0.2809302807 -0.1484888494 0.5955285430 4281356865
-0.2809907496 -0.1478589922 0.5956566930 4281226049
-0.2814673483 -0.1474468410 0.5966670513 4281160256
-0.2815274298 -0.1468152404 0.5967944264 4280964417
-0.2820038497 -0.1463994831 0.5978043079 4281096003
-0.2824802101 -0.1459814459 0.5988141298 4281293125
-0.2833732069 -0.1457755268 0.6007071733 4281358918
-0.2834327221 -0.1451385617 0.6008333564 4281621321
-0.2839089036 -0.1447137147 0.6018427610 4281752907
-0.2839680314 -0.1440750211 0.6019680500 4282015312
-0.2840268910 -0.1434359252 0.6020929217 4282278484
-0.2840855420 -0.1427964270 0.6022171974 4282016593
-0.2841439545 -0.1421565562 0.6023410559 4282016593
-0.2846194506 -0.1417240798 0.6033490300 4282148179
-0.2846774757 -0.1410824656 0.6034719944 4282411351
-0.2851527631 -0.1406463832 0.6044795513 4281754193
-0.2852103710 -0.1400030553 0.6046016812 4282346330
-0.2852677703 -0.1393593252 0.6047233343 4282939750
-0.2853249013 -0.1387152225 0.6048444510 4283597680
-0.2857996225 -0.1382728666 0.6058508158 4283663473
-0.2854384482 -0.1374258399 0.6050851345 4284781954
-0.2854948640 -0.1367805600 0.6052047014 4283136616
-0.2855510414 -0.1361349225 0.6053237915 4281031240
-0.2847706079 -0.1350921392 0.6036694646 4281095752
-0.2844078839 -0.1342502087 0.6029005051 4281885268
-0.2844630778 -0.1336062551 0.6030175090 4281556303
-0.2845180333 -0.1329619437 0.6031339765 4280964166
-0.2845727205 -0.1323172450 0.6032499671 4281028930
-0.2846271992 -0.1316721886 0.6033654213 4282344790
-0.2846814096 -0.1310267597 0.6034803391 4283922795
-0.2843166292 -0.1301892251 0.6027070880 4285238655
-0.2843702734 -0.1295440048 0.6028207541 4287211421
-0.2844236791 -0.1288984269 0.6029339433 4289053625
-0.2844768167 -0.1282524914 0.6030466557 4291091411
-0.2726336122 -0.1940046251 0.5793048739 4290890960
-0.2727096081 -0.1934148669 0.5794662833 4290627788
-0.2723776400 -0.1925363690 0.5787609220 4290627788
-0.2728609741 -0.1922338456 0.5797879100 4290496202
-0.2725284100 -0.1913561374 0.5790812373 4290101442
-0.2726034820 -0.1907652915 0.5792407990 4289838270
-0.2726784050 -0.1901739538 0.5794000030 4289640891
-0.2727531195 -0.1895821393 0.5795587301 4289246133
-0.2724192142 -0.1887069046 0.5788492560 4288524460
-0.2724934220 -0.1881150007 0.5790069699 4288129702
-0.2729761004 -0.1878037602 0.5800325871 4287800735
-0.2730500400 -0.1872099936 0.5801897049 4287405977
-0.2735326588 -0.1868951172 0.5812152028 4286879633
-0.2736063302 -0.1862995028 0.5813717246 4286550668
-0.2736797929 -0.1857034117 0.5815278292 4286222216
-0.2737530768 -0.1851068437 0.5816835165 4285959044
-0.2738261521 -0.1845097840 0.5818387866 4285959042
-0.2743084431 -0.1841871738 0.5828635693 4285695870
-0.2739717066 -0.1833142489 0.5821480751 4285696636
-0.2744538188 -0.1829888970 0.5831725001 4285565050
-0.2749359608 -0.1826612651 0.5841969848 4285565050
-0.2750082612 -0.1820600480 0.5843505859 4285367671
-0.2750803530 -0.1814583391 0.5845037699 4285367671
-0.2755623162 -0.1811257154 0.5855278969 4285038706
-0.2756341100 -0.1805221736 0.5856804252 4285366646
-0.2757057250 -0.1799181700 0.5858325958 4285235060
-0.2757771015 -0.1793136895 0.5859842896 4284842354
-0.2762587965 -0.1789746732 0.5870077610 4284710768
-0.2763299048 -0.1783683598 0.5871588588 4284186734
-0.2768114805 -0.1780257076 0.5881821513 4284120941
-0.2768822610 -0.1774175465 0.5883325934 4283793259
-0.2765419483 -0.1765466034 0.5876094103 4283595880
-0.2766122222 -0.1759384274 0.5877587795 4283005794
-0.2766822875 -0.1753297895 0.5879076123 4283795310
-0.2767521441 -0.1747206748 0.5880560875 4285378190
-0.2768217921 -0.1741111130 0.5882040858 4283338607
-0.2768912315 -0.1735010892 0.5883516073 4279525436
-0.2765489221 -0.1726337075 0.5876242518 4279262264
-0.2766178548 -0.1720236838 0.5877707005 4279198011
-0.2762748301 -0.1711581051 0.5870418549 4279592769
-0.2763432264 -0.1705480814 0.5871871710 4280317262
-0.2764114141 -0.1699375957 0.5873320699 4280448848
-0.2764793932 -0.1693266481 0.5874764919 4279067452
-0.2769593000 -0.1689667106 0.5884962082 4278343729
-0.2770269513 -0.1683539599 0.5886399746 4278410805
-0.2770943940 -0.1677407622 0.5887832642 4278279219
-0.2771615982 -0.1671271175 0.5889261365 4278212138
-0.2772286236 -0.1665130258 0.5890685320 4278212652
-0.2772954106 -0.1658984870 0.5892104506 4278211880
-0.2777747512 -0.1655294746 0.5902289152 4278212137
-0.2778412104 -0.1649131328 0.5903701782 4278277160
-0.2783204019 -0.1645404845 0.5913883448 4278210853
-0.2787995636 -0.1641655564 0.5924065113 4278210850
-0.2788655758 -0.1635460705 0.5925467610 4278211878
-0.2793445885 -0.1631675065 0.5935646296 4278213416
-0.2798236012 -0.1627866626 0.5945824385 4278213159
-0.2794757187 -0.1619244814 0.5938432217 4278212392
-0.2799544632 -0.1615409404 0.5948604941 4278212392
-0.2796059549 -0.1606797278 0.5941199660 4278214187
-0.2792570293 -0.1598199308 0.5933785439 4278214958
-0.2797352970 -0.1594332308 0.5943948030 4278218036
-0.2789718211 -0.1583394855 0.5927726030 4279073345
-0.2786217630 -0.1574830115 0.5920287371 4279077195
-0.2786853611 -0.1568610221 0.5921639204 4279471953
-0.2787487507 -0.1562386155 0.5922985673 4279343702
-0.2783976495 -0.1553845555 0.5915524960 4279804253
-0.2784605026 -0.1547622383 0.5916860700 4279870042
-0.2785231173 -0.1541394889 0.5918191075 4280264800
-0.2785855234 -0.1535163224 0.5919517279 4280921444
-0.2786476910 -0.1528927386 0.5920838118 4280526686
-0.2787096500 -0.1522687227 0.5922154784 4278616895
-0.2787713706 -0.1516443044 0.5923466086 4278216997
-0.2792477906 -0.1512442082 0.5933589339 4279782966
-0.2793091536 -0.1506180316 0.5934893489 4279914552
-0.2793703079 -0.1499914527 0.5936192274 4280701499
-0.2794311941 -0.1493644565 0.5937486291 4281293636
-0.2794918716 -0.1487370431 0.5938775539 4281686084
-0.2795523107 -0.1481092274 0.5940060019 4281357119
-0.2800280154 -0.1477001458 0.5950167775 4281094976
-0.2805036604 -0.1472887844 0.5960274339 4281094976
-0.2805635929 -0.1466578841 0.5961548090 4280964160
-0.2806232870 -0.1460265815 0.5962816477 4281095746
-0.2810985744 -0.1456102729 0.5972915888 4281358148
-0.2819897234 -0.1454061568 0.5991851687 4281423941
-0.2820490003 -0.1447708458 0.5993110538 4281752393
-0.2825241089 -0.1443477124 0.6003206372 4281818186
-0.2825829983 -0.1437106580 0.6004457474 4281949773
-0.2830578983 -0.1432839185 0.6014548540 4282212945
-0.2831164002 -0.1426451355 0.6015791297 4281885009
-0.2831746638 -0.1420059502 0.6017029285 4281687630
-0.2832326889 -0.1413663775 0.6018261909 4281753936
-0.2832904458 -0.1407264024 0.6019489765 4282411866
-0.2837646902 -0.1402920634 0.6029566526 4283070053
-0.2838220894 -0.1396503597 0.6030786037 4284056948
-0.2842960954 -0.1392124146 0.6040858030 4283663473
-0.2843530774 -0.1385689974 0.6042068601 4283071336
-0.2839927971 -0.1377229691 0.6034413576 4283334254
-0.2840492129 -0.1370797306 0.6035612822 4284255356
-0.2841053903 -0.1364361048 0.6036806107 4283399020
-0.2841613591 -0.1357921064 0.6037995219 4282477918
-0.2837996781 -0.1349492818 0.6030310392 4283003749
-0.2830201983 -0.1339104474 0.6013747454 4283859058
-0.2830751538 -0.1332681626 0.6014915109 4284253559
-0.2831298709 -0.1326254904 0.6016077995 4284648317
-0.2831843793 -0.1319824457 0.6017235518 4285699722
-0.2832385898 -0.1313390434 0.6018388271 4287015582
-0.2832925916 -0.1306952685 0.6019535065 4288527794
-0.2833463252 -0.1300511211 0.6020677090 4289448896
-0.2829818428 -0.1292157471 0.6012932658 4290631887
-0.2834531069 -0.1287617385 0.6022945642 4291355610
-0.2712832987 -0.1935004145 0.5777992606 4290890960
-0.2713589668 -0.1929122210 0.5779603720 4290693581
-0.2714344263 -0.1923235357 0.5781211257 4290627788
-0.2715097070 -0.1917343587 0.5782814622 4290430409
-0.2711776197 -0.1908581257 0.5775741339 4290101442
-0.2712523937 -0.1902688444 0.5777333975 4289838270
-0.2713269889 -0.1896791011 0.5778923035 4289510075
-0.2714014053 -0.1890888512 0.5780507922 4289115317
-0.2710680068 -0.1882150918 0.5773406625 4288655278
-0.2711419165 -0.1876247674 0.5774980783 4288260520
-0.2712156177 -0.1870339662 0.5776550770 4287734944
-0.2716971040 -0.1867230535 0.5786805749 4287340186
-0.2717705369 -0.1861303896 0.5788369775 4286945426
-0.2722519636 -0.1858158410 0.5798623562 4286616461
-0.2723251283 -0.1852213293 0.5800181627 4286222214
-0.2723980844 -0.1846263409 0.5801736116 4285893249
-0.2724708617 -0.1840308756 0.5803285837 4285696637
-0.2729520500 -0.1837099493 0.5813534260 4285367672
-0.2730245292 -0.1831126511 0.5815078616 4285236855
-0.2730968297 -0.1825148612 0.5816618204 4285039476
-0.2735778391 -0.1821889281 0.5826863050 4285039474
-0.2736498415 -0.1815893054 0.5828396678 4284907888
-0.2737216353 -0.1809892058 0.5829926133 4284907888
-0.2737932503 -0.1803886294 0.5831450820 4284776302
-0.2738646567 -0.1797875911 0.5832971334 4284776562
-0.2743453085 -0.1794539094 0.5843209028 4284710769
-0.2744164169 -0.1788510233 0.5844723582 4284514672
-0.2748970091 -0.1785137206 0.5854959488 4284514672
-0.2749677896 -0.1779090017 0.5856467485 4284317550
-0.2754482925 -0.1775680482 0.5866701007 4284251757
-0.2755187750 -0.1769614965 0.5868202448 4284251500
-0.2755890787 -0.1763544828 0.5869699717 4284185707
-0.2756591737 -0.1757470071 0.5871192813 4284515953
-0.2757290304 -0.1751390547 0.5872681141 4284121195
-0.2749778926 -0.1740112156 0.5856682062 4283400037
-0.2750471532 -0.1734041572 0.5858157277 4282610521
-0.2751162052 -0.1727966368 0.5859627724 4280837960
-0.2751850486 -0.1721886694 0.5861093998 4280377409
-0.2748428285 -0.1713241637 0.5853806138 4279525436
-0.2749111652 -0.1707161814 0.5855261087 4279196471
-0.2749792933 -0.1701077670 0.5856711864 4280184904
-0.2750471830 -0.1694988906 0.5858158469 4280974420
-0.2751148641 -0.1688895524 0.5859599710 4279659332
-0.2751823664 -0.1682797819 0.5861037374 4278211629
-0.2756610811 -0.1679201871 0.5871233344 4278410033
-0.2753166854 -0.1670588851 0.5863898396 4278344240
-0.2757951617 -0.1666965634 0.5874089599 4278211624
-0.2758619189 -0.1660840958 0.5875510573 4278212652
-0.2763402760 -0.1657181531 0.5885699391 4278212393
-0.2768186033 -0.1653499305 0.5895887017 4278344493
-0.2768848836 -0.1647342891 0.5897299051 4278212650
-0.2773630917 -0.1643624306 0.5907484293 4278210851
-0.2778412700 -0.1639883071 0.5917668939 4278213420
-0.2779071033 -0.1633695215 0.5919071436 4279332415
-0.2783851624 -0.1629917473 0.5929253101 4279136317
-0.2780381441 -0.1621306092 0.5921861529 4278215215
-0.2785159349 -0.1617501378 0.5932038426 4278213420
-0.2785809934 -0.1611286700 0.5933423638 4278345263
-0.2786458135 -0.1605067700 0.5934804678 4278281519
-0.2782975435 -0.1596475840 0.5927386880 4278478898
-0.2779488266 -0.1587897986 0.5919959545 4278218805
-0.2775997221 -0.1579334289 0.5912524462 4278285112
-0.2776634097 -0.1573125720 0.5913880467 4278221627
-0.2777268291 -0.1566912979 0.5915231705 4278353984
-0.2777900696 -0.1560695916 0.5916578174 4278422085
-0.2778530717 -0.1554474682 0.5917919874 4279080015
-0.2775022686 -0.1545945108 0.5910448432 4279541331
-0.2775647342 -0.1539724767 0.5911778808 4279870296
-0.2776269615 -0.1533500105 0.5913104415 4280264282
-0.2776889801 -0.1527271271 0.5914425254 4280461661
-0.2777507603 -0.1521038264 0.5915741324 4278881861
-0.2778123319 -0.1514801085 0.5917052627 4278216735
-0.2778736651 -0.1508559883 0.5918358564 4279191342
-0.2779347897 -0.1502314359 0.5919660330 4279191342
-0.2779956460 -0.1496064961 0.5920956731 4280241207
-0.2780563235 -0.1489811242 0.5922248960 4280767551
-0.2781167328 -0.1483553499 0.5923535824 4281291842
-0.2785915136 -0.1479493380 0.5933647752 4281226049
-0.2790662348 -0.1475410461 0.5943758488 4281029184
-0.2791261375 -0.1469122022 0.5945035219 4281029184
-0.2791858315 -0.1462829262 0.5946305990 4280963391
-0.2796602249 -0.1458696872 0.5956410170 4281160770
-0.2801345289 -0.1454541832 0.5966512561 4281357636
-0.2806088030 -0.1450363845 0.5976613760 4281489222
-0.2810830176 -0.1446163207 0.5986713767 4281752394
-0.2811419070 -0.1439813077 0.5987967849 4281818187
-0.2816159129 -0.1435576379 0.5998063684 4281818700
-0.2816744149 -0.1429208815 0.5999309421 4282081872
-0.2813171148 -0.1420738846 0.5991700292 4281688143
-0.2817906737 -0.1416462064 0.6001785994 4281885522
-0.2818484604 -0.1410082728 0.6003016829 4282609245
-0.2819060087 -0.1403699517 0.6004242301 4283398761
-0.2819633186 -0.1397312284 0.6005463004 4283662192
-0.2820203900 -0.1390921324 0.6006678343 4283530606
-0.2824932635 -0.1386568397 0.6016750336 4283005032
-0.2825499475 -0.1380160302 0.6017957330 4283268204
-0.2826063633 -0.1373748183 0.6019159555 4284386685
-0.2822462618 -0.1365318596 0.6011489630 4285439373
-0.2818857729 -0.1356904060 0.6003811359 4285635469
-0.2819413245 -0.1350499392 0.6004994512 4285832848
-0.2815800905 -0.1342105716 0.5997300744 4286490267
-0.2812184393 -0.1333727241 0.5989598632 4287016611
-0.2812731266 -0.1327330321 0.5990762711 4287542441
-0.2813275456 -0.1320929676 0.5991922021 4288266164
-0.2817985713 -0.1316472739 0.6001954079 4288988604
-0.2818526030 -0.1310055107 0.6003105044 4289712327
-0.2819063663 -0.1303633898 0.6004250050 4290172108
-0.2819598913 -0.1297209114 0.6005390286 4290369487
-0.2815960050 -0.1288871020 0.5997639894 4291157720
-0.2700109184 -0.1924090236 0.5764528513 4290890962
-0.2700860500 -0.1918219179 0.5766132474 4290759374
-0.2701610327 -0.1912343204 0.5767732859 4290561995
-0.2698294222 -0.1903595477 0.5760653615 4290102214
-0.2699038982 -0.1897718608 0.5762243867 4289904835
-0.2699781656 -0.1891836971 0.5763829350 4289707456
-0.2700522840 -0.1885950267 0.5765411258 4289312698
-0.2701261640 -0.1880058944 0.5766988993 4288984243
-0.2701998949 -0.1874162555 0.5768562555 4288523692
-0.2702733874 -0.1868261546 0.5770132542 4288128932
-0.2703467309 -0.1862355620 0.5771697760 4287865760
-0.2704198658 -0.1856444925 0.5773259401 4287405979
-0.2709001601 -0.1853316426 0.5783513188 4287142807
-0.2709730268 -0.1847387254 0.5785068870 4286748560
-0.2710456848 -0.1841453314 0.5786620378 4286288009
-0.2711181641 -0.1835514456 0.5788167119 4285893762
-0.2715982497 -0.1832322180 0.5798416734 4285499004
-0.2716704309 -0.1826365143 0.5799957514 4285236855
-0.2717424035 -0.1820403188 0.5801494718 4284973683
-0.2718141973 -0.1814436466 0.5803027153 4284842097
-0.2718857825 -0.1808465123 0.5804555416 4284578925
-0.2723655105 -0.1805195510 0.5814797878 4284579436
-0.2724368274 -0.1799205691 0.5816319585 4284447850
-0.2725079358 -0.1793211251 0.5817837715 4284382573
-0.2725788355 -0.1787212044 0.5819351673 4284316780
-0.2730582952 -0.1783878654 0.5829587579 4284120425
-0.2731288970 -0.1777861118 0.5831094980 4284186218
-0.2736082673 -0.1774491370 0.5841329694 4284186218
-0.2736785710 -0.1768455654 0.5842830539 4284120425
-0.2741578817 -0.1765049547 0.5853062868 4284185705
-0.2742278874 -0.1758995354 0.5854557157 4284251498
-0.2742976844 -0.1752936542 0.5856047273 4284316778
-0.2743672729 -0.1746873111 0.5857533216 4284579950
-0.2736174166 -0.1735608578 0.5841524601 4283595362
-0.2736864090 -0.1729554087 0.5842997432 4283726948
-0.2737551630 -0.1723495126 0.5844465494 4282612574
-0.2734138072 -0.1714860499 0.5837177634 4281428300
-0.2734820545 -0.1708801389 0.5838634372 4280247876
-0.2735500932 -0.1702737808 0.5840087533 4279721532
-0.2736179233 -0.1696669608 0.5841535330 4279131956
-0.2736855447 -0.1690596938 0.5842978954 4280382023
-0.2737529576 -0.1684519798 0.5844418406 4280054341
-0.2738201618 -0.1678438187 0.5845853090 4278212137
-0.2738871574 -0.1672352105 0.5847283006 4278212650
-0.2739539444 -0.1666261554 0.5848708749 4278936630
-0.2744313180 -0.1662655473 0.5858901143 4279266363
-0.2744977772 -0.1656546891 0.5860319734 4279134777
-0.2749750614 -0.1652904600 0.5870509148 4279660351
-0.2754523158 -0.1649239510 0.5880697966 4279397179
-0.2759295404 -0.1645551771 0.5890886784 4279068468
-0.2764067650 -0.1641841233 0.5901075006 4278673710
-0.2768839598 -0.1638107896 0.5911263227 4278740530
-0.2769496143 -0.1631926894 0.5912664533 4279201081
-0.2774266899 -0.1628157347 0.5922849774 4278544434
-0.2770802975 -0.1619551927 0.5915454626 4278214184
-0.2771452963 -0.1613357961 0.5916842222 4279003189
-0.2776220143 -0.1609547585 0.5927019715 4279332154
-0.2772746682 -0.1600956768 0.5919604301 4279136571
-0.2769269347 -0.1592380106 0.5912179947 4279004985
-0.2769909501 -0.1586177945 0.5913547277 4278284598
-0.2766425014 -0.1577620357 0.5906107426 4278350391
-0.2767059803 -0.1571418792 0.5907463431 4278221625
-0.2767692804 -0.1565213054 0.5908814073 4278222139
-0.2768323123 -0.1559002995 0.5910160542 4278224188
-0.2768951654 -0.1552788764 0.5911501646 4278421824
-0.2765450180 -0.1544265449 0.5904026628 4278817606
-0.2766073048 -0.1538051963 0.5905356407 4279212364
-0.2766693830 -0.1531834453 0.5906681418 4279343692
-0.2767312229 -0.1525612622 0.5908002257 4280067415
-0.2767928541 -0.1519386619 0.5909317732 4279277386
-0.2768542469 -0.1513156593 0.5910628438 4278218016
-0.2769154310 -0.1506922394 0.5911934376 4278469414
-0.2769763768 -0.1500684023 0.5913235545 4278204957
-0.2770370841 -0.1494441479 0.5914531946 4279189546
-0.2770975828 -0.1488194913 0.5915823579 4279715890
-0.2771578431 -0.1481944323 0.5917110443 4280503354
-0.2772178948 -0.1475689560 0.5918391943 4280832319
-0.2776915431 -0.1471623927 0.5928504467 4280898116
-0.2781651616 -0.1467535645 0.5938615203 4280832323
-0.2782246768 -0.1461250037 0.5939886570 4280897346
-0.2782839835 -0.1454960406 0.5941152573 4281160518
-0.2791714668 -0.1452978253 0.5960099101 4281553993
-0.2792304754 -0.1446661949 0.5961359143 4281685579
-0.2797036469 -0.1442478597 0.5971460938 4281752140
-0.2801767290 -0.1438272595 0.5981560946 4281883726
-0.2806497812 -0.1434043646 0.5991659760 4281819216
-0.2802934647 -0.1425574422 0.5984053612 4281950802
-0.2799367607 -0.1417119950 0.5976437926 4281754193
-0.2804092765 -0.1412860453 0.5986525416 4282543709
-0.2804668248 -0.1406497508 0.5987754464 4283135846
-0.2805241346 -0.1400130838 0.5988977551 4283464811
-0.2805812061 -0.1393760145 0.5990196466 4283333997
-0.2806380391 -0.1387385577 0.5991409421 4282807653
-0.2806946337 -0.1381007135 0.5992618203 4282873446
-0.2811663151 -0.1376658380 0.6002687812 4283860341
-0.2808071375 -0.1368238777 0.5995019674 4285899924
-0.2808630168 -0.1361848861 0.5996212363 4287347370
-0.2800875306 -0.1351444870 0.5979656577 4288004017
-0.2797271311 -0.1343070567 0.5971962214 4288332982
-0.2793663144 -0.1334711611 0.5964259505 4288858301
-0.2794209123 -0.1328344345 0.5965424776 4289121473
-0.2794752717 -0.1321973503 0.5966585279 4289252546
-0.2795293927 -0.1315598935 0.5967741013 4289581511
-0.2799993157 -0.1311168820 0.5977773070 4289711816
-0.2804691494 -0.1306716055 0.5987803936 4290238160
-0.2805227041 -0.1300311536 0.5988947153 4290697684
-0.2805760205 -0.1293903142 0.5990085602 4290895063
-0.2688149214 -0.1907337606 0.5752635598 4290890960
-0.2684838176 -0.1898604482 0.5745549798 4290431179
-0.2685579658 -0.1892743409 0.5747137070 4290233800
-0.2686319351 -0.1886877567 0.5748720169 4290036421
-0.2691116333 -0.1883848161 0.5758985281 4289707456
-0.2691853344 -0.1877963692 0.5760562420 4289510075
-0.2688527107 -0.1869250834 0.5753444433 4289049524
-0.2689259350 -0.1863365620 0.5755010843 4288720558
-0.2689989507 -0.1857475489 0.5756573677 4288588972
-0.2690717876 -0.1851580739 0.5758132339 4288260520
-0.2691444159 -0.1845681071 0.5759686828 4288063141
-0.2696235180 -0.1842555851 0.5769939423 4287603356
-0.2701026499 -0.1839407980 0.5780193210 4287142805
-0.2701749206 -0.1833476275 0.5781739950 4286748558
-0.2702470124 -0.1827539802 0.5783282518 4286288007
-0.2703188956 -0.1821598560 0.5784820318 4286025602
-0.2707977891 -0.1818386912 0.5795068741 4285630844
-0.2704620659 -0.1809701771 0.5787884593 4285236600
-0.2705333531 -0.1803746372 0.5789409876 4284907635
-0.2710119784 -0.1800493747 0.5799652934 4284907890
-0.2706753612 -0.1791821420 0.5792448521 4284710511
-0.2711538076 -0.1788541377 0.5802687407 4284972913
-0.2712244093 -0.1782558262 0.5804198384 4284841327
-0.2717027664 -0.1779242009 0.5814435482 4284382573
-0.2717730701 -0.1773240417 0.5815939903 4284448366
-0.2722513676 -0.1769887805 0.5826175213 4284448877
-0.2723213732 -0.1763868034 0.5827673674 4284383084
-0.2723911703 -0.1757843494 0.5829167366 4284317291
-0.2724607885 -0.1751814336 0.5830656886 4284251498
-0.2725301683 -0.1745780706 0.5832142234 4284185446
-0.2730080783 -0.1742350757 0.5842368603 4284251239
-0.2726683617 -0.1733699441 0.5835099220 4284121193
-0.2727371454 -0.1727651954 0.5836571455 4283989607
-0.2723967135 -0.1719018817 0.5829285979 4282809183
-0.2724649906 -0.1712971330 0.5830746889 4282348632
-0.2721238434 -0.1704356223 0.5823446512 4281233231
-0.2721916139 -0.1698308736 0.5824896693 4280509508
-0.2722591460 -0.1692256778 0.5826342106 4279591991
-0.2723264992 -0.1686200202 0.5827783346 4279394612
-0.2723936141 -0.1680139154 0.5829219818 4279330614
-0.2724605501 -0.1674073637 0.5830652118 4279462200
-0.2725272775 -0.1668003798 0.5832079649 4279857471
-0.2730036676 -0.1664428413 0.5842275023 4279857471
-0.2730700672 -0.1658340544 0.5843695998 4279725885
-0.2735463679 -0.1654728949 0.5853888392 4279331127
-0.2736124396 -0.1648622900 0.5855302215 4279462455
-0.2740886211 -0.1644975096 0.5865492225 4278936111
-0.2745647728 -0.1641304493 0.5875682235 4278475560
-0.2746303976 -0.1635166854 0.5877086520 4278211617
-0.2751064003 -0.1631459892 0.5887272954 4278211614
-0.2751716971 -0.1625304371 0.5888670683 4278212899
-0.2756475806 -0.1621561050 0.5898854136 4278411818
-0.2757125199 -0.1615387648 0.5900244117 4279069748
-0.2757772803 -0.1609209776 0.5901629925 4279398460
-0.2758418024 -0.1603027582 0.5903010368 4279464253
-0.2759060860 -0.1596841216 0.5904386640 4279268157
-0.2755588889 -0.1588279754 0.5896956325 4279202364
-0.2756226659 -0.1582093835 0.5898321271 4278809145
-0.2752747536 -0.1573551595 0.5890875459 4278874938
-0.2757495344 -0.1569709182 0.5901036263 4278483769
-0.2758126557 -0.1563510448 0.5902386904 4278615355
-0.2754637897 -0.1554983258 0.5894921422 4278552896
-0.2755263746 -0.1548785269 0.5896260142 4278618689
-0.2755887210 -0.1542583108 0.5897594690 4278554434
-0.2756508589 -0.1536376774 0.5898924470 4278422848
-0.2757127583 -0.1530166119 0.5900248885 4278223926
-0.2753622234 -0.1521673501 0.5892747641 4278224183
-0.2754235864 -0.1515463889 0.5894060731 4278355768
-0.2754847407 -0.1509250104 0.5895369649 4278220841
-0.2755456567 -0.1503032297 0.5896673203 4278931757
-0.2756063342 -0.1496810317 0.5897971988 4278204950
-0.2760795057 -0.1492815614 0.5908097029 4278598690
-0.2761398256 -0.1486576051 0.5909388661 4279059241
-0.2761999369 -0.1480332464 0.5910674930 4280043316
-0.2762598097 -0.1474084854 0.5911956429 4280569660
-0.2767325044 -0.1470027119 0.5922071338 4280898116
-0.2767920196 -0.1463762075 0.5923345089 4280898116
-0.2768512964 -0.1457492858 0.5924614072 4281094727
-0.2773236632 -0.1453385651 0.5934722424 4281292106
-0.2777959406 -0.1449255794 0.5944829583 4281751374
-0.2778547406 -0.1442955881 0.5946087241 4281817167
-0.2779132724 -0.1436651945 0.5947340131 4281752142
-0.2783852220 -0.1432472616 0.5957439542 4282015314
-0.2788571119 -0.1428270340 0.5967538357 4281885522
-0.2793289423 -0.1424045563 0.5977635384 4281885522
-0.2789729238 -0.1415597200 0.5970016122 4281622607
-0.2790304720 -0.1409254819 0.5971248150 4282148951
-0.2790877819 -0.1402908415 0.5972474217 4281952342
-0.2791448534 -0.1396558136 0.5973695517 4282412893
-0.2792016864 -0.1390203983 0.5974912047 4282676067
-0.2792582810 -0.1383845806 0.5976123214 4282478688
-0.2793146670 -0.1377483904 0.5977329612 4283202411
-0.2793707848 -0.1371118128 0.5978530645 4285110408
-0.2790120840 -0.1362723708 0.5970854759 4287478186
-0.2786529958 -0.1354344338 0.5963170528 4288530874
-0.2782935202 -0.1345980167 0.5955477357 4288859069
-0.2779336274 -0.1337631047 0.5947775245 4289056448
-0.2775733173 -0.1329297274 0.5940065384 4289449925
-0.2776276171 -0.1322956085 0.5941227078 4289778890
-0.2780967355 -0.1318579316 0.5951266289 4290172365
-0.2781506181 -0.1312221289 0.5952419639 4290303951
-0.2782042921 -0.1305859536 0.5953567624 4290434259
-0.2786729932 -0.1301433742 0.5963598490 4290697431
-0.2787262499 -0.1295055151 0.5964738131 4291026137
-0.2787792683 -0.1288672984 0.5965872407 4291289309
-0.2671408057 -0.1893608123 0.5730429888 4290825167
-0.2672146559 -0.1887762845 0.5732014179 4290693581
-0.2672883272 -0.1881912798 0.5733593702 4290365386
-0.2677668631 -0.1878900379 0.5743859410 4290102214
-0.2678402662 -0.1873031855 0.5745434165 4290167237
-0.2679134607 -0.1867158413 0.5747004151 4289838272
-0.2679864764 -0.1861280203 0.5748570561 4289640893
-0.2680593133 -0.1855397075 0.5750132203 4289509307
-0.2677262723 -0.1846711189 0.5742988586 4289115317
-0.2677986026 -0.1840827614 0.5744540095 4288983731
-0.2682766020 -0.1837719232 0.5754793882 4288655276
-0.2683486640 -0.1831817180 0.5756339431 4288260518
-0.2684205174 -0.1825910211 0.5757880807 4287932321
-0.2688983977 -0.1822752059 0.5768131614 4287471770
-0.2689699531 -0.1816826761 0.5769667029 4287340184
-0.2690413594 -0.1810896695 0.5771198273 4286945426
-0.2691125274 -0.1804962009 0.5772725344 4286551179
-0.2695901394 -0.1801740080 0.5782970786 4286156421
-0.2696610391 -0.1795786917 0.5784491301 4286090882
-0.2697317600 -0.1789829135 0.5786008239 4285761917
-0.2698022723 -0.1783866584 0.5787520409 4285892475
-0.2698725760 -0.1777899414 0.5789028406 4285760889
-0.2699426711 -0.1771927625 0.5790532827 4285432951
-0.2704198360 -0.1768614650 0.5800768137 4285367158
-0.2704896629 -0.1762624532 0.5802266002 4285105526
-0.2709667385 -0.1759275347 0.5812499523 4284908147
-0.2710362673 -0.1753266901 0.5813990831 4284448877
-0.2711055577 -0.1747253835 0.5815477967 4284251498
-0.2711746693 -0.1741236150 0.5816960335 4284383084
-0.2712435722 -0.1735213995 0.5818438530 4284646256
-0.2717202604 -0.1731787473 0.5828663707 4284252781
-0.2713807821 -0.1723155677 0.5821381211 4283989609
-0.2714490891 -0.1717119813 0.5822846293 4283333730
-0.2711088657 -0.1708506197 0.5815548301 4283070558
-0.2711766362 -0.1702470183 0.5817002654 4282283609
-0.2712442279 -0.1696429700 0.5818452239 4281559886
-0.2713115811 -0.1690384746 0.5819897056 4280709446
-0.2713787556 -0.1684335321 0.5821337700 4280248895
-0.2714456916 -0.1678281277 0.5822773576 4280184896
-0.2715124488 -0.1672222763 0.5824205279 4280777033
-0.2715789676 -0.1666159928 0.5825632811 4280383302
-0.2716453075 -0.1660092473 0.5827055573 4279001649
-0.2721206248 -0.1656511724 0.5837251544 4278343204
-0.2721866369 -0.1650426388 0.5838667154 4278277411
-0.2726618052 -0.1646809280 0.5848860741 4278276898
-0.2727274895 -0.1640705913 0.5850269794 4278540070
-0.2732025683 -0.1637052447 0.5860460401 4279000875
-0.2732679248 -0.1630931050 0.5861862302 4279461426
-0.2733330429 -0.1624805331 0.5863259435 4279594037
-0.2733979821 -0.1618675292 0.5864652395 4279791416
-0.2734626830 -0.1612540781 0.5866039991 4279923515
-0.2739372551 -0.1608810276 0.5876220465 4280252480
-0.2740016282 -0.1602657884 0.5877601504 4279859780
-0.2740657926 -0.1596501321 0.5878977776 4279465022
-0.2741297483 -0.1590340286 0.5880349278 4279333950
-0.2741934657 -0.1584174931 0.5881716013 4279531329
-0.2742569745 -0.1578005254 0.5883078575 4279334976
-0.2743202448 -0.1571831405 0.5884435773 4279137597
-0.2743833363 -0.1565653235 0.5885788798 4278811707
-0.2748570144 -0.1561805308 0.5895950198 4279206465
-0.2745088041 -0.1553284228 0.5888480544 4278552383
-0.2745712101 -0.1547093242 0.5889819264 4279078727
-0.2746333778 -0.1540898234 0.5891153216 4279343952
-0.2746953666 -0.1534698904 0.5892482400 4279607124
-0.2747570872 -0.1528495401 0.5893806815 4279408973
-0.2744072080 -0.1520008892 0.5886301398 4278224442
-0.2744684219 -0.1513806283 0.5887613893 4278221873
-0.2745293975 -0.1507599652 0.5888922215 4278222644
-0.2745901644 -0.1501388848 0.5890225768 4279788857
-0.2746506929 -0.1495173872 0.5891523957 4278206741
-0.2747109830 -0.1488954872 0.5892817974 4278468638
-0.2747710943 -0.1482731700 0.5894106627 4278994982
-0.2748309374 -0.1476504505 0.5895390511 4280174901
-0.2748905718 -0.1470273286 0.5896669626 4280569659
-0.2753621936 -0.1466232985 0.5906786323 4280898114
-0.2754214704 -0.1459984332 0.5908057690 4280963907
-0.2754805088 -0.1453731507 0.5909324288 4281226827
-0.2759518027 -0.1449641734 0.5919433832 4281358413
-0.2764230371 -0.1445529163 0.5929542780 4281752144
-0.2764815688 -0.1439245641 0.5930798054 4281817937
-0.2765398622 -0.1432958096 0.5932048559 4281884239
-0.2770107687 -0.1428796053 0.5942149758 4282213204
-0.2774816155 -0.1424611211 0.5952249765 4282083412
-0.2775393724 -0.1418293118 0.5953488946 4281754447
-0.2775969207 -0.1411971003 0.5954723358 4281819729
-0.2776542306 -0.1405645013 0.5955953002 4282017108
-0.2777113020 -0.1399315149 0.5957177281 4281754193
-0.2777681351 -0.1392981410 0.5958396196 4282872674
-0.2774113119 -0.1384580284 0.5950742364 4282873446
-0.2774676085 -0.1378248185 0.5951949954 4283005032
-0.2771100700 -0.1369867623 0.5944280028 4284714880
-0.2771658003 -0.1363537163 0.5945475698 4287149221
-0.2768075168 -0.1355177462 0.5937790275 4288661690
-0.2764488459 -0.1346832663 0.5930096507 4289056448
-0.2765037119 -0.1340509951 0.5931273103 4289253057
-0.2761443257 -0.1332186013 0.5923563838 4289713608
-0.2757845521 -0.1323877424 0.5915846229 4290172365
-0.2766668797 -0.1321519017 0.5934773088 4290435537
-0.2767207921 -0.1315181255 0.5935929418 4290829268
-0.2767744660 -0.1308839768 0.5937080979 4291026647
-0.2768278718 -0.1302494705 0.5938227177 4290960092
-0.2772955596 -0.1298086196 0.5948259234 4291223264
-0.2666820586 -0.1888499707 0.5734251142 4290890960
-0.2663514614 -0.1879795194 0.5727142096 4290825167
-0.2668290138 -0.1876790971 0.5737410784 4290693581
-0.2669022083 -0.1870929301 0.5738984346 4290693581
-0.2669751942 -0.1865062863 0.5740554333 4290561995
-0.2670480311 -0.1859191656 0.5742120147 4290430409
-0.2671206295 -0.1853315532 0.5743681788 4290364616
-0.2667882442 -0.1844635606 0.5736533999 4289970628
-0.2668603659 -0.1838758886 0.5738084912 4289839042
-0.2673373520 -0.1835658848 0.5748341680 4289641661
-0.2674092352 -0.1829763651 0.5749886632 4289312696
-0.2674808800 -0.1823863834 0.5751427412 4289181622
-0.2675523460 -0.1817959100 0.5752964020 4288852657
-0.2676236331 -0.1812049747 0.5754497051 4288786862
-0.2676947117 -0.1806135774 0.5756025314 4288392104
-0.2677656114 -0.1800217032 0.5757549405 4287998116
-0.2678363025 -0.1794293523 0.5759069324 4287603358
-0.2679067850 -0.1788365394 0.5760585666 4287405977
-0.2679770887 -0.1782432497 0.5762097239 4286945426
-0.2680471838 -0.1776494980 0.5763604641 4286747531
-0.2685233355 -0.1773235500 0.5773842335 4286615945
-0.2685931623 -0.1767279804 0.5775343776 4286156164
-0.2690692246 -0.1763983965 0.5785580277 4285827199
-0.2691387236 -0.1758009791 0.5787075162 4285564797
-0.2692080438 -0.1752031147 0.5788565278 4285301625
-0.2692771852 -0.1746047735 0.5790051818 4284711538
-0.2693460882 -0.1740059853 0.5791533589 4284579952
-0.2694148123 -0.1734067351 0.5793011189 4284777844
-0.2698903978 -0.1730680615 0.5803236961 4284514672
-0.2699587941 -0.1724669933 0.5804708004 4284383343
-0.2700270116 -0.1718654633 0.5806174874 4284909687
-0.2700950205 -0.1712634712 0.5807636976 4284385394
-0.2701628208 -0.1706610322 0.5809094906 4283859050
-0.2702304125 -0.1700581312 0.5810548663 4283729517
-0.2702978253 -0.1694547981 0.5811997652 4283400552
-0.2699572146 -0.1685963124 0.5804674029 4282418267
-0.2700240910 -0.1679929793 0.5806111693 4282747232
-0.2700907588 -0.1673891991 0.5807545185 4282288732
-0.2701572180 -0.1667849720 0.5808974504 4281959767
-0.2706316710 -0.1664313227 0.5819176435 4281105228
-0.2706978023 -0.1658252925 0.5820598602 4280447298
-0.2707637548 -0.1652188152 0.5822016001 4279657782
-0.2708294690 -0.1646119058 0.5823429823 4278670887
-0.2713035941 -0.1642519087 0.5833624005 4279065644
-0.2713689804 -0.1636431962 0.5835030079 4279197230
-0.2718429565 -0.1632795781 0.5845221877 4279593010
-0.2719080448 -0.1626690626 0.5846621394 4280448319
-0.2719729245 -0.1620581150 0.5848016143 4280515393
-0.2720375657 -0.1614467204 0.5849406123 4280120635
-0.2721019983 -0.1608348936 0.5850791931 4279924028
-0.2721662223 -0.1602226496 0.5852172375 4280252993
-0.2726396024 -0.1598499715 0.5862351060 4280319815
-0.2727034986 -0.1592359245 0.5863724947 4279793471
-0.2727671564 -0.1586214602 0.5865094066 4279530815
-0.2728306353 -0.1580065489 0.5866459012 4279530815
-0.2728938758 -0.1573912203 0.5867818594 4279400253
-0.2729568779 -0.1567754596 0.5869173408 4279334460
-0.2734296322 -0.1563937515 0.5879338384 4279073850
-0.2734923065 -0.1557762176 0.5880686641 4279600194
-0.2735547721 -0.1551582515 0.5882029533 4279208771
-0.2736169994 -0.1545398682 0.5883367658 4279471943
-0.2736790180 -0.1539210677 0.5884701014 4280000340
-0.2737408280 -0.1533018500 0.5886030197 4280789856
-0.2733919024 -0.1524532884 0.5878527761 4281644652
-0.2734531760 -0.1518341601 0.5879845023 4281052515
-0.2735142112 -0.1512146145 0.5881157517 4280328018
-0.2735750377 -0.1505946517 0.5882465243 4279867467
-0.2732247710 -0.1497491002 0.5874933600 4281106251
-0.2732850313 -0.1491292417 0.5876229405 4278210074
-0.2733451128 -0.1485089809 0.5877521038 4278534940
-0.2734049261 -0.1478883177 0.5878807902 4279061284
-0.2734645307 -0.1472672373 0.5880089402 4280306741
-0.2735239267 -0.1466457546 0.5881366134 4280438327
-0.2739944756 -0.1462434530 0.5891484022 4280898114
-0.2740535140 -0.1456202269 0.5892753601 4281029700
-0.2741123140 -0.1449965984 0.5894017816 4281292620
-0.2741708755 -0.1443725675 0.5895276666 4281424206
-0.2746409774 -0.1439639777 0.5905385017 4281817937
-0.2746991515 -0.1433382183 0.5906636119 4281949523
-0.2747571170 -0.1427120566 0.5907883048 4282147411
-0.2752268910 -0.1422985196 0.5917983651 4282607962
-0.2752844691 -0.1416706294 0.5919222236 4282346583
-0.2753418386 -0.1410423517 0.5920455456 4281886032
-0.2753989697 -0.1404136717 0.5921683908 4281950804
-0.2754558921 -0.1397846043 0.5922907591 4282213976
-0.2755125463 -0.1391551495 0.5924125910 4282016854
-0.2751564682 -0.1383179426 0.5916469097 4283727472
-0.2752125859 -0.1376886517 0.5917676091 4283924851
-0.2752684653 -0.1370589882 0.5918877721 4285240711
-0.2753241062 -0.1364289373 0.5920073986 4287082658
-0.2749666572 -0.1355949044 0.5912388563 4288266932
-0.2750217617 -0.1349650323 0.5913572907 4289318852
-0.2746635973 -0.1341330856 0.5905871987 4289516231
-0.2743050456 -0.1333026439 0.5898162127 4289909706
-0.2743592858 -0.1326735467 0.5899327993 4290567636
-0.2744132876 -0.1320440769 0.5900489092 4290764245
-0.2744670212 -0.1314142197 0.5901644826 4290830038
-0.2749339938 -0.1309809685 0.5911685824 4291354585
-0.2754008770 -0.1305454522 0.5921725035 4291354585
-0.2754540741 -0.1299125999 0.5922868848 4291419360
-0.2657067478 -0.1854282022 0.5726956725 4290956755
-0.2657790482 -0.1848421842 0.5728515387 4290890962
-0.2654471397 -0.1839756668 0.5721361637 4290628304
-0.2659231126 -0.1836687326 0.5731620193 4290496718
-0.2659948468 -0.1830812842 0.5733166337 4290299591
-0.2660664022 -0.1824933589 0.5734708905 4290036419
-0.2661377788 -0.1819049716 0.5736246705 4290036418
-0.2662089467 -0.1813161075 0.5737780929 4289773246
-0.2662799060 -0.1807267666 0.5739310384 4289642173
-0.2663506866 -0.1801369637 0.5740836263 4289247415
-0.2664212883 -0.1795466840 0.5742357373 4289050036
-0.2664916813 -0.1789559424 0.5743874907 4288589485
-0.2665618658 -0.1783647239 0.5745387673 4288326311
-0.2666318715 -0.1777730435 0.5746896267 4287799967
-0.2667016685 -0.1771809012 0.5748401284 4287406490
-0.2667712867 -0.1765882820 0.5749901533 4287143318
-0.2672462165 -0.1762626767 0.5760138035 4286485388
-0.2673155367 -0.1756682396 0.5761632323 4285893251
-0.2677904069 -0.1753389984 0.5771867633 4285499006
-0.2678594291 -0.1747427434 0.5773355365 4285367420
-0.2679282725 -0.1741460115 0.5774838328 4285040504
-0.2679969072 -0.1735488325 0.5776317716 4285106297
-0.2680653334 -0.1729511917 0.5777792335 4285106554
-0.2685398161 -0.1726142317 0.5788019300 4284843382
-0.2686079443 -0.1720147580 0.5789487958 4285238653
-0.2686758637 -0.1714148521 0.5790951848 4285172860
-0.2687435746 -0.1708144695 0.5792411566 4285042556
-0.2688111067 -0.1702136397 0.5793866515 4285503107
-0.2688784003 -0.1696123630 0.5795317292 4285175680
-0.2689455152 -0.1690106392 0.5796763897 4285702024
-0.2690124214 -0.1684084535 0.5798205733 4284983170
-0.2690791190 -0.1678058356 0.5799643397 4284522619
-0.2691456079 -0.1672027558 0.5801076293 4283734895
-0.2692118883 -0.1665992290 0.5802505016 4283537516
-0.2692779601 -0.1659952551 0.5803929567 4282420575
-0.2693438232 -0.1653908491 0.5805348754 4282683747
-0.2694094777 -0.1647859961 0.5806764364 4282881381
-0.2694749236 -0.1641806960 0.5808175206 4282157658
-0.2699479461 -0.1638224274 0.5818369985 4282420828
-0.2700130939 -0.1632153392 0.5819773674 4283012965
-0.2704859674 -0.1628534347 0.5829966664 4282751072
-0.2705507874 -0.1622445434 0.5831363201 4282224728
-0.2706153691 -0.1616352201 0.5832755566 4281108041
-0.2706797421 -0.1610254645 0.5834143162 4280515904
-0.2707439363 -0.1604152620 0.5835526586 4280451140
-0.2708078921 -0.1598046422 0.5836904645 4280648519
-0.2708716094 -0.1591935754 0.5838278532 4280450886
-0.2713437974 -0.1588212699 0.5848456025 4280319300
-0.2714072168 -0.1582084298 0.5849822164 4280188229
-0.2714703977 -0.1575951576 0.5851184726 4279793471
-0.2715333700 -0.1569814533 0.5852541924 4279663166
-0.2715961337 -0.1563673317 0.5853894353 4279992131
-0.2720677853 -0.1559873372 0.5864060521 4279927874
-0.2721302211 -0.1553714424 0.5865405798 4280388425
-0.2721924186 -0.1547551155 0.5866746306 4280193868
-0.2722543776 -0.1541383713 0.5868082643 4280654419
-0.2723161578 -0.1535211951 0.5869413614 4281577318
-0.2723776996 -0.1529036164 0.5870739818 4281708904
-0.2724390030 -0.1522856057 0.5872061849 4281906796
-0.2720903456 -0.1514391154 0.5864546299 4282433140
-0.2721511126 -0.1508212090 0.5865856409 4282761074
-0.2722116709 -0.1502028853 0.5867161751 4281971558
-0.2722720206 -0.1495841593 0.5868462324 4282816867
-0.2719219923 -0.1487406641 0.5860918164 4278869287
-0.2719818056 -0.1481220424 0.5862207413 4278666526
-0.2720414102 -0.1475030184 0.5863491893 4278863905
-0.2721007466 -0.1468835920 0.5864771008 4280174642
-0.2721599042 -0.1462637484 0.5866045356 4280174642
-0.2726293802 -0.1458631754 0.5876165032 4280897344
-0.2726881504 -0.1452416033 0.5877431631 4281292102
-0.2727467120 -0.1446196288 0.5878693461 4281226313
-0.2728050351 -0.1439972371 0.5879950523 4281555278
-0.2732740641 -0.1435903907 0.5890060067 4281883476
-0.2733320296 -0.1429662704 0.5891309381 4282015062
-0.2733897567 -0.1423417628 0.5892553329 4282278999
-0.2734472454 -0.1417168528 0.5893793106 4282805343
-0.2739157975 -0.1413037330 0.5903891921 4282543963
-0.2735615671 -0.1404658705 0.5896256566 4282083412
-0.2736183703 -0.1398397833 0.5897480845 4282476378
-0.2740864754 -0.1394226551 0.5907570720 4282673757
-0.2737312913 -0.1385864466 0.5899915099 4282806113
-0.2737874091 -0.1379592121 0.5901124477 4285306247
-0.2734315097 -0.1371250600 0.5893453360 4285305993
-0.2734870613 -0.1364979893 0.5894651413 4286819232
-0.2735424042 -0.1358705461 0.5895844102 4288792508
-0.2731854618 -0.1350390315 0.5888150334 4289318852
-0.2732402384 -0.1344117671 0.5889331102 4289844683
-0.2728826106 -0.1335823387 0.5881622434 4290173648
-0.2733491361 -0.1331561059 0.5891678333 4290501330
-0.2734032273 -0.1325277239 0.5892843604 4290896088
-0.2734570801 -0.1318989545 0.5894004703 4291091929
-0.2735106945 -0.1312698275 0.5895160437 4291420894
-0.2649151087 -0.1840475202 0.5723595619 4290956753
-0.2649868429 -0.1834612489 0.5725145936 4290825167
-0.2650583982 -0.1828745157 0.5726691484 4290693581
-0.2651297450 -0.1822872907 0.5728233457 4290627788
-0.2652009130 -0.1816996038 0.5729770660 4290168007
-0.2652719021 -0.1811114401 0.5731304288 4290102214
-0.2653426826 -0.1805228144 0.5732833147 4289904833
-0.2654132545 -0.1799337119 0.5734358430 4289707454
-0.2654836476 -0.1793441325 0.5735879540 4289510075
-0.2651496530 -0.1784820110 0.5728663206 4289181110
-0.2652195692 -0.1778924018 0.5730173588 4288721072
-0.2652892768 -0.1773023158 0.5731679201 4288457900
-0.2653587759 -0.1767117828 0.5733181238 4288194466
-0.2654280961 -0.1761207730 0.5734678507 4287931294
-0.2654972076 -0.1755293012 0.5736172199 4287405463
-0.2655661106 -0.1749373823 0.5737661123 4286813326
-0.2660397887 -0.1746107489 0.5747894645 4286221703
-0.2661083937 -0.1740169972 0.5749377608 4285958531
-0.2665819824 -0.1736867577 0.5759608746 4285631360
-0.2666503191 -0.1730911732 0.5761085153 4285499774
-0.2671237886 -0.1727572978 0.5771315098 4285303676
-0.2671918273 -0.1721598953 0.5772784948 4285369469
-0.2672596872 -0.1715620458 0.5774250627 4285370239
-0.2673273087 -0.1709637493 0.5775712132 4285567618
-0.2673947513 -0.1703649908 0.5777168870 4285568387
-0.2674619853 -0.1697657704 0.5778621435 4285831559
-0.2675290108 -0.1691661030 0.5780069828 4285898633
-0.2675958276 -0.1685659885 0.5781513453 4286030219
-0.2676624358 -0.1679654270 0.5782952905 4285441154
-0.2677288651 -0.1673644185 0.5784387589 4285309568
-0.2677950561 -0.1667629629 0.5785818100 4284653689
-0.2678610682 -0.1661610603 0.5787244439 4284258931
-0.2683334351 -0.1658099443 0.5797449946 4283538796
-0.2679924369 -0.1649559289 0.5790082812 4283801968
-0.2680578232 -0.1643526852 0.5791495442 4283672687
-0.2681230009 -0.1637490243 0.5792903304 4283409515
-0.2685949206 -0.1633924693 0.5803099871 4283080550
-0.2686598003 -0.1627870053 0.5804501176 4283212136
-0.2687244415 -0.1621810943 0.5805897713 4283276650
-0.2687888741 -0.1615747511 0.5807289481 4282684513
-0.2688530982 -0.1609679759 0.5808677077 4282026072
-0.2689171135 -0.1603607535 0.5810060501 4281499728
-0.2689809203 -0.1597531140 0.5811438560 4281104970
-0.2690444887 -0.1591450423 0.5812812448 4280973384
-0.2691078782 -0.1585365236 0.5814182162 4280516933
-0.2695788741 -0.1581668705 0.5824357867 4280385347
-0.2696419060 -0.1575565785 0.5825720429 4280188479
-0.2701127827 -0.1571833044 0.5835893154 4280385858
-0.2701754868 -0.1565712392 0.5837247968 4280190019
-0.2706461847 -0.1561943293 0.5847417712 4280453191
-0.2707085609 -0.1555804908 0.5848765373 4280191818
-0.2707707286 -0.1549662203 0.5850108266 4280783955
-0.2708326578 -0.1543515325 0.5851446390 4281442396
-0.2708943784 -0.1537364125 0.5852780342 4282034533
-0.2709558904 -0.1531208903 0.5854108930 4282888812
-0.2706083953 -0.1522749215 0.5846601129 4283283570
-0.2710782290 -0.1518885642 0.5856752396 4283612274
-0.2707301080 -0.1510436237 0.5849230886 4283875446
-0.2707906365 -0.1504273564 0.5850538611 4283809653
-0.2708509564 -0.1498106867 0.5851841569 4283349102
-0.2709110379 -0.1491935849 0.5853139758 4283342189
-0.2705615759 -0.1483516544 0.5845589638 4281499985
-0.2710305452 -0.1479581892 0.5855722427 4279193899
-0.2710899711 -0.1473398656 0.5857005715 4278205205
-0.2707395852 -0.1464995146 0.5849435925 4278531868
-0.2712081373 -0.1461020112 0.5859559178 4279189798
-0.2712669075 -0.1454824954 0.5860828757 4279912240
-0.2713254392 -0.1448625624 0.5862092972 4280109619
-0.2713837326 -0.1442422271 0.5863353014 4280503354
-0.2714418173 -0.1436214894 0.5864607692 4280832319
-0.2714996636 -0.1430003643 0.5865857601 4281160003
-0.2715572715 -0.1423788369 0.5867102146 4281488968
-0.2720249891 -0.1419710517 0.5877206922 4282014287
-0.2720822394 -0.1413477957 0.5878444314 4282277459
-0.2721392512 -0.1407241523 0.5879676342 4282277205
-0.2721960545 -0.1401001066 0.5880903602 4281816654
-0.2722526491 -0.1394756883 0.5882125497 4281620817
-0.2723089755 -0.1388508677 0.5883343220 4281555024
-0.2723650932 -0.1382256597 0.5884555578 4282871138
-0.2720100880 -0.1373925358 0.5876885056 4284713342
-0.2724766135 -0.1369740963 0.5886965394 4286620826
-0.2717099190 -0.1359364390 0.5870400071 4288660409
-0.2717649341 -0.1353115886 0.5871589184 4289909195
-0.2718197405 -0.1346863657 0.5872772932 4289909195
-0.2718743086 -0.1340607554 0.5873951912 4290435026
-0.2719286382 -0.1334347725 0.5875125527 4290369233
-0.2715712488 -0.1326075047 0.5867404342 4290631891
-0.2716250122 -0.1319817156 0.5868566036 4290829270
-0.2720901966 -0.1315545887 0.5878616571 4291026136
-0.2721436024 -0.1309271306 0.5879769921 4291223515
-0.2721967697 -0.1302992851 0.5880918503 4291486688
-0.2633176744 -0.1821105331 0.5702767372 4290891730
-0.2633886337 -0.1815257967 0.5704303980 4290891730
-0.2634593844 -0.1809405982 0.5705835819 4290694351
-0.2635299563 -0.1803549379 0.5707364082 4290628558
-0.2636003196 -0.1797688007 0.5708888173 4290496972
-0.2636705041 -0.1791821867 0.5710408092 4290365386
-0.2637404799 -0.1785951108 0.5711923838 4290233798
-0.2638102770 -0.1780075729 0.5713435411 4289970626
-0.2634764016 -0.1771482825 0.5706204176 4289576381
-0.2639492750 -0.1768310964 0.5716446042 4289379002
-0.2640185058 -0.1762421578 0.5717945099 4289247156
-0.2640874982 -0.1756527573 0.5719439387 4289049777
-0.2641563416 -0.1750628948 0.5720930099 4288786605
-0.2642249465 -0.1744725704 0.5722416639 4288326054
-0.2646974921 -0.1741476655 0.5732650757 4287669149
-0.2647658288 -0.1735555232 0.5734130740 4287471770
-0.2652383149 -0.1732269824 0.5744363070 4287209622
-0.2657107711 -0.1728961915 0.5754595399 4287012243
-0.2653741837 -0.1720385998 0.5747305751 4286618768
-0.2658464909 -0.1717050821 0.5757534504 4286684561
-0.2659140229 -0.1711088419 0.5758997202 4286487696
-0.2655765414 -0.1702526212 0.5751687884 4286421903
-0.2660485208 -0.1699150056 0.5761910081 4286291341
-0.2661154568 -0.1693174094 0.5763359666 4286225548
-0.2661822140 -0.1687193662 0.5764805079 4286094731
-0.2662487626 -0.1681208611 0.5766246319 4286094731
-0.2663150728 -0.1675219238 0.5767682791 4285833861
-0.2663812041 -0.1669225395 0.5769115090 4285833861
-0.2664471567 -0.1663226932 0.5770543218 4285571972
-0.2665128708 -0.1657224149 0.5771966577 4285440386
-0.2669841349 -0.1653730124 0.5782172680 4284916348
-0.2670495510 -0.1647709310 0.5783589482 4284784762
-0.2675206959 -0.1644179076 0.5793793201 4284326518
-0.2675857842 -0.1638140231 0.5795203447 4284129139
-0.2676506937 -0.1632097065 0.5796608329 4283603309
-0.2677153647 -0.1626049429 0.5798009038 4283800688
-0.2677798271 -0.1619997472 0.5799405575 4283799920
-0.2678440809 -0.1613941044 0.5800797343 4283273576
-0.2679081261 -0.1607880443 0.5802184343 4282681439
-0.2679719627 -0.1601815373 0.5803567171 4282220888
-0.2680355906 -0.1595745981 0.5804945230 4282023763
-0.2680990100 -0.1589672267 0.5806318521 4281957970
-0.2681622207 -0.1583594382 0.5807687044 4282023762
-0.2682252228 -0.1577512026 0.5809051394 4282089555
-0.2682879865 -0.1571425498 0.5810410976 4281959250
-0.2687577605 -0.1567710042 0.5820584893 4282222422
-0.2692275047 -0.1563971639 0.5830758810 4281896278
-0.2692898512 -0.1557853818 0.5832108259 4282356829
-0.2693519592 -0.1551731825 0.5833453536 4282162268
-0.2698214352 -0.1547943801 0.5843621492 4282754405
-0.2698832154 -0.1541803926 0.5844959021 4282953574
-0.2699447572 -0.1535660028 0.5846292377 4283216746
-0.2695982158 -0.1527201384 0.5838786960 4283545962
-0.2696592510 -0.1521058232 0.5840108991 4283809134
-0.2693119943 -0.1512619108 0.5832588673 4284203120
-0.2693724930 -0.1506476998 0.5833898783 4284400499
-0.2694327831 -0.1500330716 0.5835204124 4284202606
-0.2694928348 -0.1494180411 0.5836504698 4283676262
-0.2695526779 -0.1488025934 0.5837800503 4283473775
-0.2696122825 -0.1481867433 0.5839091539 4282881638
-0.2696716785 -0.1475704759 0.5840377808 4281956692
-0.2697308362 -0.1469538063 0.5841659307 4280114488
