VERSION 0.7
FIELDS x y z rgba
SIZE 4 4 4 4
TYPE F F F U
COUNT 1 1 1 1
WIDTH 920
HEIGHT 1
VIEWPOINT 0.0 0.0 0.0 1.0 0.0 0.0 0.0
POINTS 920
DATA ascii
-0.3813663721 -0.1014563590 0.4872322977 4279192116
-0.3814195096 -0.1009290740 0.4873001873 4278863151
-0.3814724088 -0.1004015654 0.4873677492 4279454263
-0.3809165359 -0.0997145548 0.4866575897 4279059505
-0.3617080450 -0.1123027354 0.4627735615 4280044858
-0.3635812402 -0.1123674735 0.4651701152 4279585334
-0.3643028140 -0.1115547642 0.4660933316 4279388466
-0.3643607795 -0.1110545620 0.4661674798 4279191087
-0.3674452007 -0.1114723459 0.4701137543 4279125294
-0.3675031662 -0.1109675094 0.4701878726 4279125294
-0.3705885410 -0.1113723442 0.4741353691 4279191087
-0.3645901382 -0.1090513915 0.4664609432 4279191087
-0.3676755130 -0.1094515845 0.4704084098 4279059501
-0.3677324653 -0.1089458019 0.4704812765 4278993708
-0.3720305860 -0.1096903309 0.4759803414 4278796329
-0.3690576851 -0.1082891673 0.4721767604 4278467364
-0.3715384901 -0.1084889397 0.4753507376 4278269987
-0.3722012043 -0.1081533581 0.4761986136 4278335780
-0.3728638589 -0.1078158766 0.4770464301 4278533159
-0.3723136783 -0.1071275473 0.4763425291 4278730538
-0.3681243062 -0.1053988189 0.4709825814 4278862124
-0.3693923950 -0.1052367911 0.4726049900 4278993710
-0.3694472909 -0.1047272608 0.4726752639 4279125296
-0.3695019782 -0.1042174995 0.4727451801 4279191089
-0.3695563674 -0.1037075147 0.4728147984 4278732333
-0.3702174425 -0.1033667624 0.4736605883 4278863919
-0.3690574467 -0.1025182605 0.4721764624 4278927145
-0.3715393841 -0.1026795506 0.4753518701 4278927145
-0.3715930283 -0.1021661535 0.4754205346 4278600233
-0.3783263862 -0.1034796312 0.4840352535 4279258163
-0.3771657944 -0.1026260331 0.4825503826 4280113218
-0.3796492219 -0.1027620956 0.4857277274 4279521081
-0.3809180558 -0.1025640517 0.4873510599 4279584821
-0.3803641200 -0.1018742099 0.4866423607 4280374337
-0.3810251355 -0.1015096232 0.4874880910 4279784253
-0.3810783029 -0.1009820774 0.4875560999 4279060530
-0.3811312020 -0.1004543081 0.4876237810 4279717433
-0.3805758953 -0.0997669473 0.4869132936 4279256882
-0.3578136563 -0.1107423306 0.4584424794 4279585588
-0.3621606231 -0.1110566035 0.4640119672 4279454002
-0.3628230095 -0.1107432321 0.4648606181 4279256623
-0.3677189350 -0.1117141396 0.4711334407 4279059501
-0.3641476035 -0.1101107746 0.4665577412 4279256880
-0.3678348064 -0.1107020751 0.4712818861 4279388466
-0.3606313169 -0.1080207750 0.4620525539 4279322673
-0.3655289412 -0.1089674234 0.4683275521 4279191087
-0.3692172766 -0.1095413566 0.4730531573 4279059501
-0.3656420708 -0.1079601347 0.4684725106 4278862122
-0.3681201041 -0.1081677750 0.4716474414 4278533157
-0.3693875372 -0.1080143526 0.4732713103 4278533159
-0.3706550896 -0.1078573614 0.4748953581 4278664745
-0.3719227612 -0.1076967940 0.4765195251 4278730538
-0.3695555627 -0.1064852551 0.4734866023 4278927917
-0.3671874106 -0.1052801758 0.4704524279 4279059503
-0.3684543371 -0.1051189229 0.4720756412 4279191089
-0.3679030538 -0.1044379175 0.4713693559 4279256882
-0.3685637414 -0.1041008011 0.4722158313 4279322675
-0.3686180711 -0.1035914049 0.4722854495 4278929712
-0.3692785203 -0.1032513306 0.4731316268 4278863919
-0.3681195080 -0.1024032384 0.4716466963 4279059243
-0.3687795699 -0.1020618677 0.4724923372 4278993450
-0.3736859560 -0.1028877869 0.4787785709 4278797099
-0.3743464351 -0.1025367454 0.4796248078 4279191857
-0.3762204647 -0.1025144905 0.4820258617 4279784253
-0.3768809736 -0.1021579579 0.4828721285 4279586874
-0.3781483471 -0.1019631922 0.4844959378 4279584821
-0.3782016933 -0.1014391929 0.4845643044 4280045372
-0.3788619339 -0.1010769531 0.4854102135 4279915839
-0.3789148629 -0.1005516648 0.4854780138 4279126323
-0.3801821470 -0.1003467590 0.4871017039 4280045885
-0.3790198863 -0.0995004401 0.4856126010 4279651127
-0.3532061279 -0.1099756137 0.4531840682 4280176444
-0.3562825024 -0.1104255840 0.4571312368 4279717174
-0.3588131070 -0.1101868823 0.4603781104 4279388209
-0.3600786030 -0.1100621894 0.4620018601 4279190830
-0.3613442779 -0.1099339277 0.4636257589 4278993710
-0.3607970178 -0.1092530936 0.4629236162 4279322675
-0.3632715642 -0.1094845459 0.4660986066 4279585847
-0.3609102964 -0.1082583964 0.4630689621 4279454261
-0.3633851409 -0.1084827110 0.4662443101 4279256882
-0.3616273701 -0.1074424312 0.4639889896 4279125296
-0.3628928959 -0.1073011011 0.4656127393 4278993710
-0.3635536432 -0.1069782004 0.4664605260 4278796331
-0.3672393560 -0.1075392291 0.4711895287 4278796331
-0.3691106439 -0.1075610071 0.4735904932 4278993710
-0.3703770638 -0.1074020490 0.4752153456 4278927915
-0.3680118918 -0.1061915681 0.4721806943 4279125294
-0.3650403619 -0.1048137248 0.4683680534 4279322673
-0.3681223094 -0.1051738635 0.4723223746 4279388466
-0.3669660389 -0.1043203771 0.4708388150 4279520052
-0.3676261008 -0.1039839387 0.4716857076 4279388466
-0.3676803410 -0.1034751236 0.4717552960 4279060783
-0.3677343428 -0.1029660925 0.4718245864 4278666025
-0.3665762544 -0.1021192521 0.4703387022 4278993450
-0.3678415716 -0.1019473523 0.4719621837 4279059243
-0.3703191876 -0.1021061018 0.4751410782 4278730536
-0.3727972209 -0.1022579148 0.4783205688 4278730536
-0.3752757013 -0.1024027765 0.4815005958 4279125294
-0.3759355843 -0.1020469144 0.4823472500 4279585845
-0.3765953481 -0.1016891524 0.4831938148 4279519028
-0.3766485453 -0.1011665761 0.4832620323 4279650614
-0.3767014742 -0.1006437764 0.4833299518 4279652410
-0.3785741925 -0.1006044298 0.4857327640 4279191859
-0.3768065274 -0.0995975211 0.4834647477 4280504898
-0.3774655461 -0.0992336050 0.4843102992 4279978554
-0.3516795933 -0.1096565723 0.4518693388 4280110649
-0.3541497290 -0.1099211946 0.4550431967 4279848760
-0.3523964584 -0.1088739336 0.4527904689 4279651381
-0.3572810590 -0.1098729894 0.4590666294 4279322416
-0.3567344546 -0.1091956198 0.4583643079 4279190830
-0.3561874330 -0.1085196808 0.4576614201 4279124783
-0.3526209593 -0.1069296822 0.4530789256 4279453748
-0.3562998772 -0.1075366288 0.4578059316 4279716920
-0.3581677377 -0.1075890511 0.4602059126 4279585334
-0.3636604249 -0.1087198257 0.4672634006 4279387955
-0.3594876826 -0.1069591343 0.4619018734 4279322162
-0.3613561094 -0.1069991887 0.4643026292 4279190576
-0.3650379777 -0.1075682715 0.4690334201 4279058990
-0.3650939465 -0.1070635542 0.4691053331 4278927404
-0.3669633269 -0.1070878729 0.4715072811 4279124783
-0.3688330054 -0.1071069390 0.4739096165 4279125037
-0.3658651114 -0.1057227626 0.4700961709 4279322416
-0.3647105396 -0.1048684642 0.4686126709 4279454002
-0.3671848476 -0.1050557345 0.4717918932 4279519795
-0.3654245734 -0.1040304229 0.4695301354 4279651381
-0.3660839200 -0.1036954969 0.4703772962 4279519795
-0.3661379814 -0.1031881198 0.4704467952 4278994477
-0.3667970896 -0.1028502285 0.4712936580 4278599719
-0.3656400442 -0.1020037979 0.4698069692 4278927658
-0.3669041693 -0.1018326655 0.4714312553 4279059244
-0.3693794906 -0.1019923538 0.4746117890 4278861865
-0.3724609017 -0.1023114622 0.4785710275 4278796072
-0.3743315041 -0.1022908986 0.4809745252 4279190576
-0.3743849397 -0.1017710268 0.4810432196 4279716920
-0.3744381368 -0.1012509391 0.4811115563 4279716920
-0.3738850951 -0.1005676314 0.4804009795 4279585334
-0.3739376962 -0.1000479460 0.4804685414 4279585849
-0.3770207167 -0.1003345847 0.4844299257 4279454263
-0.3746483326 -0.0991683751 0.4813816249 4280898373
-0.3759128451 -0.0989664346 0.4830063879 4280108857
-0.3551477492 -0.1093730256 0.4569776952 4279256880
-0.3528483510 -0.1076559946 0.4540189803 4279322416
-0.3553172350 -0.1079012901 0.4571957886 4279585588
-0.3499431014 -0.1057690009 0.4502807558 4279717174
-0.3518083692 -0.1058298051 0.4526808262 4279585588
-0.3536739647 -0.1058853790 0.4550813437 4279519795
-0.3561435044 -0.1061155722 0.4582589567 4279388209
-0.3586135805 -0.1063388586 0.4614372551 4279256623
-0.3610841334 -0.1065552309 0.4646162093 4279125037
-0.3629513085 -0.1065873355 0.4670187235 4279058990
-0.3654227853 -0.1067906991 0.4701988399 4279190576
-0.3672906458 -0.1068114713 0.4726022482 4279322162
-0.3643252850 -0.1054282635 0.4687866867 4279453748
-0.3637759089 -0.1047492176 0.4680797756 4279585334
-0.3656435907 -0.1047642678 0.4704829454 4279651127
-0.3650937080 -0.1040847674 0.4697754085 4279716920
-0.3651479483 -0.1035781950 0.4698452055 4279651127
-0.3658065796 -0.1032420546 0.4706926942 4279060271
-0.3658604324 -0.1027342007 0.4707619846 4278797099
-0.3659140170 -0.1022261158 0.4708309174 4279059244
-0.3653624356 -0.1015496850 0.4701212049 4278993451
-0.3684403896 -0.1018784419 0.4740816951 4279058731
-0.3715189695 -0.1021985710 0.4780429900 4279321903
-0.3733878434 -0.1021788493 0.4804477096 4279388209
-0.3728359640 -0.1014948040 0.4797375798 4279585588
-0.3722836673 -0.1008122191 0.4790269136 4279323445
-0.3711254895 -0.0999680161 0.4775366783 4279257652
-0.3748108149 -0.1004248634 0.4822786450 4279454263
-0.3712297380 -0.0989346504 0.4776708186 4279585849
-0.3718871772 -0.0985781923 0.4785167277 4281227338
-0.3743617833 -0.0986989439 0.4817008972 4280569408
-0.3434881270 -0.1049501225 0.4426074922 4279388209
-0.3532971144 -0.1064297482 0.4552470446 4279651381
-0.3564228117 -0.1063507870 0.4592747390 4279388209
-0.3588908017 -0.1065733656 0.4624548852 4279256623
-0.3619625270 -0.1069673151 0.4664130211 4279190830
-0.3644316196 -0.1071752161 0.4695945978 4279190576
-0.3632804453 -0.1063165665 0.4681112170 4279256369
-0.3663534820 -0.1066914126 0.4720710516 4279453748
-0.3639944494 -0.1054832712 0.4690312743 4279519541
-0.3634456098 -0.1048038825 0.4683240652 4279585334
-0.3647078276 -0.1046457067 0.4699504972 4279651127
-0.3641584218 -0.1039667055 0.4692425430 4279651127
-0.3648165762 -0.1036323011 0.4700906575 4279782713
-0.3648705781 -0.1031252593 0.4701602161 4279126063
-0.3649243414 -0.1026179940 0.4702295065 4278928684
-0.3649778366 -0.1021105051 0.4702984393 4279059501
-0.3674485087 -0.1022756621 0.4734820724 4278927915
-0.3675018847 -0.1017643660 0.4735508263 4279190317
-0.3711821735 -0.1022520512 0.4782931209 4279453489
-0.3724447787 -0.1020666435 0.4799200892 4279388209
-0.3718933463 -0.1013830975 0.4792095423 4279454002
-0.3701319396 -0.1003729925 0.4769398272 4279126064
-0.3689746261 -0.0995308906 0.4754485488 4279060271
-0.3690266311 -0.0990165919 0.4755155742 4279322675
-0.3690783679 -0.0985020697 0.4755822718 4279388468
-0.3697350025 -0.0981479660 0.4764283895 4281687632
-0.3716019690 -0.0981115475 0.4788340926 4281687632
-0.3475539088 -0.1048496813 0.4484883845 4279585845
-0.3506205380 -0.1052721143 0.4524455965 4279388466
-0.3476625085 -0.1038855314 0.4486285448 4279191087
-0.3537427485 -0.1051952019 0.4564745724 4279125294
-0.3568110168 -0.1055960581 0.4604339004 4279125294
-0.3598799706 -0.1059883162 0.4643941224 4279125296
-0.3654168844 -0.1065711752 0.4715390503 4279256882
-0.3630599678 -0.1053632572 0.4684976339 4279256882
-0.3631148040 -0.1048585549 0.4685683846 4279454261
-0.3637726307 -0.1045269743 0.4694172740 4279520054
-0.3644304276 -0.1041934788 0.4702660739 4279388468
-0.3644846678 -0.1036864147 0.4703361094 4279651640
-0.3645386994 -0.1031791270 0.4704057872 4279257135
-0.3645924628 -0.1026716083 0.4704751670 4278928170
-0.3646459579 -0.1021638736 0.4705442190 4278927658
-0.3646992147 -0.1016559079 0.4706129432 4278993451
-0.3695833981 -0.1024874300 0.4769155383 4279452719
-0.3708448112 -0.1023055315 0.4785433114 4279584305
-0.3678778410 -0.1009595916 0.4747146964 4279453489
-0.3703471720 -0.1011062786 0.4779011309 4279914040
-0.3685872257 -0.1000973508 0.4756300747 4279389236
-0.3503548205 -0.1048402786 0.4527516067 4279191087
-0.3614135087 -0.1060738191 0.4670424163 4279125296
-0.3632760048 -0.1060988605 0.4694492221 4279256882
-0.3621260822 -0.1052430719 0.4679632485 4279388468
-0.3621808290 -0.1047389656 0.4680339694 4279454261
-0.3628380299 -0.1044080630 0.4688832760 4279388468
-0.3634951711 -0.1040752530 0.4697324634 4279388468
-0.3635493517 -0.1035687774 0.4698024690 4279585847
-0.3642062843 -0.1032329947 0.4706513882 4278993451
-0.3642600477 -0.1027252302 0.4707208872 4278730279
-0.3637104034 -0.1020480096 0.4700105786 4278992938
-0.3643668294 -0.1017090306 0.4708588719 4278795559
-0.3668332398 -0.1018707976 0.4740461111 4279321903
-0.3693000674 -0.1020256057 0.4772339463 4279256110
-0.3687497675 -0.1013441235 0.4765228033 4279651640
-0.3675954342 -0.1004990861 0.4750310779 4280506949
-0.3568701148 -0.1048908904 0.4618339837 4279190576
-0.3605359793 -0.1054499596 0.4665780663 4279387955
-0.3611927927 -0.1051227152 0.4674280584 4279322162
-0.3625061810 -0.1044625044 0.4691277444 4279453748
-0.3625605404 -0.1039568484 0.4691980779 4279453748
-0.3632169664 -0.1036228165 0.4700475931 4279387955
-0.3632709086 -0.1031158641 0.4701173902 4278927658
-0.3639271259 -0.1027788594 0.4709666073 4278861865
-0.3627754152 -0.1019319743 0.4694761634 4278927145
-0.3634312153 -0.1015936807 0.4703248739 4278992938
-0.3658953309 -0.1017563865 0.4735137224 4278992938
-0.3683598936 -0.1019121408 0.4767031670 4279256110
-0.3583464324 -0.1054764166 0.4644120634 4279190576
-0.3584012091 -0.1049764678 0.4644830525 4279519541
-0.3596586287 -0.1048268825 0.4661126435 4279322162
-0.3585100472 -0.1039758846 0.4646241069 4279256369
-0.3609705865 -0.1041697189 0.4678128958 4279387955
-0.3610247374 -0.1036655009 0.4678831100 4279387955
-0.3622822762 -0.1035049185 0.4695128202 4279256369
-0.3623361290 -0.1029985696 0.4695826173 4278598692
-0.3623897135 -0.1024919897 0.4696520865 4278796071
-0.3618410230 -0.1018157750 0.4689409733 4278664486
-0.3624961972 -0.1014781594 0.4697900712 4279190830
-0.3649580181 -0.1016418114 0.4729805589 4278993451
-0.3668179512 -0.1016316190 0.4753910005 4278927658
-0.3532112539 -0.1041147783 0.4584167600 4279124783
-0.3550676703 -0.1041499823 0.4608261287 4279453748
-0.3569244146 -0.1041799188 0.4632359147 4279322162
-0.3593824208 -0.1043791398 0.4664260447 4279256369
-0.3600377440 -0.1040502861 0.4672765434 4279322162
-0.3606929779 -0.1037195250 0.4681269526 4279322162
-0.3607468903 -0.1032148302 0.4681969285 4279190576
-0.3614019156 -0.1028810963 0.4690470397 4279059501
-0.3614554405 -0.1023751125 0.4691165090 4278796329
-0.3615086973 -0.1018688977 0.4691856503 4278796072
-0.3621633351 -0.1015311256 0.4700352550 4278927658
-0.3640212715 -0.1015270650 0.4724465907 4279124783
-0.3498309851 -0.1037724391 0.4546851218 4278664486
-0.3546859920 -0.1047004089 0.4609952867 4278993451
-0.3523393869 -0.1034988984 0.4579453468 4279256369
-0.3523931205 -0.1030057967 0.4580151737 4279256369
-0.3572499752 -0.1039095670 0.4643277526 4279124783
-0.3609070182 -0.1044520736 0.4690808952 4279058990
-0.3603606820 -0.1037735566 0.4683708251 4279058990
-0.3610152900 -0.1034407318 0.4692216516 4279124783
-0.3616698682 -0.1031059995 0.4700724185 4278796331
-0.3617234826 -0.1025989205 0.4701420963 4278993710
-0.3623777926 -0.1022612080 0.4709925354 4279124783
-0.3624310195 -0.1017528400 0.4710617065 4279058990
-0.3636862338 -0.1015800536 0.4726931453 4278795305
-0.3550663590 -0.1039372385 0.4621568322 4279059503
-0.3575197756 -0.1041383743 0.4653502107 4278993710
-0.3587737679 -0.1039847881 0.4669823945 4278862124
-0.3594278097 -0.1036545560 0.4678336978 4278862124
-0.3576812446 -0.1026335955 0.4655603766 4278862124
-0.3607357144 -0.1029883623 0.4695360959 4278796847
-0.3613895774 -0.1026524007 0.4703871310 4278731054
-0.3596417308 -0.1016358212 0.4681121409 4278927406
-0.3620965481 -0.1018059105 0.4713073671 4279387957
-0.3627501130 -0.1014650539 0.4721580148 4279649846
-0.3462423384 -0.1025038511 0.4513238370 4278730279
-0.3487452567 -0.1022346839 0.4545864165 4278993451
-0.3517948687 -0.1026191711 0.4585615396 4279125037
-0.3542457223 -0.1028210521 0.4617561996 4279190830
-0.3560975790 -0.1028428301 0.4641700983 4279190576
-0.3585492969 -0.1030316278 0.4673658907 4278993197
-0.3586028218 -0.1025276482 0.4674356580 4278731567
-0.3562570512 -0.1013410240 0.4643779695 4278402602
-0.3478227556 -0.1021120772 0.4540412426 4279059244
-0.3502707183 -0.1023227200 0.4572367966 4279322416
-0.3533180356 -0.1027004644 0.4612146914 4279651381
-0.3546224236 -0.1020509526 0.4629174173 4279190830
-0.3558736444 -0.1018948704 0.4645507336 4278863153
-0.3494522572 -0.1012166962 0.4568307102 4280768581
-0.3513001800 -0.1012416855 0.4592464566 4279913272
-0.4312745929 -0.1073589846 0.5841509104 4281287992
-0.4326103926 -0.1078537703 0.5868430734 4281355066
-0.4332533181 -0.1073610559 0.5877152085 4280894515
-0.3972568512 -0.1153796241 0.5396985412 4288078526
-0.4008218944 -0.1158100292 0.5445418954 4293001202
-0.4043876827 -0.1162298918 0.5493862033 4293591035
-0.4120454490 -0.1178089380 0.5597897768 4294246399
-0.4150895178 -0.1174261495 0.5639253259 4294311934
-0.4326564670 -0.1093341634 0.5877911448 4282674776
-0.4309540391 -0.1082534418 0.5854783058 4281227330
-0.4327692688 -0.1080561802 0.5879443884 4281487679
-0.4478302002 -0.1451588273 0.6093250513 4279723828
-0.3984321952 -0.1177028418 0.5421133041 4281435224
-0.3949919343 -0.1160894185 0.5374324322 4280514122
-0.3950515389 -0.1155097187 0.5375135541 4281236564
-0.4056766331 -0.1173898429 0.5519701838 4291491297
-0.4081324935 -0.1168665141 0.5553116798 4294246399
-0.4111123979 -0.1170983016 0.5593662262 4294246399
-0.4158450365 -0.1178176627 0.5658055544 4294443007
-0.4199946225 -0.1183583960 0.5714514852 4294246399
-0.4338701367 -0.1111183539 0.5903307796 4283399269
-0.4333419800 -0.1103279889 0.5896121264 4283465062
-0.4374987185 -0.1107249036 0.5952678919 4283464292
-0.4352129698 -0.1094884798 0.5921578407 4282674776
-0.4340979457 -0.1085517257 0.5906407237 4282080840
-0.4335682094 -0.1077638119 0.5899199843 4282278219
-0.4342099726 -0.1072669029 0.5907931328 4282143301
-0.4360236526 -0.1070557982 0.5932608247 4281222199
-0.4399659336 -0.1468222886 0.5995308161 4278342173
-0.4449839592 -0.1451282799 0.6063687205 4278343195
-0.4462199807 -0.1448558122 0.6080530286 4278408988
-0.4451316595 -0.1438285559 0.6065700054 4278209807
-0.4457862377 -0.1433651298 0.6074619889 4278209293
-0.4468023777 -0.1396330893 0.6088466644 4278209811
-0.4032796323 -0.1193151623 0.5495392680 4279461173
-0.4010093808 -0.1180363446 0.5464456677 4279592759
-0.3969893157 -0.1162519902 0.5409676433 4280973133
-0.3976320326 -0.1158381701 0.5418434143 4282815337
-0.4000239968 -0.1159293503 0.5451028943 4288795065
-0.4035828114 -0.1163496822 0.5499524474 4292673524
-0.4071423709 -0.1167594492 0.5548029542 4294115325
-0.4253496528 -0.1206929088 0.5796135664 4294443007
-0.4207432866 -0.1187488288 0.5733365417 4294049022
-0.4243061841 -0.1191119999 0.5781916380 4293787646
-0.4342907667 -0.1212573647 0.5917974114 4293129972
-0.4343531728 -0.1206171587 0.5918824673 4285503626
-0.4344152510 -0.1199766845 0.5919670463 4279450670
-0.4249051809 -0.1128469631 0.5790079236 4279851326
-0.4249633849 -0.1122190133 0.5790871978 4279127603
-0.4250212908 -0.1115908101 0.5791661143 4281691991
-0.4268330038 -0.1114202365 0.5816348791 4287613361
-0.4292296469 -0.1113959849 0.5849007368 4287019684
-0.4334389269 -0.1111759245 0.5906366110 4280307000
-0.4358364344 -0.1111310050 0.5939036012 4279978035
-0.4353087544 -0.1103373915 0.5931845903 4281095744
-0.4377064705 -0.1102824360 0.5964518785 4282674776
-0.4365929961 -0.1093408763 0.5949345827 4283134300
-0.4354788661 -0.1084025279 0.5934163928 4283068507
-0.4355349541 -0.1077570692 0.5934928060 4282867537
-0.4401038885 -0.1470909417 0.6006278396 4279329322
-0.4395987988 -0.1462555528 0.5999385118 4279395882
-0.4408333302 -0.1459978372 0.6016232967 4279132710
-0.4397473633 -0.1449713856 0.6001412868 4279198501
-0.4409816861 -0.1447096318 0.6018257737 4279724845
-0.4434505403 -0.1441749781 0.6051951647 4280580156
-0.4470072091 -0.1446535140 0.6100491285 4280580408
-0.4453391135 -0.1434384286 0.6077725887 4280777787
-0.4430893958 -0.1420419514 0.6047022939 4281304131
-0.4478813410 -0.1422198415 0.6112420559 4281698635
-0.4479539394 -0.1415636539 0.6113411188 4281040705
-0.4480982423 -0.1402503401 0.6115380526 4280974912
-0.4481699169 -0.1395931989 0.6116358638 4281172293
-0.4448235333 -0.1372018903 0.6070688963 4280909634
-0.4454752803 -0.1367274225 0.6079583764 4281041220
-0.4414736629 -0.1348298192 0.6024972200 4280975172
-0.4415426850 -0.1341813803 0.6025913954 4281106758
-0.4404477179 -0.1331807673 0.6010970473 4281106501
-0.4387701452 -0.1320081949 0.5988076329 4281040708
-0.4388377964 -0.1313631088 0.5988999605 4280252480
-0.4359945953 -0.1298509091 0.5950196981 4280449859
-0.4040406346 -0.1197215095 0.5514108539 4280841796
-0.4017729163 -0.1184403449 0.5483160019 4281170761
-0.4041631222 -0.1185321212 0.5515779853 4282486111
-0.3995642960 -0.1165775210 0.5453017950 4283012455
-0.4019542933 -0.1166653335 0.5485635400 4286033810
-0.4279016554 -0.1209522411 0.5839749575 4293853183
-0.4291299284 -0.1206487343 0.5856512189 4293656573
-0.4303582609 -0.1203415096 0.5873275995 4293459194
-0.4356691837 -0.1211659908 0.5945756435 4286951072
-0.4363148212 -0.1206839606 0.5954567790 4280832323
-0.4363769293 -0.1200394481 0.5955415368 4280247098
-0.4329378903 -0.1184369549 0.5908480883 4280049719
-0.4347495437 -0.1182733402 0.5933205485 4280378173
-0.4285686016 -0.1139924228 0.5848851800 4280508997
-0.4309632182 -0.1139758751 0.5881531835 4280048446
-0.4286858439 -0.1127235517 0.5850451589 4281560405
-0.4317228198 -0.1122128665 0.5891898274 4289716427
-0.4306121767 -0.1112712398 0.5876741409 4284518780
-0.4359288216 -0.1119840592 0.5949299335 4282148692
-0.4342333376 -0.1108900830 0.5926160812 4283398759
-0.4377976656 -0.1111364588 0.5974804759 4284122224
-0.4366859198 -0.1101920754 0.5959631801 4284780154
-0.4379121661 -0.1098374948 0.5976366997 4284844918
-0.4373842180 -0.1090418473 0.5969161987 4282936921
-0.4362709522 -0.1081027836 0.5953968763 4282144841
-0.4363268614 -0.1074550226 0.5954731703 4282408013
-0.4390064478 -0.1476135850 0.6000396609 4281500231
-0.4385022223 -0.1467781216 0.5993504524 4281960782
-0.4385768771 -0.1461370736 0.5994524956 4281960778
-0.4386512041 -0.1454956979 0.5995541215 4282026571
-0.4398843646 -0.1452367008 0.6012395620 4282356047
-0.4416972697 -0.1451644897 0.6037175059 4282224461
-0.4423509240 -0.1447075605 0.6046109200 4281829705
-0.4406850934 -0.1434933692 0.6023340225 4281961291
-0.4424980581 -0.1434116960 0.6048120260 4282421840
-0.4425711334 -0.1427632868 0.6049119234 4282092875
-0.4455446303 -0.1430458575 0.6089760661 4282291026
-0.4438768923 -0.1418363303 0.6066966057 4282554198
-0.4446017146 -0.1407175660 0.6076872945 4282422612
-0.4469956160 -0.1407964230 0.6109593511 4282685014
-0.4441644847 -0.1392301470 0.6070896983 4282553428
-0.4448162913 -0.1387589574 0.6079806089 4282290258
-0.4443768859 -0.1372722089 0.6073800325 4282027600
-0.4450280666 -0.1367975175 0.6082700491 4281961807
-0.4433548152 -0.1356098950 0.6059830785 4282093395
-0.4405184090 -0.1340733320 0.6021062136 4282356567
-0.4405870140 -0.1334251314 0.6021999717 4282356567
-0.4389112890 -0.1322511137 0.5999096036 4282553946
-0.4372347295 -0.1310819387 0.5976180434 4281764688
-0.4280629754 -0.1270321459 0.5850819945 4282025039
-0.4060236514 -0.1198751405 0.5549583435 4281761867
-0.4055033326 -0.1191057041 0.5542471409 4282091352
-0.4108012319 -0.1200379729 0.5614883900 4282157145
-0.4050432146 -0.1177403480 0.5536182523 4283536752
-0.4080138803 -0.1179842502 0.5576785803 4287747504
-0.4109850824 -0.1182192937 0.5617396832 4293394420
-0.4263083637 -0.1206848100 0.5826837420 4293722111
-0.4298652112 -0.1210389212 0.5875452757 4293328121
-0.4322576523 -0.1210561320 0.5908153057 4293196535
-0.4346504509 -0.1210661754 0.5940858126 4287674793
-0.4352954328 -0.1205847785 0.5949673653 4282016595
-0.4371058941 -0.1204225048 0.5974419117 4280971074
-0.4348362982 -0.1191368774 0.5943397880 4280247351
-0.4331486821 -0.1180167124 0.5920331478 4280049462
-0.4337925017 -0.1175333560 0.5929131508 4280378427
-0.4286047816 -0.1154768914 0.5858225226 4280904007
-0.4292474687 -0.1149981841 0.5867009759 4280772421
-0.4310566187 -0.1148282513 0.5891737342 4280772167
-0.4311158061 -0.1141893044 0.5892546177 4281364304
-0.4311746657 -0.1135501042 0.5893350244 4282810471
-0.4288990498 -0.1122994870 0.5862247348 4288205497
-0.4295405746 -0.1118151471 0.5871015787 4291163360
-0.4336841106 -0.1122351587 0.5927650332 4287742124
-0.4331582487 -0.1114412621 0.5920462608 4284385141
-0.4367188513 -0.1116941124 0.5969129205 4284253555
-0.4367765188 -0.1110455543 0.5969917774 4284253810
-0.4380018711 -0.1106919274 0.5986665487 4283727466
-0.4386431277 -0.1101878434 0.5995430350 4283660901
-0.4375317395 -0.1092442200 0.5980240107 4281489732
-0.4381724298 -0.1087387651 0.5988996625 4280040233
-0.4376443028 -0.1079430878 0.5981778502 4281948230
-0.4371157289 -0.1071489006 0.5974553823 4282997328
-0.4374060631 -0.1472990662 0.5987611413 4283275611
-0.4374808967 -0.1466588974 0.5988636017 4283604576
-0.4375554323 -0.1460184008 0.5989656448 4283605343
-0.4382826090 -0.1449278593 0.5999610424 4283605597
-0.4383563399 -0.1442855299 0.6000620127 4283408218
-0.4390089512 -0.1438326240 0.6009553671 4283605343
-0.4408199489 -0.1437555104 0.6034344435 4283473757
-0.4414725304 -0.1432968676 0.6043277383 4283473758
-0.4421249926 -0.1428362131 0.6052208543 4283868516
-0.4421977699 -0.1421871781 0.6053205132 4284131434
-0.4422702789 -0.1415378153 0.6054197550 4284394606
-0.4452411532 -0.1418113858 0.6094865203 4283408224
-0.4447336495 -0.1409733295 0.6087918282 4283934568
-0.4453855157 -0.1405025572 0.6096841693 4283210332
-0.4448772073 -0.1396655738 0.6089883447 4284131434
-0.4443683922 -0.1388299912 0.6082918644 4283605605
-0.4433492720 -0.1371629834 0.6068968177 4284264048
-0.4428389966 -0.1363315880 0.6061982512 4284066669
-0.4423281848 -0.1355015785 0.6054990292 4284395634
-0.4423974752 -0.1348499507 0.6055938601 4284395634
-0.4395631254 -0.1333174407 0.6017139554 4283868777
-0.4344045520 -0.1310921758 0.5946524143 4284066156
-0.4379567206 -0.1314980090 0.5995149612 4283343462
-0.4374431074 -0.1306784749 0.5988118649 4283606634
-0.4276326299 -0.1270973682 0.5853824019 4284392558
-0.4032910764 -0.1192493960 0.5520614982 4284392558
-0.4045145810 -0.1189959347 0.5537363291 4284262773
-0.4069007337 -0.1190789938 0.5570026636 4283933808
-0.4116127491 -0.1198319346 0.5634529591 4283472754
-0.4134185910 -0.1197288781 0.5659249425 4285249165
-0.4163877666 -0.1199554652 0.5699893832 4291422937
-0.4205207527 -0.1205065399 0.5756469965 4293394423
-0.4205825925 -0.1198845878 0.5757316947 4293656575
-0.4235531688 -0.1200871319 0.5797980428 4293263355
-0.4305974841 -0.1214294508 0.5894410014 4293196789
-0.4324057996 -0.1212817356 0.5919163823 4293130996
-0.4347963333 -0.1212909371 0.5951887369 4288398514
-0.4360229671 -0.1209699586 0.5968678594 4283990383
-0.4355029464 -0.1201633066 0.5961560011 4283734632
-0.4355647266 -0.1195178926 0.5962405801 4283076702
-0.4344614446 -0.1185543612 0.5947303176 4283207524
-0.4327750206 -0.1174359545 0.5924217701 4282944352
-0.4322529137 -0.1166368499 0.5917070508 4282680417
-0.4311476946 -0.1156828776 0.5901941657 4282548831
-0.4317899644 -0.1151984856 0.5910733938 4282153820
-0.4318493009 -0.1145574972 0.5911545753 4282351199
-0.4319083393 -0.1139162555 0.5912353992 4283205229
-0.4325499833 -0.1134276092 0.5921137333 4287152809
-0.4314424098 -0.1124809682 0.5905975699 4291689704
-0.4320834875 -0.1119909361 0.5914751887 4290110672
-0.4350571930 -0.1120999902 0.5955458283 4285569415
-0.4351150095 -0.1114531085 0.5956249833 4281227077
-0.4369225502 -0.1112515703 0.5980992913 4281095746
-0.4369799793 -0.1106015742 0.5981779099 4281490504
-0.4370370507 -0.1099513173 0.5982560515 4283068764
-0.4370938540 -0.1093008071 0.5983337760 4282476627
-0.4377339482 -0.1087951064 0.5992100239 4280040233
-0.4372064173 -0.1079990342 0.5984879136 4281356093
-0.4355108440 -0.1069178134 0.5961668491 4282669133
-0.4367338419 -0.1065538079 0.5978409648 4282603340
-0.4351544678 -0.1474268287 0.5965860486 4280906801
-0.4352293313 -0.1467892230 0.5966886878 4280578349
-0.4364600480 -0.1465394795 0.5983759761 4280446763
-0.4365345240 -0.1458995193 0.5984780192 4280709933
-0.4342955053 -0.1444896460 0.5954083800 4281367863
-0.4372608960 -0.1448101699 0.5994738936 4281367863
-0.4379130006 -0.1443590820 0.6003679037 4280578347
-0.4379864633 -0.1437161267 0.6004685760 4280380968
-0.4392169416 -0.1434508562 0.6021555662 4280841519
-0.4404475093 -0.1431818604 0.6038426757 4281367865
-0.4410992861 -0.1427218318 0.6047362089 4281104693
-0.4411719739 -0.1420733333 0.6048358679 4281236279
-0.4418234229 -0.1416101158 0.6057289839 4282025795
-0.4436330795 -0.1415143609 0.6082099676 4281367865
-0.4442844689 -0.1410453916 0.6091030240 4281302072
-0.4437770545 -0.1402083337 0.6084073782 4280709935
-0.4438485801 -0.1395548284 0.6085054278 4281367865
-0.4433402717 -0.1387196928 0.6078085899 4280709681
-0.4428314567 -0.1378859431 0.6071109772 4281828162
-0.4423221648 -0.1370535940 0.6064127684 4282486092
-0.4400729239 -0.1356863230 0.6033291221 4281828162
-0.4418819547 -0.1355710030 0.6058092713 4281893956
-0.4413712621 -0.1347419918 0.6051090956 4282222921
-0.4385397434 -0.1332095861 0.6012271643 4281762370
-0.4380277097 -0.1323868185 0.6005251408 4282025542
-0.4380954206 -0.1317399591 0.6006180048 4282155598
-0.4253951609 -0.1272728741 0.5832062960 4282484563
-0.4115298390 -0.1224976778 0.5641972423 4282024782
-0.4086899161 -0.1210298017 0.5603038073 4281893196
-0.4058488309 -0.1195702255 0.5564087629 4282354004
-0.4082328975 -0.1196507737 0.5596772432 4282617176
-0.4146828949 -0.1209095567 0.5685200095 4282680920
-0.4130022228 -0.1197904274 0.5662158728 4282286162
-0.4182923138 -0.1206876338 0.5734684467 4287675553
-0.4166110754 -0.1195679531 0.5711634755 4292280295
-0.4219025970 -0.1204439700 0.5784180760 4293328885
-0.4254517257 -0.1208090931 0.5832837820 4293722107
-0.4266763330 -0.1205068901 0.5849627256 4293197812
-0.4302265346 -0.1208542362 0.5898299813 4293066482
-0.4343588948 -0.1213534176 0.5954953432 4288332204
-0.4361658990 -0.1211938784 0.5979726911 4283463522
-0.4362281859 -0.1205466986 0.5980580449 4281890123
-0.4351267219 -0.1195795089 0.5965479612 4282087502
-0.4346064031 -0.1187745035 0.5958346128 4281627981
-0.4335037172 -0.1178128123 0.5943228602 4281562188
-0.4318184257 -0.1166970357 0.5920124054 4280904771
-0.4313560724 -0.1152579561 0.5913785100 4279916591
-0.4325798154 -0.1149260178 0.5930562615 4280508728
-0.4338035882 -0.1145903468 0.5947340131 4281558344
-0.4332802296 -0.1137921065 0.5940164924 4286098061
-0.4339213073 -0.1132995039 0.5948953629 4291555810
-0.4339796901 -0.1126536876 0.5949754119 4292673523
-0.4340377748 -0.1120076105 0.5950550437 4288528305
-0.4358435571 -0.1118097156 0.5975307226 4283725416
-0.4364839792 -0.1113091260 0.5984087586 4283200091
-0.4353757203 -0.1103633270 0.5968893766 4283200091
-0.4371813834 -0.1101551056 0.5993648767 4283724125
-0.4360722899 -0.1092114002 0.5978443027 4283592539
-0.4367117286 -0.1087063178 0.5987209678 4281420861
-0.4356015921 -0.1077664569 0.5971990228 4280894517
-0.4368236661 -0.1074033976 0.5988744497 4282800721
-0.4362958670 -0.1066090390 0.5981508493 4282340170
-0.4354397357 -0.1464198530 0.5978875160 4280511275
-0.4355140626 -0.1457804441 0.5979896188 4279919906
-0.4362396598 -0.1446922868 0.5989859104 4281367352
-0.4363132119 -0.1440510601 0.5990868807 4280117285
-0.4358084500 -0.1432195455 0.5983937979 4278933011
-0.4364593923 -0.1427676231 0.5992875695 4278867218
-0.4382666051 -0.1426901519 0.6017689705 4279129620
-0.4360260665 -0.1412954926 0.5986925960 4278866448
-0.4401466548 -0.1419593096 0.6043504477 4279261208
-0.4419543743 -0.1418681145 0.6068325639 4280906033
-0.4408695102 -0.1408472806 0.6053429842 4281432377
-0.4426772892 -0.1407494843 0.6078251600 4282024514
-0.4433277845 -0.1402799785 0.6087183356 4281103412
-0.4428204596 -0.1394439042 0.6080217361 4280577068
-0.4423126280 -0.1386092007 0.6073244810 4278405899
-0.4418043196 -0.1377759129 0.6066265106 4279524380
-0.4418746531 -0.1371237189 0.6067230701 4280642862
-0.4396277666 -0.1357557774 0.6036379933 4279524381
-0.4414350390 -0.1356404126 0.6061194539 4279721760
-0.4403455257 -0.1346338689 0.6046234965 4281169206
-0.4375168383 -0.1331015378 0.6007395387 4280840241
-0.4358461201 -0.1319283694 0.5984455347 4281169206
-0.4335948825 -0.1305854470 0.5953544378 4280510513
-0.4325021505 -0.1295965314 0.5938540697 4281102650
-0.4221311510 -0.1258449256 0.5796139836 4280576564
-0.4059572518 -0.1204038858 0.5574061275 4279721255
-0.4031187594 -0.1189470217 0.5535086989 4280050990
-0.4089808166 -0.1200527847 0.5615576506 4281366850
-0.4067215025 -0.1187691018 0.5584554672 4282022988
-0.4102640748 -0.1191776991 0.5633196831 4281430851
-0.4138073921 -0.1195757091 0.5681849122 4284255083
-0.4214147031 -0.1211310476 0.5786302090 4288860593
-0.4243795276 -0.1213358343 0.5827011466 4292935663
-0.4250223935 -0.1208712384 0.5835838318 4293263348
-0.4320530295 -0.1222115308 0.5932373405 4293132276
-0.4315349460 -0.1214066446 0.5925259590 4293001202
-0.4345016778 -0.1215784326 0.5965995193 4287609249
-0.4351450801 -0.1210946143 0.5974829197 4283398497
-0.4346262217 -0.1202871725 0.5967705250 4283008602
-0.4341068864 -0.1194811761 0.5960574150 4282811223
-0.4318434298 -0.1181993857 0.5929495692 4282285139
-0.4319041669 -0.1175571159 0.5930329561 4282153553
-0.4296391010 -0.1162851527 0.5899229050 4281891151
-0.4326062202 -0.1164282486 0.5939968824 4281430600
-0.4320845604 -0.1156286821 0.5932806730 4281692744
-0.4321440756 -0.1149853319 0.5933623314 4281955916
-0.4322032332 -0.1143417209 0.5934436321 4282610774
-0.4328438938 -0.1138508767 0.5943232775 4284650357
-0.4329025149 -0.1132058725 0.5944037437 4290831574
-0.4341247082 -0.1128631830 0.5960819125 4293001207
-0.4341828525 -0.1122159287 0.5961617231 4290962133
-0.4342406988 -0.1115684062 0.5962411761 4285567107
-0.4354625344 -0.1112180054 0.5979188085 4283659872
-0.4355198741 -0.1105682328 0.5979975462 4283330907
-0.4349945784 -0.1097712517 0.5972763300 4283526744
-0.4350512028 -0.1091218367 0.5973540545 4283329365
-0.4351075292 -0.1084721759 0.5974313617 4281947203
-0.4345809519 -0.1076779142 0.5967083573 4281091894
-0.4352191687 -0.1071720868 0.5975846648 4282274888
-0.4358572066 -0.1066642702 0.5984607339 4282406474
-0.4344941378 -0.1456611753 0.5975003242 4282682185
-0.4313236773 -0.1419622153 0.5931404829 4282287684
-0.4348608851 -0.1424619853 0.5980046988 4282287684
-0.4383989275 -0.1429512352 0.6028700471 4282287427
-0.4384716451 -0.1423050016 0.6029700637 4281958462
-0.4368106723 -0.1410985440 0.6006859541 4281958462
-0.4351488352 -0.1398968697 0.5984006524 4282155841
-0.4392659366 -0.1405493170 0.6040623784 4281892669
-0.4416498244 -0.1406372786 0.6073405743 4282287427
-0.4422996342 -0.1401684135 0.6082342267 4282419013
-0.4423710704 -0.1395151615 0.6083324552 4282221634
-0.4407071471 -0.1383170187 0.6060442328 4282024255
-0.4407776594 -0.1376656890 0.6061412692 4282155841
-0.4396908283 -0.1366544366 0.6046466231 4282484552
-0.4386032820 -0.1356462836 0.6031510830 4282352966
-0.4398299754 -0.1353536397 0.6048380136 4282155587
-0.4393202662 -0.1345255524 0.6041370630 4282089794
-0.4359155297 -0.1328169405 0.5994549990 4282024001
-0.4359833896 -0.1321714669 0.5995483398 4282550345
-0.4348927736 -0.1311763674 0.5980485082 4282089284
-0.4303264320 -0.1291415244 0.5917690992 4282418249
-0.4141730964 -0.1236610785 0.5695555806 4282418762
-0.4194505215 -0.1245958880 0.5768129230 4282287176
-0.4027104974 -0.1190080494 0.5537926555 4282353228
-0.4062485695 -0.1194328964 0.5586581230 4282747986
-0.4092077911 -0.1196776479 0.5627275109 4283075158
-0.4133269787 -0.1202508286 0.5683920383 4282483021
-0.4168673158 -0.1206438988 0.5732606053 4283795810
-0.4169291258 -0.1200247556 0.5733456016 4285309049
-0.4210503399 -0.1205678433 0.5790129304 4289911488
-0.4269126058 -0.1215942204 0.5870745182 4292411366
-0.4298756123 -0.1217813343 0.5911490917 4292739051
-0.4310984910 -0.1214690953 0.5928307772 4292476903
-0.4340623021 -0.1216409951 0.5969065428 4287083928
-0.4341247380 -0.1209951863 0.5969923735 4283136348
-0.4318649769 -0.1197055280 0.5938848257 4283206233
-0.4313459098 -0.1189025939 0.5931710601 4282877268
-0.4302457273 -0.1179419458 0.5916581154 4282416978
-0.4308870435 -0.1174593940 0.5925400257 4282219599
-0.4315281808 -0.1169748381 0.5934216976 4282285392
-0.4281030893 -0.1153922901 0.5887116194 4282416978
-0.4287433624 -0.1149097905 0.5895920992 4282613330
-0.4328697026 -0.1153543293 0.5952665210 4282613330
-0.4323479235 -0.1145546958 0.5945490003 4283399774
-0.4329880774 -0.1140627414 0.5954293013 4283202395
-0.4318842292 -0.1131120846 0.5939113498 4289055417
-0.4325238168 -0.1126187369 0.5947908759 4292870131
-0.4337446690 -0.1122738943 0.5964697003 4292869871
-0.4343840182 -0.1117756888 0.5973489285 4288001189
-0.4344415963 -0.1111267209 0.5974280834 4284053858
-0.4327538908 -0.1100338176 0.5951072574 4283264342
-0.4328106046 -0.1093869433 0.5951852202 4283592537
-0.4328670204 -0.1087398157 0.5952628255 4283197779
-0.4329231083 -0.1080924422 0.5953398943 4282473547
-0.4341427684 -0.1077336445 0.5970171690 4281223480
-0.4341983497 -0.1070840210 0.5970936418 4281748030
-0.4342536330 -0.1064341515 0.5971696377 4282603339
-0.4303073883 -0.1418443620 0.5926480889 4282090046
-0.4355717003 -0.1429131329 0.5998984575 4282090046
-0.4322540164 -0.1405016780 0.5953291059 4282221373
-0.4334798753 -0.1402368098 0.5970174670 4282352959
-0.4375923276 -0.1408976167 0.6026813388 4282221373
-0.4393962026 -0.1408060640 0.6051657796 4281892408
-0.4400453568 -0.1403407156 0.6060598493 4281958201
-0.4401168227 -0.1396900266 0.6061583161 4282287166
-0.4361442626 -0.1377617568 0.6006870270 4282221373
-0.4380179346 -0.1370130181 0.6032675505 4282221373
-0.4363539219 -0.1358247995 0.6009757519 4282155580
-0.4370012283 -0.1353575736 0.6018673182 4282418752
-0.4359140396 -0.1343537569 0.6003699303 4282484291
-0.4348261356 -0.1333530694 0.5988715887 4282089533
-0.4331592619 -0.1321790218 0.5965758562 4282089533
-0.4332267642 -0.1315366775 0.5966688395 4282089533
-0.4321369529 -0.1305445135 0.5951678753 4282352707
-0.4119531512 -0.1238167956 0.5673694015 4282155328
-0.4108590782 -0.1228592470 0.5658625364 4282024255
-0.4086068273 -0.1215604916 0.5627605915 4282221634
-0.4046170413 -0.1197543666 0.5572655797 4282155587
-0.4081519246 -0.1201760173 0.5621340871 4281958208
-0.4099504948 -0.1200782582 0.5646111965 4282285895
-0.4129075110 -0.1203125492 0.5686838031 4282549067
-0.4164443016 -0.1207058355 0.5735549331 4282876241
-0.4194025397 -0.1209214926 0.5776292086 4282349897
-0.4269963205 -0.1224575043 0.5880878568 4284651119
-0.4230028689 -0.1206649393 0.5825877786 4288664492
-0.4294396639 -0.1218439341 0.5914529562 4290375111
-0.4318206310 -0.1218586937 0.5947322249 4290704076
-0.4330425262 -0.1215408519 0.5964151025 4284783476
-0.4313655198 -0.1204100698 0.5941053629 4282217549
-0.4238889217 -0.1176744252 0.5838081241 4282285897
-0.4280090034 -0.1181632355 0.5894826055 4282154311
-0.4298098087 -0.1180026755 0.5919627547 4282154058
-0.4281300306 -0.1168863624 0.5896492600 4282088265
-0.4270296693 -0.1159324870 0.5881337523 4282285131
-0.4294103682 -0.1159217060 0.5914126039 4282350924
-0.4300503135 -0.1154363826 0.5922939777 4282547276
-0.4306900799 -0.1149490550 0.5931751728 4282547276
-0.4313297272 -0.1144597307 0.5940560699 4283071577
-0.4313885868 -0.1138152257 0.5941371918 4282676819
-0.4308664501 -0.1130181402 0.5934180617 4286621586
-0.4326668978 -0.1128283143 0.5958977342 4292082405
-0.4327249825 -0.1121812910 0.5959777236 4293197811
-0.4322018027 -0.1113842875 0.5952572227 4290303943
-0.4316781759 -0.1105887666 0.5945360065 4284974445
-0.4276676476 -0.1089069024 0.5890124440 4283329620
-0.4300483465 -0.1088550761 0.5922912955 4283789659
-0.4313228130 -0.1078576222 0.5940465927 4282604363
-0.4324607551 -0.1401214600 0.5965263247 4281629236
-0.4290717542 -0.1383657902 0.5918515921 4281760822
-0.4354869723 -0.1397671402 0.6007006168 4281892408
-0.4361349940 -0.1393066943 0.6015945077 4281760822
-0.4304359555 -0.1368266791 0.5937333703 4281892154
-0.4305056334 -0.1361890435 0.5938294530 4281826361
-0.4369239509 -0.1375498325 0.6026827693 4281563189
-0.4329531193 -0.1356362253 0.5972055197 4281957947
-0.4359090626 -0.1358941942 0.6012828350 4282155326
-0.4313586950 -0.1338145286 0.5950061679 4281694775
-0.4314269125 -0.1331744939 0.5951002836 4281892154
-0.4309172034 -0.1323567331 0.5943971872 4282352705
-0.4286738336 -0.1310106963 0.5913027525 4281892154
-0.4304741621 -0.1309011728 0.5937860608 4281628982
-0.4264956415 -0.1290377229 0.5882982016 4281628982
-0.4271395206 -0.1285779029 0.5891863704 4281826361
-0.4167996645 -0.1248266101 0.5749238133 4281760822
-0.4139725864 -0.1233454794 0.5710241795 4281695029
-0.4076747298 -0.1208442077 0.5623371005 4281760568
-0.4106282592 -0.1210903749 0.5664111376 4281892154
-0.4112686217 -0.1206489131 0.5672944188 4282154561
-0.4136444628 -0.1207119301 0.5705715418 4282088768
-0.4148634374 -0.1204318479 0.5722529888 4282350407
-0.4183972478 -0.1208164617 0.5771274567 4281955649
-0.4254044890 -0.1221879050 0.5867930651 4281494845
-0.4289402664 -0.1225460842 0.5916702747 4283073877
-0.4301609397 -0.1222355664 0.5933540463 4286758287
-0.4296445549 -0.1214303598 0.5926417112 4288074147
-0.4273903072 -0.1201382354 0.5895323157 4282481742
-0.4257143140 -0.1190146655 0.5872204304 4282021191
-0.4286717772 -0.1191844940 0.5912998915 4282154307
-0.4281535447 -0.1183842272 0.5905850530 4282022721
-0.4264759421 -0.1172667593 0.5882710218 4282219591
-0.4230589271 -0.1156788170 0.5835576653 4282351177
-0.4236979187 -0.1152041927 0.5844390988 4282481993
-0.4231773913 -0.1144141033 0.5837211013 4282416200
-0.4290339351 -0.1153399944 0.5917994380 4282481481
-0.4285133183 -0.1145433038 0.5910813212 4282613067
-0.4291521311 -0.1140563488 0.5919625163 4282743122
-0.4268907011 -0.1128010824 0.5888431668 4282808915
-0.4298491776 -0.1129240394 0.5929239988 4284451696
-0.4316477776 -0.1127350032 0.5954049230 4290438859
-0.4276440144 -0.1110339314 0.5898822546 4293132272
-0.4300224781 -0.1109924242 0.5931630135 4292278755
-0.4300796092 -0.1103480384 0.5932418108 4286750854
-0.4278144836 -0.1091112047 0.5901173949 4283526997
-0.4296123385 -0.1089113131 0.5925973058 4283855451
-0.4296684563 -0.1082670316 0.5926746726 4283460693
-0.4215798974 -0.1374526471 0.5824097991 4281825593
-0.4279859960 -0.1388843656 0.5912597775 4281957179
-0.4280565679 -0.1382502317 0.5913572907 4281957179
-0.4298554957 -0.1381714344 0.5938425064 4281957179
-0.4201285243 -0.1343999505 0.5804047585 4281759800
-0.4219261110 -0.1343273669 0.5828880668 4281825593
-0.4225709438 -0.1338840425 0.5837789178 4282022972
-0.4318645000 -0.1361656636 0.5966179371 4281628216
-0.4302037954 -0.1349817067 0.5943236947 4281891388
-0.4250816107 -0.1327220798 0.5872473717 4281825595
-0.4257260859 -0.1322698444 0.5881377459 4281694009
-0.4257934988 -0.1316372156 0.5882308483 4281891388
-0.4264376462 -0.1311818063 0.5891207457 4281825595
-0.4288130999 -0.1312543452 0.5924023986 4281694009
-0.4254166782 -0.1295617670 0.5877103209 4281825595
-0.4214415848 -0.1277042478 0.5822187066 4281693750
-0.4220841527 -0.1272510886 0.5831064582 4281956922
-0.4088667333 -0.1226386800 0.5648466349 4281760052
-0.4100845456 -0.1223744974 0.5665290356 4281694259
-0.4089917243 -0.1214206070 0.5650193095 4281825845
-0.4090537727 -0.1208111569 0.5651050210 4281957431
-0.4120047390 -0.1210503057 0.5691817999 4282088254
-0.4143783748 -0.1211116537 0.5724609494 4281825082
-0.4161743820 -0.1209977716 0.5749421120 4282284612
-0.4208611250 -0.1217143983 0.5814168453 4282350405
-0.4174542725 -0.1200883538 0.5767102838 4281627454
-0.4238767624 -0.1212852821 0.5855829120 4281035317
-0.4262523353 -0.1213107333 0.5888647437 4283009107
-0.4268929064 -0.1208377853 0.5897496939 4283469658
-0.4234836400 -0.1192227304 0.5850397944 4281889856
-0.4235447347 -0.1185898110 0.5851241946 4282284614
-0.4236055017 -0.1179566234 0.5852081776 4282613831
-0.4184569716 -0.1158806682 0.5780954957 4282350659
-0.4179375470 -0.1150953174 0.5773779154 4282284612
-0.4179965854 -0.1144699752 0.5774595141 4282481991
-0.4232665598 -0.1152634844 0.5847399235 4282612809
-0.4192719758 -0.1135321334 0.5792214274 4282547016
-0.4245429337 -0.1143077761 0.5865032077 4282547016
-0.4257601798 -0.1139819995 0.5881848335 4282612809
-0.4206046164 -0.1119561791 0.5810624361 4282743376
-0.4264563918 -0.1128592193 0.5891466141 4282743376
-0.4224578738 -0.1111525893 0.5836226940 4283070555
-0.4277312458 -0.1118835211 0.5909078121 4288070823
-0.4283684194 -0.1113926694 0.5917881131 4292673513
-0.4226283431 -0.1092513204 0.5838582516 4293001198
-0.4261634350 -0.1095110178 0.5887419581 4288791203
-0.4251158834 -0.1079367772 0.5872947574 4283725144
-0.4200662374 -0.1365238279 0.5812104940 4281891129
-0.4238654375 -0.1345005631 0.5864671469 4281825082
-0.4262378514 -0.1345981210 0.5897496343 4281890875
-0.4257302582 -0.1337833554 0.5890473127 4282219840
-0.4171556532 -0.1304475367 0.5771833658 4281825082
-0.4206797183 -0.1309028268 0.5820593238 4282022461
-0.4253573120 -0.1317044497 0.5885313153 4282022462
-0.4208127856 -0.1296503991 0.5822433829 4281759290
-0.4133837521 -0.1267260611 0.5719645023 4282088255
-0.4157549143 -0.1268138289 0.5752452612 4281956669
-0.4175497591 -0.1267193854 0.5777286291 4282218558
-0.4083853662 -0.1233103424 0.5650486350 4282021179
-0.4107559025 -0.1233946607 0.5683285594 4281759539
-0.4090878963 -0.1222646907 0.5660206676 4281956918
-0.4079961777 -0.1213111952 0.5645101666 4282022195
-0.4097896516 -0.1212144867 0.5669916272 4282022195
-0.4098515809 -0.1206027344 0.5670772791 4282284093
-0.4122225642 -0.1206667200 0.5703578591 4282284093
-0.4145939648 -0.1207235307 0.5736389756 4282020672
-0.4192758203 -0.1214422584 0.5801168680 4281889086
-0.4164499342 -0.1199835390 0.5762069225 4282021442
-0.4217104912 -0.1208508685 0.5834854841 4282087235
-0.4240834117 -0.1208789423 0.5867687464 4282218819
-0.4241453111 -0.1202445403 0.5868543386 4281824061
-0.4207392335 -0.1186321303 0.5821416378 4282415428
-0.4190659225 -0.1175160930 0.5798264742 4282020670
-0.4139232039 -0.1154376268 0.5727108717 4282481221
-0.4122477770 -0.1143366322 0.5703927279 4282283842
-0.4180890918 -0.1153139845 0.5784748793 4282348867
-0.4106296599 -0.1126253232 0.5681538582 4282546246
-0.4095305502 -0.1116942987 0.5666331649 4282677319
-0.4188440740 -0.1135905534 0.5795195103 4282808905
-0.4136950076 -0.1115581542 0.5723951459 4283137871
-0.4218537211 -0.1131097376 0.5836836696 4282940492
-0.4219117761 -0.1124767065 0.5837640166 4282874962
-0.4219695628 -0.1118434146 0.5838439465 4282611790
-0.4162378907 -0.1096843481 0.5759134889 4282676567
-0.4151362479 -0.1087558642 0.5743892789 4285571459
-0.4062360525 -0.1284793466 0.5629398823 4282087738
-0.4097543955 -0.1289612055 0.5678154230 4281956152
-0.4196050167 -0.1314154267 0.5814658999 4282087738
-0.4196719229 -0.1307902187 0.5815585852 4282021945
-0.4197385013 -0.1301647127 0.5816508532 4281956152
-0.4146220088 -0.1279396713 0.5745607018 4282153531
-0.4141112268 -0.1271444708 0.5738528967 4282087484
-0.4199364781 -0.1282864213 0.5819252133 4282021691
-0.4096314609 -0.1245076507 0.5676450729 4282151740
-0.4131522775 -0.1249416918 0.5725240111 4282151740
-0.4097581208 -0.1232843772 0.5678206086 4282153016
-0.4098210335 -0.1226723120 0.5679077506 4282218809
-0.4099459350 -0.1214473471 0.5680808425 4281955891
-0.4100079536 -0.1208344474 0.5681667924 4282283324
-0.4152604342 -0.1217430532 0.5754454136 4281954359
-0.4141689539 -0.1207853854 0.5739328861 4281888316
-0.4182691574 -0.1213371456 0.5796146989 4282019902
-0.4142921269 -0.1195455641 0.5741035938 4281823293
-0.4178158045 -0.1199190393 0.5789865255 4281691707
-0.4149912596 -0.1184694096 0.5750724077 4281954877
-0.4173609316 -0.1185032949 0.5783561468 4282152256
-0.4076066613 -0.1151061431 0.5648392439 4282085436
-0.4111301899 -0.1154681668 0.5697219372 4282348608
-0.4071467221 -0.1137225181 0.5642018318 4282677832
-0.4108449817 -0.1122252494 0.5693266988 4282873416
-0.4143700600 -0.1125501618 0.5742115378 4283136588
