VERSION 0.7
FIELDS x y z rgba
SIZE 4 4 4 4
TYPE F F F U
COUNT 1 1 1 1
WIDTH 920
HEIGHT 1
VIEWPOINT 0.0 0.0 0.0 1.0 0.0 0.0 0.0
POINTS 920
DATA ascii
-0.2749918699 -0.1073109061 0.5734882951 4280889685
-0.2746105492 -0.1065257862 0.5726930499 4280889685
-0.2746552825 -0.1059067473 0.5727863908 4280823892
-0.2746998072 -0.1052873954 0.5728791952 4280692820
-0.2738908231 -0.1043426991 0.5711920857 4280692820
-0.2739347219 -0.1037246734 0.5712836385 4280627027
-0.2735515833 -0.1029457599 0.5704846382 4280627027
-0.2735949159 -0.1023281142 0.5705749393 4280561234
-0.2732110918 -0.1015514955 0.5697745085 4280561234
-0.2732538283 -0.1009342298 0.5698636770 4280561234
-0.2724423110 -0.1000031829 0.5681712627 4280495441
-0.2720573246 -0.0992314965 0.5673683882 4280429647
-0.2716720104 -0.0984614491 0.5665647984 4280561233
-0.2712862790 -0.0976930559 0.5657603741 4280495440
-0.2713274658 -0.0970791951 0.5658463240 4280495440
-0.2709410787 -0.0963131413 0.5650404692 4280561233
-0.2709816992 -0.0956996903 0.5651251674 4280627026
-0.2714495659 -0.0952359438 0.5661008954 4280561233
-0.2710622251 -0.0944719613 0.5652931333 4280627026
-0.2706744969 -0.0937096551 0.5644845366 4280888656
-0.2702864110 -0.0929490104 0.5636752248 4281020242
-0.2698979676 -0.0921900347 0.5628650784 4280494660
-0.2699369192 -0.0915778726 0.5629463196 4284705412
-0.2695477605 -0.0908212811 0.5621347427 4288454757
-0.2695861757 -0.0902095512 0.5622148514 4285428279
-0.2696243227 -0.0895975679 0.5622944236 4280032272
-0.2696622312 -0.0889853314 0.5623734593 4280492823
-0.2692717612 -0.0882325545 0.5615592003 4279837502
-0.2688809633 -0.0874814689 0.5607441664 4279837502
-0.2689180076 -0.0868704095 0.5608214140 4279968318
-0.2693830431 -0.0863964483 0.5617912412 4279902525
-0.2694196403 -0.0857839063 0.5618675947 4280033599
-0.2685992122 -0.0849003047 0.5601565838 4280099392
-0.2682067454 -0.0841547847 0.5593380928 4280164925
-0.2673854232 -0.0832775161 0.5576252341 4280164925
-0.2674207091 -0.0826688707 0.5576988459 4280164927
-0.2670271695 -0.0819284767 0.5568780899 4280296513
-0.2666332424 -0.0811897963 0.5560566187 4280296513
-0.2662389576 -0.0804528296 0.5552343130 4280296513
-0.2658443153 -0.0797175914 0.5544112921 4280428099
-0.2658781409 -0.0791116655 0.5544818640 4280428099
-0.2654828429 -0.0783788934 0.5536574721 4280362051
-0.2646582425 -0.0775221959 0.5519378185 4280362051
-0.2646911740 -0.0769185275 0.5520064831 4280362051
-0.2642948031 -0.0761909410 0.5511798263 4280296258
-0.2647562623 -0.0757105052 0.5521422029 4280362051
-0.2635009885 -0.0747409761 0.5495243669 4280362051
-0.2639619708 -0.0742601007 0.5504857302 4280362051
-0.2635642886 -0.0735375136 0.5496563315 4280362051
-0.2631662488 -0.0728166699 0.5488262773 4280362051
-0.2631972134 -0.0722153857 0.5488908291 4280427844
-0.2623691261 -0.0713802353 0.5471639037 4280362563
-0.2628289461 -0.0708963349 0.5481228232 4280362563
-0.2620001137 -0.0700656772 0.5463942885 4280296771
-0.2616003752 -0.0693526193 0.5455606580 4280296771
-0.2620595098 -0.0688671172 0.5465182066 4280296771
-0.2616591752 -0.0681556240 0.5456833243 4280296771
-0.2616882026 -0.0675568283 0.5457438827 4280296770
-0.2617169917 -0.0669578239 0.5458038449 4280296770
-0.2621753216 -0.0664675981 0.5467597246 4280362306
-0.2626334727 -0.0659752041 0.5477151871 4280428099
-0.2626616061 -0.0653736517 0.5477738380 4280493637
-0.2622595429 -0.0646658912 0.5469353199 4280427844
-0.2622871101 -0.0640649423 0.5469928384 4280362051
-0.2618843913 -0.0633597672 0.5461530089 4280427844
-0.2610512674 -0.0625533238 0.5444155931 4280493637
-0.2610779703 -0.0619547665 0.5444712043 4280559430
-0.2606742382 -0.0612549521 0.5436292887 4280558916
-0.2607003748 -0.0606570207 0.5436837673 4280756295
-0.2607262731 -0.0600589141 0.5437377691 4280558915
-0.2607519031 -0.0594606288 0.5437912345 4280493122
-0.2607772946 -0.0588621646 0.5438441634 4280822087
-0.2608024180 -0.0582635291 0.5438965559 4280690501
-0.2608273029 -0.0576647222 0.5439484119 4280362051
-0.2608519197 -0.0570657440 0.5439997911 4280691016
-0.2608762980 -0.0564665981 0.5440506339 4280888395
-0.2609004080 -0.0558672845 0.5441009402 4280756809
-0.2604936957 -0.0551766008 0.5432527661 4280625223
-0.2600866854 -0.0544877388 0.5424039364 4280625223
-0.2609712481 -0.0540683568 0.5442487001 4280625223
-0.2605636716 -0.0533801578 0.5433986783 4280691016
-0.2605865002 -0.0527810231 0.5434462428 4280756811
-0.2601782978 -0.0520954840 0.5425949693 4280756811
-0.2602005601 -0.0514970310 0.5426414013 4280822602
-0.2593609095 -0.0507298857 0.5408903956 4280822602
-0.2593826056 -0.0501331091 0.5409356356 4280822602
-0.2589731514 -0.0494538993 0.5400816798 4280691016
-0.2589943111 -0.0488578193 0.5401257873 4280887881
-0.2590152025 -0.0482615940 0.5401693583 4280887881
-0.2586048245 -0.0475859195 0.5393135548 4280821834
-0.2594872713 -0.0471470356 0.5411538482 4280756041
-0.2590763569 -0.0464720689 0.5402969122 4281019213
-0.2590962648 -0.0458752811 0.5403383970 4280887627
-0.2582536042 -0.0451276787 0.5385810733 4280690248
-0.2578417361 -0.0444582626 0.5377221704 4280492869
-0.2578607500 -0.0438640490 0.5377618074 4280558662
-0.2591732442 -0.0434867777 0.5404989719 4280492869
-0.2587605715 -0.0428179614 0.5396384001 4280558662
-0.2596414983 -0.0423621126 0.5414755344 4280953420
-0.2596596479 -0.0417634137 0.5415133238 4281085778
-0.2588148117 -0.0410278253 0.5397514701 4281151571
-0.2584009767 -0.0403634831 0.5388883948 4281348950
-0.2584182620 -0.0397673957 0.5389244556 4281283157
-0.2584352791 -0.0391711928 0.5389599204 4281283157
-0.2588835061 -0.0386392735 0.5398947597 4281612122
-0.2601945400 -0.0382320508 0.5426288843 4281743454
-0.2576217651 -0.0372570753 0.5372633934 4281414489
-0.2593639195 -0.0369080491 0.5408965945 4281743454
-0.2580849826 -0.0361280441 0.5382294059 4281743454
-0.2581004500 -0.0355321616 0.5382616520 4281809247
-0.2598421872 -0.0351698585 0.5418940187 4281875040
-0.2581306100 -0.0343400799 0.5383245945 4282072420
-0.2581453025 -0.0337438807 0.5383552313 4282335592
-0.2581597567 -0.0331475846 0.5383853316 4282730350
-0.2629229426 -0.0331499577 0.5483188629 4282993522
-0.2629371285 -0.0325424932 0.5483484864 4282796145
-0.2612239718 -0.0317251757 0.5447756648 4282532973
-0.2633965313 -0.0313787088 0.5493065119 4282269801
-0.2638417780 -0.0308204032 0.5502350330 4282204008
-0.2642867863 -0.0302600060 0.5511631370 4282269799
-0.2625722885 -0.0294552911 0.5475875735 4282204006
-0.2634486556 -0.0289431624 0.5494152308 4282204259
-0.2647567391 -0.0284734014 0.5521432161 4282335845
-0.2613135278 -0.0274976082 0.5449624658 4282599528
-0.2867256403 -0.1494409442 0.5993469954 4292271591
-0.2867870331 -0.1488068849 0.5994753838 4292008419
-0.2872694135 -0.1483900100 0.6004837155 4291876833
-0.2869091630 -0.1475375593 0.5997306108 4291942371
-0.2873912454 -0.1471180171 0.6007383466 4291876578
-0.2874518037 -0.1464814097 0.6008649468 4291810785
-0.2875121236 -0.1458443999 0.6009910107 4291810785
-0.2875722051 -0.1452069879 0.6011165977 4291941857
-0.2876320481 -0.1445691884 0.6012417078 4291941857
-0.2876916528 -0.1439309865 0.6013662815 4291941857
-0.2873290777 -0.1430822760 0.6006084085 4291941857
-0.2873881161 -0.1424442232 0.6007317901 4291876578
-0.2874469161 -0.1418057680 0.6008546948 4291942371
-0.2875054777 -0.1411669254 0.6009771228 4291876578
-0.2875638008 -0.1405276954 0.6010990143 4291876578
-0.2876218557 -0.1398880780 0.6012204289 4291876578
-0.2876797020 -0.1392480731 0.6013413072 4291876578
-0.2881598175 -0.1388112158 0.6023448706 4291876833
-0.2882172465 -0.1381694973 0.6024649143 4292008419
-0.2878517509 -0.1373257488 0.6017009020 4292140005
-0.2879086137 -0.1366842091 0.6018198133 4292205798
-0.2879652381 -0.1360422969 0.6019381285 4292534763
-0.2880215943 -0.1353999972 0.6020559669 4292863728
-0.2880777121 -0.1347573251 0.6021733284 4293258486
-0.2881336212 -0.1341142803 0.6022900939 4293521658
-0.2881892323 -0.1334708631 0.6024064422 4293784830
-0.2882446349 -0.1328270733 0.6025221944 4293850623
-0.2882997692 -0.1321829110 0.6026374698 4294310907
-0.2883546650 -0.1315383762 0.6027522087 4294442493
-0.2884093225 -0.1308934838 0.6028664708 4294508031
-0.2884637415 -0.1302482188 0.6029801369 4294508031
-0.2885178924 -0.1296025813 0.6030933857 4294442239
-0.2885717750 -0.1289565861 0.6032060385 4294442239
-0.2886254489 -0.1283102334 0.6033182144 4294376959
-0.2886788547 -0.1276635230 0.6034297943 4294442751
-0.2883080244 -0.1268299371 0.6026546955 4294114047
-0.2883608341 -0.1261834651 0.6027650833 4289771715
-0.2879892886 -0.1253520250 0.6019884348 4284376186
-0.2871930897 -0.1243384704 0.6003241539 4283455084
-0.2863963544 -0.1233283728 0.5986586809 4281876315
-0.2851746976 -0.1221399829 0.5961050391 4281744729
-0.2835278809 -0.1207761616 0.5926626921 4281678683
-0.2810311913 -0.1190599352 0.5874437690 4281152339
-0.2789579332 -0.1175337136 0.5831100345 4281284443
-0.2777329981 -0.1163725853 0.5805495381 4281284443
-0.2765074074 -0.1152168587 0.5779876709 4281284443
-0.2757059038 -0.1142425686 0.5763123035 4281284443
-0.2749038935 -0.1132717803 0.5746358633 4281218650
-0.2753762305 -0.1128268465 0.5756231546 4281218650
-0.2749983966 -0.1120333597 0.5748333931 4281218650
-0.2746201754 -0.1112414673 0.5740427375 4281218650
-0.2746667266 -0.1106224209 0.5741401315 4281218650
-0.2747130692 -0.1100030616 0.5742369294 4281087064
-0.2747591436 -0.1093833819 0.5743332505 4281087064
-0.2743795812 -0.1085950360 0.5735398531 4281087064
-0.2744250894 -0.1079756990 0.5736349821 4281021271
-0.2744703591 -0.1073560566 0.5737296343 4281021271
-0.2740897834 -0.1065706313 0.5729340911 4281087064
-0.2741344869 -0.1059513390 0.5730275512 4281021271
-0.2741789520 -0.1053317487 0.5731205344 4280890198
-0.2737973630 -0.1045492589 0.5723228455 4280824405
-0.2734153867 -0.1037683934 0.5715243816 4280824405
-0.2730330229 -0.1029891595 0.5707251430 4280824405
-0.2730762959 -0.1023712680 0.5708156228 4280758612
-0.2726932466 -0.1015943438 0.5700148940 4280692819
-0.2718836665 -0.1006612778 0.5683225989 4280692819
-0.2714997828 -0.0998885930 0.5675201416 4280692819
-0.2711155117 -0.0991175547 0.5667169094 4280627026
-0.2715835869 -0.0986579210 0.5676953197 4280692819
-0.2711986899 -0.0978882462 0.5668907762 4280692306
-0.2712399065 -0.0972731709 0.5669769645 4280692306
-0.2712808549 -0.0966578126 0.5670625567 4280758099
-0.2704683840 -0.0957401618 0.5653641820 4280692306
-0.2705087066 -0.0951261893 0.5654485226 4280626513
-0.2696953416 -0.0942137986 0.5637483597 4280758099
-0.2701618671 -0.0937493220 0.5647234917 4280954451
-0.2697745562 -0.0929883644 0.5639138818 4281020244
-0.2693868577 -0.0922290832 0.5631034970 4280297774
-0.2694257796 -0.0916166678 0.5631847978 4286087558
-0.2690373957 -0.0908597633 0.5623729825 4288519778
-0.2690757513 -0.0902477950 0.5624531507 4283190545
-0.2691138685 -0.0896355659 0.5625328422 4279769110
-0.2687245011 -0.0888817683 0.5617189407 4280558626
-0.2687620521 -0.0882699862 0.5617974401 4280034111
-0.2683719993 -0.0875185952 0.5609821677 4279902525
-0.2684090137 -0.0869072825 0.5610594749 4279967806
-0.2688732147 -0.0864331350 0.5620298386 4279967806
-0.2689097524 -0.0858203471 0.5621062517 4279968067
-0.2680909038 -0.0849363729 0.5603945851 4279968067
-0.2676992118 -0.0841905475 0.5595757961 4280099134
-0.2673071623 -0.0834464282 0.5587562919 4280164927
-0.2664870024 -0.0825714841 0.5570418835 4280164927
-0.2665219605 -0.0819633231 0.5571149588 4280296513
-0.2665566802 -0.0813549235 0.5571874976 4280296513
-0.2661632299 -0.0806166753 0.5563650727 4280296513
-0.2657694221 -0.0798801482 0.5555418730 4280362051
-0.2653752267 -0.0791453496 0.5547179580 4280362051
-0.2649807036 -0.0784122646 0.5538932681 4280362051
-0.2645858228 -0.0776809156 0.5530678034 4280296258
-0.2646187842 -0.0770760179 0.5531367064 4280296258
-0.2646514773 -0.0764708892 0.5532050133 4280296258
-0.2646839023 -0.0758655369 0.5532728434 4280230465
-0.2634310722 -0.0748946220 0.5506540537 4280296258
-0.2630344629 -0.0741709694 0.5498250127 4280296258
-0.2630659640 -0.0735688806 0.5498908162 4280362051
-0.2630971968 -0.0729665831 0.5499561429 4280362051
-0.2626996338 -0.0722462088 0.5491251349 4280427844
-0.2618731260 -0.0714107081 0.5473974347 4280296770
-0.2623321414 -0.0709266067 0.5483568907 4280296770
-0.2619335651 -0.0702105090 0.5475237966 4280362051
-0.2611059248 -0.0693822429 0.5457937121 4280362051
-0.2611354291 -0.0687836036 0.5458554029 4280427844
-0.2611646652 -0.0681847483 0.5459164977 4280362051
-0.2616225481 -0.0676966831 0.5468736291 4280296513
-0.2612224221 -0.0669864565 0.5460372567 4280230720
-0.2616798878 -0.0664960220 0.5469934940 4280296258
-0.2617082000 -0.0658953935 0.5470526814 4280427844
-0.2617362440 -0.0652945787 0.5471112728 4280427844
-0.2613348961 -0.0645875111 0.5462723970 4280362051
-0.2613624036 -0.0639872923 0.5463298559 4280296258
-0.2605312169 -0.0631787255 0.5445924401 4280296258
-0.2609874010 -0.0626832023 0.5455459356 4280362051
-0.2610141039 -0.0620834120 0.5456017852 4280427844
-0.2606112063 -0.0613823161 0.5447595716 4280558916
-0.2606373429 -0.0607831478 0.5448142886 4280493123
-0.2602338195 -0.0600846522 0.5439707637 4280493123
-0.2602594197 -0.0594861135 0.5440242887 4280493123
-0.2598552704 -0.0587902255 0.5431794524 4280558916
-0.2603099048 -0.0582885146 0.5441297889 4280624709
-0.2599051595 -0.0575942546 0.5432837605 4280690502
-0.2603593469 -0.0570902228 0.5442331433 4280690502
-0.2599540055 -0.0563976057 0.5433858633 4280691016
-0.2595483661 -0.0557067953 0.5425379276 4280625223
-0.2595721185 -0.0551090427 0.5425875783 4280559430
-0.2595956326 -0.0545111261 0.5426367521 4280559430
-0.2596189082 -0.0539130494 0.5426853895 4280691016
-0.2596419156 -0.0533148125 0.5427334905 4280756809
-0.2592347562 -0.0526291355 0.5418823957 4280691016
-0.2592572272 -0.0520315729 0.5419293642 4280691016
-0.2588494420 -0.0513485633 0.5410769582 4280756809
-0.2584413588 -0.0506673791 0.5402238965 4280625223
-0.2584629953 -0.0500713438 0.5402691364 4280625223
-0.2580542564 -0.0493928380 0.5394148231 4280625223
-0.2580753565 -0.0487974957 0.5394589305 4280559430
-0.2576660514 -0.0481216758 0.5386033058 4280559430
-0.2585469782 -0.0476857275 0.5404447317 4280690502
-0.2581371367 -0.0470106117 0.5395880342 4280558916
-0.2581572235 -0.0464147031 0.5396299958 4280624455
-0.2577467561 -0.0457422882 0.5387719870 4280887627
-0.2577662766 -0.0451470986 0.5388128161 4280690248
-0.2577855885 -0.0445517711 0.5388531685 4280558662
-0.2578046322 -0.0439563133 0.5388929844 4280821834
-0.2578234076 -0.0433607250 0.5389322042 4280756041
-0.2582723796 -0.0428363979 0.5398707390 4280690248
-0.2582906783 -0.0422395580 0.5399090052 4280887627
-0.2587392628 -0.0417119972 0.5408466458 4281282385
-0.2578960061 -0.0409770906 0.5390839577 4281150799
-0.2583440840 -0.0404482856 0.5400206447 4280953420
-0.2587919831 -0.0399173684 0.5409568548 4281348178
-0.2588090301 -0.0393189192 0.5409924984 4281217364
-0.2588258386 -0.0387203507 0.5410276651 4281283157
-0.2588424087 -0.0381216705 0.5410622358 4281743708
-0.2575665414 -0.0373355709 0.5383953452 4281348950
-0.2588747442 -0.0369239636 0.5411298275 4281480282
-0.2588905096 -0.0363249443 0.5411628485 4281546075
-0.2576136589 -0.0355474837 0.5384938121 4281611868
-0.2589212954 -0.0351265818 0.5412272215 4281611868
-0.2593671679 -0.0345846899 0.5421591997 4281940833
-0.2576584816 -0.0337584391 0.5385875106 4282467177
-0.2593964636 -0.0333837047 0.5422204137 4282796143
-0.2594107389 -0.0327830650 0.5422502756 4282730350
-0.2581319213 -0.0320219472 0.5395771265 4282072419
-0.2585765719 -0.0314765647 0.5405066013 4282006626
-0.2585900128 -0.0308776274 0.5405347347 4281940833
-0.2590342164 -0.0303290635 0.5414631963 4281940833
-0.2594782114 -0.0297784116 0.5423913002 4281940833
-0.2594909370 -0.0291772075 0.5424178839 4281940833
-0.2599344552 -0.0286233816 0.5433449745 4281940833
-0.2599466741 -0.0280210041 0.5433705449 4282006626
-0.2651319504 -0.0279641859 0.5542094111 4282138725
-0.2655750215 -0.0273941215 0.5551355481 4282270311
-0.2591195107 -0.0261264313 0.5416414738 4282401898
-0.2625799775 -0.0258655045 0.5488749743 4282467691
-0.2634533942 -0.0253396705 0.5507006645 4282467691
-0.2630330026 -0.0246883463 0.5498219132 4282599277
-0.2651996017 -0.0242757816 0.5543508530 4282862448
-0.2660724521 -0.0237377286 0.5561752915 4283125620
-0.2691013217 -0.0233829655 0.5625066161 4284374909
-0.2855199277 -0.1471648514 0.5982155800 4292205798
-0.2855803967 -0.1465312093 0.5983422399 4292140005
-0.2860612869 -0.1461120397 0.5993497968 4292073957
-0.2861213684 -0.1454766691 0.5994756818 4291942371
-0.2857603729 -0.1446278989 0.5987192988 4292007650
-0.2858198583 -0.1439926475 0.5988439918 4291941857
-0.2858791351 -0.1433570236 0.5989681482 4291941857
-0.2859381735 -0.1427209973 0.5990918875 4292007650
-0.2859969735 -0.1420845687 0.5992150903 4292007650
-0.2860555351 -0.1414477527 0.5993377566 4292139236
-0.2861138582 -0.1408105493 0.5994599462 4292139235
-0.2861719429 -0.1401729584 0.5995816588 4292073442
-0.2862297893 -0.1395349801 0.5997028351 4292008419
-0.2862873971 -0.1388966143 0.5998235345 4292008419
-0.2867664695 -0.1384614855 0.6008272767 4292008419
-0.2868236601 -0.1378214061 0.6009471416 4292008419
-0.2868806422 -0.1371809393 0.6010664701 4291942626
-0.2869373560 -0.1365401000 0.6011853218 4291942626
-0.2869938314 -0.1358988881 0.6013036370 4292074212
-0.2870500386 -0.1352572888 0.6014214158 4292140005
-0.2866838276 -0.1344173551 0.6006541252 4292271591
-0.2867394686 -0.1337759495 0.6007707119 4292468970
-0.2867949009 -0.1331341714 0.6008868217 4292732142
-0.2868500650 -0.1324920356 0.6010023952 4292929521
-0.2873275280 -0.1320437044 0.6020027995 4293586930
-0.2869596481 -0.1312066317 0.6012320518 4293915895
-0.2870140970 -0.1305633783 0.6013460755 4294179068
-0.2870682776 -0.1299197674 0.6014596224 4294310654
-0.2875450850 -0.1294661760 0.6024585962 4294179838
-0.2871758938 -0.1286314428 0.6016851068 4294179838
-0.2872293293 -0.1279867291 0.6017970443 4294179583
-0.2872825265 -0.1273416728 0.6019085050 4294245375
-0.2873354554 -0.1266962588 0.6020194292 4294114047
-0.2869648933 -0.1258648336 0.6012430191 4291153370
-0.2865939438 -0.1250349730 0.6004657745 4284770944
-0.2862225771 -0.1242066473 0.5996876955 4283718256
-0.2854273021 -0.1231971011 0.5980215073 4281678423
-0.2842079401 -0.1220091879 0.5954667330 4282007388
-0.2829878628 -0.1208266541 0.5929104090 4281678683
-0.2804959714 -0.1191097274 0.5876894593 4281152339
-0.2788504958 -0.1177618504 0.5842418671 4281284443
-0.2772041559 -0.1164212897 0.5807924867 4281284443
-0.2764048576 -0.1154421493 0.5791178346 4281284443
-0.2760290205 -0.1146426201 0.5783303976 4281284443
-0.2752287090 -0.1136695221 0.5766535997 4281284443
-0.2748520374 -0.1128741279 0.5758643746 4281284443
-0.2748991847 -0.1122535542 0.5759631991 4281284443
-0.2745217979 -0.1114603877 0.5751724839 4281218650
-0.2745683789 -0.1108401418 0.5752700567 4281350236
-0.2746147215 -0.1102195755 0.5753672123 4281218650
-0.2742363214 -0.1094292998 0.5745743513 4281152857
-0.2742820978 -0.1088090688 0.5746702552 4281152857
-0.2739029825 -0.1080210581 0.5738759637 4281087064
-0.2739481926 -0.1074011698 0.5739706755 4281087064
-0.2735683918 -0.1066154242 0.5731748939 4281152857
-0.2736130655 -0.1059958860 0.5732684731 4281152857
-0.2736574709 -0.1053760499 0.5733615756 4280890968
-0.2732766271 -0.1045932472 0.5725636482 4280890968
-0.2728954256 -0.1038120687 0.5717649460 4281021784
-0.2725138366 -0.1030325219 0.5709654093 4281021784
-0.2725570500 -0.1024143770 0.5710560083 4280955991
-0.2721747756 -0.1016371399 0.5702550411 4280955991
-0.2717920840 -0.1008615345 0.5694532394 4280955991
-0.2718344331 -0.1002444476 0.5695419908 4280955991
-0.2714510858 -0.0994711667 0.5687387586 4280890198
-0.2714928687 -0.0988544747 0.5688263178 4280890198
-0.2711088061 -0.0980835259 0.5680216551 4280889685
-0.2711500525 -0.0974672362 0.5681080818 4280889685
-0.2716167867 -0.0970027074 0.5690859556 4280889685
-0.2708059847 -0.0960827395 0.5673871636 4280758099
-0.2704205513 -0.0953164771 0.5665796399 4280692306
-0.2700347602 -0.0945518762 0.5657712817 4280758099
-0.2696485817 -0.0937889442 0.5649622083 4281020502
-0.2688359618 -0.0928804874 0.5632596612 4280954709
-0.2684489787 -0.0921218619 0.5624488592 4280494878
-0.2689139545 -0.0916554257 0.5634230971 4286942592
-0.2685263753 -0.0908982158 0.5626109838 4288058717
-0.2681383789 -0.0901426822 0.5617980957 4281874176
-0.2686027586 -0.0896735191 0.5627710223 4280163882
-0.2677877545 -0.0887780413 0.5610634089 4280558640
-0.2682516873 -0.0883073881 0.5620354414 4280034363
-0.2682889402 -0.0876951069 0.5621135235 4279968570
-0.2683259547 -0.0870825648 0.5621910691 4279967805
-0.2679360807 -0.0863323063 0.5613741875 4280033598
-0.2671191096 -0.0854472518 0.5596625209 4279968067
-0.2663016617 -0.0845658407 0.5579498410 4279902274
-0.2667642236 -0.0840917304 0.5589189529 4280099134
-0.2655191123 -0.0830811411 0.5563102961 4280164927
-0.2659811676 -0.0826065391 0.5572783351 4280099134
-0.2655891180 -0.0818665102 0.5564569235 4280230720
-0.2651966810 -0.0811281949 0.5556347370 4280296513
-0.2656581104 -0.0806509331 0.5566014647 4280296513
-0.2648379207 -0.0797854140 0.5548830032 4280296513
-0.2644444704 -0.0790512860 0.5540586710 4280362306
-0.2640506625 -0.0783188790 0.5532335639 4280362306
-0.2640838325 -0.0777139589 0.5533030629 4280296513
-0.2641167343 -0.0771088079 0.5533720255 4280230720
-0.2637219727 -0.0763796344 0.5525448918 4280230720
-0.2633268535 -0.0756522045 0.5517170429 4280230465
-0.2625038326 -0.0748046786 0.5499927402 4280230465
-0.2625355422 -0.0742025599 0.5500591397 4280296258
-0.2625670135 -0.0736002177 0.5501250625 4280362051
-0.2625982165 -0.0729976669 0.5501904488 4280427844
-0.2622014284 -0.0722769946 0.5493591428 4280427844
-0.2613765299 -0.0714411438 0.5476307869 4280230977
-0.2618346810 -0.0709568486 0.5485906601 4280296770
-0.2605811357 -0.0700105354 0.5459643006 4280362563
-0.2610387802 -0.0695258155 0.5469231606 4280296770
-0.2606403232 -0.0688129440 0.5460882783 4280296770
-0.2606695294 -0.0682138503 0.5461494923 4280362563
-0.2611265779 -0.0677255765 0.5471071005 4280296770
-0.2602990866 -0.0669050142 0.5453733802 4280230977
-0.2607556880 -0.0664153621 0.5463299751 4280428099
-0.2607839108 -0.0658154711 0.5463891029 4280493892
-0.2608118653 -0.0652153865 0.5464477539 4280493637
-0.2608395815 -0.0646151081 0.5465058088 4280427844
-0.2608670592 -0.0640146434 0.5465633273 4280296258
-0.2600374818 -0.0632057339 0.5448252559 4280296258
-0.2600643635 -0.0626068637 0.5448815823 4280296258
-0.2596625090 -0.0619056523 0.5440396070 4280230465
-0.2592602968 -0.0612062365 0.5431969166 4280362051
-0.2597149312 -0.0607089736 0.5441493988 4280296258
-0.2593121231 -0.0600111708 0.5433055162 4280427844
-0.2597663403 -0.0595115721 0.5442571044 4280427844
-0.2585055530 -0.0586209632 0.5416156054 4280362051
-0.2593879998 -0.0582172424 0.5434644818 4280493637
-0.2589839995 -0.0575236827 0.5426180363 4280625223
-0.2590084970 -0.0569261797 0.5426693559 4280559430
-0.2590327561 -0.0563285053 0.5427201390 4280362051
-0.2590567470 -0.0557306670 0.5427703857 4280493637
-0.2590804696 -0.0551326610 0.5428201556 4280559685
-0.2586749792 -0.0544442050 0.5419705510 4280559685
-0.2591271996 -0.0539361611 0.5429180264 4280559685
-0.2587211132 -0.0532493666 0.5420672297 4280493892
-0.2587438226 -0.0526517071 0.5421147943 4280427844
-0.2583371401 -0.0519675687 0.5412626863 4280362051
-0.2587884367 -0.0514559262 0.5422083139 4280428356
-0.2575227618 -0.0506047793 0.5395564437 4280362563
-0.2579735816 -0.0500928313 0.5405009985 4280428356
-0.2575656772 -0.0494140387 0.5396463275 4280428356
-0.2575867474 -0.0488184467 0.5396904945 4280493637
-0.2576075494 -0.0482227094 0.5397341251 4280493637
-0.2576281130 -0.0476268269 0.5397772193 4280493637
-0.2572190166 -0.0469524190 0.5389200449 4280493637
-0.2568096220 -0.0462798588 0.5380622745 4280296260
-0.2568293512 -0.0456855446 0.5381036401 4280625225
-0.2572783530 -0.0451664999 0.5390443802 4280953420
-0.2568680942 -0.0444965102 0.5381847620 4281019213
-0.2568870783 -0.0439017937 0.5382245779 4280953420
-0.2569057941 -0.0433069468 0.5382637978 4281216592
-0.2573539317 -0.0427833945 0.5392026901 4281348180
-0.2573721707 -0.0421872921 0.5392409563 4280821836
-0.2573901713 -0.0415910669 0.5392786860 4281085006
-0.2565484643 -0.0408578403 0.5375151634 4281348178
-0.2561361492 -0.0401959158 0.5366512537 4280822604
-0.2561533153 -0.0396023095 0.5366871953 4280954190
-0.2574596405 -0.0392049365 0.5394242406 4281217362
-0.2570465505 -0.0385436527 0.5385586619 4281085776
-0.2557733953 -0.0377573296 0.5358911753 4281283157
-0.2557894886 -0.0371642597 0.5359249711 4281283157
-0.2562352717 -0.0366325416 0.5368589759 4281217110
-0.2553910315 -0.0359173156 0.5350900888 4281282903
-0.2554063499 -0.0353249125 0.5351221561 4281283416
-0.2562814355 -0.0348493494 0.5369556546 4281349209
-0.2554362416 -0.0341397934 0.5351848006 4281743967
-0.2554651201 -0.0329542607 0.5352453589 4282204519
-0.2554791868 -0.0323613472 0.5352748036 4282007140
-0.2559231222 -0.0318218172 0.5362049341 4281809247
-0.2572271526 -0.0313851610 0.5389370918 4281809247
-0.2563802004 -0.0306849964 0.5371625423 4281809247
-0.2563932836 -0.0300897062 0.5371900201 4281809247
-0.2568363249 -0.0295438133 0.5381182432 4281809247
-0.2581396401 -0.0290928110 0.5408489108 4281875040
-0.2581520379 -0.0284932572 0.5408748984 4281809248
-0.2585944533 -0.0279401094 0.5418018699 4281809248
-0.2611881495 -0.0276123267 0.5472360849 4281809761
-0.2607696056 -0.0269610360 0.5463591218 4281941347
-0.2616417408 -0.0264421329 0.5481864810 4282006886
-0.2590709031 -0.0255792290 0.5428001285 4282138472
-0.2595121861 -0.0250186808 0.5437246561 4282270058
-0.2603836060 -0.0244965460 0.5455504656 4282533230
-0.2612548470 -0.0239703376 0.5473758578 4282796402
-0.2672909498 -0.0239019282 0.5600225329 4282927988
-0.2634369433 -0.0223307870 0.5519477129 4282401897
-0.2608636320 -0.0215053912 0.5465561748 4282402149
-0.2847331762 -0.1451085210 0.5979586244 4292271591
-0.2843727171 -0.1442612857 0.5972016454 4292074212
-0.2844319940 -0.1436276883 0.5973261595 4291942626
-0.2844910324 -0.1429936886 0.5974501371 4291876578
-0.2845498323 -0.1423593014 0.5975736380 4291876578
-0.2846083939 -0.1417245120 0.5976966023 4291941857
-0.2846667171 -0.1410893351 0.5978190899 4291941857
-0.2847248018 -0.1404537708 0.5979410410 4291941856
-0.2847826481 -0.1398178190 0.5980625749 4291941856
-0.2848402560 -0.1391814798 0.5981835127 4292007649
-0.2848976254 -0.1385447532 0.5983040333 4292073442
-0.2849547565 -0.1379076391 0.5984239578 4292074212
-0.2854326367 -0.1374729127 0.5994275808 4292008419
-0.2854893804 -0.1368340850 0.5995467305 4291942626
-0.2855458558 -0.1361948997 0.5996653438 4291942626
-0.2856021225 -0.1355553269 0.5997834802 4291876833
-0.2856581211 -0.1349153668 0.5999010801 4291876833
-0.2852924764 -0.1340769976 0.5991331935 4291811040
-0.2853479087 -0.1334372312 0.5992496014 4291811040
-0.2854031026 -0.1327971071 0.5993654728 4291942626
-0.2854580283 -0.1321566105 0.5994808674 4292140005
-0.2859344780 -0.1317100078 0.6004814506 4292402405
-0.2859890163 -0.1310678124 0.6005959511 4292665577
-0.2856214046 -0.1302329004 0.5998239517 4292863724
-0.2860973477 -0.1297823489 0.6008234620 4293061103
-0.2861511409 -0.1291390806 0.6009364724 4293192691
-0.2857825458 -0.1283059120 0.6001623869 4293324277
-0.2858357728 -0.1276628524 0.6002742052 4293455865
-0.2858887613 -0.1270194501 0.6003854275 4293521658
-0.2859414816 -0.1263756752 0.6004961729 4293916415
-0.2855715156 -0.1255458444 0.5997192264 4292008425
-0.2852011621 -0.1247175485 0.5989414454 4285889425
-0.2848303914 -0.1238908097 0.5981627703 4283520877
-0.2840365469 -0.1228827685 0.5964956284 4282336866
-0.2832421362 -0.1218781918 0.5948273540 4281942108
-0.2820243537 -0.1206961349 0.5922699571 4281547097
-0.2808058858 -0.1195194572 0.5897110701 4281415511
-0.2787407637 -0.1179900840 0.5853741765 4281284443
-0.2775207460 -0.1168261096 0.5828120708 4281284443
-0.2767231762 -0.1158446670 0.5811370611 4281218650
-0.2759250402 -0.1148667261 0.5794609785 4281218650
-0.2755496502 -0.1140675098 0.5786725879 4281284443
-0.2747505307 -0.1130956188 0.5769944191 4281284443
-0.2743742764 -0.1123005375 0.5762042403 4281350236
-0.2744211257 -0.1116794050 0.5763026476 4281350236
-0.2744677365 -0.1110579520 0.5764005184 4281350236
-0.2745141089 -0.1104361787 0.5764979124 4281284443
-0.2741365433 -0.1096446291 0.5757049918 4281218650
-0.2741823494 -0.1090231985 0.5758011937 4281152857
-0.2738040388 -0.1082339063 0.5750067234 4281087064
-0.2734253705 -0.1074462309 0.5742115378 4281087064
-0.2734703124 -0.1068257913 0.5743058920 4281152857
-0.2730909586 -0.1060403883 0.5735091567 4281284443
-0.2731353045 -0.1054203063 0.5736023784 4281088347
-0.2731794417 -0.1047999188 0.5736950040 4281088347
-0.2727990448 -0.1040174589 0.5728961825 4281219163
-0.2724182904 -0.1032366380 0.5720965862 4281219163
-0.2720371485 -0.1024574488 0.5712961555 4281153370
-0.2720800936 -0.1018387675 0.5713862777 4281153370
-0.2716982365 -0.1010618806 0.5705844164 4281153370
-0.2717406154 -0.1004435867 0.5706734061 4281153370
-0.2713580728 -0.0996690243 0.5698700547 4281219163
-0.2709751725 -0.0988961086 0.5690659285 4281087577
-0.2705918849 -0.0981248468 0.5682609677 4281152857
-0.2706330717 -0.0975083113 0.5683475137 4281152857
-0.2710989416 -0.0970435962 0.5693258047 4281021271
-0.2702897191 -0.0961232558 0.5676264167 4280889685
-0.2703301311 -0.0955068469 0.5677112341 4280889685
-0.2699451447 -0.0947409719 0.5669027567 4280889685
-0.2695598006 -0.0939767584 0.5660935044 4280955481
-0.2687488496 -0.0930669531 0.5643904805 4280692309
-0.2683627009 -0.0923070535 0.5635794997 4281480993
-0.2684015334 -0.0916941464 0.5636610985 4287599742
-0.2684400976 -0.0910809711 0.5637421012 4287531870
-0.2680529654 -0.0903241560 0.5629290938 4281084160
-0.2676654458 -0.0895690322 0.5621153116 4280295480
-0.2681287825 -0.0890984386 0.5630882978 4280295480
-0.2673150003 -0.0882042870 0.5613793135 4280034361
-0.2677778900 -0.0877322108 0.5623513460 4279968568
-0.2682406306 -0.0872579291 0.5633231997 4280033337
-0.2678515911 -0.0865063891 0.5625061393 4280099130
-0.2674621642 -0.0857565477 0.5616883636 4279771454
-0.2666464150 -0.0848728195 0.5599752665 4279771454
-0.2662562132 -0.0841273591 0.5591558218 4280099134
-0.2658656538 -0.0833836049 0.5583356023 4280164927
-0.2654747367 -0.0826415569 0.5575146079 4280099132
-0.2650834322 -0.0819012225 0.5566928983 4280164925
-0.2651180327 -0.0812933072 0.5567654967 4280230718
-0.2651523650 -0.0806851462 0.5568376184 4280296511
-0.2647601068 -0.0799480155 0.5560138226 4280296511
-0.2643674910 -0.0792126060 0.5551893115 4280362304
-0.2639745176 -0.0784789175 0.5543640852 4280362306
-0.2635811865 -0.0777469650 0.5535380244 4280362306
-0.2636140585 -0.0771415606 0.5536071062 4280230720
-0.2636466920 -0.0765359327 0.5536755919 4280230720
-0.2632524073 -0.0758072212 0.5528475642 4280296513
-0.2632844746 -0.0752021298 0.5529149175 4280296513
-0.2624627650 -0.0743550137 0.5511893034 4280362306
-0.2620674074 -0.0736315250 0.5503590107 4280362306
-0.2616717219 -0.0729097873 0.5495280623 4280362306
-0.2621295154 -0.0724257082 0.5504894257 4280362306
-0.2621601820 -0.0718224794 0.5505538583 4280297024
-0.2613365650 -0.0709870532 0.5488242507 4280297024
-0.2605125308 -0.0701553524 0.5470936298 4280297024
-0.2601151466 -0.0694414079 0.5462591052 4280231231
-0.2605717480 -0.0689553022 0.5472180247 4280231231
-0.2606009543 -0.0683549717 0.5472794175 4280362817
-0.2606299520 -0.0677544400 0.5473402739 4280362563
-0.2602313757 -0.0670436248 0.5465032458 4280362563
-0.2602598071 -0.0664436817 0.5465629697 4280296770
-0.2602880001 -0.0658435374 0.5466221571 4280362563
-0.2603159547 -0.0652432069 0.5466808081 4280494149
-0.2594886422 -0.0644303858 0.5449434519 4280428356
-0.2599435449 -0.0639367998 0.5458987355 4280296770
-0.2595430911 -0.0632327124 0.5450577736 4280230977
-0.2595699430 -0.0626335889 0.5451141596 4280165184
-0.2591688633 -0.0619320907 0.5442718863 4280099391
-0.2587674558 -0.0612323768 0.5434288979 4280230720
-0.2587934732 -0.0606346838 0.5434835553 4280296513
-0.2583914399 -0.0599375777 0.5426392555 4280362051
-0.2588447630 -0.0594387613 0.5435912013 4280362051
-0.2588700056 -0.0588405319 0.5436443090 4280296258
-0.2588950396 -0.0582421310 0.5436968207 4280362051
-0.2593477666 -0.0577388369 0.5446475744 4280428099
-0.2585162818 -0.0569505244 0.5429014564 4280362306
-0.2585405111 -0.0563526005 0.5429522991 4280230977
-0.2585644722 -0.0557545125 0.5430026054 4280296770
-0.2585881948 -0.0551562533 0.5430524349 4280362563
-0.2590398192 -0.0546481609 0.5440008640 4280296770
-0.2586348653 -0.0539592505 0.5431504250 4280165184
-0.2582295835 -0.0532721654 0.5422993302 4280165184
-0.2578239739 -0.0525869019 0.5414475203 4280165184
-0.2582746744 -0.0520761870 0.5423940420 4280165184
-0.2574401200 -0.0513072275 0.5406414270 4280230978
-0.2570335865 -0.0506264605 0.5397876501 4280296771
-0.2566479743 -0.0493528247 0.5389778614 4280362564
-0.2566689849 -0.0487579741 0.5390219688 4280428357
-0.2566897571 -0.0481629781 0.5390655994 4280362564
-0.2567102611 -0.0475678369 0.5391086340 4280428357
-0.2567305267 -0.0469725579 0.5391511917 4280559943
-0.2563219070 -0.0462997109 0.5382930636 4280625225
-0.2563416362 -0.0457051434 0.5383344889 4280625225
-0.2559323907 -0.0450350083 0.5374750495 4280691018
-0.2559515834 -0.0444411635 0.5375153422 4280822604
-0.2563992739 -0.0439206362 0.5384555459 4280625227
-0.2564179897 -0.0433255360 0.5384948850 4280756813
-0.2564364374 -0.0427303053 0.5385336280 4281151571
-0.2560257912 -0.0420644879 0.5376712680 4280822606
-0.2564726174 -0.0415394641 0.5386095643 4280691018
-0.2560614049 -0.0408753864 0.5377460122 4281085776
-0.2560788095 -0.0402806550 0.5377826095 4281085776
-0.2560959756 -0.0396857969 0.5378186107 4280954190
-0.2561129034 -0.0390908271 0.5378541350 4281151569
-0.2561295629 -0.0384957343 0.5378891230 4281151569
-0.2561459541 -0.0379005298 0.5379235744 4280954449
-0.2548748851 -0.0371177457 0.5352542400 4281086035
-0.2557488978 -0.0366482884 0.5370897651 4280954451
-0.2557645440 -0.0360537432 0.5371225476 4280954451
-0.2549215853 -0.0353401043 0.5353522897 4281020244
-0.2557950020 -0.0348643363 0.5371865630 4281151830
-0.2558098733 -0.0342694744 0.5372177362 4281415003
-0.2549659908 -0.0335615054 0.5354455709 4281546589
-0.2558388114 -0.0330794416 0.5372785330 4281612382
-0.2558529079 -0.0324842781 0.5373081565 4281546589
-0.2558667660 -0.0318890139 0.5373372436 4281743455
-0.2563096583 -0.0313461609 0.5382673740 4281743455
-0.2567523718 -0.0308012180 0.5391970873 4281743454
-0.2559067607 -0.0301026590 0.5374212265 4281611868
-0.2572077513 -0.0296555497 0.5401534438 4281611869
-0.2572203875 -0.0290568266 0.5401799679 4281743455
-0.2563738823 -0.0283629987 0.5384022593 4281875041
-0.2563859522 -0.0277661029 0.5384275913 4281875041
-0.2585451603 -0.0273966715 0.5429620743 4281612382
-0.2559798658 -0.0265275538 0.5375747681 4281743968
-0.2564206719 -0.0259749219 0.5385004878 4281875554
-0.2564316988 -0.0253777038 0.5385236740 4281941347
-0.2568720579 -0.0248219166 0.5394484401 4282072933
-0.2577417493 -0.0243045613 0.5412748456 4282204519
-0.2581816912 -0.0237436239 0.5421987176 4282270312
-0.2633470297 -0.0236041807 0.5530462861 4282270312
-0.2573423684 -0.0224655122 0.5404361486 4281941859
-0.2607890069 -0.0221578907 0.5476742983 4282073445
-0.2616577148 -0.0216211695 0.5494986176 4282007397
-0.2638152242 -0.0211838800 0.5540295839 4282204776
-0.2668493986 -0.0195595790 0.5604014993 4283191150
-0.2831054628 -0.1426299512 0.5959303379 4292205798
-0.2831640244 -0.1419971883 0.5960536003 4292074212
-0.2832223773 -0.1413640529 0.5961763859 4291876578
-0.2832804620 -0.1407305151 0.5962986946 4291810785
-0.2833383083 -0.1400965899 0.5964204669 4291810785
-0.2833959162 -0.1394622773 0.5965417027 4291810785
-0.2834532857 -0.1388275772 0.5966625214 4291810785
-0.2835104167 -0.1381924897 0.5967827439 4291876578
-0.2835673392 -0.1375570148 0.5969025493 4291876833
-0.2836239934 -0.1369211674 0.5970218182 4291745247
-0.2836804092 -0.1362849325 0.5971405506 4291811040
-0.2837365866 -0.1356483251 0.5972588062 4291811040
-0.2837925255 -0.1350113451 0.5973765254 4291876833
-0.2838481963 -0.1343739778 0.5974937677 4291942626
-0.2839036584 -0.1337362528 0.5976105332 4292008419
-0.2839588821 -0.1330981404 0.5977267027 4291942626
-0.2840138376 -0.1324596554 0.5978424549 4291876833
-0.2840685546 -0.1318207979 0.5979576111 4291876833
-0.2845439613 -0.1313759238 0.5989583135 4291941856
-0.2845982909 -0.1307353973 0.5990726948 4291941856
-0.2842312753 -0.1299020499 0.5983000994 4292007649
-0.2842850089 -0.1292617321 0.5984132886 4292073442
-0.2847597599 -0.1288115978 0.5994125605 4292008419
-0.2848131061 -0.1281696111 0.5995248556 4292074212
-0.2844447792 -0.1273386180 0.5987495780 4292205543
-0.2844975591 -0.1266968548 0.5988606215 4292271336
-0.2845500708 -0.1260547489 0.5989711881 4292863734
-0.2841807008 -0.1252264827 0.5981936455 4292403183
-0.2838109136 -0.1243997663 0.5974153280 4287797935
-0.2834407687 -0.1235746071 0.5966361165 4282731874
-0.2830701768 -0.1227510050 0.5958560705 4282271073
-0.2822772861 -0.1217469871 0.5941870213 4281942108
-0.2819058299 -0.1209274605 0.5934051275 4281678683
-0.2806898057 -0.1197493598 0.5908454061 4281283925
-0.2794730961 -0.1185766533 0.5882842541 4281284443
-0.2778334320 -0.1172311753 0.5848328471 4281284443
-0.2770375609 -0.1162474304 0.5831575394 4281284443
-0.2762411535 -0.1152671874 0.5814810991 4281284443
-0.2754442096 -0.1142904386 0.5798035860 4281284443
-0.2750692666 -0.1134915352 0.5790143013 4281284443
-0.2746939361 -0.1126942262 0.5782242417 4281284443
-0.2743181884 -0.1118985116 0.5774333477 4281350236
-0.2743648291 -0.1112758592 0.5775315166 4281350236
-0.2744112313 -0.1106528789 0.5776291490 4281284443
-0.2740344703 -0.1098600551 0.5768361092 4281218650
-0.2740803063 -0.1092374176 0.5769325495 4281152857
-0.2737028301 -0.1084468514 0.5761380196 4281152857
-0.2733249962 -0.1076578945 0.5753427148 4281152857
-0.2729467750 -0.1068705544 0.5745465755 4281152857
-0.2729914188 -0.1062495708 0.5746405125 4281284443
-0.2730358243 -0.1056282744 0.5747339725 4281284956
-0.2726565897 -0.1048438773 0.5739356875 4281284956
-0.2727003992 -0.1042229459 0.5740279555 4281284956
-0.2723204792 -0.1034408435 0.5732281804 4281284956
-0.2719401717 -0.1026603729 0.5724276304 4281284956
-0.2715594769 -0.1018815413 0.5716263056 4281284956
-0.2720258236 -0.1014202982 0.5726079345 4281284956
-0.2720682919 -0.1007998213 0.5726973414 4281284956
-0.2712628245 -0.0998669714 0.5710018277 4281350749
-0.2708807290 -0.0990927741 0.5701975822 4281219163
-0.2704982758 -0.0983202308 0.5693925023 4281284443
-0.2701154351 -0.0975493416 0.5685866475 4281350236
-0.2710045576 -0.0972366109 0.5704582334 4281218650
-0.2697728276 -0.0961637273 0.5678654313 4281152857
-0.2698131800 -0.0955470726 0.5679503679 4281152857
-0.2694289684 -0.0947808847 0.5671415925 4281087064
-0.2686200142 -0.0938680694 0.5654388070 4281087324
-0.2682350278 -0.0931061879 0.5646283627 4280560980
-0.2678496242 -0.0923459753 0.5638171434 4282796591
-0.2678884268 -0.0917328224 0.5638988018 4287994238
-0.2679269612 -0.0911193937 0.5639799833 4287071070
-0.2675406039 -0.0903622732 0.5631666780 4280491776
-0.2675786018 -0.0897492990 0.5632466078 4280164158
-0.2676163316 -0.0891360641 0.5633260608 4280229951
-0.2672289908 -0.0883820578 0.5625106692 4280099895
-0.2672661543 -0.0877692774 0.5625889897 4279968309
-0.2677280605 -0.0872948095 0.5635612607 4280164409
-0.2673397958 -0.0865429565 0.5627439618 4280164409
-0.2669511437 -0.0857928097 0.5619258881 4279771707
-0.2661370039 -0.0849087238 0.5602121353 4279771707
-0.2657475770 -0.0841629505 0.5593923926 4280099134
-0.2653577924 -0.0834188908 0.5585718751 4280099134
-0.2649676204 -0.0826765448 0.5577505827 4280099132
-0.2645771205 -0.0819359049 0.5569285750 4280099132
-0.2641862333 -0.0811969861 0.5561057925 4280230718
-0.2642204762 -0.0805895552 0.5561779141 4280296511
-0.2638289630 -0.0798530951 0.5553537011 4280296511
-0.2638626397 -0.0792461783 0.5554246306 4280362304
-0.2634704411 -0.0785121918 0.5545991063 4280362304
-0.2635036111 -0.0779057890 0.5546688437 4280362304
-0.2631107569 -0.0771742836 0.5538418889 4280296511
-0.2627175450 -0.0764445141 0.5530142188 4280296511
-0.2627498209 -0.0758393928 0.5530821681 4280362304
-0.2623559535 -0.0751121193 0.5522531271 4280362304
-0.2619617581 -0.0743865818 0.5514233112 4280362306
-0.2615672052 -0.0736627951 0.5505927801 4280296513
-0.2615983188 -0.0730597451 0.5506583452 4280296513
-0.2612031102 -0.0723384693 0.5498263836 4280296513
-0.2603814006 -0.0715019256 0.5480967164 4280297281
-0.2604116499 -0.0709011853 0.5481603742 4280231488
-0.2608678937 -0.0704152957 0.5491207838 4280165695
-0.2596187890 -0.0694709346 0.5464914441 4280165695
-0.2600745559 -0.0689846352 0.5474507809 4280231231
-0.2601037323 -0.0683840588 0.5475122333 4280297024
-0.2601327002 -0.0677832738 0.5475732088 4280297024
-0.2597348988 -0.0670721605 0.5467358828 4280231231
-0.2597633302 -0.0664719716 0.5467956662 4280033598
-0.2597914934 -0.0658715814 0.5468549132 4280165184
-0.2598193884 -0.0652709976 0.5469136834 4280362817
-0.2589936852 -0.0644578412 0.5451756120 4280428610
-0.2598744631 -0.0640692487 0.5470296144 4280297024
-0.2586213052 -0.0631554425 0.5443917513 4280165438
-0.2590748966 -0.0626602918 0.5453465581 4280165184
-0.2591014802 -0.0620607398 0.5454025269 4280230977
-0.2582739890 -0.0612584911 0.5436607003 4280230977
-0.2578730583 -0.0605602823 0.5428166986 4280296770
-0.2583257258 -0.0600624271 0.5437695384 4280296770
-0.2583512068 -0.0594641268 0.5438231826 4280230977
-0.2579493821 -0.0587683506 0.5429773331 4280296770
-0.2584014237 -0.0582669973 0.5439289212 4280296770
-0.2584261596 -0.0576681718 0.5439809561 4280165184
-0.2580234408 -0.0569748469 0.5431332588 4280165184
-0.2580476403 -0.0563766733 0.5431842208 4280296770
-0.2576443255 -0.0556859821 0.5423352122 4280230977
-0.2580952644 -0.0551798232 0.5432844758 4280165184
-0.2581187189 -0.0545811504 0.5433338284 4280099391
-0.2581419051 -0.0539823174 0.5433826447 4280033598
-0.2581648231 -0.0533833243 0.5434309244 4280099391
-0.2573325932 -0.0526093878 0.5416790247 4280230977
-0.2573549449 -0.0520120598 0.5417261124 4280230977
-0.2565219700 -0.0512437671 0.5399727225 4280231491
-0.2561161816 -0.0505637079 0.5391185284 4280297284
-0.2561376989 -0.0499689020 0.5391637683 4280231491
-0.2561589181 -0.0493739471 0.5392085314 4280231491
-0.2561799288 -0.0487788431 0.5392526984 4280428357
-0.2557729483 -0.0481031574 0.5383960009 4280362564
-0.2562211454 -0.0475882031 0.5393394828 4280362566
-0.2558135986 -0.0469142199 0.5384815931 4280428359
-0.2558335662 -0.0463195406 0.5385236144 4280559945
-0.2558532655 -0.0457247235 0.5385650992 4280559945
-0.2558727264 -0.0451297686 0.5386060476 4280428359
-0.2554639876 -0.0444602072 0.5377457142 4280625738
-0.2554829121 -0.0438659824 0.5377855301 4280757324
-0.2555015683 -0.0432716236 0.5378248096 4280494152
-0.2555199862 -0.0426771380 0.5378635526 4280625738
-0.2555381358 -0.0420825221 0.5379017591 4281152082
-0.2551279962 -0.0414182879 0.5370383859 4280757324
-0.2551456094 -0.0408244208 0.5370755196 4280691531
-0.2547348440 -0.0401629284 0.5362108946 4281086289
-0.2551800907 -0.0396363214 0.5371481180 4280823117
-0.2551969588 -0.0390420891 0.5371835828 4280559691
-0.2543571591 -0.0383187234 0.5354158282 4280888656
-0.2543734610 -0.0377262570 0.5354501605 4280822863
-0.2543895245 -0.0371336788 0.5354839563 4280691277
-0.2539770305 -0.0364794694 0.5346156955 4280625484
-0.2539925575 -0.0358876660 0.5346483588 4280691277
-0.2540078163 -0.0352957584 0.5346804857 4280888658
-0.2540228367 -0.0347037390 0.5347121358 4281086037
-0.2540376186 -0.0341116190 0.5347431898 4281217623
-0.2540521324 -0.0335193984 0.5347737670 4281086037
-0.2536379397 -0.0328715481 0.5339019299 4281086550
-0.2549373507 -0.0324437059 0.5366370678 4281218136
-0.2553796172 -0.0319027156 0.5375680923 4281348697
-0.2545361817 -0.0312020462 0.5357926488 4281480283
-0.2549779713 -0.0306598675 0.5367226601 4281611869
-0.2545624673 -0.0300145373 0.5358480215 4281611869
-0.2545752227 -0.0294206478 0.5358748436 4281546076
-0.2550163567 -0.0288751982 0.5368034244 4281677662
-0.2541713715 -0.0281850733 0.5350247622 4281809248
-0.2541833818 -0.0275919233 0.5350499749 4281875041
-0.2559097409 -0.0271808058 0.5386839509 4281678174
-0.2537778914 -0.0263608471 0.5341964960 4281743967
-0.2550751865 -0.0258990377 0.5369272828 4281809760
-0.2538000345 -0.0251759849 0.5342431068 4281875553
-0.2542394698 -0.0246249642 0.5351681113 4281875553
-0.2546786964 -0.0240718666 0.5360926390 4281941346
-0.2559752166 -0.0235957447 0.5388218164 4282007139
-0.2589867413 -0.0232676324 0.5451609492 4282007139
-0.2594254017 -0.0227003042 0.5460844040 4281876066
-0.2577197850 -0.0219483078 0.5424940586 4281810273
-0.2581579089 -0.0213818476 0.5434163213 4281481055
-0.2590246797 -0.0208478346 0.5452408195 4281744227
-0.2633221447 -0.0205778684 0.5542868972 4282138476
-0.2650463879 -0.0200927276 0.5579164028 4282335855
-0.2594793141 -0.0190638322 0.5461978316 4282072679
-0.2620607913 -0.0186405908 0.5516318083 4282401644
-0.2814778686 -0.1401627064 0.5938927531 4292206058
-0.2815354168 -0.1395313591 0.5940141678 4292140265
-0.2815926969 -0.1388996243 0.5941350460 4292074472
-0.2820688784 -0.1384732574 0.5951397419 4292073957
-0.2821257710 -0.1378398240 0.5952597857 4292008164
-0.2821824551 -0.1372060031 0.5953793526 4291876578
-0.2822388709 -0.1365717947 0.5954984426 4291679199
-0.2822950780 -0.1359372139 0.5956169963 4291613406
-0.2823510170 -0.1353022456 0.5957350135 4291547613
-0.2824067175 -0.1346669048 0.5958525538 4291613661
-0.2824621797 -0.1340311915 0.5959696174 4291679454
-0.2825174332 -0.1333951056 0.5960860848 4291876063
-0.2825724185 -0.1327586472 0.5962021351 4291876063
-0.2826271355 -0.1321218163 0.5963176489 4291941856
-0.2826816440 -0.1314846128 0.5964326262 4291876063
-0.2831560373 -0.1310414672 0.5974335074 4291941344
-0.2832101285 -0.1304025799 0.5975476503 4291875551
-0.2832639813 -0.1297633350 0.5976612568 4291744477
-0.2833175659 -0.1291237324 0.5977743864 4291678684
-0.2829505205 -0.1282931268 0.5969998837 4291547098
-0.2830035388 -0.1276537329 0.5971118212 4291481305
-0.2830563486 -0.1270139962 0.5972232223 4291350234
-0.2831088901 -0.1263738871 0.5973340869 4291416027
-0.2831611931 -0.1257334352 0.5974444151 4291876839
-0.2827924192 -0.1249067485 0.5966663361 4292140011
-0.2824232578 -0.1240816191 0.5958874226 4290034638
-0.2820536792 -0.1232580468 0.5951076746 4283915889
-0.2821047902 -0.1226190403 0.5952154994 4281744981
-0.2817344964 -0.1217976287 0.5944342017 4282008153
-0.2809425890 -0.1207966805 0.5927633643 4281810523
-0.2801501453 -0.1197992116 0.5910913944 4281086800
-0.2793571651 -0.1188052297 0.5894182920 4281218650
-0.2781422138 -0.1176364869 0.5868548155 4281284443
-0.2769265473 -0.1164731607 0.5842899084 4281284443
-0.2761317790 -0.1154915616 0.5826129913 4281284443
-0.2753365040 -0.1145134717 0.5809350014 4281218650
-0.2749623656 -0.1137132868 0.5801456571 4281218650
-0.2745878696 -0.1129147038 0.5793554783 4281152857
-0.2742129862 -0.1121177152 0.5785644650 4281152857
-0.2742596269 -0.1114938557 0.5786629319 4281218904
-0.2738840282 -0.1106991097 0.5778704286 4281218904
-0.2739301324 -0.1100755706 0.5779677033 4281153111
-0.2735538185 -0.1092830822 0.5771737099 4281153111
-0.2731771171 -0.1084921956 0.5763789415 4281153111
-0.2728000581 -0.1077029258 0.5755833387 4281153111
-0.2728449702 -0.1070810333 0.5756781101 4281153111
-0.2724671960 -0.1062940434 0.5748810172 4281153111
-0.2725115418 -0.1056725010 0.5749745965 4281219163
-0.2721330523 -0.1048877910 0.5741760731 4281219163
-0.2721768320 -0.1042666137 0.5742684603 4281284956
-0.2717976868 -0.1034841985 0.5734684467 4281284956
-0.2714181244 -0.1027034149 0.5726675987 4281350749
