VERSION 0.7
FIELDS x y z rgba
SIZE 4 4 4 4
TYPE F F F U
COUNT 1 1 1 1
WIDTH 920
HEIGHT 1
VIEWPOINT 0.0 0.0 0.0 1.0 0.0 0.0 0.0
POINTS 920
DATA ascii
-0.3005103171 -0.1555846632 0.5898194313 4280495957
-0.3005764484 -0.1549634337 0.5899492502 4280430164
-0.3006423712 -0.1543417871 0.5900786519 4280364624
-0.3007080257 -0.1537197381 0.5902075171 4280233038
-0.3003311455 -0.1528721452 0.5894678235 4280167245
-0.3003962636 -0.1522502005 0.5895956159 4280233038
-0.3009036183 -0.1518511623 0.5905914307 4280299089
-0.3014109433 -0.1514498889 0.5915871859 4280364882
-0.3014755249 -0.1508248895 0.5917139053 4280232017
-0.3015398681 -0.1501995027 0.5918402076 4280495189
-0.3016039729 -0.1495737135 0.5919659734 4280560980
-0.3016678393 -0.1489475369 0.5920913219 4280495187
-0.3017314374 -0.1483209431 0.5922161937 4280364371
-0.3017948270 -0.1476939768 0.5923405886 4280561750
-0.3018579483 -0.1470665932 0.5924645066 4280890719
-0.3019208312 -0.1464388371 0.5925879478 4281022305
-0.3024269342 -0.1460247785 0.5935812593 4281153897
-0.3029329777 -0.1456084996 0.5945744514 4281746034
-0.3034389317 -0.1451899856 0.5955675244 4281943417
-0.3039448261 -0.1447692215 0.5965604782 4282272382
-0.3053382933 -0.1447670758 0.5992954373 4282338175
-0.3071759343 -0.1449684650 0.6029022336 4282140796
-0.3094580173 -0.1453706324 0.6073813438 4282338432
-0.3117407560 -0.1457631439 0.6118617654 4285759668
-0.3144682944 -0.1463527083 0.6172151566 4286285216
-0.3176409006 -0.1471365541 0.6234421134 4284706184
-0.3203701675 -0.1477021426 0.6287989020 4287930041
-0.3235446215 -0.1484601200 0.6350294948 4289377487
-0.3240238130 -0.1787471920 0.6373593807 4289640129
-0.3240991831 -0.1780804694 0.6375076771 4288718775
-0.3246141970 -0.1776539981 0.6385207176 4287600294
-0.3246891797 -0.1769854277 0.6386682391 4285955472
-0.3243238628 -0.1760775000 0.6379496455 4284310647
-0.3239580989 -0.1751709133 0.6372301579 4281810513
-0.3222711086 -0.1735543907 0.6339118481 4280823618
-0.3201426864 -0.1717084944 0.6297252178 4281022036
-0.3149298131 -0.1682242900 0.6194713712 4280824657
-0.3088331521 -0.1642927229 0.6074792147 4280823893
-0.3049367964 -0.1615535021 0.5998150110 4281021272
-0.3032422066 -0.1599929929 0.5964816809 4280495191
-0.3024283051 -0.1589026153 0.5948807597 4280692570
-0.3011727929 -0.1575847417 0.5924111605 4280495961
-0.3003575504 -0.1565017253 0.5908075571 4280298582
-0.2999828160 -0.1556508690 0.5900704265 4280364371
-0.3000488877 -0.1550294012 0.5902004242 4280364371
-0.3001147509 -0.1544075310 0.5903299451 4280298831
-0.3001803756 -0.1537852436 0.5904589891 4280233038
-0.2998042107 -0.1529373080 0.5897191167 4280101452
-0.2998692393 -0.1523151249 0.5898470283 4280035659
-0.3003757894 -0.1519159526 0.5908434391 4280167503
-0.3008822799 -0.1515145302 0.5918396711 4280299089
-0.3013887107 -0.1511108726 0.5928358436 4280363603
-0.3014530838 -0.1504843235 0.5929625034 4280363603
-0.3015172184 -0.1498573720 0.5930886269 4280298578
-0.3015811145 -0.1492300332 0.5932143331 4280495957
-0.3016447723 -0.1486022919 0.5933395028 4280495957
-0.3017081916 -0.1479741484 0.5934642553 4280627543
-0.3017713428 -0.1473456025 0.5935885310 4280890719
-0.3018342853 -0.1467166692 0.5937122703 4280693340
-0.3018969595 -0.1460873485 0.5938355923 4280824419
-0.3024021685 -0.1456709206 0.5948293209 4281350763
-0.3029072881 -0.1452522427 0.5958229303 4281877624
-0.3034123480 -0.1448313296 0.5968164206 4282272382
-0.3048034310 -0.1448291987 0.5995526314 4282601092
-0.3057516515 -0.1446115375 0.6014178395 4282272127
-0.3080296218 -0.1450157613 0.6058986783 4282403713
-0.3107515574 -0.1456180513 0.6112526655 4284048538
-0.3130308986 -0.1460020244 0.6157361865 4284443010
-0.3161978126 -0.1467880756 0.6219655871 4286745765
-0.3189221621 -0.1473557949 0.6273244023 4288719555
-0.3225746155 -0.1783373803 0.6358981133 4290034378
-0.3230887055 -0.1779139340 0.6369115114 4288916157
-0.3231636882 -0.1772474051 0.6370593309 4287402918
-0.3227992356 -0.1763404906 0.6363408566 4285100940
-0.3224343061 -0.1754349172 0.6356214881 4282469220
-0.3216295838 -0.1742926091 0.6340351105 4280496459
-0.3199452162 -0.1726790667 0.6307146549 4280628045
-0.3165014684 -0.1701271981 0.6239259243 4280825433
-0.3117367923 -0.1668832898 0.6145332456 4280693847
-0.3069697022 -0.1636589617 0.6051357985 4280628569
-0.3039597273 -0.1613884568 0.5992021561 4280562776
-0.3022680879 -0.1598282158 0.5958673954 4280496470
-0.3014555871 -0.1587383151 0.5942656398 4280430677
-0.3006424308 -0.1576516479 0.5926626921 4280562004
-0.2998286784 -0.1565682143 0.5910584927 4280430418
-0.2998950183 -0.1559460163 0.5911893249 4280101453
-0.2995206714 -0.1550953090 0.5904513597 4280035660
-0.2995864749 -0.1544732004 0.5905810595 4279969613
-0.2996520102 -0.1538506895 0.5907102823 4279969613
-0.2997173369 -0.1532277614 0.5908390284 4280101199
-0.2997824252 -0.1526044160 0.5909673572 4279903820
-0.3002882004 -0.1522041857 0.5919644237 4280034636
-0.3003529012 -0.1515791118 0.5920919776 4280297808
-0.3008585274 -0.1511753201 0.5930886865 4280495441
-0.3009228408 -0.1505485326 0.5932154655 4280561234
-0.3009869158 -0.1499213427 0.5933417678 4280561750
-0.3010507524 -0.1492937505 0.5934676528 4280627543
-0.3011143506 -0.1486657709 0.5935930014 4280759129
-0.3011777103 -0.1480373889 0.5937178731 4280824922
-0.3012408018 -0.1474086046 0.5938423276 4280759131
-0.3013036847 -0.1467794329 0.5939662457 4280693338
-0.3013662994 -0.1461498588 0.5940896869 4280693086
-0.3018706739 -0.1457332820 0.5950839520 4281153637
-0.3019329011 -0.1451019943 0.5952066183 4281548657
-0.3024370372 -0.1446818560 0.5962004662 4282206587
-0.3033833802 -0.1444700807 0.5980659723 4282469761
-0.3047721684 -0.1444638819 0.6008037329 4282601347
-0.3066036701 -0.1446604729 0.6044142246 4282535037
-0.3088781536 -0.1450570822 0.6088979840 4283127174
-0.3115958869 -0.1456509233 0.6142554879 4285693079
-0.3143144250 -0.1462332308 0.6196146011 4287666869
-0.3170337975 -0.1468040049 0.6249753237 4289772497
-0.3211278319 -0.1779270768 0.6344350576 4289771206
-0.3212026656 -0.1772634685 0.6345829368 4288850110
-0.3212772608 -0.1765994132 0.6347303391 4286744734
-0.3209131956 -0.1756948680 0.6340110898 4283850873
-0.3201102018 -0.1745525599 0.6324245930 4281548118
-0.3188679218 -0.1731752157 0.6299703121 4280627276
-0.3171860874 -0.1715655774 0.6266475916 4280561483
-0.3128703833 -0.1685444266 0.6181212664 4280825175
-0.3081135154 -0.1653055549 0.6087234020 4280759382
-0.3046712279 -0.1627899557 0.6019226313 4280693847
-0.3025444448 -0.1609894782 0.5977208614 4280628054
-0.3017340600 -0.1598959267 0.5961198211 4280496468
-0.3009230196 -0.1588055938 0.5945175290 4280496468
-0.3001113832 -0.1577184945 0.5929140449 4280562004
-0.2992991209 -0.1566346288 0.5913092494 4280496211
-0.2993654013 -0.1560121924 0.5914402604 4280429648
-0.2994314730 -0.1553893387 0.5915707350 4280232269
-0.2990575135 -0.1545388252 0.5908319354 4279969613
-0.2991229892 -0.1539160609 0.5909613371 4279772234
-0.2991882563 -0.1532928944 0.5910902619 4279968843
-0.2996933460 -0.1528938413 0.5920881629 4279968843
-0.3001984060 -0.1524925381 0.5930859447 4280166222
-0.3002631366 -0.1518663168 0.5932138562 4280232015
-0.3007680178 -0.1514614671 0.5942112803 4280429647
-0.3008323610 -0.1508335173 0.5943384171 4280561233
-0.3008964658 -0.1502051651 0.5944650769 4280561750
-0.3009603322 -0.1495764107 0.5945912600 4280627543
-0.3010239601 -0.1489472687 0.5947169662 4280693338
-0.3010873497 -0.1483177245 0.5948421955 4280759131
-0.3007095754 -0.1474715471 0.5940958858 4280824924
-0.3007723987 -0.1468421221 0.5942199826 4280824924
-0.3008349836 -0.1462123096 0.5943435431 4280758879
-0.3013384938 -0.1457955837 0.5953383446 4281087844
-0.3014006615 -0.1451640576 0.5954611897 4281417071
-0.3019039929 -0.1447437704 0.5964555740 4282009208
-0.3028486967 -0.1445319206 0.5983219743 4282601347
-0.3037935197 -0.1443159729 0.6001886129 4282667140
-0.3056217730 -0.1445136070 0.6038005948 4282732418
-0.3078922033 -0.1449113488 0.6082862020 4283390348
-0.3101632893 -0.1452994049 0.6127730608 4287469488
-0.3128769398 -0.1458838433 0.6181342602 4289311692
-0.3196834326 -0.1775162965 0.6329703331 4289968331
-0.3197579980 -0.1768542528 0.6331179738 4288784317
-0.3193947673 -0.1759507358 0.6323988438 4285889425
-0.3190311193 -0.1750485599 0.6316788197 4283389554
-0.3182292879 -0.1739085317 0.6300911903 4281481557
-0.3169890046 -0.1725333631 0.6276354194 4280824655
-0.3148719668 -0.1706884056 0.6234437227 4280627276
-0.3105635643 -0.1676696539 0.6149131060 4280759383
-0.3062529266 -0.1646686643 0.6063780785 4280825176
-0.3036929667 -0.1626241058 0.6013094187 4280759383
-0.3020082414 -0.1610575616 0.5979736447 4280627797
-0.3007609248 -0.1597307324 0.5955039859 4280562004
-0.3003898263 -0.1588728130 0.5947691798 4280562004
-0.2995796502 -0.1577852815 0.5931650996 4280627027
-0.2992075980 -0.1569311023 0.5924284458 4280627027
-0.2988351285 -0.1560783237 0.5916908979 4280429394
-0.2989011109 -0.1554552317 0.5918216109 4280232015
-0.2989668846 -0.1548317373 0.5919517875 4280297808
-0.2985933125 -0.1539813876 0.5912120938 4280034636
-0.2986584902 -0.1533579826 0.5913411975 4280166222
-0.2991627753 -0.1529587805 0.5923396349 4280232015
-0.2992275953 -0.1523336470 0.5924679637 4280429394
-0.2997316420 -0.1519308835 0.5934660435 4280166222
-0.3002356887 -0.1515258849 0.5944640040 4280561233
-0.3002999723 -0.1508976966 0.5945913196 4280627026
-0.3003640175 -0.1502691060 0.5947180986 4280561750
-0.3004278243 -0.1496401131 0.5948444605 4280627543
-0.3004914224 -0.1490107328 0.5949703455 4280759131
-0.3005547523 -0.1483809352 0.5950957537 4280824924
-0.3001776934 -0.1475344300 0.5943492055 4280890719
-0.3002404571 -0.1469047666 0.5944734216 4280890719
-0.3003029525 -0.1462747157 0.5945972204 4280758879
-0.3003652394 -0.1456442624 0.5947204828 4280890465
-0.3008677661 -0.1452260613 0.5957155228 4281219177
-0.3013702333 -0.1448056102 0.5967103839 4281811314
-0.3018726408 -0.1443829238 0.5977051854 4282666625
-0.3028157651 -0.1441678405 0.5995725393 4282732418
-0.3046407402 -0.1443665177 0.6031860113 4282798211
-0.3064661920 -0.1445573717 0.6068003178 4283324555
-0.3091741800 -0.1451545507 0.6121621132 4288390844
-0.3178048730 -0.1768620908 0.6306376457 4290099917
-0.3178790510 -0.1762025356 0.6307848692 4288126387
-0.3175162375 -0.1753013730 0.6300649643 4284507772
-0.3171530068 -0.1744015813 0.6293441653 4283257966
-0.3163523674 -0.1732638329 0.6277554035 4281547348
-0.3146769702 -0.1716524363 0.6244308352 4280693069
-0.3121262193 -0.1695728749 0.6193692684 4280627276
-0.3086995482 -0.1670306176 0.6125695109 4280824406
-0.3048336804 -0.1642667949 0.6048982143 4280890199
-0.3009657562 -0.1615189314 0.5972229242 4280759383
-0.3023464382 -0.1615932882 0.5999627113 4280627797
-0.3002263010 -0.1597982198 0.5957555771 4280692566
-0.2994181812 -0.1587079465 0.5941519737 4280692566
-0.2990472615 -0.1578520089 0.5934159160 4280627027
-0.2986759245 -0.1569974869 0.5926790833 4280495441
-0.2987422049 -0.1563736647 0.5928105712 4280429394
-0.2988082170 -0.1557494402 0.5929416418 4280297808
-0.2984358072 -0.1548973322 0.5922026038 4280363601
-0.2985012531 -0.1542731822 0.5923324823 4280232015
-0.2985664904 -0.1536486298 0.5924619436 4280560980
-0.2986314893 -0.1530236751 0.5925909281 4280824152
-0.2986962497 -0.1523983032 0.5927194357 4280889945
-0.2991994917 -0.1519953907 0.5937179923 4280626773
-0.2992638648 -0.1513682902 0.5938457251 4280627026
-0.2993279994 -0.1507407874 0.5939730406 4280692819
-0.2993918955 -0.1501128823 0.5940998197 4280627797
-0.2998946607 -0.1497037560 0.5950974822 4280693590
-0.2999581695 -0.1490741223 0.5952234864 4280759131
-0.3000214398 -0.1484441012 0.5953490734 4280824924
-0.3000844717 -0.1478136629 0.5954741240 4280824924
-0.2997078001 -0.1469673514 0.5947266817 4280824924
-0.2997702658 -0.1463370472 0.5948505998 4280759133
-0.2998324633 -0.1457063705 0.5949740410 4280759133
-0.3003341556 -0.1452880055 0.5959696174 4281153637
-0.3008357882 -0.1448674053 0.5969650149 4281614188
-0.3013373613 -0.1444445550 0.5979603529 4282601084
-0.3022788763 -0.1442294121 0.5998286009 4282864256
-0.3036605716 -0.1442191750 0.6025704145 4282929795
-0.3059229255 -0.1446191519 0.6070597172 4283258760
-0.3081859052 -0.1450094581 0.6115502715 4288456637
-0.3159302473 -0.1762071997 0.6283025742 4290099917
-0.3160040677 -0.1755501181 0.6284493208 4287863215
-0.3156416714 -0.1746513546 0.6277286410 4284047221
-0.3148427606 -0.1735136062 0.6261398196 4283061357
-0.3140431941 -0.1723790467 0.6245496869 4281482325
-0.3123704493 -0.1707706451 0.6212230325 4280692556
-0.3098239303 -0.1686938852 0.6161586642 4280626763
-0.3068394959 -0.1663908958 0.6102234125 4280759129
-0.3038534224 -0.1641002297 0.6042848825 4280759129
-0.3008657098 -0.1618218720 0.5983431339 4280889945
-0.3018073142 -0.1616614461 0.6002157331 4280824152
-0.2992541492 -0.1596326083 0.5951381326 4280758359
-0.2993213534 -0.1590070575 0.5952717662 4280692566
-0.2989512384 -0.1581498832 0.5945357680 4280626773
-0.2985807359 -0.1572941244 0.5937988758 4280429394
-0.2982097864 -0.1564397663 0.5930611491 4280495441
-0.2978383899 -0.1555868238 0.5923225880 4280166476
-0.2979040444 -0.1549628675 0.5924531221 4280100683
-0.2979694307 -0.1543384790 0.5925831795 4280363855
-0.2980346084 -0.1537136883 0.5927128196 4280890199
-0.2980995476 -0.1530884951 0.5928419232 4281087578
-0.2981642485 -0.1524628848 0.5929706097 4280824406
-0.2986666262 -0.1520598382 0.5939697623 4280692820
-0.2987309694 -0.1514324993 0.5940976739 4280692819
-0.2987950444 -0.1508047581 0.5942251086 4280692819
-0.2988588810 -0.1501766145 0.5943520665 4280824406
-0.2989224792 -0.1495480537 0.5944785476 4280890199
-0.2989858389 -0.1489191055 0.5946045518 4280955738
-0.2994874418 -0.1485071927 0.5956020951 4280955738
-0.2995504141 -0.1478765309 0.5957273245 4280824924
-0.2991744876 -0.1470298767 0.5949797034 4280824924
-0.2992368937 -0.1463993341 0.5951038003 4280956510
-0.2992990315 -0.1457684040 0.5952274203 4280890717
-0.2997998893 -0.1453498900 0.5962234735 4281219682
-0.3003006876 -0.1449291408 0.5972194076 4281614440
-0.3016796708 -0.1449280530 0.5999618769 4282469751
-0.3021805286 -0.1445009559 0.6009579301 4283061888
-0.3035598993 -0.1444898099 0.6037011743 4283127427
-0.3053789735 -0.1446808875 0.6073188186 4283587978
-0.3071984947 -0.1448641419 0.6109373569 4289114567
-0.3144946098 -0.1757947803 0.6268320084 4290100171
-0.3141330481 -0.1748970300 0.6261113882 4288389559
-0.3137710690 -0.1740006357 0.6253898740 4284836737
-0.3129733503 -0.1728651822 0.6237999201 4283258736
-0.3121749759 -0.1717329025 0.6222086549 4281548118
-0.3105050027 -0.1701265872 0.6188800931 4280956241
-0.3083983660 -0.1682894081 0.6146813035 4280693069
-0.3054191172 -0.1659873128 0.6087432504 4280759131
-0.3028740585 -0.1639334112 0.6036705375 4280759131
-0.3011993170 -0.1623599231 0.6003326178 4280889945
-0.2999595404 -0.1610273719 0.5978615880 4280889945
-0.2987189591 -0.1596998721 0.5953888893 4280824152
-0.2987861037 -0.1590740979 0.5955227017 4280758359
-0.2984167337 -0.1582165807 0.5947864652 4280692820
-0.2980469167 -0.1573604941 0.5940493941 4280561234
-0.2981131673 -0.1567352861 0.5941814780 4280561233
-0.2977426052 -0.1558810920 0.5934428573 4280232268
-0.2978082597 -0.1552559882 0.5935737491 4280890452
-0.2978737056 -0.1546304524 0.5937042236 4282272105
-0.2979389131 -0.1540044993 0.5938341618 4282995828
-0.2975669205 -0.1531532556 0.5930927396 4282798449
-0.2976315618 -0.1525274217 0.5932215452 4281153624
-0.2976959646 -0.1519011706 0.5933499336 4280956245
-0.2981973588 -0.1514966488 0.5943493247 4280692820
-0.2982614040 -0.1508686692 0.5944768786 4280758613
-0.2978877425 -0.1500199884 0.5937321782 4280890199
-0.2983887196 -0.1496114880 0.5947306752 4280955992
-0.2984520197 -0.1489823014 0.5948568583 4280955992
-0.2985150814 -0.1483527124 0.5949825644 4280890199
-0.2990157008 -0.1479393244 0.5959803462 4280824922
-0.2990783751 -0.1473080218 0.5961052775 4280824922
-0.2991408110 -0.1466763169 0.5962296724 4280890715
-0.2992029786 -0.1460442096 0.5963536501 4280890715
-0.3001412451 -0.1458375305 0.5982237458 4281153887
-0.3006413877 -0.1454147547 0.5992205739 4281548645
-0.3011414707 -0.1449897587 0.6002172828 4282403954
-0.3020798862 -0.1447726190 0.6020877361 4283193470
-0.3034569621 -0.1447605640 0.6048324108 4283193472
-0.3048343360 -0.1447425485 0.6075776815 4284443539
-0.3126271665 -0.1751386374 0.6244923472 4289902538
-0.3127003312 -0.1744856089 0.6246384978 4288587451
-0.3123388588 -0.1735906899 0.6239164472 4285560973
-0.3119769394 -0.1726971269 0.6231934428 4283587703
-0.3107453585 -0.1713256985 0.6207333207 4281613913
-0.3095129132 -0.1699592769 0.6182714701 4280956241
-0.3074100316 -0.1681222618 0.6140708327 4280627276
-0.3048710227 -0.1660570353 0.6089989543 4280824924
-0.3023305535 -0.1640022993 0.6039242148 4280824924
-0.3010939956 -0.1626632512 0.6014541388 4280889945
-0.2998566031 -0.1613292545 0.5989823937 4280889945
-0.2986184061 -0.1600003093 0.5965089798 4280890199
-0.2986855805 -0.1593733877 0.5966431499 4280824406
-0.2983170152 -0.1585146338 0.5959069133 4280758612
-0.2983836234 -0.1578877717 0.5960400105 4280824405
-0.2980143130 -0.1570309252 0.5953022242 4280956245
-0.2980803549 -0.1564041674 0.5954341888 4280956245
-0.2981461585 -0.1557769775 0.5955656171 4283061104
-0.2977757454 -0.1549225450 0.5948256850 4286416547
-0.2978409827 -0.1542954445 0.5949560404 4287206318
-0.2979059815 -0.1536679417 0.5950858593 4286153630
-0.2975344658 -0.1528159529 0.5943437815 4282666601
-0.2975989282 -0.1521885395 0.5944724679 4281679706
-0.2976631224 -0.1515607238 0.5946007371 4280889947
-0.2977270782 -0.1509325057 0.5947284698 4280889947
-0.2977907956 -0.1503038853 0.5948557854 4280955992
-0.2982909977 -0.1498943269 0.5958549976 4281021785
-0.2983543575 -0.1492639780 0.5959814787 4281021785
-0.2984174490 -0.1486332119 0.5961075425 4280955992
-0.2989172935 -0.1482187659 0.5971060395 4280824922
-0.2989799976 -0.1475862861 0.5972313285 4280824922
-0.2990424633 -0.1469534189 0.5973560810 4280824922
-0.2991046906 -0.1463201493 0.5974803567 4280890715
-0.2996040583 -0.1458994746 0.5984778404 4281153371
-0.3001033366 -0.1454765648 0.5994752049 4281745508
-0.3010401130 -0.1452625245 0.6013464928 4282600817
-0.3015393913 -0.1448341906 0.6023437977 4283456126
-0.3029140234 -0.1448221654 0.6050897837 4283259263
-0.3042889833 -0.1448041648 0.6078363061 4285759397
-0.3116305470 -0.1749685109 0.6238857508 4289968331
-0.3112700284 -0.1740737110 0.6231639385 4288521660
-0.3109090626 -0.1731802672 0.6224412918 4285889940
-0.3105476499 -0.1722881794 0.6217177510 4284114047
-0.3097519577 -0.1711577475 0.6201247573 4282008671
-0.3080877960 -0.1695528775 0.6167930961 4280956243
-0.3064225912 -0.1679548472 0.6134593487 4280758864
-0.3043222129 -0.1661266834 0.6092544198 4280824924
-0.3017863929 -0.1640711129 0.6041776538 4280824924
-0.3005520999 -0.1627315432 0.6017066240 4280824152
-0.2997514307 -0.1616312563 0.6001036763 4280824152
-0.2985155880 -0.1603008658 0.5976295471 4280890198
-0.2981481850 -0.1594403833 0.5968939662 4280824405
-0.2982150614 -0.1588128060 0.5970278382 4280824659
-0.2978468835 -0.1579542160 0.5962907672 4281022038
-0.2979131937 -0.1573267132 0.5964235067 4281745246
-0.2979792655 -0.1566987932 0.5965558290 4281942625
-0.2980451286 -0.1560704410 0.5966876149 4285034377
-0.2976755202 -0.1552147716 0.5959476829 4289508301
-0.2977407873 -0.1545865238 0.5960783958 4290100692
-0.2978058159 -0.1539578587 0.5962085724 4288324281
-0.2974351346 -0.1531046182 0.5954664946 4283324013
-0.2970640361 -0.1522528082 0.5947235227 4281613395
-0.2971281707 -0.1516247541 0.5948519111 4281087328
-0.2971920669 -0.1509962976 0.5949798226 4281021535
-0.2972557247 -0.1503674388 0.5951072574 4281021531
-0.2977550924 -0.1499577314 0.5961070061 4281021531
-0.2973823249 -0.1491084993 0.5953607559 4281087578
-0.2978814244 -0.1486961395 0.5963599086 4281021785
-0.2979442179 -0.1480647475 0.5964856148 4280824922
-0.2984430790 -0.1476488113 0.5974843502 4280759129
-0.2985054851 -0.1470157057 0.5976092815 4280956510
-0.2985676527 -0.1463821977 0.5977337360 4281022303
-0.2990661561 -0.1459613740 0.5987317562 4281153371
-0.2995646000 -0.1455383003 0.5997296572 4281877094
-0.3004997671 -0.1453242004 0.6016018391 4282798196
-0.3014350235 -0.1451060027 0.6034742594 4283653505
-0.3023703992 -0.1448837072 0.6053468585 4283522689
-0.3037429452 -0.1448657215 0.6080946922 4287009718
-0.3101291955 -0.1752049923 0.6222636700 4290166221
-0.3102021515 -0.1745546609 0.6224100590 4289639877
-0.3098421395 -0.1736613363 0.6216877103 4288587192
-0.3094816804 -0.1727693677 0.6209644675 4286679195
-0.3086878359 -0.1716380268 0.6193715930 4284902532
-0.3078933656 -0.1705098897 0.6177775264 4282665570
-0.3070982397 -0.1693849266 0.6161821485 4281415251
-0.3054359853 -0.1677871794 0.6128469110 4281020493
-0.3033393621 -0.1659591794 0.6086400747 4280955742
-0.3016749620 -0.1643760353 0.6053005457 4280692570
-0.2991424501 -0.1623292416 0.6002191305 4280626773
-0.3005112708 -0.1624020934 0.6029655933 4280824152
-0.2984105647 -0.1606015712 0.5987505913 4280758613
-0.2984777987 -0.1599723548 0.5988855362 4280495441
-0.2981108725 -0.1591111124 0.5981492996 4280824657
-0.2977434993 -0.1582512707 0.5974122286 4281548380
-0.2978098691 -0.1576226205 0.5975453258 4282534245
-0.2974417508 -0.1567646861 0.5968067050 4282468452
-0.2975075245 -0.1561361104 0.5969386697 4286679456
-0.2975730598 -0.1555071175 0.5970702171 4290232278
-0.2976383567 -0.1548777223 0.5972012281 4290100438
-0.2972688377 -0.1540227234 0.5964597464 4286876581
-0.2968988717 -0.1531691402 0.5957174301 4282863211
-0.2969632745 -0.1525403410 0.5958466530 4281547351
-0.2965925634 -0.1516887099 0.5951028466 4281153637
-0.2966564000 -0.1510600150 0.5952309370 4280956258
-0.2967199981 -0.1504309177 0.5953585505 4281087324
-0.2967833579 -0.1498014182 0.5954856873 4281087324
-0.2968464792 -0.1491715014 0.5956123471 4281153371
-0.2973447144 -0.1487590075 0.5966119766 4281219164
-0.2974074483 -0.1481273621 0.5967378616 4281088094
-0.2974699438 -0.1474953443 0.5968632698 4280956508
-0.2979678214 -0.1470779330 0.5978622437 4280298582
-0.2980298996 -0.1464441866 0.5979868770 4280759133
-0.2985275686 -0.1460231990 0.5989853740 4280758361
-0.2990251780 -0.1455999762 0.5999838114 4282008428
-0.2999587059 -0.1453858167 0.6018568873 4282864242
-0.3008923531 -0.1451675594 0.6037302017 4283851137
-0.3022622466 -0.1451546401 0.6064789295 4283720316
-0.3031961918 -0.1449272186 0.6083528399 4288654791
-0.3087035120 -0.1747890711 0.6207865477 4290232014
-0.3083443642 -0.1738967746 0.6200642586 4289508291
-0.3084166944 -0.1732484847 0.6202097535 4288455606
-0.3080567420 -0.1723579913 0.6194859147 4286810781
-0.3068320453 -0.1709872037 0.6170230508 4285034118
-0.3077677786 -0.1708210260 0.6189048290 4282994535
-0.3061095476 -0.1692167073 0.6155701876 4281481044
-0.3048827350 -0.1678573191 0.6131030917 4281020493
-0.3032225370 -0.1662657857 0.6097645164 4280824154
-0.3015612960 -0.1646810919 0.6064238548 4280758361
-0.2990335226 -0.1626325697 0.6013406515 4280758613
-0.2999671698 -0.1624701172 0.6032181978 4280758613
-0.2983032465 -0.1609023958 0.5998721123 4280758866
-0.2979374826 -0.1600394100 0.5991365910 4280758866
-0.2975712717 -0.1591778398 0.5984001756 4281218900
-0.2976378798 -0.1585484594 0.5985341072 4282008416
-0.2972709239 -0.1576887816 0.5977961421 4282731624
-0.2973369658 -0.1570594758 0.5979289412 4283915898
-0.2969692349 -0.1562017202 0.5971894860 4288060855
-0.2970347106 -0.1555724889 0.5973211527 4290363610
-0.2966662347 -0.1547166556 0.5965801477 4289376458
-0.2967311442 -0.1540875137 0.5967106819 4285823636
-0.2963619232 -0.1532336175 0.5959681869 4282994283
-0.2964262664 -0.1526045799 0.5960975885 4281744216
-0.2964903712 -0.1519751251 0.5962265134 4281153889
-0.2961200476 -0.1511236876 0.5954818130 4281022303
-0.2961835563 -0.1504943520 0.5956095457 4281021785
-0.2966812551 -0.1500843465 0.5966103673 4281087578
-0.2967444062 -0.1494532824 0.5967373848 4281153370
-0.2968073189 -0.1488218009 0.5968638659 4281284956
-0.2968699932 -0.1481899321 0.5969899297 4281153887
-0.2969324291 -0.1475576609 0.5971154571 4281022301
-0.2974294424 -0.1471401006 0.5981149673 4280824924
-0.2974914908 -0.1465061158 0.5982397199 4280693338
-0.2979883254 -0.1460849792 0.5992388129 4281153117
-0.2984850705 -0.1456616074 0.6002377272 4282140012
-0.2994169593 -0.1454473734 0.6021117568 4283522170
-0.3003489673 -0.1452290416 0.6039859653 4283851135
-0.3017164469 -0.1452161521 0.6067358851 4284706695
-0.3072802722 -0.1743726879 0.6193076968 4290100428
-0.3069216013 -0.1734818667 0.6185848117 4289179326
-0.3069936931 -0.1728351563 0.6187300682 4288192434
-0.3070655167 -0.1721879840 0.6188748479 4286876574
-0.3067057431 -0.1712994277 0.6181497574 4285165704
-0.3059140742 -0.1701722294 0.6165541410 4283455086
-0.3051217496 -0.1690482199 0.6149572730 4281744216
-0.3043287992 -0.1679273993 0.6133590937 4281217872
-0.3031034172 -0.1665725112 0.6108894348 4280955738
-0.3014453650 -0.1649862826 0.6075477004 4280692566
-0.2984903753 -0.1627005488 0.6015920639 4280692306
-0.2998544574 -0.1627726108 0.6043412685 4280626513
-0.2977615595 -0.1609697342 0.6001231670 4280691788
-0.2973964810 -0.1601064205 0.5993874073 4280889167
-0.2970310152 -0.1592445076 0.5986508131 4281744729
-0.2970975637 -0.1586148888 0.5987849236 4282994796
-0.2971638739 -0.1579848528 0.5989185572 4283126380
-0.2967972755 -0.1571253389 0.5981797576 4285692307
-0.2968630195 -0.1564953774 0.5983122587 4289639630
-0.2964957058 -0.1556378007 0.5975719094 4290429146
-0.2961279452 -0.1547816247 0.5968307257 4288257723
-0.2957597673 -0.1539268792 0.5960886478 4284441729
-0.2958242595 -0.1532980204 0.5962187052 4283059819
-0.2958885431 -0.1526687443 0.5963482261 4281809752
-0.2959525883 -0.1520390660 0.5964773297 4281088094
-0.2960163951 -0.1514089704 0.5966058969 4281022301
-0.2956464589 -0.1505577117 0.5958603621 4281087577
-0.2961432934 -0.1501475722 0.5968616605 4281087577
-0.2962063849 -0.1495162547 0.5969888568 4281153370
-0.2962692380 -0.1488845497 0.5971155167 4281350749
-0.2963318527 -0.1482524276 0.5972416997 4281350750
-0.2963942289 -0.1476199180 0.5973674059 4281284957
-0.2968904078 -0.1472022086 0.5983674526 4280955738
-0.2969523966 -0.1465679705 0.5984923840 4280955738
-0.2974483669 -0.1461466998 0.5994919538 4281416543
-0.2979442775 -0.1457231641 0.6004914641 4282074473
-0.2988745272 -0.1455088705 0.6023663282 4283653756
-0.3002393842 -0.1455010474 0.6051171422 4283719549
-0.3011699617 -0.1452776045 0.6069926620 4286483106
-0.3057871163 -0.1746009588 0.6176809669 4290231753
-0.3058594763 -0.1739558280 0.6178271174 4289705411
-0.3055013120 -0.1730664819 0.6171036363 4288850102
-0.3055731058 -0.1724213511 0.6172487140 4287928748
-0.3052141964 -0.1715338230 0.6165236831 4286876060
-0.3052854240 -0.1708886921 0.6166675687 4285230984
-0.3044950366 -0.1697628647 0.6150709987 4283783538
-0.3041348159 -0.1688794494 0.6143433452 4281941336
-0.3033432662 -0.1677591205 0.6127444506 4281480785
-0.3021200895 -0.1664046049 0.6102736592 4281153370
-0.3008961082 -0.1650551409 0.6078012586 4280627026
-0.2996712625 -0.1637106985 0.6053271294 4280495179
-0.2984456122 -0.1623713225 0.6028513908 4280692558
-0.2976505458 -0.1612707227 0.6012452841 4280626248
-0.2972863019 -0.1604061574 0.6005095243 4280889420
-0.2969216406 -0.1595430076 0.5997729301 4282402657
-0.2965565324 -0.1586812586 0.5990354419 4283586931
-0.2966227829 -0.1580509841 0.5991692543 4283652724
-0.2962569296 -0.1571911573 0.5984302759 4287402925
-0.2963226140 -0.1565609574 0.5985629559 4290297819
-0.2959559858 -0.1557030380 0.5978223681 4290100440
-0.2955889702 -0.1548465341 0.5970810056 4286810277
-0.2952215075 -0.1539914608 0.5963387489 4283718006
-0.2952859700 -0.1533623636 0.5964689255 4283125612
-0.2953501642 -0.1527328491 0.5965986252 4281809752
-0.2954141498 -0.1521029323 0.5967279077 4281087577
-0.2954778969 -0.1514725983 0.5968566537 4281153370
-0.2955414057 -0.1508418620 0.5969849229 4281153370
-0.2960374951 -0.1504306495 0.5979869962 4281153370
-0.2956677079 -0.1495791823 0.5972400308 4281153370
-0.2957305014 -0.1489472240 0.5973668694 4281284956
-0.2957930565 -0.1483148783 0.5974932313 4281416543
-0.2962885201 -0.1478983462 0.5984941125 4281416543
-0.2963506877 -0.1472642571 0.5986196399 4281153371
-0.2968459725 -0.1468441635 0.5996201038 4281482336
-0.2973411679 -0.1464217901 0.6006203890 4281810787
-0.2978363335 -0.1459971815 0.6016206145 4283126647
-0.2987650335 -0.1457819045 0.6034965515 4284047999
-0.3001275659 -0.1457731575 0.6062487960 4284574343
-0.3010565639 -0.1455487162 0.6081253886 4289114313
-0.3042967021 -0.1748251170 0.6160525084 4290363339
-0.3043690324 -0.1741820276 0.6161988974 4289771202
-0.3040117323 -0.1732937098 0.6154755354 4289442239
-0.3040834963 -0.1726506203 0.6156208515 4288521137
-0.3041549921 -0.1720070690 0.6157656312 4287665576
-0.3037965894 -0.1711210310 0.6150400043 4286744474
-0.3038675487 -0.1704774797 0.6151836514 4285362570
-0.3035083711 -0.1695932597 0.6144564748 4284046710
-0.3031487465 -0.1687104255 0.6137284636 4282138715
-0.3023586273 -0.1675905734 0.6121287942 4281480785
-0.3015678227 -0.1664739251 0.6105278730 4281153624
-0.3003461361 -0.1651239097 0.6080545187 4280693073
-0.2991236150 -0.1637789458 0.6055794954 4280560970
-0.2979002595 -0.1624390483 0.6031028032 4280955728
-0.2971066833 -0.1613380164 0.6014962196 4280823625
-0.2967431545 -0.1604731232 0.6007602215 4281415762
-0.2963792086 -0.1596096456 0.6000234485 4283126634
-0.2964457273 -0.1589786410 0.6001580954 4283389806
-0.2960810363 -0.1581170559 0.5994197130 4284771205
-0.2957158983 -0.1572568864 0.5986805558 4289113543
-0.2957814932 -0.1566264629 0.5988133550 4290626784
-0.2954156101 -0.1557682157 0.5980726480 4289245131
-0.2954806685 -0.1551378667 0.5982043147 4285362832
-0.2951140404 -0.1542815417 0.5974620581 4283849593
-0.2947469652 -0.1534266472 0.5967189074 4283191150
-0.2948111296 -0.1527968943 0.5968488455 4281546325
-0.2948750556 -0.1521667391 0.5969782472 4281021784
-0.2949387133 -0.1515361816 0.5971071124 4281153370
-0.2950021625 -0.1509052068 0.5972355604 4281219417
-0.2954973876 -0.1504938453 0.5982381701 4281219417
-0.2955604494 -0.1498611271 0.5983658433 4281219417
-0.2956232727 -0.1492280066 0.5984930396 4281285210
-0.2956858575 -0.1485944986 0.5986196995 4281481822
-0.2957482040 -0.1479605734 0.5987459421 4281547615
-0.2958102822 -0.1473262459 0.5988716483 4281416030
-0.2963047028 -0.1469059885 0.5998725891 4281481823
-0.2967990637 -0.1464834809 0.6008734703 4282008166
-0.2977261245 -0.1462713182 0.6027502418 4283981956
-0.2986532748 -0.1460550427 0.6046273112 4284311171
-0.2995805442 -0.1458346397 0.6065045595 4286284961
-0.3028813601 -0.1744041294 0.6145690084 4290166215
-0.3029534221 -0.1737626195 0.6147152185 4289442492
-0.3025966287 -0.1728757918 0.6139912605 4289113274
-0.3026680946 -0.1722342819 0.6141362786 4288257965
-0.3027393520 -0.1715923101 0.6142808795 4287468197
-0.3023814559 -0.1707077622 0.6135546565 4286612888
-0.3024521470 -0.1700658053 0.6136980653 4285625996
-0.3020934761 -0.1691830754 0.6129703522 4284375929
-0.3017343879 -0.1683017164 0.6122416854 4282467678
-0.3013748527 -0.1674217582 0.6115121841 4281414990
-0.3005854785 -0.1663055867 0.6099104881 4281021521
-0.2997954786 -0.1651926190 0.6083075404 4280692556
-0.2990048528 -0.1640828848 0.6067032814 4280758604
-0.2977839112 -0.1627415419 0.6042258739 4280824397
-0.2969919443 -0.1616391689 0.6026189327 4281086797
-0.2966292500 -0.1607730240 0.6018829942 4282336864
-0.2962661088 -0.1599082947 0.6011461616 4283521392
-0.2963326573 -0.1592761427 0.6012811661 4283126634
-0.2959687710 -0.1584133208 0.6005428433 4286481564
-0.2956044674 -0.1575518996 0.5998036265 4290626523
-0.2952397168 -0.1566918939 0.5990635753 4290889443
-0.2953050435 -0.1560608149 0.5991960764 4288060344
-0.2949395478 -0.1552027315 0.5984544754 4284770182
-0.2950043082 -0.1545717418 0.5985858440 4284441217
-0.2946380675 -0.1537155956 0.5978427529 4282927978
-0.2947022319 -0.1530846953 0.5979729891 4281217360
-0.2947661877 -0.1524533778 0.5981027484 4281152857
-0.2948299050 -0.1518216431 0.5982319713 4281218650
-0.2948933840 -0.1511895061 0.5983607769 4281284697
-0.2949566245 -0.1505569667 0.5984891057 4281284697
-0.2954509258 -0.1501432061 0.5994920731 4281350490
-0.2955137789 -0.1495089233 0.5996196270 4281416283
-0.2955763936 -0.1488742381 0.5997466445 4281482076
-0.2956387699 -0.1482391506 0.5998732448 4281547869
-0.2957008779 -0.1476036608 0.5999993086 4281613408
-0.2961945534 -0.1471823156 0.6010009646 4281942373
-0.2966881394 -0.1467587352 0.6020025015 4282929522
-0.2976136208 -0.1465455741 0.6038804054 4284113796
-0.2981071770 -0.1461165398 0.6048818827 4285100942
-0.2990328074 -0.1458960772 0.6067600250 4289311694
-0.3014684916 -0.1739826649 0.6130838394 4289903043
-0.3015402555 -0.1733427346 0.6132298112 4289113527
-0.3011839688 -0.1724573970 0.6125052571 4288784307
-0.3012551665 -0.1718174666 0.6126500368 4287863205
-0.3013261557 -0.1711770892 0.6127943993 4287073439
-0.3013969064 -0.1705362499 0.6129382253 4286218130
-0.3010391891 -0.1696536541 0.6122108102 4285560203
-0.3006810546 -0.1687724143 0.6114824414 4284573308
-0.3007508814 -0.1681320518 0.6116244793 4283191401
-0.3003919721 -0.1672526598 0.6108946204 4282007127
-0.2996040285 -0.1661369801 0.6092921495 4281349971
-0.2988154292 -0.1650245041 0.6076884270 4280823627
-0.2980262339 -0.1639152467 0.6060834527 4281021006
-0.2972363830 -0.1628092229 0.6044772267 4280823627
-0.2968749404 -0.1619404405 0.6037421227 4281613141
-0.2960839570 -0.1608399600 0.6021335125 4283323759
-0.2957215607 -0.1599748880 0.6013965607 4283784049
-0.2957880199 -0.1593425125 0.6015317440 4283915635
-0.2958542705 -0.1587097049 0.6016664505 4288455095
-0.2954907715 -0.1578470320 0.6009272337 4291284194
-0.2946972549 -0.1567572802 0.5993134975 4290428633
-0.2947625220 -0.1561259478 0.5994461775 4286678432
-0.2943977416 -0.1552675515 0.5987043977 4285165195
-0.2940325737 -0.1544105709 0.5979617238 4284704644
-0.2940969169 -0.1537798345 0.5980926156 4282270048
-0.2941610515 -0.1531486958 0.5982229710 4281085774
-0.2942249179 -0.1525171399 0.5983529091 4281218904
-0.2947188318 -0.1521072388 0.5993573070 4281284697
-0.2947823107 -0.1514739394 0.5994864702 4281284695
-0.2948455811 -0.1508402377 0.5996151567 4281284695
-0.2949086130 -0.1502061188 0.5997433066 4281350488
-0.2949714065 -0.1495715976 0.5998709798 4281350488
-0.2950339615 -0.1489366740 0.5999981761 4281547097
-0.2955270708 -0.1485178471 0.6010010242 4281744476
-0.2955892086 -0.1478811800 0.6011274457 4281876064
-0.2956511378 -0.1472441256 0.6012533307 4282797166
-0.2961438894 -0.1468203813 0.6022554040 4283916417
-0.2970677316 -0.1466071606 0.6041342020 4284837519
-0.2979916632 -0.1463898271 0.6060131788 4287535281
-0.2995596230 -0.1739507914 0.6105809808 4290165960
-0.2996312380 -0.1733138263 0.6107269526 4289508285
-0.2997026443 -0.1726763994 0.6108725071 4288784562
-0.2997737825 -0.1720385104 0.6110175252 4288521135
-0.2998447120 -0.1714001745 0.6111621261 4287600033
-0.2999154329 -0.1707613915 0.6113061905 4286810267
-0.2999858856 -0.1701221466 0.6114498377 4285757579
-0.2996287048 -0.1692410260 0.6107218266 4285231238
-0.2992710769 -0.1683612764 0.6099928617 4284573308
-0.2997682691 -0.1679621190 0.6110063195 4283915124
-0.2989822626 -0.1668446213 0.6094042063 4282994022
-0.2986234426 -0.1659681052 0.6086728573 4281941849
-0.2978362739 -0.1648561209 0.6070683599 4280889161
-0.2974765003 -0.1639833003 0.6063350439 4281218383
-0.2966881692 -0.1628768444 0.6047282219 4280889418
-0.2963274419 -0.1620077193 0.6039929986 4282205278
-0.2959662974 -0.1611400098 0.6032568812 4284047482
-0.2956047058 -0.1602737010 0.6025198698 4283981428
-0.2952426970 -0.1594088078 0.6017820239 4285165702
-0.2953088880 -0.1587757617 0.6019168496 4289836746
-0.2949461043 -0.1579127610 0.6011774540 4291086813
-0.2945829332 -0.1570511907 0.6004371643 4289770187
-0.2942193151 -0.1561910361 0.5996960402 4285756814
-0.2938552797 -0.1553322971 0.5989540219 4285888148
-0.2934908271 -0.1544749886 0.5982111692 4284901253
-0.2935551107 -0.1538440287 0.5983422399 4281743704
-0.2936191559 -0.1532126516 0.5984727740 4281151567
-0.2941123545 -0.1528039277 0.5994780064 4281349720
-0.2941760123 -0.1521708071 0.5996078253 4281415513
-0.2946690023 -0.1517584920 0.6006126404 4281284695
-0.2947323024 -0.1511236131 0.6007416248 4281284695
-0.2947953641 -0.1504883468 0.6008701921 4281284693
-0.2948581576 -0.1498526484 0.6009982228 4281218900
-0.2949207425 -0.1492165625 0.6011257768 4281481558
-0.2949830890 -0.1485800743 0.6012527943 4281810523
-0.2950451672 -0.1479431689 0.6013793945 4282599787
-0.2955372334 -0.1475206017 0.6023823023 4283652475
-0.2960292101 -0.1470957696 0.6033850908 4284771726
-0.2965211272 -0.1466686875 0.6043877006 4286745516
-0.2981527448 -0.1735266745 0.6090922952 4290034376
-0.2982240915 -0.1728912890 0.6092380285 4289179069
-0.2982951999 -0.1722554564 0.6093833447 4288389553
-0.2983660996 -0.1716191620 0.6095281243 4287994025
-0.2984367311 -0.1709824055 0.6096724868 4287138716
-0.2985071838 -0.1703452021 0.6098163724 4286151819
-0.2985773683 -0.1697075516 0.6099597812 4285296510
-0.2982206941 -0.1688279361 0.6092311144 4284770166
-0.2982903421 -0.1681903005 0.6093733907 4284572787
-0.2979328930 -0.1673125029 0.6086431742 4284375410
-0.2980019748 -0.1666748971 0.6087842584 4283980652
-0.2976437807 -0.1657989621 0.6080525517 4282533725
-0.2968580127 -0.1646874696 0.6064473391 4281086279
-0.2964988649 -0.1638152301 0.6057136059 4280625726
-0.2961392999 -0.1629443914 0.6049790382 4280428347
-0.2957792878 -0.1620749384 0.6042435765 4283454825
-0.2954188585 -0.1612069011 0.6035072803 4284046962
-0.2950580120 -0.1603402644 0.6027700901 4283455337
-0.2946967185 -0.1594750434 0.6020320058 4286942366
-0.2943350077 -0.1586112231 0.6012930870 4290494935
-0.2939728796 -0.1577488184 0.6005532742 4290494935
-0.2936103046 -0.1568878293 0.5998126268 4287665838
-0.2932473421 -0.1560282558 0.5990710855 4284836739
-0.2933121324 -0.1553969681 0.5992034674 4286087067
-0.2929483950 -0.1545393318 0.5984603763 4283323761
-0.2930126190 -0.1539081335 0.5985915661 4280560202
-0.2930766046 -0.1532765329 0.5987223387 4281086546
-0.2935689390 -0.1528676599 0.5997280478 4280691788
-0.2936325371 -0.1522343010 0.5998580456 4280757581
-0.2941246629 -0.1518218517 0.6008633971 4280691790
-0.2941879034 -0.1511867344 0.6009925604 4280889169
-0.2942508757 -0.1505512148 0.6011212468 4281152341
-0.2943136394 -0.1499152929 0.6012494564 4281020755
-0.2943761647 -0.1492789686 0.6013771296 4281153109
-0.2944384217 -0.1486422271 0.6015043855 4281547867
-0.2945004702 -0.1480050981 0.6016311049 4282797932
-0.2945622504 -0.1473675519 0.6017573476 4284376964
-0.2954827547 -0.1471574008 0.6036378145 4286350237
-0.2959738374 -0.1467301548 0.6046410203 4289968852
-0.2967483401 -0.1731020808 0.6076019406 4289836997
-0.2968194187 -0.1724682748 0.6077474356 4288915895
-0.2973155975 -0.1720802039 0.6087633371 4288126379
-0.2973863184 -0.1714445949 0.6089081764 4287730853
-0.2974568009 -0.1708085239 0.6090524793 4286743958
-0.2975270450 -0.1701720059 0.6091963053 4285822854
-0.2971713245 -0.1692924947 0.6084679365 4285296510
-0.2972410023 -0.1686559916 0.6086106300 4284704373
-0.2968845367 -0.1677783281 0.6078807712 4284441201
-0.2965276241 -0.1669020355 0.6071499586 4284309617
-0.2965964377 -0.1662660241 0.6072908640 4283980652
-0.2962387502 -0.1653915793 0.6065585017 4283717997
-0.2958806753 -0.1645185500 0.6058253050 4282533723
-0.2950957119 -0.1634107530 0.6042180657 4281020483
-0.2955897152 -0.1630118638 0.6052295566 4281283655
-0.2952304482 -0.1621420979 0.6044939160 4284441719
-0.2948707342 -0.1612737179 0.6037574410 4284112754
-0.2949374318 -0.1606392264 0.6038939953 4284179060
-0.2941500545 -0.1595412046 0.6022818089 4288389812
-0.2937890589 -0.1586770564 0.6015426517 4290955740
-0.2934276462 -0.1578143239 0.6008026600 4289771466
-0.2930658162 -0.1569530070 0.6000618339 4286481566
-0.2927035689 -0.1560931057 0.5993200541 4285626257
-0.2923409045 -0.1552346349 0.5985774994 4286810791
-0.2924052775 -0.1546036154 0.5987093449 4282205281
-0.2924694419 -0.1539721936 0.5988407135 4280560202
-0.2929610610 -0.1535645276 0.5998472571 4281020753
-0.2930248380 -0.1529313326 0.5999778509 4280824144
-0.2935162485 -0.1525200754 0.6009840369 4280824144
-0.2935796380 -0.1518851370 0.6011138558 4280889169
-0.2940708697 -0.1514702737 0.6021196842 4281020755
-0.2941338718 -0.1508335918 0.6022486687 4281218134
-0.2937684357 -0.1499778777 0.6015003920 4281349720
-0.2938308716 -0.1493413001 0.6016283035 4281745246
-0.2938930988 -0.1487043351 0.6017556787 4282534762
-0.2943835557 -0.1482827961 0.6027599573 4283456117
-0.2944453955 -0.1476440877 0.6028864980 4285495700
-0.2945069671 -0.1470049769 0.6030126214 4289311176
-0.2953464389 -0.1726769954 0.6061098576 4289836997
-0.2954172194 -0.1720447838 0.6062551141 4288784311
-0.2954877913 -0.1714121252 0.6063998938 4287731623
-0.2955581248 -0.1707790047 0.6065442562 4286875542
-0.2956282198 -0.1701454520 0.6066881418 4285822854
-0.2956981063 -0.1695114374 0.6068315506 4285164924
-0.2957677543 -0.1688769609 0.6069744825 4285033338
-0.2954121232 -0.1680003256 0.6062446237 4284770166
-0.2954812348 -0.1673658788 0.6063864231 4284572787
-0.2951248288 -0.1664910913 0.6056550741 4284572530
-0.2951933742 -0.1658566743 0.6057956815 4284440944
-0.2948362231 -0.1649837494 0.6050627828 4284178547
-0.2944786549 -0.1641121954 0.6043289900 4283717996
-0.2941206694 -0.1632420570 0.6035943031 4282402390
-0.2946137190 -0.1628439575 0.6046061516 4283257699
-0.2942550778 -0.1619747728 0.6038700938 4285034110
-0.2943219244 -0.1613404751 0.6040073037 4283718250
-0.2939625382 -0.1604731828 0.6032697558 4285428614
-0.2936027050 -0.1596072912 0.6025313139 4290099917
-0.2932424247 -0.1587428153 0.6017919779 4291087326
-0.2928817570 -0.1578797549 0.6010518074 4289047743
-0.2920942307 -0.1567892283 0.5994356275 4285889429
-0.2917326093 -0.1559299231 0.5986935496 4286810531
-0.2913705707 -0.1550720483 0.5979505181 4285758103
-0.2914347947 -0.1544417143 0.5980823636 4281152593
-0.2919255793 -0.1540361792 0.5990895629 4281283925
-0.2919894457 -0.1534040868 0.5992206335 4281218132
-0.2924800515 -0.1529949456 0.6002274156 4281087316
-0.2929705977 -0.1525835395 0.6012341380 4281021523
-0.2930339575 -0.1519483626 0.6013641357 4281283927
-0.2935242951 -0.1515333503 0.6023704410 4281481306
-0.2935872376 -0.1508964449 0.6024996042 4281744478
-0.2936499715 -0.1502591074 0.6026283503 4281876064
-0.2937124372 -0.1496213675 0.6027565598 4282074209
-0.2937746942 -0.1489832252 0.6028842330 4282995311
-0.2938366830 -0.1483446807 0.6030114889 4284377217
-0.2938984334 -0.1477057338 0.6031382084 4288127418
-0.2940175533 -0.1716208160 0.6047611237 4289639618
-0.2940878272 -0.1709897369 0.6049056649 4288718516
-0.2941578925 -0.1703582257 0.6050497890 4288125609
-0.2942277193 -0.1697262526 0.6051933765 4287072921
-0.2942973077 -0.1690938324 0.6053365469 4286349198
-0.2939425409 -0.1682182252 0.6046068072 4285954440
-0.2940115929 -0.1675858200 0.6047488451 4285559425
-0.2936560512 -0.1667120606 0.6040175557 4285098874
-0.2937245369 -0.1660796851 0.6041584611 4284769909
-0.2937928140 -0.1654468626 0.6042988896 4284506737
-0.2938608527 -0.1648136079 0.6044387817 4283849836
-0.2935039103 -0.1639426500 0.6037046313 4283718250
-0.2931465507 -0.1630730927 0.6029695272 4283652457
-0.2932136953 -0.1624403596 0.6031076908 4284770938
-0.2932806015 -0.1618071795 0.6032453179 4284573557
-0.2933472991 -0.1611735672 0.6033824682 4283718248
-0.2929885387 -0.1603068709 0.6026445031 4287271072
-0.2930546701 -0.1596733183 0.6027805805 4290889687
-0.2926951349 -0.1588085145 0.6020410657 4290560982
-0.2923351824 -0.1579451263 0.6013006568 4287600297
-0.2915491760 -0.1568541676 0.5996839404 4285889427
-0.2907625735 -0.1557664871 0.5980659723 4288192182
-0.2908269763 -0.1551363319 0.5981984735 4284046972
-0.2904652357 -0.1542795599 0.5974544287 4280823115
-0.2909550667 -0.1538747996 0.5984619260 4281810269
-0.2914448678 -0.1534677744 0.5994693637 4281810269
-0.2919346094 -0.1530584842 0.6004767418 4281811041
-0.2924242914 -0.1526469439 0.6014839411 4281482076
-0.2924875617 -0.1520115286 0.6016141176 4281613662
-0.2929770648 -0.1515963823 0.6026209593 4281679455
-0.2930399477 -0.1509592235 0.6027503014 4282007648
-0.2931025922 -0.1503216475 0.6028791666 4282073441
-0.2931649983 -0.1496836692 0.6030075550 4282271074
-0.2932271659 -0.1490452886 0.6031354070 4283060590
-0.2932891250 -0.1484065056 0.6032627821 4285889940
-0.2933508158 -0.1477673203 0.6033896804 4289903313
-0.2928296924 -0.1693065912 0.6036970019 4290231755
-0.2928990126 -0.1686757654 0.6038399339 4290033606
-0.2925447524 -0.1678016484 0.6031095982 4289638848
-0.2926135361 -0.1671708524 0.6032513976 4288980918
-0.2922585309 -0.1662985831 0.6025195122 4288191402
-0.2923267484 -0.1656678021 0.6026601195 4287335836
-0.2923947573 -0.1650365889 0.6028003097 4286546320
-0.2924625278 -0.1644049287 0.6029400229 4285757061
-0.2921061218 -0.1635354757 0.6022052765 4285164924
-0.2921733260 -0.1629038602 0.6023437977 4285165694
-0.2922403216 -0.1622718126 0.6024819016 4285165694
-0.2923070788 -0.1616393328 0.6026195288 4283915627
-0.2923735976 -0.1610064059 0.6027566791 4284902522
-0.2924398780 -0.1603730619 0.6028933525 4289179069
-0.2920814157 -0.1595074385 0.6021543145 4291284445
-0.2917225063 -0.1586432159 0.6014144421 4290034637
-0.2913631797 -0.1577804238 0.6006736159 4286284436
-0.2905786335 -0.1566899717 0.5990561843 4286547357
-0.2902183533 -0.1558309346 0.5983134508 4288126389
-0.2902826965 -0.1552005708 0.5984461308 4282928490
-0.2899217010 -0.1543434560 0.5977018476 4280888907
-0.2899854779 -0.1537131816 0.5978333354 4280954703
-0.2904742956 -0.1533069313 0.5988411307 4280625738
-0.2909630835 -0.1528984308 0.5998488069 4280889167
-0.2914518118 -0.1524876654 0.6008563638 4280889167
-0.2919405103 -0.1520746350 0.6018638015 4281021523
-0.2920034528 -0.1514385790 0.6019936204 4280889937
-0.2924919426 -0.1510219276 0.6030007005 4281152339
-0.2925545275 -0.1503841281 0.6031297445 4282073441
-0.2926168740 -0.1497459114 0.6032582521 4283784312
-0.2926789820 -0.1491072923 0.6033862829 4285823895
-0.2927408516 -0.1484682709 0.6035138369 4288126902
-0.2909314632 -0.1652554721 0.6011601090 4289836227
-0.2914221585 -0.1648651361 0.6021740437 4289112504
-0.2910667062 -0.1639957875 0.6014395952 4288059816
-0.2911339700 -0.1633653045 0.6015785933 4287533472
-0.2912010252 -0.1627343744 0.6017171144 4286809749
-0.2912678421 -0.1621030122 0.6018551588 4284967545
-0.2913344204 -0.1614712030 0.6019927859 4283718248
-0.2914007902 -0.1608389765 0.6021298766 4286613140
-0.2914669216 -0.1602063179 0.6022665501 4290626513
-0.2911090851 -0.1593412906 0.6015270948 4291547615
-0.2907508016 -0.1584776640 0.6007868052 4289047229
-0.2903921306 -0.1576154679 0.6000456214 4285889165
-0.2900330126 -0.1567546874 0.5993036032 4288126387
-0.2892493606 -0.1556670815 0.5976843238 4289047489
-0.2893135250 -0.1550373882 0.5978169441 4286744738
-0.2893774807 -0.1544072926 0.5979490280 4285889429
-0.2894411683 -0.1537767798 0.5980806947 4285362832
-0.2899291515 -0.1533703953 0.5990889668 4284836488
-0.2904170752 -0.1529617459 0.6000971794 4285297552
-0.2904802561 -0.1523281336 0.6002277732 4285165966
-0.2909679711 -0.1519158781 0.6012355685 4285363344
-0.2910307944 -0.1512805223 0.6013653278 4285692309
-0.2915183306 -0.1508646607 0.6023727655 4286481825
-0.2915807366 -0.1502275467 0.6025017500 4287468720
-0.2916429341 -0.1495900303 0.6026302576 4288718785
-0.2899607718 -0.1650829464 0.6005325913 4289967813
-0.2900283337 -0.1644540280 0.6006724834 4289375676
-0.2896733880 -0.1635861993 0.5999373794 4288388783
-0.2897404134 -0.1629573107 0.6000761986 4288125611
-0.2898072004 -0.1623279899 0.6002144814 4286743956
-0.2898737490 -0.1616982222 0.6003522873 4284243822
-0.2899400592 -0.1610680372 0.6004896760 4284244592
