VERSION 0.7
FIELDS x y z rgba
SIZE 4 4 4 4
TYPE F F F U
COUNT 1 1 1 1
WIDTH 920
HEIGHT 1
VIEWPOINT 0.0 0.0 0.0 1.0 0.0 0.0 0.0
POINTS 920
DATA ascii
-0.3065607250 -0.1623344272 0.6206359863 4281084982
-0.3070597351 -0.1619079858 0.6216462851 4280953396
-0.3066959977 -0.1610262990 0.6209098697 4280821812
-0.3059003651 -0.1599204838 0.6192991138 4280558640
-0.3030219972 -0.1690199375 0.6148543954 4288981686
-0.3030920923 -0.1683757156 0.6149966121 4287928998
-0.3031619191 -0.1677310616 0.6151382923 4287533213
-0.3028020263 -0.1668492854 0.6144080162 4286743697
-0.3033009171 -0.1664403975 0.6154202819 4286414731
-0.3033700585 -0.1657944024 0.6155605912 4284769906
-0.3034389317 -0.1651479751 0.6157003641 4283914079
-0.3035075963 -0.1645011008 0.6158397198 4281611324
-0.3040060103 -0.1640858799 0.6168510318 4281019441
-0.3045043945 -0.1636683792 0.6178622246 4280887855
-0.3045725226 -0.1630183607 0.6180005074 4280953648
-0.3046404123 -0.1623678952 0.6181382537 4281019441
-0.3051384389 -0.1619454175 0.6191487908 4281084980
-0.3052059412 -0.1612931788 0.6192857623 4281019187
-0.3048426211 -0.1604139209 0.6185485721 4280821810
-0.3040482402 -0.1593104303 0.6169366837 4280492845
-0.2967918515 -0.1548392475 0.6022129059 4280163882
-0.3016077280 -0.1686110646 0.6133670211 4288784307
-0.3016775250 -0.1679684371 0.6135089993 4287731619
-0.3013184965 -0.1670876890 0.6127787828 4287270040
-0.3013877273 -0.1664450914 0.6129196286 4287006868
-0.3014567494 -0.1658020467 0.6130599380 4286611596
-0.3015255034 -0.1651585549 0.6131998301 4285229943
-0.3020230532 -0.1647486538 0.6142116785 4283716702
-0.3020914495 -0.1641033739 0.6143507361 4281413947
-0.3021596074 -0.1634576619 0.6144893765 4281216820
-0.3026568294 -0.1630427688 0.6155005097 4280953648
-0.3027245998 -0.1623952687 0.6156383753 4281019441
-0.3032216430 -0.1619767547 0.6166491508 4281019441
-0.3032890260 -0.1613274515 0.6167861819 4281019187
-0.3033561707 -0.1606777310 0.6169227362 4281019187
-0.3029932976 -0.1598009020 0.6161848307 4280887603
-0.3004806638 -0.1577967703 0.6110749245 4280492845
-0.3001959026 -0.1682017297 0.6118779182 4288652721
-0.2998377383 -0.1673219949 0.6111478209 4287600033
-0.2999069393 -0.1666814387 0.6112889051 4287269526
-0.2995479703 -0.1658035666 0.6105572581 4287072147
-0.2996166348 -0.1651630253 0.6106972098 4286216838
-0.2996850312 -0.1645220518 0.6108366251 4284966771
-0.3001814187 -0.1641147584 0.6118484139 4283058772
-0.3002494574 -0.1634719968 0.6119870543 4281874498
-0.3007456660 -0.1630610824 0.6129984856 4281151027
-0.3008133173 -0.1624165177 0.6131363511 4281545785
-0.3008807600 -0.1617715359 0.6132737994 4281808957
-0.3013766408 -0.1613556296 0.6142845154 4281479992
-0.3018724620 -0.1609374583 0.6152951717 4281151027
-0.3015104532 -0.1600616574 0.6145573258 4281019441
-0.3011480272 -0.1591872573 0.6138185859 4280821810
-0.2986397743 -0.1571850777 0.6087061167 4280427052
-0.2987865806 -0.1677919179 0.6103871465 4288521390
-0.2988558412 -0.1671524793 0.6105286479 4287337116
-0.2984978557 -0.1662747115 0.6097972989 4286941076
-0.2981394231 -0.1653983444 0.6090650558 4287006869
-0.2982077897 -0.1647594124 0.6092047691 4286019974
-0.2982759476 -0.1641200334 0.6093439460 4284572528
-0.2987712622 -0.1637144238 0.6103559136 4283321946
-0.2988390625 -0.1630732566 0.6104943156 4281413949
-0.2993341982 -0.1626640409 0.6115058661 4281479738
-0.2994016111 -0.1620210856 0.6116435528 4282203461
-0.2994687557 -0.1613776982 0.6117807627 4282466887
-0.2995356917 -0.1607338786 0.6119174957 4281611578
-0.3000303805 -0.1603183150 0.6129280925 4281018928
-0.2996688187 -0.1594449431 0.6121894717 4280821549
-0.2941685021 -0.1558506936 0.6009529233 4280952883
-0.2676794529 -0.1412091851 0.5468388200 4280689711
-0.2969536781 -0.1671418399 0.6080223322 4288389802
-0.2974487245 -0.1667438000 0.6090359092 4287271321
-0.2970912457 -0.1658675373 0.6083040237 4287072662
-0.2967333496 -0.1649926603 0.6075711846 4286875283
-0.2968014479 -0.1643553227 0.6077106595 4285822595
-0.2972958684 -0.1639527678 0.6087229848 4284111977
-0.2973636091 -0.1633136421 0.6088616848 4282796370
-0.2974311113 -0.1626740694 0.6089999080 4281414717
-0.2974984050 -0.1620340794 0.6091376543 4281348152
-0.2975654304 -0.1613936424 0.6092749238 4282137668
-0.2976322174 -0.1607527733 0.6094116569 4281611578
-0.2981259227 -0.1603411883 0.6104224920 4281019441
-0.2986195385 -0.1599273384 0.6114332676 4280821808
-0.2974039316 -0.1585997194 0.6089441776 4280887601
-0.2953326702 -0.1568232924 0.6047033072 4280821810
-0.2954812348 -0.1673658788 0.6063864231 4289245113
-0.2955500782 -0.1667309999 0.6065277457 4288192423
-0.2956187129 -0.1660956591 0.6066685915 4287139735
-0.2956871390 -0.1654598862 0.6068089604 4287072662
-0.2953297496 -0.1645865142 0.6060755849 4286941076
-0.2953976095 -0.1639507711 0.6062148213 4285888387
-0.2954652011 -0.1633145958 0.6063535810 4283914597
-0.2955325842 -0.1626779884 0.6064918637 4282730575
-0.2960256636 -0.1622744352 0.6075037718 4281677887
-0.2960926890 -0.1616360247 0.6076412797 4281217334
-0.2961594760 -0.1609971970 0.6077783108 4281677885
-0.2962259948 -0.1603579372 0.6079148650 4281348922
-0.2962923050 -0.1597182453 0.6080509424 4280756785
-0.2967847884 -0.1593070030 0.6090615988 4280690994
-0.2959977090 -0.1582095921 0.6074463725 4280822580
-0.2640679181 -0.1405411363 0.5419200659 4280756019
-0.2654062212 -0.1406482458 0.5446665287 4280624433
-0.2650377154 -0.1398486346 0.5439102650 4280361261
-0.2940804064 -0.1669529676 0.6048904061 4288981941
-0.2941490114 -0.1663196832 0.6050314903 4287929251
-0.2942173779 -0.1656859517 0.6051720977 4286942356
-0.2942855060 -0.1650517732 0.6053122878 4286743696
-0.2939286530 -0.1641799062 0.6045782566 4286809489
-0.2939962447 -0.1635457724 0.6047172546 4285493881
-0.2940635979 -0.1629111916 0.6048558354 4284375400
-0.2941307127 -0.1622761786 0.6049938798 4283454296
-0.2941975892 -0.1616407484 0.6051314473 4281809471
-0.2946894765 -0.1612375379 0.6061431766 4281349175
-0.2947559953 -0.1606003046 0.6062800288 4281875519
-0.2948222756 -0.1599626541 0.6064163446 4281677885
-0.2948883176 -0.1593245566 0.6065521836 4280756783
-0.2949541211 -0.1586860418 0.6066875458 4280690994
-0.2941682935 -0.1575909704 0.6050711274 4280756787
-0.2916785777 -0.1555906236 0.5999501348 4280559154
-0.2913170457 -0.1547319889 0.5992064476 4280624947
-0.2926821113 -0.1665395945 0.6033927202 4288916148
-0.2927504182 -0.1659079045 0.6035335660 4287731870
-0.2928185165 -0.1652757674 0.6036739349 4286679182
-0.2928863764 -0.1646431983 0.6038138866 4287137940
-0.2929540277 -0.1640101820 0.6039533019 4286480010
-0.2925973833 -0.1631402969 0.6032180786 4285361527
-0.2926644683 -0.1625073254 0.6033563614 4286348422
-0.2927313149 -0.1618739218 0.6034941673 4285164400
-0.2927979231 -0.1612400860 0.6036314964 4281677371
-0.2932887673 -0.1608385742 0.6046434045 4281085233
-0.2929304838 -0.1599711180 0.6039047837 4282006335
-0.2929964066 -0.1593359858 0.6040406823 4281808957
-0.2934868336 -0.1589304358 0.6050517559 4280953648
-0.2931275666 -0.1580644399 0.6043110490 4280821810
-0.2923429608 -0.1569717228 0.6026934981 4280887603
-0.2902826965 -0.1552005708 0.5984461308 4280821812
-0.2661158144 -0.1416700929 0.5486236811 4281084984
-0.2545453012 -0.1320120543 0.5247699618 4281019189
-0.2545999885 -0.1314572245 0.5248826742 4281216568
-0.2547087371 -0.1303465217 0.5251069069 4281611326
-0.2551888227 -0.1300076693 0.5260966420 4281874498
-0.2912862897 -0.1661257595 0.6018933058 4288981169
-0.2917771935 -0.1657358557 0.6029077172 4287731356
-0.2918451428 -0.1651044190 0.6030480266 4286612875
-0.2914897799 -0.1642341614 0.6023137569 4287401627
-0.2915571332 -0.1636027545 0.6024529338 4285954181
-0.2916242778 -0.1629709005 0.6025916934 4286283145
-0.2912678421 -0.1621030122 0.6018551588 4288651693
-0.2913344204 -0.1614712030 0.6019927859 4286480006
-0.2914007902 -0.1608389765 0.6021298766 4281677117
-0.2914669216 -0.1602063179 0.6022665501 4280624683
-0.2915328145 -0.1595732272 0.6024026871 4281545785
-0.2915984690 -0.1589397043 0.6025384068 4281940289
-0.2916639149 -0.1583057493 0.6026735902 4281348152
-0.2917291224 -0.1576713771 0.6028082967 4281216568
-0.2909458280 -0.1565800756 0.6011897922 4281216568
-0.2668891847 -0.1424078941 0.5514808893 4281150777
-0.2552319169 -0.1338438690 0.5273931026 4280756017
-0.2536428869 -0.1318459362 0.5241096616 4280821810
-0.2528475225 -0.1308519989 0.5224661827 4280953396
-0.2529016733 -0.1302994043 0.5225780606 4281084982
-0.2538058758 -0.1301825792 0.5244464278 4281545531
-0.2530093491 -0.1291931421 0.5228005648 4282071875
-0.2530628741 -0.1286394894 0.5229111314 4283124563
-0.2898930013 -0.1657114327 0.6003921628 4288784560
-0.2903828323 -0.1653232425 0.6014066935 4287665563
-0.2904505134 -0.1646934003 0.6015468240 4286547082
-0.2900956571 -0.1638246626 0.6008119583 4287401627
-0.2901627719 -0.1631948501 0.6009508967 4286085767
-0.2902296484 -0.1625646204 0.6010894179 4288256935
-0.2898737490 -0.1616982222 0.6003522873 4289112244
-0.2899400592 -0.1610680372 0.6004896760 4285099125
-0.2900061607 -0.1604374200 0.6006265879 4282072647
-0.2900720239 -0.1598063558 0.6007629633 4281283129
-0.2901376486 -0.1591748744 0.6008989215 4281480508
-0.2902030647 -0.1585429758 0.6010343432 4282006850
-0.2906913757 -0.1581408232 0.6020457149 4281612092
-0.2903331816 -0.1572778672 0.6013038754 4281348152
-0.2899745703 -0.1564163417 0.6005611420 4281084980
-0.2891921103 -0.1553288102 0.5989406109 4280953396
-0.2587634921 -0.1383897662 0.5359204412 4280756017
-0.2588205040 -0.1378246695 0.5360385180 4280427054
-0.2601484060 -0.1379331499 0.5387886763 4280361261
-0.2526869178 -0.1322326064 0.5233353376 4280163878
-0.2540136874 -0.1323424131 0.5260831714 4280295464
-0.2536441982 -0.1315662414 0.5253179669 4280427050
-0.2524258196 -0.1303534061 0.5227946043 4280558636
-0.2537527084 -0.1304546893 0.5255426764 4280953394
-0.2538066506 -0.1298983842 0.5256544352 4281545531
-0.2521623373 -0.1284765750 0.5222489238 4282992977
-0.2534893453 -0.1285693645 0.5249972343 4284506216
-0.2531178594 -0.1277984977 0.5242279172 4285559158
-0.2885022163 -0.1652966589 0.5988893509 4288652974
-0.2885697186 -0.1646697819 0.5990295410 4287534491
-0.2890583873 -0.1642819345 0.6000438929 4286481803
-0.2887040675 -0.1634146869 0.5993084311 4287467932
-0.2887709141 -0.1627864987 0.5994471908 4286612623
-0.2888375223 -0.1621578634 0.5995854735 4289639101
-0.2884821594 -0.1612929851 0.5988477468 4287665311
-0.2885482013 -0.1606644094 0.5989848971 4282270537
-0.2886140347 -0.1600354016 0.5991215110 4282073158
-0.2886796594 -0.1594059616 0.5992577076 4282270022
-0.2887450159 -0.1587760895 0.5993934274 4281809471
-0.2888101637 -0.1581457853 0.5995286703 4281809726
-0.2892974019 -0.1577453464 0.6005401015 4281414968
-0.2893621922 -0.1571132839 0.6006745696 4280822831
-0.2890042067 -0.1562523395 0.5999314785 4280428073
-0.2882232070 -0.1551653147 0.5983102322 4280493097
-0.2667288780 -0.1429786384 0.5536910892 4280229925
-0.2553720772 -0.1363018751 0.5301159620 4279834915
-0.2596571147 -0.1379900873 0.5390110612 4279834915
-0.2514178455 -0.1312919706 0.5219075680 4279571995
-0.2515796721 -0.1296357363 0.5222434998 4279308823
-0.2512628138 -0.1283134222 0.5215857029 4280427304
-0.2513158321 -0.1277608573 0.5216957927 4281348406
-0.2608054876 -0.1259682775 0.5413949490 4281677117
-0.2656369805 -0.1264638454 0.5514244437 4287467669
-0.2866262197 -0.1652639210 0.5963700414 4289245111
-0.2871139646 -0.1648814082 0.5973848701 4288521388
-0.2871811986 -0.1642561257 0.5975248218 4287139737
-0.2872482240 -0.1636304110 0.5976642370 4286613393
-0.2873150110 -0.1630042642 0.5978032351 4288191396
-0.2869608104 -0.1621399373 0.5970662832 4288915119
-0.2870270610 -0.1615138352 0.5972040892 4290691528
-0.2870931029 -0.1608872861 0.5973414779 4285757053
-0.2871588767 -0.1602603197 0.5974783897 4280954164
-0.2872244418 -0.1596329212 0.5976147652 4282138438
-0.2872897983 -0.1590050906 0.5977507234 4282138438
-0.2873549163 -0.1583768427 0.5978862047 4281612094
-0.2878412306 -0.1579794586 0.5988981128 4281480506
-0.2879059911 -0.1573494226 0.5990328193 4280888369
-0.2879704833 -0.1567189693 0.5991670489 4280296232
-0.2880347967 -0.1560880840 0.5993008018 4279901474
-0.2876770198 -0.1552291811 0.5985564590 4279704095
-0.2666454017 -0.1432641894 0.5547968745 4279506716
-0.2553102374 -0.1365837753 0.5312123299 4279309592
-0.2509417236 -0.1313461810 0.5221229792 4279045651
-0.2509958148 -0.1307942420 0.5222355127 4279111444
-0.2510496974 -0.1302419603 0.5223476291 4279177237
-0.2511034012 -0.1296893209 0.5224593282 4279177237
-0.2511568666 -0.1291363239 0.5225706100 4279177237
-0.2512101233 -0.1285829693 0.5226814151 4278979858
-0.2508401871 -0.1278137416 0.5219117403 4278848272
-0.2508929670 -0.1272606254 0.5220215321 4279243030
-0.2505223453 -0.1264934838 0.5212503672 4279571995
-0.2514211237 -0.1263660789 0.5231204629 4280624683
-0.2625373006 -0.1258839369 0.5462493896 4281809475
-0.2860805094 -0.1653313488 0.5966133475 4289245111
-0.2861478031 -0.1647071987 0.5967537165 4288389802
-0.2862148881 -0.1640826166 0.5968935490 4286744979
-0.2862817347 -0.1634575874 0.5970329642 4286218635
-0.2859284878 -0.1625933796 0.5962963104 4289968318
-0.2855748236 -0.1617305577 0.5955587626 4290692041
-0.2856408060 -0.1611060649 0.5956963897 4290494149
-0.2852863967 -0.1602451354 0.5949572921 4285822846
-0.2853518426 -0.1596207023 0.5950937271 4280690992
-0.2858373821 -0.1592299938 0.5961063504 4281217336
-0.2859024704 -0.1586037725 0.5962420702 4281612094
-0.2859673202 -0.1579771340 0.5963773131 4281217336
-0.2864525914 -0.1575814635 0.5973893404 4281019955
-0.2869378030 -0.1571835279 0.5984012485 4280296232
-0.2865813375 -0.1563242078 0.5976577997 4279572509
-0.2866453826 -0.1556949466 0.5977913737 4279111958
-0.2867091596 -0.1550652683 0.5979244113 4278980372
-0.2829827964 -0.1523941755 0.5901531577 4278980372
-0.2796757221 -0.1499651819 0.5832563043 4279177237
-0.2515658736 -0.1337265670 0.5246340036 4279111444
-0.2516207993 -0.1331727207 0.5247485042 4279177237
-0.2499892265 -0.1317299455 0.5213459730 4279177237
-0.2504650354 -0.1314003170 0.5223382115 4279111444
-0.2505190670 -0.1308481842 0.5224509239 4279111444
-0.2505728900 -0.1302956939 0.5225631595 4279045651
-0.2506265044 -0.1297428459 0.5226749778 4279045651
-0.2506799400 -0.1291896403 0.5227863789 4279177237
-0.2507331371 -0.1286360919 0.5228973627 4279440409
-0.2503639460 -0.1278665662 0.5221273899 4279045651
-0.2508389354 -0.1275279373 0.5231180191 4279177237
-0.2508915365 -0.1269733310 0.5232276917 4279243030
-0.2513663769 -0.1266312003 0.5242179632 4278914065
-0.2514186502 -0.1260749549 0.5243269801 4279506202
-0.2846967876 -0.1649136543 0.5951060653 4289113525
-0.2847638130 -0.1642911136 0.5952461958 4288192423
-0.2848306000 -0.1636681408 0.5953857899 4286613393
-0.2844782174 -0.1628049463 0.5946491957 4286350221
-0.2845444977 -0.1621820182 0.5947877169 4290363076
-0.2846105099 -0.1615586579 0.5949257612 4291152592
-0.2846763432 -0.1609348506 0.5950633287 4289639353
-0.2843225598 -0.1600745320 0.5943238139 4285889152
-0.2843878269 -0.1594507843 0.5944602489 4281612094
-0.2848724127 -0.1590608656 0.5954732299 4281348922
-0.2849373221 -0.1584353447 0.5956088901 4281217336
-0.2850020230 -0.1578094065 0.5957441330 4280493613
-0.2854863107 -0.1574145257 0.5967563987 4280427818
-0.2859705687 -0.1570173651 0.5977686644 4279835681
-0.2851947248 -0.1559290141 0.5961468816 4279308823
-0.2852584720 -0.1553013772 0.5962802172 4279045651
-0.2853220403 -0.1546733081 0.5964130163 4279111444
-0.2811823189 -0.1517761201 0.5877597332 4279243030
-0.2572819591 -0.1382776797 0.5378004313 4279374616
-0.2507205307 -0.1330043226 0.5240849853 4279571995
-0.2499877363 -0.1314544082 0.5225532055 4279703581
-0.2500417233 -0.1309020668 0.5226660371 4279835167
-0.2500954866 -0.1303493679 0.5227784514 4279966753
-0.2501490414 -0.1297963113 0.5228903890 4280229925
-0.2502024174 -0.1292429119 0.5230019093 4280558890
-0.2502555549 -0.1286891550 0.5231130719 4280164132
-0.2503085136 -0.1281350404 0.5232236981 4279571995
-0.2499397695 -0.1273657978 0.5224529505 4279243030
-0.2495706379 -0.1265980750 0.5216813684 4279243030
-0.2504661083 -0.1264706105 0.5235531330 4279177237
-0.2833155990 -0.1644954830 0.5935971141 4288850355
-0.2833823562 -0.1638745666 0.5937369466 4287929253
-0.2834489048 -0.1632531881 0.5938763618 4286613393
-0.2835152149 -0.1626313925 0.5940153003 4286744979
-0.2831630409 -0.1617702097 0.5932773948 4290297283
-0.2832288146 -0.1611484587 0.5934152007 4290757834
-0.2832943499 -0.1605262607 0.5935525298 4289047216
-0.2829411030 -0.1596674621 0.5928124785 4283849569
-0.2830061316 -0.1590453237 0.5929486752 4282007365
-0.2830708921 -0.1584227681 0.5930843949 4281086263
-0.2831354439 -0.1577997953 0.5932196379 4280888371
-0.2831997871 -0.1571763903 0.5933544040 4279704097
-0.2841019332 -0.1570157260 0.5952445865 4279440923
-0.2841660082 -0.1563896239 0.5953788161 4279177751
-0.2842298448 -0.1557631046 0.5955125690 4279111444
-0.2838741541 -0.1549073458 0.5947673321 4279243030
-0.2839374244 -0.1542809010 0.5948999524 4279506202
-0.2819029987 -0.1525192261 0.5906374454 4279637788
-0.2506062388 -0.1338364482 0.5250650644 4279835167
-0.2498212904 -0.1328356862 0.5234205127 4279966753
-0.2490357906 -0.1318382919 0.5217747092 4280032546
-0.2490898073 -0.1312870383 0.5218878984 4280032546
-0.2495637685 -0.1309558898 0.5228809118 4280098339
-0.2496174872 -0.1304029822 0.5229934454 4280229925
-0.2496709824 -0.1298497319 0.5231055617 4280558890
-0.2497242838 -0.1292961240 0.5232172608 4280953648
-0.2497773916 -0.1287421584 0.5233284831 4281216820
-0.2494096905 -0.1279720366 0.5225580931 4281414199
-0.2490416020 -0.1272034198 0.5217869282 4280953648
-0.2499354333 -0.1270781457 0.5236596465 4279900960
-0.2504085600 -0.1267357767 0.5246509314 4279308823
-0.2504607141 -0.1261791289 0.5247601867 4279243030
-0.2505126595 -0.1256221384 0.5248690248 4279308823
-0.2505643964 -0.1250647902 0.5249773860 4279440409
-0.2518795133 -0.1251348704 0.5277328491 4278848786
-0.2510885298 -0.1241573840 0.5260755420 4280362025
-0.2597766817 -0.1254298091 0.5442788005 4280230443
-0.2671049237 -0.1271027774 0.5596327782 4290165184
-0.2819369733 -0.1640768498 0.5920864344 4288586928
-0.2820034623 -0.1634575427 0.5922260284 4287600033
-0.2820697129 -0.1628377885 0.5923652053 4286415759
-0.2817184031 -0.1619776338 0.5916274190 4286678931
-0.2822015882 -0.1615969837 0.5926421285 4290692041
-0.2818496227 -0.1607377827 0.5919029713 4290231490
-0.2819149196 -0.1601172239 0.5920400620 4289113009
-0.2815622091 -0.1592599303 0.5912994146 4284046948
-0.2816269696 -0.1586394161 0.5914353728 4281875779
-0.2816914618 -0.1580184847 0.5915708542 4280954677
-0.2817557752 -0.1573971212 0.5917058587 4279967269
-0.2822379470 -0.1570079327 0.5927185416 4278848788
-0.2818836868 -0.1561531276 0.5919744968 4278914579
-0.2827839255 -0.1559920013 0.5938650966 4279046165
-0.2824290991 -0.1551372707 0.5931199193 4279308823
-0.2824923694 -0.1545128673 0.5932527781 4279571995
-0.2821367979 -0.1536600739 0.5925060511 4279835167
-0.2805247307 -0.1521275342 0.5891206264 4279966753
-0.2500705719 -0.1344453841 0.5251649022 4280098339
-0.2497065514 -0.1336670220 0.5244004130 4280163878
-0.2505993247 -0.1335601807 0.5262752771 4280098085
-0.2485581785 -0.1318923682 0.5219887495 4280032292
-0.2490313947 -0.1315623969 0.5229824781 4279966499
-0.2490852475 -0.1310096532 0.5230956078 4279769120
-0.2491388917 -0.1304565519 0.5232082605 4279769120
-0.2491923422 -0.1299030781 0.5233204961 4280032292
-0.2492455840 -0.1293492764 0.5234323144 4280229671
-0.2492986172 -0.1287951022 0.5235437155 4280690222
-0.2489316761 -0.1280246824 0.5227730870 4281216566
-0.2485643327 -0.1272557825 0.5220016837 4281611324
-0.2494564950 -0.1271304786 0.5238752961 4281479738
-0.2499287575 -0.1267879903 0.5248670578 4280821808
-0.2499808520 -0.1262311339 0.5249764323 4279900706
-0.2504529655 -0.1258851439 0.5259678960 4279374362
-0.2500844300 -0.1251163632 0.5251939297 4279440155
-0.2505562901 -0.1247678176 0.5261849165 4279111443
-0.2523410320 -0.1244789734 0.5299329758 4281151541
-0.2536542714 -0.1245349273 0.5326908827 4283454296
-0.2566507459 -0.1254072338 0.5389837027 4283717470
-0.2554399669 -0.1242195889 0.5364409685 4282270024
-0.2605420947 -0.1260928065 0.5471557379 4280822580
-0.2614361048 -0.1259154528 0.5490332246 4286809743
-0.2635934353 -0.1263394356 0.5535637736 4289507254
-0.2644879222 -0.1261510253 0.5554422140 4290362563
-0.2804944515 -0.1642750204 0.5904342532 4289376444
-0.2805608809 -0.1636577547 0.5905740857 4288586928
-0.2806271017 -0.1630400568 0.5907134414 4287402654
-0.2806931138 -0.1624219120 0.5908523798 4286087049
-0.2803423107 -0.1615632772 0.5901139379 4286416014
-0.2804077864 -0.1609451920 0.5902517438 4290494662
-0.2804729939 -0.1603266746 0.5903890729 4289968318
-0.2801211774 -0.1594704092 0.5896484852 4287994528
-0.2801858783 -0.1588519514 0.5897846818 4282928467
-0.2802503407 -0.1582330614 0.5899203420 4280756785
-0.2803145945 -0.1576137394 0.5900556445 4279967269
-0.2803786397 -0.1569940001 0.5901904106 4279046167
-0.2808597684 -0.1566065252 0.5912031531 4278454030
-0.2809234262 -0.1559850276 0.5913372040 4279111958
-0.2809868753 -0.1553630829 0.5914707780 4279440923
-0.2806324959 -0.1545108110 0.5907248259 4279835167
-0.2790246010 -0.1529729515 0.5873402357 4279966753
-0.2769979537 -0.1512140185 0.5830741525 4280032546
-0.2515684068 -0.1367435902 0.5295456052 4280032546
-0.2503702343 -0.1355067343 0.5270234346 4280164132
-0.2496442199 -0.1339460760 0.5254952312 4280229671
-0.2485523373 -0.1316162944 0.5231968164 4279966499
-0.2490246594 -0.1312839985 0.5241910219 4279769120
-0.2491318136 -0.1301751584 0.5244166255 4280032292
-0.2492910177 -0.1285092384 0.5247517228 4280229671
-0.2493961304 -0.1273968518 0.5249729753 4280887601
-0.2498676032 -0.1270533204 0.5259654522 4281348152
-0.2503390610 -0.1267075539 0.5269578099 4281150773
-0.2495522350 -0.1257256567 0.5253015757 4280295464
-0.2512818575 -0.1260093600 0.5289424062 4279571741
-0.2517532110 -0.1256569326 0.5299345851 4279243029
-0.2522245347 -0.1253022701 0.5309266448 4279177236
-0.2526957989 -0.1249454021 0.5319187045 4279308823
-0.2535868585 -0.1247929037 0.5337943435 4280822062
-0.2540581226 -0.1244306415 0.5347864032 4281612094
-0.2574694753 -0.1254992485 0.5419671535 4282335817
-0.2579412460 -0.1251259446 0.5429602265 4282993747
-0.2617744207 -0.1263731718 0.5510290265 4286678155
-0.2626670301 -0.1261897534 0.5529079437 4289112496
-0.2648208141 -0.1266051084 0.5574415326 4290428356
-0.2690773606 -0.1280107498 0.5664014816 4291876055
-0.2791212201 -0.1638538390 0.5889204144 4289179578
-0.2791873813 -0.1632381827 0.5890600085 4288390062
-0.2792533040 -0.1626221091 0.5891991258 4287205788
-0.2793190479 -0.1620055735 0.5893378258 4285889670
-0.2789687812 -0.1611484587 0.5885988474 4286350221
-0.2790339887 -0.1605319828 0.5887363553 4290363076
-0.2790989578 -0.1599150896 0.5888734460 4289968318
-0.2791636884 -0.1592977494 0.5890100598 4285296502
-0.2788120806 -0.1584435105 0.5882682204 4280033062
-0.2788763046 -0.1578262448 0.5884037018 4280427820
-0.2789402902 -0.1572085470 0.5885387063 4278914581
-0.2790040672 -0.1565904170 0.5886732340 4278980374
-0.2794841230 -0.1562046707 0.5896861553 4278717202
-0.2799641490 -0.1558166593 0.5906989574 4279440923
-0.2796107233 -0.1549644768 0.5899532437 4279769888
-0.2792569101 -0.1541137248 0.5892066956 4279901474
-0.2768181860 -0.1521189362 0.5840612054 4279835681
-0.2785480022 -0.1524165273 0.5877109766 4279769888
-0.2565047145 -0.1397535354 0.5412017107 4279769888
-0.2515555322 -0.1364673078 0.5307593346 4279966753
-0.2487449795 -0.1337763518 0.5248293281 4280098085
-0.2487995028 -0.1332224309 0.5249443650 4280032292
-0.2492713630 -0.1328907311 0.5259399414 4280032292
-0.2480726838 -0.1316701472 0.5234108567 4279966499
-0.2481264174 -0.1311170012 0.5235242248 4279834913
-0.2494333833 -0.1312229037 0.5262818336 4279966499
-0.2486511767 -0.1302284896 0.5246314406 4280098085
-0.2487043887 -0.1296733320 0.5247436762 4280098085
-0.2495935559 -0.1295518279 0.5266197920 4280098085
-0.2483920455 -0.1283458769 0.5240846872 4280229671
-0.2480262965 -0.1275754571 0.5233129859 4280427050
-0.2497518808 -0.1278775632 0.5269538164 4280361257
-0.2498042434 -0.1273187548 0.5270643234 4280361257
-0.2498563975 -0.1267596185 0.5271743536 4280690222
-0.2499083430 -0.1262001097 0.5272839069 4280690222
-0.2499600798 -0.1256402731 0.5273931026 4280361257
-0.2500116229 -0.1250800788 0.5275018215 4279637787
-0.2509006560 -0.1249366924 0.5293776393 4279506201
-0.2526277602 -0.1252044737 0.5330216289 4278650893
-0.2539362609 -0.1252577007 0.5357825160 4279703581
-0.2552450895 -0.1253049374 0.5385439992 4280493613
-0.2557157874 -0.1249365434 0.5395371318 4281677887
-0.2582828999 -0.1255852878 0.5449534655 4283717470
-0.2591733038 -0.1254106462 0.5468321443 4287862429
-0.2625805438 -0.1264438182 0.5540211201 4288915117
-0.2659889162 -0.1274615526 0.5612124801 4290428356
-0.2652021646 -0.1264628321 0.5595524907 4292073434
-0.2777505219 -0.1634321809 0.5874049664 4288982454
-0.2778164148 -0.1628181487 0.5875442624 4288258731
-0.2778820992 -0.1622036844 0.5876831412 4287008664
-0.2779475451 -0.1615887731 0.5878216028 4285627009
-0.2775978446 -0.1607331783 0.5870820284 4286284939
-0.2776627541 -0.1601183265 0.5872192979 4290494151
-0.2777274549 -0.1595030427 0.5873561502 4288586154
-0.2777919471 -0.1588873267 0.5874925256 4281019957
-0.2778562009 -0.1582711935 0.5876284242 4280098855
-0.2779202461 -0.1576546282 0.5877638459 4280098855
-0.2779840529 -0.1570376307 0.5878988504 4278717202
-0.2780476809 -0.1564202160 0.5880333185 4278519823
-0.2781110406 -0.1558023691 0.5881673694 4279046167
-0.2785899937 -0.1554160714 0.5891803503 4279704095
-0.2782371342 -0.1545654237 0.5884340405 4279967267
-0.2724759281 -0.1507247239 0.5762498975 4279967267
-0.2742014527 -0.1510349214 0.5798991323 4279835681
-0.2688524425 -0.1474568546 0.5685867071 4279769888
-0.2543427944 -0.1389011294 0.5379007459 4279835681
-0.2498192340 -0.1358437091 0.5283340216 4279770143
-0.2511238456 -0.1359630376 0.5310930610 4279704350
-0.2490964085 -0.1342800260 0.5268053412 4279703327
-0.2487344146 -0.1335004121 0.5260397792 4279834913
-0.2496222258 -0.1333903670 0.5279173851 4279900706
-0.2484260947 -0.1321674436 0.5253877044 4279900706
-0.2484799474 -0.1316122264 0.5255016088 4279966499
-0.2497846037 -0.1317163408 0.5282607675 4280032292
-0.2490041405 -0.1307196766 0.5266101956 4280098085
-0.2490574718 -0.1301624477 0.5267229676 4280032292
-0.2499451488 -0.1300390512 0.5286002755 4280098085
-0.2487461716 -0.1288307607 0.5260646343 4280098085
-0.2487987876 -0.1282733977 0.5261759162 4280295464
-0.2496862859 -0.1281442642 0.5280528665 4280295464
-0.2497386783 -0.1275843233 0.5281636715 4280229671
-0.2497908622 -0.1270240247 0.5282739997 4280295464
-0.2502606213 -0.1266748607 0.5292674899 4280492843
-0.2494767159 -0.1256918609 0.5276096463 4280492843
-0.2499461621 -0.1253410578 0.5286024213 4280229924
-0.2504155636 -0.1249880344 0.5295951366 4279637787
-0.2513030767 -0.1248405054 0.5314721465 4279374616
-0.2534453869 -0.1253092140 0.5360028148 4279045651
-0.2547517121 -0.1253564805 0.5387655497 4279834913
-0.2561098039 -0.1248211712 0.5416377187 4281217336
-0.2590910196 -0.1256653219 0.5479425788 4286414983
-0.2599799335 -0.1254855841 0.5498225093 4288980910
-0.2638000846 -0.1267095953 0.5579016209 4290559942
-0.2763824165 -0.1630100757 0.5858877897 4288916148
-0.2764480412 -0.1623976529 0.5860268474 4288192425
-0.2765134275 -0.1617847979 0.5861654878 4286744979
-0.2765786052 -0.1611715108 0.5863037109 4286152070
-0.2762294412 -0.1603174359 0.5855634809 4287336344
-0.2762941122 -0.1597042084 0.5857005715 4290099389
-0.2763585448 -0.1590905488 0.5858371258 4285230707
-0.2764227390 -0.1584764570 0.5859732628 4280164646
-0.2764867544 -0.1578619331 0.5861089230 4280690990
-0.2765505314 -0.1572469920 0.5862441659 4279309337
-0.2766140997 -0.1566316187 0.5863788724 4278914579
-0.2766774297 -0.1560158283 0.5865131617 4279440925
-0.2767405510 -0.1553996056 0.5866469145 4279967269
-0.2772184312 -0.1550150365 0.5876600146 4280098855
-0.2764510214 -0.1539347917 0.5860332251 4279967269
-0.2756830156 -0.1528578252 0.5844051242 4279967269
-0.2736685574 -0.1510962993 0.5801348090 4279967269
-0.2533766329 -0.1392960548 0.5371190906 4279900706
-0.2496939600 -0.1366833746 0.5293123722 4279834913
-0.2505805194 -0.1365785003 0.5311917663 4279769120
-0.2498046905 -0.1355672628 0.5295470953 4279703327
-0.2494440079 -0.1347839981 0.5287825465 4279637788
-0.2490829378 -0.1340022385 0.5280171037 4279637788
-0.2491374165 -0.1334447563 0.5281326175 4279703581
-0.2491916865 -0.1328869015 0.5282476544 4279835167
-0.2496618629 -0.1325495988 0.5292443037 4279900960
-0.2492996156 -0.1317701042 0.5284764171 4279966753
-0.2497695535 -0.1314302087 0.5294726491 4279900960
-0.2498230934 -0.1308699846 0.5295861363 4279900960
-0.2502928972 -0.1305265725 0.5305820107 4280164132
-0.2490964532 -0.1293159425 0.5280457735 4280164132
-0.2503991127 -0.1294024289 0.5308071971 4280098339
-0.2496184707 -0.1284110844 0.5291523337 4280098339
-0.2492540777 -0.1276365668 0.5283799171 4280164132
-0.2501400113 -0.1275010705 0.5302579403 4280164132
-0.2497750968 -0.1267267764 0.5294843912 4280229925
-0.2502439618 -0.1263752580 0.5304782987 4280427304
-0.2502956390 -0.1258118302 0.5305878520 4280690222
-0.2503471076 -0.1252480596 0.5306969285 4280098085
-0.2512330115 -0.1250995547 0.5325749516 4279637788
-0.2521190643 -0.1249469370 0.5344532132 4279045651
-0.2525877357 -0.1245842800 0.5354467034 4279375385
-0.2559794486 -0.1256542802 0.5426366329 4280362280
-0.2560309470 -0.1250765324 0.5427458286 4281479992
-0.2573354840 -0.1251077205 0.5455112457 4283322196
-0.2607294917 -0.1261436641 0.5527060032 4289046186
-0.2599454224 -0.1251520813 0.5510438681 4290362046
-0.2650128007 -0.1269676089 0.5617859364 4292336604
-0.2754298151 -0.1628316045 0.5852463245 4288718769
-0.2754952610 -0.1622198969 0.5853853822 4287929251
-0.2755604982 -0.1616077423 0.5855240226 4286744977
-0.2752122879 -0.1607537866 0.5847840905 4286152324
-0.2752769589 -0.1601416916 0.5849215388 4287665563
-0.2753414512 -0.1595291495 0.5850585699 4288915115
-0.2749921978 -0.1586775780 0.5843164325 4282204229
-0.2750561535 -0.1580651104 0.5844523311 4280362025
-0.2751198709 -0.1574522257 0.5845877528 4279704095
-0.2751833797 -0.1568389088 0.5847226977 4279111958
-0.2752466798 -0.1562251598 0.5848572254 4279111958
-0.2753097713 -0.1556109935 0.5849912167 4279769888
-0.2753726244 -0.1549964100 0.5851247907 4280033060
-0.2758494616 -0.1546135545 0.5861380100 4280098855
-0.2746691108 -0.1533035189 0.5836299658 4279967269
-0.2602279782 -0.1446289867 0.5529447198 4279901476
-0.2702337503 -0.1495520025 0.5742054582 4279835683
-0.2566137612 -0.1414086372 0.5452650785 4279834913
-0.2496218979 -0.1369664073 0.5304084420 4279834913
-0.2509216368 -0.1370871812 0.5331701636 4279834913
-0.2493178546 -0.1356223673 0.5297623873 4279769120
-0.2493728548 -0.1350635588 0.5298792720 4279506718
-0.2490126193 -0.1342805624 0.5291138291 4279572511
-0.2498973459 -0.1341676861 0.5309937596 4279638304
-0.2491214275 -0.1331629604 0.5293450356 4279704097
-0.2491755188 -0.1326036006 0.5294599533 4279704097
-0.2496447861 -0.1322639585 0.5304570794 4279769890
-0.2496985644 -0.1317029446 0.5305713415 4279835683
-0.2501676977 -0.1313597858 0.5315681696 4279901476
-0.2502211630 -0.1307971179 0.5316817760 4280033062
-0.2494429201 -0.1298014075 0.5300281644 4280033062
-0.2490799576 -0.1290244907 0.5292568803 4280033062
-0.2495484352 -0.1286780238 0.5302523375 4280098855
-0.2496008873 -0.1281157881 0.5303637981 4280164648
-0.2492370307 -0.1273406148 0.5295906663 4280164648
-0.2497051507 -0.1269902736 0.5305853486 4280164648
-0.2501732409 -0.1266376972 0.5315799713 4280230441
-0.2506412864 -0.1262829006 0.5325744748 4280558636
-0.2511093020 -0.1259258687 0.5335689187 4280624429
-0.2515772581 -0.1255666018 0.5345633030 4279638302
-0.2520451844 -0.1252051145 0.5355575681 4279309337
-0.2537631392 -0.1254594177 0.5392079353 4279309592
-0.2529809177 -0.1244754344 0.5375458598 4279506971
-0.2530318499 -0.1239031255 0.5376540422 4280756783
-0.2568350434 -0.1251590997 0.5457352400 4281546299
-0.2581373453 -0.1251843125 0.5485025048 4287270545
-0.2577715516 -0.1243983433 0.5477252007 4290362816
-0.2619944215 -0.1258177310 0.5566981435 4292402910
-0.2735886574 -0.1627731621 0.5827093124 4289376697
-0.2736539245 -0.1621644199 0.5828483701 4288455595
-0.2737190127 -0.1615552455 0.5829869509 4287600286
-0.2737838626 -0.1609456390 0.5831251144 4286613391
-0.2738485038 -0.1603355855 0.5832628012 4285954945
-0.2739129364 -0.1597251147 0.5834000111 4287665563
-0.2739771605 -0.1591142118 0.5835368037 4287994013
-0.2740411460 -0.1585028768 0.5836731195 4280559404
-0.2741049230 -0.1578911096 0.5838089585 4280822576
-0.2737555802 -0.1570420563 0.5830649137 4279375130
-0.2738188505 -0.1564303637 0.5831996202 4279309337
-0.2738818824 -0.1558182389 0.5833338499 4279506716
-0.2739446759 -0.1552057117 0.5834676623 4279901474
-0.2740072906 -0.1545927525 0.5836009383 4280033060
-0.2740696669 -0.1539793760 0.5837337971 4280164648
-0.2728914022 -0.1526716202 0.5812242627 4280033062
-0.2708852291 -0.1509082019 0.5769513845 4279967269
-0.2672232687 -0.1482357979 0.5691518784 4279835683
-0.2552843988 -0.1410088688 0.5437235832 4279900706
-0.2524445355 -0.1388428360 0.5376750231 4279900706
-0.2525007129 -0.1382762045 0.5377946496 4279900706
-0.2492444515 -0.1359031647 0.5308592319 4279834913
-0.2492994666 -0.1353432238 0.5309764743 4279572511
-0.2497685105 -0.1350068003 0.5319754481 4279638304
-0.2494089156 -0.1342222095 0.5312095284 4279769890
-0.2490489483 -0.1334391385 0.5304428339 4279835683
-0.2491030693 -0.1328786463 0.5305581093 4279901476
-0.2491569817 -0.1323177814 0.5306729674 4279901476
-0.2492107004 -0.1317565739 0.5307873487 4279967269
-0.2496789545 -0.1314132810 0.5317847133 4279967269
-0.2497323453 -0.1308504045 0.5318984389 4279967269
-0.2493706048 -0.1300707459 0.5311279297 4280033062
-0.2490084767 -0.1292926073 0.5303566456 4280098855
-0.2490610778 -0.1287305206 0.5304687023 4280098855
-0.2491134703 -0.1281680912 0.5305802822 4280164648
-0.2495809197 -0.1278179735 0.5315759182 4280164648
-0.2496329844 -0.1272538900 0.5316867828 4280164648
-0.2496848255 -0.1266894639 0.5317972302 4280164648
-0.2497364730 -0.1261246800 0.5319072008 4280229671
-0.2506191432 -0.1259773821 0.5337871909 4280821808
-0.2532164454 -0.1260845065 0.5393191576 4279638302
-0.2524361908 -0.1250986159 0.5376572609 4279375130
-0.2529032230 -0.1247315854 0.5386520028 4279375130
-0.2542023361 -0.1247707382 0.5414189100 4280625197
-0.2555017173 -0.1248038858 0.5441864133 4280888369
-0.2584662139 -0.1256403029 0.5505004525 4285099376
-0.2585175931 -0.1250535101 0.5506098866 4290297023
-0.2718173265 -0.1621027887 0.5803093910 4288981939
-0.2722935677 -0.1617408991 0.5813261271 4288126630
-0.2723583877 -0.1611333489 0.5814644694 4287271321
-0.2724229693 -0.1605253518 0.5816023946 4286416012
-0.2724873424 -0.1599169374 0.5817398429 4285691773
-0.2725515068 -0.1593080759 0.5818768144 4287270805
-0.2726154327 -0.1586987972 0.5820133090 4286151809
-0.2726791799 -0.1580890864 0.5821493864 4280690990
-0.2727426887 -0.1574789584 0.5822849870 4280164646
-0.2728059888 -0.1568683982 0.5824201107 4279375130
-0.2728690803 -0.1562574059 0.5825548172 4279309337
-0.2729319334 -0.1556459963 0.5826889873 4279572509
-0.2729945779 -0.1550341696 0.5828227401 4279769888
-0.2726445496 -0.1541886479 0.5820754170 4280033060
-0.2722940743 -0.1533445567 0.5813272595 4280033060
-0.2711179256 -0.1520390809 0.5788161755 4280033060
-0.2687026858 -0.1500472873 0.5736598969 4280033062
-0.2642219067 -0.1469184011 0.5640937686 4279901476
-0.2613906264 -0.1447240561 0.5580492020 4279900706
-0.2502971888 -0.1379882395 0.5343655348 4279900706
-0.2491135597 -0.1367447972 0.5318385959 4279966499
-0.2487556040 -0.1359582543 0.5310744047 4279966499
-0.2488105744 -0.1353980899 0.5311917067 4279835683
-0.2488653362 -0.1348375678 0.5313086510 4279901476
-0.2493333817 -0.1344997287 0.5323078632 4280033062
-0.2489742488 -0.1337154210 0.5315411687 4280164648
-0.2490283996 -0.1331537962 0.5316567421 4280230441
-0.2486685812 -0.1323715597 0.5308886170 4280164648
-0.2487222403 -0.1318101287 0.5310031176 4280164648
-0.2491896302 -0.1314667314 0.5320009589 4280098855
-0.2496569753 -0.1311210990 0.5329987407 4280098855
-0.2492960691 -0.1303402036 0.5322282314 4280164648
-0.2489347905 -0.1295608282 0.5314569473 4280164648
-0.2494017035 -0.1292122453 0.5324537158 4280164648
-0.2490398288 -0.1284340173 0.5316811800 4280230441
-0.2490920424 -0.1278700829 0.5317926407 4280230441
-0.2495585829 -0.1275176257 0.5327886939 4280164648
-0.2491958290 -0.1267411560 0.5320141912 4280033062
-0.2496621311 -0.1263861060 0.5330097079 4280164648
-0.2497135848 -0.1258198172 0.5331196189 4280625199
-0.2505946159 -0.1256693155 0.5350005031 4280625197
-0.2510608137 -0.1253075600 0.5359957814 4279967267
-0.2527721226 -0.1255621165 0.5396493673 4279440923
-0.2532384694 -0.1251930743 0.5406449437 4279506716
-0.2561961412 -0.1260475516 0.5469593406 4280164646
-0.2545863390 -0.1246516332 0.5435225368 4280954162
-0.2550526261 -0.1242749393 0.5445180535 4283257172
-0.2592581511 -0.1257091314 0.5534965396 4289770679
-0.2597250938 -0.1253194511 0.5544933677 4292863461
-0.2708710730 -0.1619224101 0.5796636939 4288783790
-0.2709358037 -0.1613169163 0.5798022747 4287862688
-0.2710003257 -0.1607109755 0.5799403191 4287073426
-0.2710646689 -0.1601046175 0.5800780058 4286349703
-0.2711287737 -0.1594978124 0.5802151561 4285625980
-0.2711926401 -0.1588905901 0.5803518891 4286744461
-0.2712563276 -0.1582829356 0.5804881454 4284506984
-0.2713198066 -0.1576748490 0.5806239843 4280954162
-0.2713830471 -0.1570663452 0.5807593465 4279440923
-0.2714460790 -0.1564574093 0.5808942318 4279177751
-0.2715089023 -0.1558480561 0.5810286403 4279375130
-0.2715714872 -0.1552382708 0.5811626315 4279704095
-0.2712223232 -0.1543937922 0.5804153681 4280098853
-0.2708727419 -0.1535507292 0.5796672702 4280098853
-0.2705227435 -0.1527091116 0.5789182782 4280033060
-0.2693486512 -0.1514059156 0.5764057040 4280033060
-0.2657021284 -0.1487243772 0.5686022043 4279967267
-0.2534010112 -0.1412364244 0.5422778130 4279901474
-0.2513972819 -0.1395218819 0.5379898548 4279966753
-0.2489802092 -0.1375884414 0.5328173041 4280032546
-0.2502726316 -0.1377075762 0.5355830789 4280163878
-0.2503281832 -0.1371429414 0.5357019901 4280229671
-0.2487335801 -0.1356779188 0.5322895050 4280296234
-0.2487883568 -0.1351162642 0.5324067473 4280362027
-0.2488429546 -0.1345542371 0.5325235724 4280427820
-0.2484845668 -0.1337696314 0.5317566395 4280427820
-0.2485386580 -0.1332077980 0.5318723917 4280493613
-0.2485925406 -0.1326455921 0.5319876671 4280493613
-0.2486462146 -0.1320830435 0.5321025848 4280427820
-0.2491128147 -0.1317385882 0.5331010818 4280362027
-0.2491661757 -0.1311743557 0.5332152247 4280427820
-0.2483927161 -0.1301765740 0.5315600634 4280427820
-0.2496856451 -0.1302604973 0.5343269706 4280427820
-0.2484980524 -0.1290500760 0.5317854881 4280296234
-0.2489639670 -0.1287000775 0.5327825546 4280230441
-0.2490161955 -0.1281349957 0.5328943133 4280230441
-0.2490682304 -0.1275695562 0.5330056548 4280164648
-0.2495338619 -0.1272147298 0.5340021253 4280033062
-0.2491716444 -0.1264376193 0.5332269669 4280164648
-0.2492230535 -0.1258711219 0.5333369970 4280493613
-0.2501024008 -0.1257205755 0.5352187753 4281084980
-0.2505677044 -0.1253587008 0.5362145305 4280492843
-0.2506187260 -0.1247883365 0.5363237262 4279704095
-0.2514981925 -0.1246282533 0.5382058024 4279375130
-0.2532066107 -0.1248728037 0.5418617725 4279506716
-0.2553299665 -0.1253128797 0.5464057922 4280690990
-0.2570393682 -0.1255406737 0.5500639081 4282336070
-0.2562612593 -0.1245513111 0.5483987331 4288981163
-0.2694514990 -0.1620997638 0.5779995918 4289244343
-0.2695161700 -0.1614963263 0.5781383514 4288454825
-0.2695806324 -0.1608924568 0.5782766342 4287533723
-0.2700546980 -0.1605317444 0.5792935491 4286875534
-0.2701188326 -0.1599260867 0.5794311762 4286086018
-0.2697727978 -0.1590782255 0.5786888003 4285691262
-0.2698363960 -0.1584726274 0.5788252950 4285888641
-0.2698998153 -0.1578666121 0.5789613128 4283849054
-0.2699630260 -0.1572601497 0.5790969133 4280822576
-0.2700259984 -0.1566532701 0.5792319775 4279440923
-0.2700887620 -0.1560459733 0.5793666244 4279046165
-0.2701513171 -0.1554382443 0.5795008540 4279572509
-0.2698030174 -0.1545947939 0.5787536502 4280033060
-0.2698650360 -0.1539871544 0.5788866878 4280493611
-0.2695159912 -0.1531456411 0.5781379938 4280164646
-0.2683446705 -0.1518405080 0.5756254196 4280296232
-0.2671725750 -0.1505405158 0.5731111169 4280362025
-0.2631218135 -0.1476309597 0.5644218326 4280296232
-0.2582465410 -0.1442800760 0.5539638996 4280296232
-0.2529574931 -0.1407222599 0.5426183939 4280493097
-0.2505457103 -0.1387834102 0.5374448895 4280624683
-0.2489556074 -0.1373092681 0.5340339541 4280690476
-0.2498340905 -0.1371983439 0.5359184146 4280690476
-0.2482426763 -0.1357327551 0.5325046182 4280690992
-0.2482973933 -0.1351708919 0.5326220393 4280756785
-0.2483519167 -0.1346086562 0.5327389836 4280822578
-0.2484062314 -0.1340460628 0.5328555107 4280822578
-0.2484603524 -0.1334830970 0.5329715610 4280822578
-0.2485142648 -0.1329197586 0.5330872536 4280822578
-0.2485679686 -0.1323560625 0.5332024097 4280756785
-0.2486214638 -0.1317919940 0.5333172083 4280690992
-0.2486747652 -0.1312275678 0.5334315300 4280690992
-0.2487278581 -0.1306627691 0.5335453749 4280625199
-0.2483681589 -0.1298818737 0.5327738523 4280559406
-0.2484207451 -0.1293172985 0.5328866243 4280427820
-0.2484731376 -0.1287523657 0.5329989791 4280296234
-0.2485253066 -0.1281870753 0.5331109166 4280230441
-0.2485772669 -0.1276214272 0.5332223773 4280164648
-0.2486290336 -0.1270554215 0.5333334208 4280098855
-0.2486805767 -0.1264890730 0.5334439874 4280033062
-0.2491450906 -0.1261315495 0.5344403982 4280493613
-0.2504360974 -0.1261882484 0.5372097492 4280953394
-0.2504873574 -0.1256170720 0.5373196602 4281019187
-0.2509518266 -0.1252518892 0.5383160114 4280296232
-0.2514162660 -0.1248844787 0.5393123031 4279309337
-0.2522942424 -0.1247192845 0.5411956310 4279440923
-0.2535860240 -0.1247534826 0.5439666510 4280493611
-0.2544643283 -0.1245790869 0.5458506942 4282138691
-0.2553427219 -0.1244005635 0.5477349758 4288323233
-0.2680994868 -0.1616715938 0.5764728785 4288784562
-0.2681638896 -0.1610697806 0.5766113400 4288191396
-0.2682280838 -0.1604675204 0.5767493844 4287270294
-0.2687010467 -0.1601085365 0.5777663589 4286546571
-0.2687649429 -0.1595045030 0.5779037476 4285757055
-0.2684194148 -0.1586581916 0.5771607757 4285691262
-0.2684827745 -0.1580542177 0.5772970319 4284770160
-0.2685459256 -0.1574498266 0.5774328113 4283388503
-0.2686088383 -0.1568450034 0.5775681138 4280230439
-0.2686715722 -0.1562397480 0.5777029991 4279375130
-0.2687340677 -0.1556340754 0.5778373480 4278914579
-0.2687963545 -0.1550279856 0.5779713392 4279638302
-0.2684485912 -0.1541860700 0.5772235394 4280493611
-0.2681004107 -0.1533455998 0.5764749050 4280625197
-0.2677518427 -0.1525065452 0.5757253766 4280427818
-0.2665826082 -0.1512036920 0.5732112527 4280756783
-0.2645921707 -0.1494425982 0.5689313412 4280756783
-0.2605490088 -0.1465365440 0.5602377057 4280756783
-0.2560933828 -0.1434188187 0.5506570935 4280822576
-0.2520459890 -0.1405500323 0.5419543386 4281085234
-0.2500495315 -0.1388393492 0.5376614928 4281085234
-0.2488732934 -0.1375916749 0.5351323485 4281085234
-0.2485178560 -0.1368014514 0.5343680978 4281151027
-0.2485729009 -0.1362379044 0.5344864130 4280954164
-0.2482167929 -0.1354497224 0.5337207317 4281019957
-0.2478602976 -0.1346630305 0.5329541564 4281085750
-0.2479145527 -0.1341002285 0.5330708027 4281085750
-0.2479685992 -0.1335370541 0.5331870317 4281085750
-0.2480224520 -0.1329735219 0.5333028436 4281019957
-0.2480760962 -0.1324096173 0.5334181786 4281019957
-0.2481295317 -0.1318453401 0.5335330963 4280954164
-0.2477711737 -0.1310629994 0.5327625275 4280888371
-0.2482357919 -0.1307157129 0.5337615609 4280756785
-0.2482886016 -0.1301503479 0.5338751078 4280756785
-0.2483412176 -0.1295846254 0.5339882374 4280690992
-0.2479816973 -0.1288045943 0.5332152247 4280559406
-0.2480338067 -0.1282390952 0.5333272815 4280493613
-0.2480857074 -0.1276732385 0.5334388614 4280493613
-0.2481374145 -0.1271070242 0.5335500240 4280493613
-0.2481888980 -0.1265404671 0.5336607099 4280493613
-0.2482401729 -0.1259735525 0.5337709785 4280756785
-0.2487036884 -0.1256146133 0.5347676277 4280822578
-0.2491671592 -0.1252534240 0.5357642174 4281217336
-0.2496306002 -0.1248900071 0.5367606878 4280559406
-0.2513320744 -0.1251408160 0.5404192805 4279375132
-0.2522084415 -0.1249746308 0.5423036218 4279441436
-0.2534978092 -0.1250079125 0.5450760126 4280099366
-0.2527227104 -0.1240219250 0.5434094071 4281941569
-0.2548382580 -0.1244512945 0.5479583144 4287862939
-0.2667500973 -0.1612429470 0.5749444366 4288652976
-0.2668142319 -0.1606427580 0.5750826597 4287928481
-0.2668781579 -0.1600421369 0.5752204657 4286875793
-0.2669418752 -0.1594410837 0.5753577948 4286283399
-0.2670053542 -0.1588395983 0.5754946470 4285428090
-0.2670686543 -0.1582376808 0.5756310821 4285494140
-0.2671317458 -0.1576353461 0.5757670999 4283849315
-0.2671946287 -0.1570325792 0.5759025812 4283059538
-0.2672573030 -0.1564293802 0.5760376453 4280164646
-0.2673197389 -0.1558257639 0.5761722922 4279177751
-0.2673819959 -0.1552217305 0.5763064027 4279111958
-0.2670350671 -0.1543808579 0.5755587220 4279835681
-0.2666877508 -0.1535414159 0.5748101473 4281019955
-0.2663400471 -0.1527034044 0.5740606785 4280690990
-0.2659919262 -0.1518668234 0.5733103752 4280954162
-0.2644154727 -0.1503335387 0.5699124932 4281019955
-0.2616098523 -0.1481119096 0.5638653636 4281019955
-0.2579837143 -0.1454411298 0.5560497046 4281019955
-0.2547653019 -0.1430166066 0.5491127968 4281019955
-0.2515451908 -0.1406065673 0.5421723127 4281216820
-0.2495527267 -0.1388952136 0.5378777981 4281151027
-0.2487887442 -0.1378742009 0.5362311602 4281151027
-0.2488441169 -0.1373089701 0.5363504887 4281282613
-0.2476691306 -0.1360675097 0.5338180065 4281151543
-0.2477238178 -0.1355043203 0.5339358449 4281151543
-0.2473680675 -0.1347173303 0.5331690907 4281151543
-0.2474222630 -0.1341543347 0.5332859159 4281085750
-0.2474762499 -0.1335909516 0.5334022641 4281085750
-0.2475300431 -0.1330272108 0.5335181952 4281151543
-0.2471730262 -0.1322434247 0.5327486992 4281217336
-0.2480476648 -0.1321173608 0.5346338749 4281217336
-0.2476901561 -0.1313337833 0.5338633060 4281085750
-0.2481539696 -0.1309854388 0.5348629951 4281019957
-0.2473849356 -0.1299870908 0.5332054496 4281019957
-0.2474374026 -0.1294220984 0.5333185196 4281085750
-0.2474896610 -0.1288567483 0.5334311724 4280954164
-0.2475417107 -0.1282910556 0.5335433483 4280954164
-0.2475935668 -0.1277249902 0.5336551070 4281019957
-0.2480565608 -0.1273698062 0.5346530676 4281019957
-0.2476966232 -0.1265918016 0.5338772535 4280954677
-0.2481593788 -0.1262340248 0.5348746777 4280757298
-0.2494453639 -0.1262908131 0.5376464128 4280954164
-0.2490847856 -0.1255117655 0.5368692279 4281217336
-0.2495474219 -0.1251472682 0.5378663540 4280559406
-0.2504218817 -0.1249861121 0.5397511721 4279572511
-0.2508845329 -0.1246162057 0.5407483578 4279375643
-0.2529952824 -0.1250587702 0.5452978015 4279836194
-0.2530460358 -0.1244778633 0.5454071760 4281678397
-0.2543331683 -0.1245019659 0.5481814146 4287665560
-0.2654033005 -0.1608138233 0.5734143257 4288586413
-0.2654671669 -0.1602152586 0.5735523105 4287796895
-0.2655308247 -0.1596162766 0.5736898184 4287007379
-0.2655942738 -0.1590168476 0.5738269091 4286086277
-0.2656575143 -0.1584169865 0.5739635229 4285559933
-0.2657205462 -0.1578167081 0.5740997195 4284770158
-0.2653757036 -0.1569748819 0.5733547211 4283191126
-0.2654382288 -0.1563746631 0.5734897852 4283060051
