VERSION 0.7
FIELDS x y z rgba
SIZE 4 4 4 4
TYPE F F F U
COUNT 1 1 1 1
WIDTH 920
HEIGHT 1
VIEWPOINT 0.0 0.0 0.0 1.0 0.0 0.0 0.0
POINTS 920
DATA ascii
-0.2919897437 -0.1519384384 0.5858674645 4287336863
-0.2916189730 -0.1510953903 0.5851235390 4287402656
-0.2912477851 -0.1502537727 0.5843787789 4287665830
-0.2908761799 -0.1494136006 0.5836331248 4287271072
-0.2909390330 -0.1487972885 0.5837592483 4286810778
-0.2910016477 -0.1481805742 0.5838848948 4286547606
-0.2906289697 -0.1473428905 0.5831370950 4286547860
-0.2902558446 -0.1465066671 0.5823884606 4286350481
-0.2903175950 -0.1458906084 0.5825123191 4286284688
-0.2903790772 -0.1452741623 0.5826357603 4286482067
-0.2900049090 -0.1444404572 0.5818849802 4286613653
-0.2900658548 -0.1438241452 0.5820072293 4286482067
-0.2896909118 -0.1429924369 0.5812549591 4287007898
-0.2897512913 -0.1423762888 0.5813760757 4286942105
-0.2893756330 -0.1415465772 0.5806223154 4285231485
-0.2894354463 -0.1409305930 0.5807423592 4282994523
-0.2890590429 -0.1401029080 0.5799871087 4281547332
-0.2886822224 -0.1392766982 0.5792310238 4281415746
-0.2887411416 -0.1386614293 0.5793492794 4280889147
-0.2883635759 -0.1378372610 0.5785917044 4281283905
-0.2879855931 -0.1370145679 0.5778332949 4281547077
-0.2876071930 -0.1361933649 0.5770740509 4282862937
-0.2872284055 -0.1353736669 0.5763139725 4285034108
-0.2868491709 -0.1345554590 0.5755531192 4287205277
-0.2864695489 -0.1337387413 0.5747913718 4287666087
-0.2865262926 -0.1331264675 0.5749052167 4287666087
-0.2861459255 -0.1323118359 0.5741420388 4287731880
-0.2857651412 -0.1314986944 0.5733780265 4288060845
-0.2853839695 -0.1306870729 0.5726131797 4287666341
-0.2845652699 -0.1296777725 0.5709704757 4287534755
-0.2846203744 -0.1290683746 0.5710811019 4287534755
-0.2842379808 -0.1282613128 0.5703138113 4287468962
-0.2838551402 -0.1274557561 0.5695456862 4287337122
-0.2830344737 -0.1264562756 0.5678989887 4287271329
-0.2844009101 -0.1264327765 0.5706407428 4287271331
-0.2827042639 -0.1250482649 0.5672364831 4287073952
-0.2827575505 -0.1244414747 0.5673433542 4287140258
-0.2828105688 -0.1238343343 0.5674497485 4287074465
-0.2820400000 -0.1222394109 0.5659036636 4286811293
-0.2820921540 -0.1216331422 0.5660082698 4286811293
-0.2821440697 -0.1210265309 0.5661124587 4286811293
-0.2821957469 -0.1204195842 0.5662161112 4286679707
-0.2826854289 -0.1199983507 0.5671986938 4286548121
-0.2827366889 -0.1193898022 0.5673015118 4286745500
-0.2823492885 -0.1185967624 0.5665242076 4286613914
-0.2828890383 -0.1175621673 0.5676072240 4286416535
-0.2829393148 -0.1169523075 0.5677081347 4286416535
-0.2825506330 -0.1161617413 0.5669282079 4286482328
-0.2817227244 -0.1151933223 0.5652670264 4286548121
-0.2822109461 -0.1147638112 0.5662466288 4286679707
-0.2809431851 -0.1136219501 0.5637029409 4286745500
-0.2818699777 -0.1133683920 0.5655624866 4286877086
-0.2819185555 -0.1127594486 0.5656599998 4287008672
-0.2815277278 -0.1119754985 0.5648757815 4287140258
-0.2815757394 -0.1113668829 0.5649721622 4287337637
-0.2816235423 -0.1107579470 0.5650680065 4287535016
-0.2812316418 -0.1099768654 0.5642817020 4287666602
-0.2812788785 -0.1093682721 0.5643764734 4287666602
-0.2830841243 -0.1094391122 0.5679986477 4287929774
-0.2835707963 -0.1089950800 0.5689750910 4288192946
-0.2822984755 -0.1078767180 0.5664222836 4288521911
-0.2823448479 -0.1072649956 0.5665153265 4288785083
-0.2815112472 -0.1063207239 0.5648427606 4288916414
-0.2846365273 -0.1068665236 0.5711134672 4289113793
-0.2811624706 -0.1049353927 0.5641429424 4289311172
-0.2829679251 -0.1049783975 0.5677655339 4289245379
-0.2852138579 -0.1051757783 0.5722718835 4289508032
-0.2852591574 -0.1045565456 0.5723627806 4289442239
-0.2817819417 -0.1026538461 0.5653858185 4289442239
-0.2840279341 -0.1028388813 0.5698923469 4289442239
-0.2818701565 -0.1014292240 0.5655628443 4289244860
-0.2885212302 -0.1031793728 0.5789080262 4288784309
-0.2876846194 -0.1022388414 0.5772293806 4287995304
-0.2899318635 -0.1023911238 0.5817384124 4287271581
-0.2904167473 -0.1019149348 0.5827112794 4286942616
-0.3042700887 -0.1851956695 0.6118711233 4289836478
-0.3047762811 -0.1848227978 0.6128890514 4287599259
-0.3044224977 -0.1839280874 0.6121776104 4284506988
-0.3040682673 -0.1830346882 0.6114652753 4281612096
-0.3037136197 -0.1821426153 0.6107521057 4280756787
-0.3033585250 -0.1812518537 0.6100379825 4280296747
-0.3030029833 -0.1803624332 0.6093230247 4280428333
-0.3026470244 -0.1794743389 0.6086072326 4280296747
-0.3027212322 -0.1788419634 0.6087564230 4280099368
-0.3019337654 -0.1777021438 0.6071729064 4280230441
-0.3002840281 -0.1760602593 0.6038553715 4280427820
-0.3012187779 -0.1759353131 0.6057351232 4280493613
-0.3004296124 -0.1748031080 0.6041480899 4280756785
-0.2996397913 -0.1736740768 0.6025598049 4280954164
-0.2997117937 -0.1730461717 0.6027046442 4281019957
-0.2993522286 -0.1721697152 0.6019815803 4280888884
-0.2985607982 -0.1710474640 0.6003900766 4280888884
-0.2990633845 -0.1706671864 0.6014006734 4281086263
-0.2978393137 -0.1693031937 0.5989391804 4281217849
-0.2970461845 -0.1681886464 0.5973442197 4281349435
-0.2966842651 -0.1673208475 0.5966164470 4281283642
-0.2950260639 -0.1657264829 0.5932818651 4281283642
-0.2968232632 -0.1660728455 0.5968959332 4281283642
-0.2935032845 -0.1629037559 0.5902196169 4281481021
-0.2927064598 -0.1618074924 0.5886172652 4281612607
-0.2914765477 -0.1604763567 0.5861439705 4281678400
-0.2919760346 -0.1600989997 0.5871484280 4281612353
-0.2894469202 -0.1580654979 0.5820625424 4281678146
-0.2890801728 -0.1572193205 0.5813249946 4281678400
-0.2904444039 -0.1573123336 0.5840683579 4281678400
-0.2896442413 -0.1562317908 0.5824593306 4281678398
-0.2905756533 -0.1560849547 0.5843323469 4281678398
-0.2897746563 -0.1550072432 0.5827215314 4281612605
-0.2911392450 -0.1550866961 0.5854656696 4281415226
-0.2920708358 -0.1549303830 0.5873391032 4281020984
-0.2925691605 -0.1545410305 0.5883411765 4280626226
-0.2922003865 -0.1536933631 0.5875995755 4283192155
-0.2918311954 -0.1528471261 0.5868571401 4287929251
-0.2914615571 -0.1520023197 0.5861138701 4288323756
-0.2915253341 -0.1513842344 0.5862420797 4288323756
-0.2911549509 -0.1505413651 0.5854973197 4288455344
-0.2912181914 -0.1499233842 0.5856243968 4288192172
-0.2908470631 -0.1490824819 0.5848780870 4287271842
-0.2909097075 -0.1484646201 0.5850040913 4286942877
-0.2905378342 -0.1476256847 0.5842562914 4286876825
-0.2901655436 -0.1467882097 0.5835076571 4286745239
-0.2902273238 -0.1461709887 0.5836318731 4286547860
-0.2902888656 -0.1455533952 0.5837556124 4286613653
-0.2899155021 -0.1447184235 0.5830047727 4286547860
-0.2899764776 -0.1441009641 0.5831273794 4286087309
-0.2896023691 -0.1432679892 0.5823751092 4286547860
-0.2896627784 -0.1426506788 0.5824965835 4284968828
-0.2892879248 -0.1418197304 0.5817427635 4281744456
-0.2893477678 -0.1412025690 0.5818631053 4282336593
-0.2894073725 -0.1405850351 0.5819830298 4284113004
-0.2890314758 -0.1397566497 0.5812270641 4285428864
-0.2886551321 -0.1389297396 0.5804702640 4285823622
-0.2882784009 -0.1381043047 0.5797126889 4285823622
-0.2879012227 -0.1372803599 0.5789542198 4285297278
-0.2875236571 -0.1364579052 0.5781949162 4283126109
-0.2871456742 -0.1356369406 0.5774348378 4281612872
-0.2867672741 -0.1348174810 0.5766738653 4284639350
-0.2863884568 -0.1339995116 0.5759121180 4287665828
-0.2860092521 -0.1331830472 0.5751495361 4286876312
-0.2856296301 -0.1323680729 0.5743861198 4287731621
-0.2852495909 -0.1315546185 0.5736218691 4287731621
-0.2848691344 -0.1307426840 0.5728568435 4287337122
-0.2844882607 -0.1299322546 0.5720909238 4287468708
-0.2845434248 -0.1293216795 0.5722018480 4287600294
-0.2841618359 -0.1285133511 0.5714344978 4287666087
-0.2837798297 -0.1277065426 0.5706663132 4287600296
-0.2833974361 -0.1269012541 0.5698973536 4287600296
-0.2830146253 -0.1260975003 0.5691275001 4287600296
-0.2826314270 -0.1252952665 0.5683569312 4287534503
-0.2822478116 -0.1244945824 0.5675854683 4287337124
-0.2823008001 -0.1238872036 0.5676920414 4287205538
-0.2823535204 -0.1232794821 0.5677980781 4287139745
-0.2815317214 -0.1222916394 0.5661454201 4287139745
-0.2815838158 -0.1216851249 0.5662502050 4287073952
-0.2816356719 -0.1210782751 0.5663545132 4287073952
-0.2812498808 -0.1202840209 0.5655786991 4286877086
-0.2817386687 -0.1198635697 0.5665615797 4286679707
-0.2817898095 -0.1192557216 0.5666644573 4286811293
-0.2818406820 -0.1186475456 0.5667667985 4286745500
-0.2818913460 -0.1180390343 0.5668686628 4286613914
-0.2819417417 -0.1174301952 0.5669699907 4286416535
-0.2819919288 -0.1168210357 0.5670709014 4286416535
-0.2811659276 -0.1158506423 0.5654098988 4286350742
-0.2816534936 -0.1154222339 0.5663903356 4286416535
-0.2817028463 -0.1148130521 0.5664895773 4286548121
-0.2808755934 -0.1138483286 0.5648260117 4286548121
-0.2809243202 -0.1132404059 0.5649240017 4286613914
-0.2809728086 -0.1126321703 0.5650215149 4286679707
-0.2805826068 -0.1118488461 0.5642368793 4286811293
-0.2806305289 -0.1112409309 0.5643332005 4287008672
-0.2806781828 -0.1106327102 0.5644290447 4287206051
-0.2802869678 -0.1098522618 0.5636423230 4287206051
-0.2812114954 -0.1095862910 0.5655015111 4287271844
-0.2812584937 -0.1089761853 0.5655959845 4287403430
-0.2813052535 -0.1083657816 0.5656900406 4287666602
-0.2809128165 -0.1075869650 0.5649008751 4287995567
-0.2818370163 -0.1073112115 0.5667594075 4288192946
-0.2818830907 -0.1066989452 0.5668520331 4288390325
-0.2806115150 -0.1055906489 0.5642949343 4288587704
-0.2819745243 -0.1054735109 0.5670359135 4288785083
-0.2820198536 -0.1048603505 0.5671270490 4288916669
-0.2820649445 -0.1042468995 0.5672177076 4289113787
-0.2807914913 -0.1031488776 0.5646569133 4289113787
-0.2825938463 -0.1031795740 0.5682813525 4289245373
-0.2830778062 -0.1027237922 0.5692545772 4289376959
-0.2835616767 -0.1022658125 0.5702275634 4289508545
-0.2818469107 -0.1010176539 0.5667792559 4289640131
-0.2840892375 -0.1011865959 0.5712885261 4289574338
-0.2850125134 -0.1008786410 0.5731451511 4289376959
-0.2828564942 -0.0994835347 0.5688095093 4288719029
-0.2828993797 -0.0988665372 0.5688957572 4287797927
-0.2838220596 -0.0985548496 0.5707512498 4287008409
-0.2825442851 -0.0974798575 0.5681816936 4287008409
-0.2834666669 -0.0971647352 0.5700365305 4287665826
-0.2879109085 -0.0980448201 0.5789736509 4288915893
-0.2905950248 -0.0983095840 0.5843712687 4290560718
-0.2897567451 -0.0973785892 0.5826855302 4291744992
-0.3037156761 -0.1852720231 0.6121234298 4290033857
-0.3037919104 -0.1846382469 0.6122770309 4289375670
-0.3034387231 -0.1837441027 0.6115652323 4288059810
-0.3030851185 -0.1828512698 0.6108525395 4285493883
-0.3031604588 -0.1822178662 0.6110044122 4282730577
-0.3028060794 -0.1813267767 0.6102901697 4280822578
-0.3028808832 -0.1806933284 0.6104409099 4280362027
-0.3025257289 -0.1798039973 0.6097251177 4280098855
-0.3021701276 -0.1789160073 0.6090084314 4279967269
-0.3018141091 -0.1780293435 0.6082909107 4280164648
-0.3014576435 -0.1771440208 0.6075724363 4280098855
-0.3011007607 -0.1762600392 0.6068531275 4280362027
-0.2998829186 -0.1748756170 0.6043986678 4280493613
-0.2995249331 -0.1739961356 0.6036772132 4280559919
-0.2991665304 -0.1731180102 0.6029548645 4280625712
-0.2992382646 -0.1724894196 0.6030994058 4280559919
-0.2997404039 -0.1721076667 0.6041114330 4280494126
-0.2989502549 -0.1709845215 0.6025189161 4280691505
-0.2977285683 -0.1696190834 0.6000567079 4280888884
-0.2969370484 -0.1685032099 0.5984613895 4281152056
-0.2965759337 -0.1676341593 0.5977336168 4281152056
-0.2953520715 -0.1662810147 0.5952669978 4281086263
-0.2950586975 -0.1647943854 0.5946757197 4281217849
-0.2938328385 -0.1634517461 0.5922050476 4281415228
-0.2926061451 -0.1621141285 0.5897327065 4281481021
-0.2918103039 -0.1610197574 0.5881287456 4281546814
-0.2914456129 -0.1601658762 0.5873937011 4281612096
-0.2902167439 -0.1588406712 0.5849170089 4281546303
-0.2894190252 -0.1577559710 0.5833092332 4281612094
-0.2890527844 -0.1569090486 0.5825710893 4281612094
-0.2899825871 -0.1567644179 0.5844450593 4281546812
-0.2909779847 -0.1559993476 0.5864512324 4281612605
-0.2914756238 -0.1556134522 0.5874541998 4281678398
-0.2919732332 -0.1552252918 0.5884571075 4281350203
-0.2924707830 -0.1548348814 0.5894598961 4280758066
-0.2921028435 -0.1539859772 0.5887182951 4283521120
-0.2921673059 -0.1533657163 0.5888482332 4288389802
-0.2913656533 -0.1522924453 0.5872325301 4288850100
-0.2914294600 -0.1516731977 0.5873611569 4288981686
-0.2910599113 -0.1508290917 0.5866163373 4288850615
-0.2911231518 -0.1502099484 0.5867437720 4288850615
-0.2907528579 -0.1493678093 0.5859974623 4288192944
-0.2908155322 -0.1487487853 0.5861238241 4287863979
-0.2904444933 -0.1479085982 0.5853759646 4287601061
-0.2900730073 -0.1470698714 0.5846273303 4287403682
-0.2901348174 -0.1464515030 0.5847518444 4287205790
-0.2897626162 -0.1456147581 0.5840017200 4287139997
-0.2898238301 -0.1449965239 0.5841251016 4287008411
-0.2894508839 -0.1441617608 0.5833734274 4286284688
-0.2895115614 -0.1435436755 0.5834957361 4286613653
-0.2895720005 -0.1429252028 0.5836175680 4283192417
-0.2891979814 -0.1420929879 0.5828636885 4281612872
-0.2892578542 -0.1414746791 0.5829843879 4285099901
-0.2893174887 -0.1408559829 0.5831046104 4286547345
-0.2889423966 -0.1400263309 0.5823486447 4286810517
-0.2885668874 -0.1391981542 0.5815917850 4287139484
-0.2881909609 -0.1383714676 0.5808341503 4287205277
-0.2878146172 -0.1375462711 0.5800756812 4287205275
-0.2874378860 -0.1367225647 0.5793163180 4286284173
-0.2870607078 -0.1359003484 0.5785561800 4282533972
-0.2866831422 -0.1350796223 0.5777952075 4282533972
-0.2863051593 -0.1342603862 0.5770333409 4286415759
-0.2859267592 -0.1334426701 0.5762706995 4283520867
-0.2855479419 -0.1326264441 0.5755072832 4286678933
-0.2847333550 -0.1316104978 0.5738654733 4287534242
-0.2843536437 -0.1307982206 0.5731002092 4287402915
-0.2844090462 -0.1301868409 0.5732119083 4287534501
-0.2840286195 -0.1293766648 0.5724451542 4287666089
-0.2840834856 -0.1287655085 0.5725557208 4287731882
-0.2837022841 -0.1279574335 0.5717874765 4287731882
-0.2833207250 -0.1271508932 0.5710183978 4287666089
-0.2833746970 -0.1265405566 0.5711271763 4287600296
-0.2825563550 -0.1255423874 0.5694778562 4287534503
-0.2821735442 -0.1247404367 0.5687063336 4287468710
-0.2817903459 -0.1239400208 0.5679340363 4287337124
-0.2822793424 -0.1235229746 0.5689195395 4287402917
-0.2810227573 -0.1223438084 0.5663869977 4287468710
-0.2810747921 -0.1217370555 0.5664919019 4287402917
-0.2811266184 -0.1211299673 0.5665962696 4287337124
-0.2811781764 -0.1205225438 0.5667002201 4287205538
-0.2807928026 -0.1197285801 0.5659235716 4287008159
-0.2812806070 -0.1193066910 0.5669066310 4287073952
-0.2813314497 -0.1186982766 0.5670090914 4287008159
-0.2809451222 -0.1179061532 0.5662304759 4286745500
-0.2809953988 -0.1172980219 0.5663318634 4286548121
-0.2814825177 -0.1168710440 0.5673136115 4286548121
-0.2810952365 -0.1160807833 0.5665330887 4286416535
-0.2815820277 -0.1156512573 0.5675141811 4286350742
-0.2807568014 -0.1146836132 0.5658509731 4286482328
-0.2808057964 -0.1140748188 0.5659496784 4286481815
-0.2799795866 -0.1131122261 0.5642845631 4286547608
-0.2796384394 -0.1117219999 0.5635969639 4286679194
-0.2801239192 -0.1112886816 0.5645754337 4286810778
-0.2797337770 -0.1105072722 0.5637891293 4286876571
-0.2798281312 -0.1092913076 0.5639792681 4286942877
-0.2798749506 -0.1086828634 0.5640736222 4287008670
-0.2794834375 -0.1079049855 0.5632845759 4287206049
-0.2790915668 -0.1071287096 0.5624947548 4287469221
-0.2800138891 -0.1068557054 0.5643537045 4287666600
-0.2787448764 -0.1057472453 0.5617960691 4287863979
-0.2792285979 -0.1053054780 0.5627709627 4287995565
-0.2801506221 -0.1050258577 0.5646292567 4288127151
-0.2801957130 -0.1044153124 0.5647200942 4288324530
-0.2784863114 -0.1031546816 0.5612748861 4288521396
-0.2794078588 -0.1028703600 0.5631322265 4288652982
-0.2807681561 -0.1027424559 0.5658738613 4288850361
-0.2790572345 -0.1014914811 0.5624255538 4288981947
-0.2799785435 -0.1011995971 0.5642824173 4289179326
-0.2817776799 -0.1012189165 0.5679085255 4289442498
-0.2822602093 -0.1007601768 0.5688809752 4289640131
-0.2792302668 -0.0990532786 0.5627743006 4289640131
-0.2814684212 -0.0992169455 0.5672852397 4289376959
-0.2797544599 -0.0979863107 0.5638307929 4289442752
-0.2819928527 -0.0981388614 0.5683421493 4289508545
-0.2846709490 -0.0984334275 0.5737397671 4289047994
-0.2851527333 -0.0979614779 0.5747107863 4287994793
-0.2865132689 -0.0977872834 0.5774528384 4287139484
-0.2839184105 -0.0962658748 0.5722230673 4287073691
-0.2848390639 -0.0959401876 0.5740785599 4287336863
-0.3037092388 -0.1884102523 0.6134837270 4290033857
-0.3033586442 -0.1875119060 0.6127755046 4289573306
-0.3034355640 -0.1868784577 0.6129308939 4288717997
-0.3030841947 -0.1859818250 0.6122211218 4287731102
-0.3023042083 -0.1848247200 0.6106455326 4286612621
-0.3023801446 -0.1841925085 0.6107989550 4286020227
-0.3024558723 -0.1835598350 0.6109519005 4285230711
-0.3021028340 -0.1826675683 0.6102388501 4285033332
-0.3021780252 -0.1820348352 0.6103906631 4283783265
-0.3022529483 -0.1814016253 0.6105420589 4282927954
-0.3018988371 -0.1805115342 0.6098267436 4282006852
-0.3015442789 -0.1796227694 0.6091105938 4280559406
-0.3016183674 -0.1789899617 0.6092602015 4279967269
-0.3012630343 -0.1781029701 0.6085424423 4280033062
-0.3009072840 -0.1772173196 0.6078238487 4279835683
-0.3005511165 -0.1763330102 0.6071043611 4280165161
-0.2997650206 -0.1751990467 0.6055164933 4280165161
-0.2989782989 -0.1740682274 0.6039273143 4280230954
-0.2986206114 -0.1731897742 0.6032047868 4280362540
-0.2995517850 -0.1730575413 0.6050857902 4280296747
-0.2983337939 -0.1716843098 0.6026254892 4280296747
-0.2979749143 -0.1708090305 0.6019005179 4280428333
-0.2971855104 -0.1696895361 0.6003059745 4280625712
-0.2972558439 -0.1690625548 0.6004480124 4280888884
-0.2968956530 -0.1681913733 0.5997204781 4280888884
-0.2978262007 -0.1680500954 0.6016001105 4280888884
-0.2961739898 -0.1664531231 0.5982627273 4280954677
-0.2958125174 -0.1655860841 0.5975325704 4281151543
-0.2950199544 -0.1644802988 0.5959315896 4281283129
-0.2942267358 -0.1633777171 0.5943293571 4281414715
-0.2930020094 -0.1620400548 0.5918554068 4281546301
-0.2922074497 -0.1609448344 0.5902504325 4281348924
-0.2909811735 -0.1596163511 0.5877733827 4281283131
-0.2901852727 -0.1585284919 0.5861656666 4281414717
-0.2898200154 -0.1576784998 0.5854279399 4281480510
-0.2895197570 -0.1562155783 0.5848213434 4281677887
-0.2917427719 -0.1567602754 0.5893117785 4281546812
-0.2909448445 -0.1556785554 0.5877000093 4281612605
-0.2914415896 -0.1552902758 0.5887034535 4281481535
-0.2919383049 -0.1548997313 0.5897067785 4280757812
-0.2920030355 -0.1542787254 0.5898375511 4283323741
-0.2916354835 -0.1534299999 0.5890950561 4288324009
-0.2916996479 -0.1528090835 0.5892246366 4288784820
-0.2913313210 -0.1519622952 0.5884807110 4289113785
-0.2909626067 -0.1511169374 0.5877358317 4289179580
-0.2910258770 -0.1504966468 0.5878636837 4289311166
-0.2906563878 -0.1496532559 0.5871173143 4288719542
-0.2907191217 -0.1490330696 0.5872440338 4288653749
-0.2903488874 -0.1481916457 0.5864961743 4288390577
-0.2899782360 -0.1473516673 0.5857474804 4288258991
-0.2900400758 -0.1467321366 0.5858723521 4287995819
-0.2901016474 -0.1461122036 0.5859968066 4287798440
-0.2897299528 -0.1452747434 0.5852459669 4287797927
-0.2897909880 -0.1446549594 0.5853692293 4287074204
-0.2894185185 -0.1438194811 0.5846168399 4287337376
-0.2894789875 -0.1431998461 0.5847390294 4282863452
-0.2891057730 -0.1423663795 0.5839851499 4281349698
-0.2891657054 -0.1417468935 0.5841061473 4285428864
-0.2892253697 -0.1411270350 0.5842267275 4286415759
-0.2888510823 -0.1402961314 0.5834707022 4286152587
-0.2880426049 -0.1392569840 0.5818375349 4286546577
-0.2885351777 -0.1388475597 0.5828325748 4286480784
-0.2877257764 -0.1378123015 0.5811976194 4286152073
-0.2873498499 -0.1369873434 0.5804381967 4284573041
-0.2874076664 -0.1363698542 0.5805550218 4282533458
-0.2870309949 -0.1355469376 0.5797941089 4283849318
-0.2866539061 -0.1347255260 0.5790324211 4284244076
-0.2858420014 -0.1337024122 0.5773923993 4281743942
-0.2854640186 -0.1328849345 0.5766289234 4286678933
-0.2850856185 -0.1320689619 0.5758645535 4287402656
-0.2847068012 -0.1312544942 0.5750993490 4287468451
-0.2843275964 -0.1304415464 0.5743333697 4287402658
-0.2839479744 -0.1296301186 0.5735665560 4287337124
-0.2840028703 -0.1290177703 0.5736774206 4287402917
-0.2831875086 -0.1280118078 0.5720304251 4287534503
-0.2832417488 -0.1274006367 0.5721399784 4287600296
-0.2828606069 -0.1265943646 0.5713700652 4287600296
-0.2824790180 -0.1257896125 0.5705993176 4287600296
-0.2820970714 -0.1249864027 0.5698277354 4287599783
-0.2812792659 -0.1239927858 0.5681757927 4287533990
-0.2804608941 -0.1230025887 0.5665227771 4287599783
-0.2805131376 -0.1223959327 0.5666282773 4287665576
-0.2801294923 -0.1215998307 0.5658532977 4287600296
-0.2801811695 -0.1209934428 0.5659576654 4287468710
-0.2797967792 -0.1201994941 0.5651812553 4287337124
-0.2802838087 -0.1197796687 0.5661650300 4287205538
-0.2803347707 -0.1191722825 0.5662679672 4287205538
-0.2799494267 -0.1183801666 0.5654895902 4287139745
-0.2804359496 -0.1179565191 0.5664723516 4286877086
-0.2804861963 -0.1173481420 0.5665738583 4286811293
-0.2805361748 -0.1167394444 0.5666748285 4286811293
-0.2797131836 -0.1157692000 0.5650123954 4286745500
-0.2798116505 -0.1145539731 0.5652112961 4286679707
-0.2789873183 -0.1135903597 0.5635461807 4286679194
-0.2790358067 -0.1129838452 0.5636441112 4286744987
-0.2790840268 -0.1123770177 0.5637415051 4286744987
-0.2791320384 -0.1117698774 0.5638384819 4286744987
-0.2791797817 -0.1111624241 0.5639349222 4286744987
-0.2787902951 -0.1103816405 0.5631482005 4286679194
-0.2792745233 -0.1099465787 0.5641263127 4286679705
-0.2793215513 -0.1093382016 0.5642212629 4286745498
-0.2789311111 -0.1085593551 0.5634326339 4286811291
-0.2789775431 -0.1079513133 0.5635264516 4286877084
-0.2790237665 -0.1073429659 0.5636197329 4287008670
-0.2790697217 -0.1067343205 0.5637125969 4287206049
-0.2782404423 -0.1057926938 0.5620375276 4287337635
-0.2787233293 -0.1053507477 0.5630128980 4287403428
-0.2787684798 -0.1047421619 0.5631040931 4287404198
-0.2779379785 -0.1038063318 0.5614265203 4287535784
-0.2784202397 -0.1033615917 0.5624006987 4287798186
-0.2784645855 -0.1027530804 0.5624902248 4288061358
-0.2789465785 -0.1023048908 0.5634638667 4288390323
-0.2785525024 -0.1015351936 0.5626678467 4288587702
-0.2794721723 -0.1012431979 0.5645255446 4288719288
-0.2795156538 -0.1006316245 0.5646134019 4288850874
-0.2799970508 -0.1001765355 0.5655857921 4288916154
-0.2787253559 -0.0990959927 0.5630170107 4288916154
-0.2800828815 -0.0989500433 0.5657591820 4288981947
-0.2801254392 -0.0983363762 0.5658451319 4289179326
-0.2797292769 -0.0975695029 0.5650448799 4289442498
-0.2802097499 -0.0971082151 0.5660154223 4289574084
-0.2789358199 -0.0960406959 0.5634421110 4289705411
-0.2789771259 -0.0954288095 0.5635256171 4289639618
-0.2790182233 -0.0948166475 0.5636085868 4289244860
-0.2790590525 -0.0942042246 0.5636910796 4288718516
-0.2852433324 -0.0956517234 0.5761831403 4287073691
-0.2826511562 -0.0941481143 0.5709469914 4286613140
-0.2796189785 -0.0925105736 0.5648221374 4286744724
-0.2800979018 -0.0920403823 0.5657894611 4287863205
-0.2845284641 -0.0928576961 0.5747390985 4289771457
-0.2854467928 -0.0925167650 0.5765941143 4291613661
-0.2868043482 -0.0923130736 0.5793362856 4292863724
-0.3019101322 -0.1911108345 0.6112208366 4290165443
-0.3019881845 -0.1904809624 0.6113789082 4289902271
-0.3020660281 -0.1898506135 0.6115365028 4289507256
-0.3021436632 -0.1892197579 0.6116936207 4288915119
-0.3022210598 -0.1885884255 0.6118503213 4288323239
-0.3018712699 -0.1876911372 0.6111421585 4287336344
-0.3023752272 -0.1873243004 0.6121624112 4286414985
-0.3020247817 -0.1864278316 0.6114529371 4285493883
-0.3016738892 -0.1855326742 0.6107425690 4284770160
-0.3017499745 -0.1849007159 0.6108965874 4283914851
-0.3013983369 -0.1840072721 0.6101847291 4283651677
-0.3014738560 -0.1833752692 0.6103376150 4283322712
-0.3011214435 -0.1824835688 0.6096241474 4283585884
-0.3011964262 -0.1818515062 0.6097759604 4283388505
-0.3012712002 -0.1812189817 0.6099273562 4283256919
-0.3009176850 -0.1803294569 0.6092116237 4282598989
-0.3009918928 -0.1796968877 0.6093618870 4281612094
-0.3006376326 -0.1788091213 0.6086446643 4281151543
-0.3007112741 -0.1781765223 0.6087937951 4280756785
-0.3003562391 -0.1772905439 0.6080749631 4280164648
-0.3000007868 -0.1764059067 0.6073553562 4280033062
-0.2992161810 -0.1752714962 0.6057669520 4280033062
-0.2988597453 -0.1743904650 0.6050453186 4280098855
-0.2985028625 -0.1735107750 0.6043227911 4280230441
-0.2981455624 -0.1726324409 0.6035994291 4280296234
-0.2977878153 -0.1717554629 0.6028751731 4280296234
-0.2978588343 -0.1711264253 0.6030189395 4280362027
-0.2975707948 -0.1696222425 0.6024358273 4280559406
-0.2976410389 -0.1689927727 0.6025779843 4280625199
-0.2977110445 -0.1683628559 0.6027197242 4280690992
-0.2969214320 -0.1672484130 0.6011211276 4280756785
-0.2961311638 -0.1661371738 0.5995212793 4280888371
-0.2957701981 -0.1652693599 0.5987904668 4281019957
-0.2949787974 -0.1641636193 0.5971882343 4281283129
-0.2941867709 -0.1630610973 0.5955848098 4281414715
-0.2929638922 -0.1617243141 0.5931090713 4281217084
-0.2921705246 -0.1606291384 0.5915029049 4281151291
-0.2913765311 -0.1595371962 0.5898954272 4281283131
-0.2901514173 -0.1582137495 0.5874151587 4281414717
-0.2906478345 -0.1578306705 0.5884202123 4281546301
-0.2898521721 -0.1567466110 0.5868093371 4281612094
-0.2903482318 -0.1563617736 0.5878136754 4281415228
-0.2917060256 -0.1564368308 0.5905625224 4281481021
-0.2913402915 -0.1555853486 0.5898220539 4281217849
-0.2914051712 -0.1549645215 0.5899534225 4280625712
-0.2914698124 -0.1543432772 0.5900843143 4282797399
-0.2915342450 -0.1537216157 0.5902147293 4287863460
-0.2911670804 -0.1528730690 0.5894713998 4288586928
-0.2907994986 -0.1520259678 0.5887272358 4288981686
-0.2908630371 -0.1514049172 0.5888558626 4288982201
-0.2909263372 -0.1507834643 0.5889840722 4289311166
-0.2905576825 -0.1499388218 0.5882377028 4288720310
-0.2901886106 -0.1490956247 0.5874904990 4288851896
-0.2902510464 -0.1484748125 0.5876168609 4288851128
-0.2898811996 -0.1476335824 0.5868681669 4288851128
-0.2899430692 -0.1470128894 0.5869933963 4288719542
-0.2900047004 -0.1463918090 0.5871181488 4288522163
-0.2900660932 -0.1457703263 0.5872424245 4288521648
-0.2896948755 -0.1449321359 0.5864908695 4287995304
-0.2893232107 -0.1440954059 0.5857384801 4287732132
-0.2893837392 -0.1434746087 0.5858609676 4285692549
-0.2890113294 -0.1426398903 0.5851070881 4281283905
-0.2886385322 -0.1418066472 0.5843523741 4282731351
-0.2886981666 -0.1411865354 0.5844730139 4285823622
-0.2887575328 -0.1405660510 0.5845932364 4287007896
-0.2883836627 -0.1397353709 0.5838363767 4285955208
-0.2875762880 -0.1386972964 0.5822017789 4283652453
-0.2876347005 -0.1380784512 0.5823200345 4281480770
-0.2872595787 -0.1372522265 0.5815606117 4280559668
-0.2873174250 -0.1366335750 0.5816777349 4282138699
-0.2869415581 -0.1358094066 0.5809168220 4285296763
-0.2865653038 -0.1349867284 0.5801550746 4281678148
-0.2857550383 -0.1339622736 0.5785146356 4283651938
-0.2853778601 -0.1331435293 0.5777510405 4287139482
-0.2850002944 -0.1323263049 0.5769866705 4287336861
-0.2846223116 -0.1315105855 0.5762214065 4287402658
-0.2842439115 -0.1306963712 0.5754553676 4287271072
-0.2838650942 -0.1298836768 0.5746884942 4287270818
-0.2839200199 -0.1292701662 0.5747996569 4287270818
-0.2831062973 -0.1282628477 0.5731522441 4287271331
-0.2831605673 -0.1276504993 0.5732620955 4287402917
-0.2827802300 -0.1268429607 0.5724921227 4287534501
-0.2823994756 -0.1260369569 0.5717212558 4287534501
-0.2820183337 -0.1252324730 0.5709496140 4287665576
-0.2816367745 -0.1244295388 0.5701771975 4287665576
-0.2808201015 -0.1234370619 0.5685238242 4287665576
-0.2804376781 -0.1226381436 0.5677495599 4287731369
-0.2800548375 -0.1218407750 0.5669745207 4287665576
-0.2801065445 -0.1212332100 0.5670791864 4287533990
-0.2797229886 -0.1204379946 0.5663027167 4287402917
-0.2793390155 -0.1196443439 0.5655253530 4287402917
-0.2798250318 -0.1192230731 0.5665093064 4287468710
-0.2798757255 -0.1186151206 0.5666118860 4287337124
-0.2794907987 -0.1178233027 0.5658326149 4287337124
-0.2795408964 -0.1172156334 0.5659340620 4287205538
-0.2800262868 -0.1167892739 0.5669167042 4287008672
-0.2800759673 -0.1161800027 0.5670173168 4287008672
-0.2796897888 -0.1153906807 0.5662354827 4286942879
-0.2797389328 -0.1147817150 0.5663349628 4286877086
-0.2793520093 -0.1139945909 0.5655516386 4287008159
-0.2785288393 -0.1130321547 0.5638850927 4286942366
-0.2785770297 -0.1124250889 0.5639826655 4286942366
-0.2786249518 -0.1118177027 0.5640797019 4286942366
-0.2782365382 -0.1110359654 0.5632933974 4286810780
-0.2782839239 -0.1104289070 0.5633893013 4286679194
-0.2783310711 -0.1098215431 0.5634847283 4286613914
-0.2788142860 -0.1093850508 0.5644630194 4286679707
-0.2784246206 -0.1086058840 0.5636740923 4286745500
-0.2784710228 -0.1079975963 0.5637680292 4286679707
-0.2785171568 -0.1073890105 0.5638614893 4286679705
-0.2781264484 -0.1066127494 0.5630704761 4286679705
-0.2777353525 -0.1058381051 0.5622787476 4286679705
-0.2773438692 -0.1050650626 0.5614861846 4286745498
-0.2769519985 -0.1042936444 0.5606927872 4286812061
-0.2769966424 -0.1036873832 0.5607832074 4286943647
-0.2774780095 -0.1032434255 0.5617577434 4287271842
-0.2775222361 -0.1026356220 0.5618472695 4287535014
-0.2766920030 -0.1017061844 0.5601664186 4287863979
-0.2776099443 -0.1014191583 0.5620247722 4288127151
-0.2780906558 -0.1009692475 0.5629980564 4288258737
-0.2781339586 -0.1003593430 0.5630856752 4288390323
-0.2777396142 -0.0995923132 0.5622873306 4288456116
-0.2778248489 -0.0983730033 0.5624598861 4288652982
-0.2783467174 -0.0973055735 0.5635163784 4289113533
-0.2797016501 -0.0971500874 0.5662595034 4289047740
-0.2797434032 -0.0965353400 0.5663440228 4289310912
-0.2806605995 -0.0962205306 0.5682008862 4289639877
-0.2785123885 -0.0948575735 0.5638518333 4289705670
-0.2807430625 -0.0949858129 0.5683678389 4289639877
-0.2816600204 -0.0946624875 0.5702242255 4289969094
-0.2821388543 -0.0941887796 0.5711936355 4289179578
-0.2826175392 -0.0937128738 0.5721627474 4288390064
-0.2800285220 -0.0922244936 0.5669212341 4287403169
-0.2805065215 -0.0917509496 0.5678889751 4286613140
-0.2809843719 -0.0912752151 0.5688564181 4286744726
-0.2814621329 -0.0907972902 0.5698235631 4287994791
-0.2876399159 -0.0921431854 0.5823305845 4289639616
-0.2885566950 -0.0917877927 0.5841866732 4291284178
-0.2815787196 -0.0889347792 0.5700596571 4292468452
-0.3003469110 -0.1919040084 0.6094264388 4289837250
-0.3004251122 -0.1912766844 0.6095851064 4289376699
-0.3005030751 -0.1906488538 0.6097432971 4288915378
-0.3005808592 -0.1900205463 0.6099010706 4288323241
-0.3006584048 -0.1893917471 0.6100584269 4287533723
-0.3007357121 -0.1887624711 0.6102153659 4286744207
-0.3008128405 -0.1881327033 0.6103717685 4285757312
-0.3008897305 -0.1875024438 0.6105278134 4284967796
-0.3009663820 -0.1868717074 0.6106833816 4284506988
-0.3010428250 -0.1862404943 0.6108385324 4284309609
-0.3006925583 -0.1853459030 0.6101277471 4284178023
-0.3003418446 -0.1844526082 0.6094161272 4283651679
-0.2999906838 -0.1835606396 0.6087036133 4283585884
-0.3000659347 -0.1829302013 0.6088562608 4283454298
-0.3001409471 -0.1822992861 0.6090084910 4283454298
-0.2997887135 -0.1814094782 0.6082937717 4283322712
-0.2998631895 -0.1807785183 0.6084449291 4283059540
-0.2999374270 -0.1801470965 0.6085955501 4282598989
-0.2995840907 -0.1792594790 0.6078786254 4282204231
-0.2996577919 -0.1786280125 0.6080281734 4281809473
-0.2997312844 -0.1779960841 0.6081772447 4281414715
-0.2993768454 -0.1771106720 0.6074580550 4281019957
-0.2990219891 -0.1762266010 0.6067380309 4280559406
-0.2986666858 -0.1753438860 0.6060171127 4280493613
-0.2983109653 -0.1744625121 0.6052953005 4280427820
-0.2983828783 -0.1738318950 0.6054412723 4280362027
-0.2980263829 -0.1729523242 0.6047179103 4280230441
-0.2980977595 -0.1723217070 0.6048627496 4280164648
-0.2977405190 -0.1714439541 0.6041378379 4280033062
-0.2978113592 -0.1708133221 0.6042815447 4280033062
-0.2974533439 -0.1699373871 0.6035551429 4280164648
-0.2975235879 -0.1693067849 0.6036977172 4280230441
-0.2975936234 -0.1686757356 0.6038398147 4280296234
-0.2972345352 -0.1678020954 0.6031111479 4280362027
-0.2968750000 -0.1669298410 0.6023816466 4280493613
-0.2960859239 -0.1658186316 0.6007805467 4280690992
-0.2948670387 -0.1644712389 0.5983073115 4280954164
-0.2957938313 -0.1643213481 0.6001878977 4281085750
-0.2937149704 -0.1625043154 0.5959696770 4281085498
-0.2929233909 -0.1614059806 0.5943635106 4281085498
-0.2921311855 -0.1603108644 0.5927560925 4281283131
-0.2913383842 -0.1592189968 0.5911474228 4281414717
-0.2909747362 -0.1583642662 0.5904095769 4281546301
-0.2906106710 -0.1575109661 0.5896708369 4281546301
-0.2906761765 -0.1568911523 0.5898038149 4281349435
-0.2916016579 -0.1567332745 0.5916816592 4281283642
-0.2912366986 -0.1558805406 0.5909411311 4280823091
-0.2913016379 -0.1552585661 0.5910728574 4280494126
-0.2913663089 -0.1546361744 0.5912041068 4282007883
-0.2914307714 -0.1540133655 0.5913349390 4287271323
-0.2910644412 -0.1531635821 0.5905915499 4288257965
-0.2906976640 -0.1523152143 0.5898473859 4288652723
-0.2903304994 -0.1514682919 0.5891023278 4288718518
-0.2903937399 -0.1508466005 0.5892306566 4289047483
-0.2904567420 -0.1502245218 0.5893585086 4288785333
-0.2900884748 -0.1493800730 0.5886113048 4288982712
-0.2897198200 -0.1485370547 0.5878632069 4288982714
-0.2897819281 -0.1479156166 0.5879892707 4289048507
-0.2898438275 -0.1472937614 0.5881148577 4289048505
-0.2899054885 -0.1466715187 0.5882399678 4288982712
-0.2895354033 -0.1458315551 0.5874890685 4289047992
-0.2895964980 -0.1452094465 0.5876130462 4288719027
-0.2892256975 -0.1443714648 0.5868605971 4288719027
-0.2888544500 -0.1435349435 0.5861073732 4288390062
-0.2889146507 -0.1429135203 0.5862295032 4284113517
-0.2885426879 -0.1420790106 0.5854747295 4281218625
-0.2886023223 -0.1414577514 0.5855957866 4282599765
-0.2882296145 -0.1406252533 0.5848394632 4286284173
-0.2878564596 -0.1397942603 0.5840823650 4286679186
-0.2874829173 -0.1389647275 0.5833244324 4283323743
-0.2875413597 -0.1383447200 0.5834429860 4282533458
-0.2875995338 -0.1377243400 0.5835610628 4284046697
-0.2867923677 -0.1366912425 0.5819232464 4286349452
-0.2868499160 -0.1360719949 0.5820400119 4284836213
-0.2864744663 -0.1352480501 0.5812782049 4280493875
-0.2856658101 -0.1342222542 0.5796373487 4285428350
-0.2852894664 -0.1334022433 0.5788736939 4286941335
-0.2849127054 -0.1325837523 0.5781092644 4287467679
-0.2845355272 -0.1317667812 0.5773439407 4287007900
-0.2837248147 -0.1307516843 0.5756989121 4287073693
-0.2837799788 -0.1301373541 0.5758109093 4287271072
-0.2838349342 -0.1295226663 0.5759223700 4287336865
-0.2834562361 -0.1287108064 0.5751539469 4287336865
-0.2830771208 -0.1279004812 0.5743847489 4287336865
-0.2826976180 -0.1270916760 0.5736146569 4287402658
-0.2823176682 -0.1262844056 0.5728437901 4287468451
-0.2819373608 -0.1254786700 0.5720720291 4287533990
-0.2815566361 -0.1246744692 0.5712994933 4287665576
-0.2807415724 -0.1236806437 0.5696457624 4287665576
-0.2799259722 -0.1226902530 0.5679907799 4287665576
-0.2799779475 -0.1220818385 0.5680962801 4287665576
-0.2795955241 -0.1212847531 0.5673203468 4287533990
-0.2796469629 -0.1206766069 0.5674246550 4287468197
-0.2788295150 -0.1196952462 0.5657659769 4287599783
-0.2793146670 -0.1192738190 0.5667504668 4287600296
-0.2793653011 -0.1186656207 0.5668531656 4287534503
-0.2789811194 -0.1178734899 0.5660736561 4287600296
-0.2794658244 -0.1174482405 0.5670571327 4287534503
-0.2795157135 -0.1168390512 0.5671583414 4287271331
-0.2791305780 -0.1160487831 0.5663769245 4287205538
-0.2791799307 -0.1154398993 0.5664770007 4287205538
-0.2783591449 -0.1144729629 0.5648115873 4287139745
-0.2779728174 -0.1136874184 0.5640277267 4287205538
-0.2784563005 -0.1132573858 0.5650086999 4287073952
-0.2780693471 -0.1124731079 0.5642235875 4287008159
-0.2776820064 -0.1116904169 0.5634376407 4287008159
-0.2781648934 -0.1112575382 0.5644174218 4286810780
-0.2782123089 -0.1106492877 0.5645136237 4286744987
-0.2782594562 -0.1100407243 0.5646093488 4286679707
-0.2778708637 -0.1092605963 0.5638208389 4286548121
-0.2774818540 -0.1084820703 0.5630314946 4286613914
-0.2775281370 -0.1078744903 0.5631254315 4286548121
-0.2767026722 -0.1069298238 0.5614504814 4286613914
-0.2763125002 -0.1061561108 0.5606588125 4286548121
-0.2759219408 -0.1053840145 0.5598663092 4286416533
-0.2755309939 -0.1046135277 0.5590730309 4286416533
-0.2760117352 -0.1041738018 0.5600485206 4286613912
-0.2756201625 -0.1034046412 0.5592539907 4286811291
-0.2761005461 -0.1029624119 0.5602287054 4286745500
-0.2761445940 -0.1023562849 0.5603181124 4286942879
-0.2761883736 -0.1017498598 0.5604069233 4287271844
-0.2771047056 -0.1014627218 0.5622662306 4287469223
-0.2771481276 -0.1008538082 0.5623543859 4287666602
-0.2763182819 -0.0999288782 0.5606704950 4287732395
-0.2767976820 -0.0994782224 0.5616432428 4287863979
-0.2768402994 -0.0988694206 0.5617297292 4287995565
-0.2760092318 -0.0979503691 0.5600433946 4288324530
-0.2756144106 -0.0971889049 0.5592423677 4288521909
-0.2778403759 -0.0973474607 0.5637589693 4288718775
-0.2770082951 -0.0964314193 0.5620706081 4288916154
-0.2761757076 -0.0955189541 0.5603812337 4289113533
-0.2766537368 -0.0950605944 0.5613512397 4289113533
-0.2758203149 -0.0941523984 0.5596601367 4289245119
-0.2754235864 -0.0933960378 0.5588551164 4289574084
-0.2767754197 -0.0932304785 0.5615981221 4289442750
-0.2755035758 -0.0921809450 0.5590174198 4289311164
-0.2755431831 -0.0915730074 0.5590977669 4289508545
-0.2760199904 -0.0911091864 0.5600652695 4289640131
-0.2782466412 -0.0912168771 0.5645833015 4289245119
-0.2760980725 -0.0898900703 0.5602236986 4288389810
-0.2765743732 -0.0894216150 0.5611901283 4287402656
-0.2823026776 -0.0906372443 0.5728133321 4286678933
-0.2832171619 -0.0902923569 0.5746688843 4286876565
-0.2845694423 -0.0900819302 0.5774127245 4287666081
-0.2815432250 -0.0884892419 0.5712723136 4289047732
-0.2824571729 -0.0881397128 0.5731267929 4290626764
-0.2829331160 -0.0876503736 0.5740925670 4292402657
-0.2988648415 -0.1920636594 0.6077889204 4289836995
-0.2989429533 -0.1914383918 0.6079477668 4288981941
-0.2990208268 -0.1908126175 0.6081061363 4288060839
-0.2990984917 -0.1901863515 0.6082640886 4287073174
-0.2991759777 -0.1895596087 0.6084216237 4286283658
-0.2992532253 -0.1889323741 0.6085787416 4285559935
-0.2993302345 -0.1883046627 0.6087353826 4284836212
-0.2994070351 -0.1876764596 0.6088916063 4284638831
-0.2994836569 -0.1870477796 0.6090473533 4284836210
-0.2995600104 -0.1864186078 0.6092026830 4284704367
-0.2996361852 -0.1857889593 0.6093575358 4284178023
-0.2997121215 -0.1851588339 0.6095119715 4283980644
-0.2993620038 -0.1842661202 0.6087999344 4283849058
-0.2994373739 -0.1836359352 0.6089532971 4283783263
-0.2995125651 -0.1830052733 0.6091061234 4283322712
-0.2991613448 -0.1821147054 0.6083919406 4283717470
-0.2988097072 -0.1812254786 0.6076768041 4283520091
-0.2988840044 -0.1805951893 0.6078279018 4283256149
-0.2989580631 -0.1799644381 0.6079785228 4282927184
-0.2986053228 -0.1790774018 0.6072611809 4282598219
-0.2986788452 -0.1784466058 0.6074106693 4282137668
-0.2987521589 -0.1778153628 0.6075597405 4281743678
-0.2983983457 -0.1769305319 0.6068401933 4281612092
-0.2980440855 -0.1760470271 0.6061197519 4281414717
-0.2985436022 -0.1756675094 0.6071355939 4281283131
-0.2977614701 -0.1745344996 0.6055450439 4281085752
-0.2974060178 -0.1736541539 0.6048222184 4280756787
-0.2974775732 -0.1730237603 0.6049676538 4280493615
-0.2971213460 -0.1721452177 0.6042432785 4280296236
-0.2971923351 -0.1715148240 0.6043875813 4280098857
-0.2968353629 -0.1706380993 0.6036616564 4279967271
-0.2969057858 -0.1700077057 0.6038048863 4280098857
-0.2969759703 -0.1693768799 0.6039476395 4280098857
-0.2970459461 -0.1687455922 0.6040899158 4280098857
-0.2971156836 -0.1681138724 0.6042317152 4280164650
-0.2967569828 -0.1672403663 0.6035022140 4280164907
-0.2963978350 -0.1663682461 0.6027718782 4280296493
-0.2956098318 -0.1652580053 0.6011693478 4280493872
-0.2952497602 -0.1643895656 0.6004370451 4280559665
-0.2940319777 -0.1630471647 0.5979605317 4280756787
-0.2936708331 -0.1621833295 0.5972260833 4280822580
-0.2928804457 -0.1610850543 0.5956187248 4280954166
-0.2920894325 -0.1599900126 0.5940100551 4281217338
-0.2912977934 -0.1588982046 0.5924001336 4281348922
-0.2909346521 -0.1580427438 0.5916616321 4281348922
-0.2910003066 -0.1574208736 0.5917951465 4281217849
-0.2914950252 -0.1570298523 0.5928012133 4281152056
-0.2911309004 -0.1561758667 0.5920607448 4280888884
-0.2911958396 -0.1555527449 0.5921928287 4280757298
-0.2912605703 -0.1549292058 0.5923244357 4281480769
-0.2913250625 -0.1543052495 0.5924555659 4286612623
-0.2905297577 -0.1532275379 0.5908381939 4287994793
-0.2905935943 -0.1526045948 0.5909680128 4288455344
-0.2902272344 -0.1517564207 0.5902229548 4288521139
-0.2898604274 -0.1509096771 0.5894770622 4288718518
-0.2899233997 -0.1502873600 0.5896050930 4288587956
-0.2895558476 -0.1494425833 0.5888576508 4288719542
-0.2896182537 -0.1488203853 0.5889844894 4288851128
-0.2892499864 -0.1479775757 0.5882355571 4288916921
-0.2893117964 -0.1473554969 0.5883613229 4288916921
-0.2893733978 -0.1467330158 0.5884865522 4289048507
-0.2894347608 -0.1461101323 0.5886113644 4289179578
-0.2890650928 -0.1452703625 0.5878595710 4289047992
-0.2886950076 -0.1444320679 0.5871069431 4289179578
-0.2887554765 -0.1438098699 0.5872299075 4289047992
-0.2883846462 -0.1429735571 0.5864757895 4288521648
-0.2884445488 -0.1423515081 0.5865976214 4284837240
-0.2880730033 -0.1415172219 0.5858419538 4281284418
-0.2881323397 -0.1408953369 0.5859626532 4283389794
-0.2877600193 -0.1400630623 0.5852054954 4287139737
-0.2869557738 -0.1390232295 0.5835700035 4287600288
-0.2874457538 -0.1386111081 0.5845664144 4286744210
-0.2875039876 -0.1379895657 0.5846848488 4286678417
-0.2871302068 -0.1371613741 0.5839246511 4287270554
-0.2867559791 -0.1363346875 0.5831636786 4283257181
-0.2863813639 -0.1355094910 0.5824018121 4282006860
-0.2860063612 -0.1346857995 0.5816391706 4285757061
-0.2851988077 -0.1336610764 0.5799968839 4286612370
-0.2848228812 -0.1328413337 0.5792323351 4286743956
-0.2844465375 -0.1320230961 0.5784670115 4286546577
-0.2840697765 -0.1312063634 0.5777008533 4286743956
-0.2836926281 -0.1303911507 0.5769338012 4286876312
-0.2837476134 -0.1297752708 0.5770456195 4287139484
-0.2833697200 -0.1289621592 0.5762771368 4287271072
-0.2829914391 -0.1281505674 0.5755078197 4287271072
-0.2826127410 -0.1273405105 0.5747377276 4287271072
-0.2826665044 -0.1267260462 0.5748470426 4287336865
-0.2822870910 -0.1259180903 0.5740754604 4287336611
-0.2814742327 -0.1249195039 0.5724223852 4287533990
-0.2806608081 -0.1239243373 0.5707681179 4287599783
-0.2802800238 -0.1231229007 0.5699937344 4287533990
-0.2794655561 -0.1221336499 0.5683373809 4287533990
-0.2790838778 -0.1213362515 0.5675612092 4287468197
-0.2787018120 -0.1205404028 0.5667842031 4287533990
-0.2787528634 -0.1199326292 0.5668880343 4287665576
-0.2788036764 -0.1193245202 0.5669913292 4287665576
-0.2784205675 -0.1185314506 0.5662122369 4287665576
-0.2789045572 -0.1181073114 0.5671965480 4287731369
-0.2789546549 -0.1174982116 0.5672984123 4287665576
-0.2790044844 -0.1168887839 0.5673997998 4287468710
-0.2786201239 -0.1160981953 0.5666180849 4287402917
-0.2782353461 -0.1153091788 0.5658355951 4287402917
-0.2791526020 -0.1150585636 0.5677009225 4287337124
-0.2774645984 -0.1137358770 0.5642681718 4287271842
-0.2775129378 -0.1131286398 0.5643664598 4287206049
-0.2775610387 -0.1125210822 0.5644642711 4287140256
-0.2776088715 -0.1119132116 0.5645615458 4287074463
-0.2772219777 -0.1111308411 0.5637747049 4286942877
-0.2772692442 -0.1105232984 0.5638708472 4286877084
-0.2773163021 -0.1099154428 0.5639665723 4286811291
-0.2773630917 -0.1093072817 0.5640617013 4286679705
-0.2769748569 -0.1085284352 0.5632721782 4286613912
-0.2765862048 -0.1077511981 0.5624817610 4286679705
-0.2766321301 -0.1071440279 0.5625751615 4286745498
-0.2762427628 -0.1063690409 0.5617833734 4286679705
-0.2754179537 -0.1054291129 0.5601059198 4286548121
-0.2758980989 -0.1049895138 0.5610823631 4286482328
-0.2755076587 -0.1042184159 0.5602883697 4286613914
-0.2751168311 -0.1034489349 0.5594935417 4286679707
-0.2751609981 -0.1028438061 0.5595834255 4286482073
-0.2756403685 -0.1024001613 0.5605582595 4286613659
-0.2756841183 -0.1017934978 0.5606472492 4286876831
-0.2757276297 -0.1011865437 0.5607357025 4287074210
-0.2757708728 -0.1005792990 0.5608236790 4287271844
-0.2753781676 -0.0998138413 0.5600250363 4287206051
-0.2758566439 -0.0993639678 0.5609981418 4287271844
-0.2758991718 -0.0987558737 0.5610845685 4287469223
-0.2750695944 -0.0978373960 0.5593975186 4287732395
-0.2759834528 -0.0975388512 0.5612559915 4287863981
-0.2760252357 -0.0969299227 0.5613409281 4288061358
-0.2765028775 -0.0964728892 0.5623123050 4288324530
-0.2756718397 -0.0955600441 0.5606222749 4288587702
-0.2761490345 -0.0951014906 0.5615927577 4288719288
-0.2761898041 -0.0944914743 0.5616756678 4288850874
-0.2753575742 -0.0935845599 0.5599831343 4289048253
-0.2762705982 -0.0932706222 0.5618399382 4288587443
-0.2763106227 -0.0926598012 0.5619213581 4288850615
-0.2750406861 -0.0916124657 0.5593386889 4289179580
-0.2768265307 -0.0915818140 0.5629705191 4289376959
-0.2773025632 -0.0911127180 0.5639386177 4289311166
-0.2773416936 -0.0904989094 0.5640181899 4289376959
-0.2786910236 -0.0903095007 0.5667622685 4289508030
-0.2796036005 -0.0899734423 0.5686181784 4289244858
-0.2765837014 -0.0883767083 0.5624766946 4288192170
-0.2770586908 -0.0879024640 0.5634426475 4287468447
-0.2779706120 -0.0875637010 0.5652971864 4286942103
-0.2780082822 -0.0869473964 0.5653738379 4287139482
-0.2797943950 -0.0868738070 0.5690062046 4287929253
-0.2772083879 -0.0854444951 0.5637470484 4289245113
-0.2776824534 -0.0849631876 0.5647111535 4291021522
-0.2781563997 -0.0844796970 0.5656750202 4292468968
-0.2974636257 -0.1915959567 0.6063088179 4289771202
-0.2975414395 -0.1909722388 0.6064674258 4289046965
-0.2976190150 -0.1903480291 0.6066255569 4287994277
-0.2976963818 -0.1897233278 0.6067832708 4286810002
-0.2977735400 -0.1890981495 0.6069405079 4286152072
-0.2978504896 -0.1884724945 0.6070973277 4285691521
-0.2979272306 -0.1878463328 0.6072537303 4285165177
-0.2980037332 -0.1872197092 0.6074097157 4285099382
-0.2980800271 -0.1865925938 0.6075652242 4284902003
-0.2981561124 -0.1859650016 0.6077203155 4284638574
-0.2982319891 -0.1853369176 0.6078749299 4284375402
-0.2983076274 -0.1847083569 0.6080290675 4284506988
-0.2983830571 -0.1840793341 0.6081828475 4283980644
-0.2980330884 -0.1831884980 0.6074695587 4283849056
-0.2981079817 -0.1825594157 0.6076221466 4283717470
-0.2981826365 -0.1819298416 0.6077743173 4283980642
-0.2982570827 -0.1812998205 0.6079260707 4283717470
-0.2983312905 -0.1806693077 0.6080773473 4283519321
-0.2979795933 -0.1797815114 0.6073604822 4283256149
-0.2980532646 -0.1791509688 0.6075106263 4282993231
-0.2977008224 -0.1782649308 0.6067922711 4282664266
-0.2977739275 -0.1776343584 0.6069412827 4282204229
-0.2974207103 -0.1767500937 0.6062213182 4282072643
-0.2970670760 -0.1758671701 0.6055005193 4281808705
-0.2975656092 -0.1754884422 0.6065167189 4281742912
-0.2967849076 -0.1743558943 0.6049253941 4281611326
-0.2964300811 -0.1734761298 0.6042021513 4281282361
-0.2965014279 -0.1728464216 0.6043475866 4280954166
-0.2965725660 -0.1722162515 0.6044926047 4280822580
-0.2966434658 -0.1715856194 0.6046370864 4280625201
-0.2962872088 -0.1707085818 0.6039109826 4280362029
-0.2963575721 -0.1700779647 0.6040543914 4280230443
-0.2964276969 -0.1694469005 0.6041973233 4280164650
-0.2964975834 -0.1688153893 0.6043397784 4279967528
-0.2961399257 -0.1679410934 0.6036107540 4279967528
