VERSION 0.7
FIELDS x y z rgba
SIZE 4 4 4 4
TYPE F F F U
COUNT 1 1 1 1
WIDTH 920
HEIGHT 1
VIEWPOINT 0.0 0.0 0.0 1.0 0.0 0.0 0.0
POINTS 920
DATA ascii
-0.2574976981 -0.1566985250 0.5395039320 4293915647
-0.2579776943 -0.1563900709 0.5405096412 4294376191
-0.2584576905 -0.1560793966 0.5415152907 4294179583
-0.2585207522 -0.1555156559 0.5416473746 4293850623
-0.2585835755 -0.1549514979 0.5417790413 4293587451
-0.2586462200 -0.1543869376 0.5419103503 4293192693
-0.2591259480 -0.1540700644 0.5429154038 4292600301
-0.2596056759 -0.1537509710 0.5439205170 4292073957
-0.2600854039 -0.1534296274 0.5449256301 4291284443
-0.2605651021 -0.1531060636 0.5459307432 4290823892
-0.2610448301 -0.1527802497 0.5469357967 4290232014
-0.2615245581 -0.1524522156 0.5479409099 4289837256
-0.2620042562 -0.1521219313 0.5489459634 4289574086
-0.2624839544 -0.1517894119 0.5499510169 4289442500
-0.2633817196 -0.1516954452 0.5518320203 4289245122
-0.2634433210 -0.1511176676 0.5519611239 4289179329
-0.2635047436 -0.1505394876 0.5520897508 4289113535
-0.2635659575 -0.1499608904 0.5522180200 4289047742
-0.2636269331 -0.1493819058 0.5523458123 4288916156
-0.2641062737 -0.1490387022 0.5533500910 4288850363
-0.2645856142 -0.1486932635 0.5543543696 4288784570
-0.2659024000 -0.1488142908 0.5571132898 4288718777
-0.2655442059 -0.1479956657 0.5563628078 4288652984
-0.2656045258 -0.1474109888 0.5564892292 4288587191
-0.2660836875 -0.1470575035 0.5574930906 4288521398
-0.2657245696 -0.1462404430 0.5567407012 4288521398
-0.2666226923 -0.1461140662 0.5586224198 4288455605
-0.2671016753 -0.1457547694 0.5596259832 4288455605
-0.2675806284 -0.1453932226 0.5606294870 4288521398
-0.2676400542 -0.1448024809 0.5607540011 4288718777
-0.2681188583 -0.1444373727 0.5617571473 4288916156
-0.2681779563 -0.1438449174 0.5618809462 4288981949
-0.2686565816 -0.1434762478 0.5628838539 4289047742
-0.2691352069 -0.1431053430 0.5638865829 4289245121
-0.2691938281 -0.1425098479 0.5640094280 4289377220
-0.2696722746 -0.1421353668 0.5650118589 4289574599
-0.2697305381 -0.1415381730 0.5651339293 4289837771
-0.2702088356 -0.1411601305 0.5661360025 4290035150
-0.2702667415 -0.1405612379 0.5662573576 4290100943
-0.2707448602 -0.1401796341 0.5672591329 4290100943
-0.2712229192 -0.1397957802 0.5682607293 4290232529
-0.2712803483 -0.1391938627 0.5683810711 4290232529
-0.2717582285 -0.1388064474 0.5693823099 4290298322
-0.2718153000 -0.1382028311 0.5695018768 4290298322
-0.2727138698 -0.1380248517 0.5713845491 4290364115
-0.2727706730 -0.1374186128 0.5715035200 4290429908
-0.2732482553 -0.1370231360 0.5725041628 4290364115
-0.2733047009 -0.1364151984 0.5726224184 4290364115
-0.2737821043 -0.1360161602 0.5736226439 4290299090
-0.2742594481 -0.1356148571 0.5746228099 4290299090
-0.2747367322 -0.1352113038 0.5756227970 4290299090
-0.2752139568 -0.1348055154 0.5766227245 4290233297
-0.2756911516 -0.1343974620 0.5776224732 4290233297
-0.2757466137 -0.1337825954 0.5777387023 4290233297
-0.2762235701 -0.1333709806 0.5787380338 4290299090
-0.2771222889 -0.1331598014 0.5806209445 4290233297
-0.2767554224 -0.1323392689 0.5798523426 4290167504
-0.2768101394 -0.1317210495 0.5799669623 4290035918
-0.2772866786 -0.1313023120 0.5809653997 4290035918
-0.2777631283 -0.1308813244 0.5819636583 4290101711
-0.2778173089 -0.1302601248 0.5820772052 4290035918
-0.2787158489 -0.1300325841 0.5839597583 4289706953
-0.2783473134 -0.1292127073 0.5831876397 4289443781
-0.2788233161 -0.1287845969 0.5841849446 4289377988
-0.2792992592 -0.1283542365 0.5851821303 4289180611
-0.2797751129 -0.1279216409 0.5861791372 4289180611
-0.2802508771 -0.1274867803 0.5871759057 4289179839
-0.2803037763 -0.1268583238 0.5872867703 4289048253
-0.2803564370 -0.1262295246 0.5873970985 4288916667
-0.2808318138 -0.1257898062 0.5883930922 4288785081
-0.2813070714 -0.1253478378 0.5893888474 4288718775
-0.2817822695 -0.1249036118 0.5903844833 4288587189
-0.2818341851 -0.1242705509 0.5904932618 4288653236
-0.2818858922 -0.1236371398 0.5906015635 4288192685
-0.2819373310 -0.1230033785 0.5907093287 4287468447
-0.2819885015 -0.1223692745 0.5908166170 4286613138
-0.2820394635 -0.1217348203 0.5909233093 4285625729
-0.2820901573 -0.1211000308 0.5910295248 4284046697
-0.2821406126 -0.1204648986 0.5911352634 4282007114
-0.2821907997 -0.1198294237 0.5912404656 4280164910
-0.2822407782 -0.1191936061 0.5913451314 4280756533
-0.2827143371 -0.1187354699 0.5923373103 4280032810
-0.2827638686 -0.1180980280 0.5924410820 4279572259
-0.2828131616 -0.1174602509 0.5925443769 4279572259
-0.2824380994 -0.1166469976 0.5917585492 4279967017
-0.2829109728 -0.1161837056 0.5927492976 4280098603
-0.2821110487 -0.1151984781 0.5910733342 4282335565
-0.2821591794 -0.1145612970 0.5911741853 4285493629
-0.2826791406 -0.1134563163 0.5922635794 4284375402
-0.2835756242 -0.1131559908 0.5941419005 4282467405
-0.2831983864 -0.1123462096 0.5933514833 4282006854
-0.2836700678 -0.1118729711 0.5943397284 4281809475
-0.2841416299 -0.1113974899 0.5953277349 4281941061
-0.2841882706 -0.1107542217 0.5954254866 4282467662
-0.2842346728 -0.1101106331 0.5955227017 4283388764
-0.2847057581 -0.1096303612 0.5965096951 4283125333
-0.2847517133 -0.1089851856 0.5966059566 4283191126
-0.2847974002 -0.1083396971 0.5967017412 4283191126
-0.2848428488 -0.1076938957 0.5967969298 4283191126
-0.2848880291 -0.1070477888 0.5968915820 4282993749
-0.2853582203 -0.1065601856 0.5978767276 4282533198
-0.2858282924 -0.1060703471 0.5988616347 4282138697
-0.2858728468 -0.1054213941 0.5989549756 4282072904
-0.2863425910 -0.1049280539 0.5999391675 4281743939
-0.2863866985 -0.1042775288 0.6000315547 4282007111
-0.2868561149 -0.1037806794 0.6010150909 4282205262
-0.2873254120 -0.1032816023 0.6019983292 4283060571
-0.2877945602 -0.1027802974 0.6029813290 4284310638
-0.2882636189 -0.1022767499 0.6039640307 4285626498
-0.2878807783 -0.1014707685 0.6031619310 4287271323
-0.2887753248 -0.1011138409 0.6050361991 4288718769
-0.2888179123 -0.1004564017 0.6051253676 4289771717
-0.2888602018 -0.0997986794 0.6052139997 4290495440
-0.2764661610 -0.1950825602 0.5805973411 4289706177
-0.2753085196 -0.1936233193 0.5781662464 4288653234
-0.2757965922 -0.1933230460 0.5791912079 4288916406
-0.2750494182 -0.1921575367 0.5776221156 4288784822
-0.2726541460 -0.1898479313 0.5725919008 4288850615
-0.2739651501 -0.1901215166 0.5753450394 4288850361
-0.2723919749 -0.1883942187 0.5720412731 4288784568
-0.2704055011 -0.1863893867 0.5678696036 4288850361
-0.2675930858 -0.1838264167 0.5619633198 4288981947
-0.2656037807 -0.1818400919 0.5577856302 4288785335
-0.2648507655 -0.1807065755 0.5562042594 4288785335
-0.2640971541 -0.1795761585 0.5546215773 4288916154
-0.2633428574 -0.1784488112 0.5530375838 4288587189
-0.2605235875 -0.1759305000 0.5471169353 4288126640
-0.2589415312 -0.1742579490 0.5437945127 4287995054
-0.2524012625 -0.1692676693 0.5300594568 4288389812
-0.2528817952 -0.1689998507 0.5310686231 4289113535
-0.2533623278 -0.1687298268 0.5320777893 4289771206
-0.2521892190 -0.1673601419 0.5296141505 4290560722
-0.2514288127 -0.1662688404 0.5280172825 4291283927
-0.2510814369 -0.1654532701 0.5272877216 4291678685
-0.2511473894 -0.1649107188 0.5274262428 4293126128
-0.2507992983 -0.1640969664 0.5266952515 4294310399
-0.2516927421 -0.1640942544 0.5285714865 4294639615
-0.2521723211 -0.1638185382 0.5295786858 4294705151
-0.2522377670 -0.1632725000 0.5297161341 4294705151
-0.2523030341 -0.1627260447 0.5298532248 4294508031
-0.2527825236 -0.1624454558 0.5308601260 4294047230
-0.2532620132 -0.1621626616 0.5318670869 4292139233
-0.2533269227 -0.1616131216 0.5320034623 4292073191
-0.2542211115 -0.1615903974 0.5338812470 4293125879
-0.2542858422 -0.1610382199 0.5340172052 4293323775
-0.2547653317 -0.1607474238 0.5350241661 4292863226
-0.2552448511 -0.1604544073 0.5360311866 4292797433
-0.2557244003 -0.1601591706 0.5370382667 4293126398
-0.2562039495 -0.1598616987 0.5380453467 4293192701
-0.2558528185 -0.1590456367 0.5373079181 4293192701
-0.2567476332 -0.1590027958 0.5391871333 4293653503
-0.2572271228 -0.1586995572 0.5401940942 4293719295
-0.2572909594 -0.1581386030 0.5403282046 4293719295
-0.2573546171 -0.1575772315 0.5404618382 4293719295
-0.2574180663 -0.1570154428 0.5405951142 4293587198
-0.2578973174 -0.1567060053 0.5416015387 4292929268
-0.2579604685 -0.1561424732 0.5417341590 4292402924
-0.2584396005 -0.1558294743 0.5427404046 4291876580
-0.2585024834 -0.1552642137 0.5428724289 4291416031
-0.2589815259 -0.1549476534 0.5438784957 4291087066
-0.2586276531 -0.1541324556 0.5431352854 4290429395
-0.2595230639 -0.1540605426 0.5450156927 4289574086
-0.2604186833 -0.1539845765 0.5468965769 4289639879
-0.2600641847 -0.1531681418 0.5461521149 4289442500
-0.2609598935 -0.1530867815 0.5480331779 4289245121
-0.2614388466 -0.1527577192 0.5490390062 4289179328
-0.2615007162 -0.1521837115 0.5491688848 4289179326
-0.2619795501 -0.1518510878 0.5501744747 4289047740
-0.2632928789 -0.1519979984 0.5529326200 4288850361
-0.2629371881 -0.1511791199 0.5521855950 4288784568
-0.2634159625 -0.1508397758 0.5531910658 4288718777
-0.2638947666 -0.1504981965 0.5541965961 4288587191
-0.2639558911 -0.1499171555 0.5543249249 4288521396
-0.2648522854 -0.1498083025 0.5562074780 4288521396
-0.2649132013 -0.1492246240 0.5563353300 4288521396
-0.2653918266 -0.1488749832 0.5573405027 4288521396
-0.2654523849 -0.1482895762 0.5574676991 4288455603
-0.2655127347 -0.1477037668 0.5575944781 4288324017
-0.2659911215 -0.1473492384 0.5585990548 4288521396
-0.2660511434 -0.1467617154 0.5587251186 4288718775
-0.2665293813 -0.1464036107 0.5597294569 4288850361
-0.2670075893 -0.1460432857 0.5607337356 4288916154
-0.2674857676 -0.1456806958 0.5617379546 4289113533
-0.2675452232 -0.1450888067 0.5618627667 4289310912
-0.2680232525 -0.1447226554 0.5628666878 4289508291
-0.2680823505 -0.1441290528 0.5629908442 4289639877
-0.2685602307 -0.1437593251 0.5639943480 4289640392
-0.2686190009 -0.1431640089 0.5641177893 4289771978
-0.2690967023 -0.1427907199 0.5651209950 4290035150
-0.2691551447 -0.1421937048 0.5652437210 4290166736
-0.2696326673 -0.1418168396 0.5662465692 4290232529
-0.2696907520 -0.1412181109 0.5663685799 4290298322
-0.2701681256 -0.1408376843 0.5673710704 4290298322
-0.2702258527 -0.1402372569 0.5674923062 4290232529
-0.2707030475 -0.1398532689 0.5684944391 4290298322
-0.2715999782 -0.1396829188 0.5703780651 4290298322
-0.2716573179 -0.1390785277 0.5704984665 4290298322
-0.2721343637 -0.1386877894 0.5715003014 4290298322
-0.2721913159 -0.1380817145 0.5716199279 4290364115
-0.2726681828 -0.1376874000 0.5726213455 4290364115
-0.2727247775 -0.1370796263 0.5727401972 4290299092
-0.2732014656 -0.1366817504 0.5737412572 4290299092
-0.2732577026 -0.1360722780 0.5738593340 4290429908
-0.2737341821 -0.1356708407 0.5748599768 4290429908
-0.2742106020 -0.1352671534 0.5758605003 4290429908
-0.2746869624 -0.1348612010 0.5768609047 4290298322
-0.2747425437 -0.1342474222 0.5769776106 4290232529
-0.2752186954 -0.1338379085 0.5779775977 4290232529
-0.2756947875 -0.1334261447 0.5789774060 4290166736
-0.2757498324 -0.1328093708 0.5790929794 4290100943
-0.2766467929 -0.1325958669 0.5809766650 4289969357
-0.2771226764 -0.1321773529 0.5819761157 4289771978
-0.2771772742 -0.1315566450 0.5820907354 4289640392
-0.2776529491 -0.1311345547 0.5830896497 4289771978
-0.2781285346 -0.1307102144 0.5840885043 4289706185
-0.2781825960 -0.1300865263 0.5842019916 4289443013
-0.2782363892 -0.1294624656 0.5843149424 4289179841
-0.2787116170 -0.1290332675 0.5853129625 4289048255
-0.2791867554 -0.1286018044 0.5863108039 4289311427
-0.2796618044 -0.1281680912 0.5873084664 4289048255
-0.2801367939 -0.1277321279 0.5883059502 4288719288
-0.2801897228 -0.1271024793 0.5884171128 4288521909
-0.2802424133 -0.1264724880 0.5885277390 4288587702
-0.2802948654 -0.1258421391 0.5886378884 4288587702
-0.2807692587 -0.1254000068 0.5896341801 4288324271
-0.2808212936 -0.1247679964 0.5897434354 4287863720
-0.2812954783 -0.1243223101 0.5907391906 4287731621
-0.2813470960 -0.1236886531 0.5908476114 4286678933
-0.2813984752 -0.1230546460 0.5909555554 4285494659
-0.2814496160 -0.1224202961 0.5910629034 4284441971
-0.2815004885 -0.1217855960 0.5911697745 4282730837
-0.2815511525 -0.1211505607 0.5912761688 4280691254
-0.2816015482 -0.1205151752 0.5913819671 4280033324
-0.2824974954 -0.1202394515 0.5932635665 4280428082
-0.2825475335 -0.1196014807 0.5933686495 4280690740
-0.2821742892 -0.1187850833 0.5925848484 4280230189
-0.2822237909 -0.1181473956 0.5926887393 4280164396
-0.2822729945 -0.1175093651 0.5927920938 4280295982
-0.2823219895 -0.1168710068 0.5928949714 4280493361
-0.2823707163 -0.1162323207 0.5929973125 4280690740
-0.2819957733 -0.1154199988 0.5922099352 4281480256
-0.2820439339 -0.1147816107 0.5923110843 4282072393
-0.2825154066 -0.1143142805 0.5933011770 4281743428
-0.2821395099 -0.1135038510 0.5925117731 4281611842
-0.2821868956 -0.1128644869 0.5926113129 4281612353
-0.2830816209 -0.1125618145 0.5944902301 4282270283
-0.2831286490 -0.1119198874 0.5945889950 4282599248
-0.2835993469 -0.1114442274 0.5955775380 4283059799
-0.2836459577 -0.1108007059 0.5956754088 4283125592
-0.2836923003 -0.1101568639 0.5957727432 4282862420
-0.2841625214 -0.1096763983 0.5967602134 4282731088
-0.2842084169 -0.1090309694 0.5968565941 4282402123
-0.2842540741 -0.1083852276 0.5969524980 4281809986
-0.2842994630 -0.1077391729 0.5970478058 4281481021
-0.2847689986 -0.1072526500 0.5980338454 4281480767
-0.2848139405 -0.1066050082 0.5981282592 4281414974
-0.2852831483 -0.1061149761 0.5991136432 4281547330
-0.2853276432 -0.1054657698 0.5992070436 4282271053
-0.2857965529 -0.1049722284 0.6001917720 4283192157
-0.2858405709 -0.1043214425 0.6002842784 4284244845
-0.2863091528 -0.1038244069 0.6012682915 4285758084
-0.2859278917 -0.1030189842 0.6004676223 4287271323
-0.2868209779 -0.1026715189 0.6023431420 4288587696
-0.2872890830 -0.1021687463 0.6033262014 4289640384
-0.2869069576 -0.1013633981 0.6025237441 4290561486
-0.2754425704 -0.1954588890 0.5798001289 4292140263
-0.2755195200 -0.1948691159 0.5799620748 4289179578
-0.2751855254 -0.1939892918 0.5792590976 4288916408
-0.2744402885 -0.1928220987 0.5776903629 4289047994
-0.2732834816 -0.1913701445 0.5752552748 4288784822
-0.2700704336 -0.1884885430 0.5684918761 4288982201
-0.2668553889 -0.1856205761 0.5617243052 4288850361
-0.2681625783 -0.1859026551 0.5644758940 4288718775
-0.2657676041 -0.1836207807 0.5594345331 4288784570
-0.2641941309 -0.1819157600 0.5561224222 4288850363
-0.2634428144 -0.1807823032 0.5545409322 4288785335
-0.2614556551 -0.1788071692 0.5503579974 4288851128
-0.2627620101 -0.1790860444 0.5531078577 4289047994
-0.2624210119 -0.1782398820 0.5523900390 4288850615
-0.2612554431 -0.1768371910 0.5499365330 4288455603
-0.2580280900 -0.1740491986 0.5431430340 4288192431
-0.2535619140 -0.1704435796 0.5337418318 4288389812
-0.2528047562 -0.1693433821 0.5321480632 4288916156
-0.2524595261 -0.1685216576 0.5314213634 4289705413
-0.2504633665 -0.1666034162 0.5272194743 4290560722
-0.2505296171 -0.1660615504 0.5273589492 4291021271
-0.2497700155 -0.1649738848 0.5257599950 4290889685
-0.2502486408 -0.1647047400 0.5267674923 4291678684
-0.2503142357 -0.1641624868 0.5269055367 4293323509
-0.2507928014 -0.1638898104 0.5279129744 4294573567
-0.2508581579 -0.1633458138 0.5280504823 4294705151
-0.2517500818 -0.1633377969 0.5299279690 4294376959
-0.2518152595 -0.1627911478 0.5300651789 4293916412
-0.2522938550 -0.1625104845 0.5310726166 4293915644
-0.2535999119 -0.1627586335 0.5338218212 4293257714
-0.2528373301 -0.1616778970 0.5322166085 4293126647
-0.2537298203 -0.1616551727 0.5340952873 4293126647
-0.2542085350 -0.1613656282 0.5351029634 4293257981
-0.2542731166 -0.1608119458 0.5352389216 4293323774
-0.2547517419 -0.1605188400 0.5362464190 4293258495
-0.2552304268 -0.1602235138 0.5372539759 4293521663
-0.2552946508 -0.1596667618 0.5373892188 4293587455
-0.2557732463 -0.1593678892 0.5383966565 4293784831
-0.2562518418 -0.1590667814 0.5394040942 4293785087
-0.2563157082 -0.1585069597 0.5395385027 4293324539
-0.2567942142 -0.1582022905 0.5405458212 4292863988
-0.2572727799 -0.1578954011 0.5415530801 4292074472
-0.2573362589 -0.1573325098 0.5416867733 4291547874
-0.2578147054 -0.1570220590 0.5426938534 4290889944
-0.2578779161 -0.1564574391 0.5428268909 4290363602
-0.2583562732 -0.1561434269 0.5438338518 4290034637
-0.2588346303 -0.1558271796 0.5448408127 4289705673
-0.2588974535 -0.1552594900 0.5449730158 4289442501
-0.2589600682 -0.1546913832 0.5451048017 4289179329
-0.2594382465 -0.1543702632 0.5461113453 4289245122
-0.2607481480 -0.1545398384 0.5488687158 4288981949
-0.2599786222 -0.1534757316 0.5472488403 4288916156
-0.2608727515 -0.1533934474 0.5491309762 4288850361
-0.2613509297 -0.1530633718 0.5501375198 4288718775
-0.2614128292 -0.1524882317 0.5502678156 4288653236
-0.2618908882 -0.1521545947 0.5512741208 4288455857
-0.2627853751 -0.1520596892 0.5531570315 4288258989
-0.2632635236 -0.1517206430 0.5541635156 4288258989
-0.2633249760 -0.1511402130 0.5542928576 4288455603
-0.2638030052 -0.1507975906 0.5552991033 4288324017
-0.2642809749 -0.1504527330 0.5563052297 4288324017
-0.2643420398 -0.1498692483 0.5564337373 4288324017
-0.2648198903 -0.1495208144 0.5574396253 4288455603
-0.2648805976 -0.1489356011 0.5575674176 4288587189
-0.2649411261 -0.1483499855 0.5576947927 4288652982
-0.2654187381 -0.1479966640 0.5587001443 4288587189
-0.2654789090 -0.1474093199 0.5588268638 4288916154
-0.2663739026 -0.1472832859 0.5607107878 4289113533
-0.2668514550 -0.1469232142 0.5617160201 4289376705
-0.2669112682 -0.1463319063 0.5618419051 4289508291
-0.2673886716 -0.1459682733 0.5628468394 4289705672
-0.2678660452 -0.1456023902 0.5638517141 4289968844
-0.2679253817 -0.1450080425 0.5639766455 4290100430
-0.2684026062 -0.1446385831 0.5649811625 4290166223
-0.2688798010 -0.1442668885 0.5659856200 4290100943
-0.2689386904 -0.1436695009 0.5661095977 4290166736
-0.2694157064 -0.1432942152 0.5671136975 4290298322
-0.2694742382 -0.1426951140 0.5672369599 4290364115
-0.2695325613 -0.1420956254 0.5673596859 4290364115
-0.2700092793 -0.1417154521 0.5683631897 4290364115
-0.2700672746 -0.1411142498 0.5684852004 4290429908
-0.2705438137 -0.1407305151 0.5694883466 4290298322
-0.2706014216 -0.1401276141 0.5696096420 4290233299
-0.2710777819 -0.1397403032 0.5706123710 4290233299
-0.2715541124 -0.1393507421 0.5716150403 4290233299
-0.2716112435 -0.1387448162 0.5717352629 4290233299
-0.2720873952 -0.1383516788 0.5727375150 4290233299
-0.2721441388 -0.1377440542 0.5728570223 4290299092
-0.2726200819 -0.1373473555 0.5738588572 4290299092
-0.2726764679 -0.1367380321 0.5739775896 4290299092
-0.2731522322 -0.1363377720 0.5749790072 4290232529
-0.2732082605 -0.1357267648 0.5750969648 4290232529
-0.2736838162 -0.1353229284 0.5760979652 4290166736
-0.2737394571 -0.1347102225 0.5762150884 4290035150
-0.2742148042 -0.1343028247 0.5772157311 4289969357
-0.2746900916 -0.1338931620 0.5782161951 4289837771
-0.2751653194 -0.1334812492 0.5792165399 4289706185
-0.2756404877 -0.1330670863 0.5802167654 4289640392
-0.2761155963 -0.1326506734 0.5812168121 4289508806
-0.2761702836 -0.1320310384 0.5813319087 4289508806
-0.2770655751 -0.1318110824 0.5832164884 4289443013
-0.2779609859 -0.1315869689 0.5851013064 4289377220
-0.2775946856 -0.1307643354 0.5843302608 4289443013
-0.2780693471 -0.1303375810 0.5853294134 4289311427
-0.2785439491 -0.1299085766 0.5863284469 4288719290
-0.2794393003 -0.1296726167 0.5882131457 4288061360
-0.2790719569 -0.1288494617 0.5874398947 4286811291
-0.2791252434 -0.1282212436 0.5875520706 4286021775
-0.2795993686 -0.1277851164 0.5885500312 4285560711
-0.2800734043 -0.1273467392 0.5895478725 4286087055
-0.2801260948 -0.1267155558 0.5896588564 4287402915
-0.2801785767 -0.1260840148 0.5897692442 4288060845
-0.2802307904 -0.1254521161 0.5898792148 4287336863
-0.2807042599 -0.1250075698 0.5908758044 4286086796
-0.2807560563 -0.1243740097 0.5909848809 4285034108
-0.2812292576 -0.1239259094 0.5919809937 4283520869
-0.2812806666 -0.1232907027 0.5920891762 4281809735
-0.2813318372 -0.1226551533 0.5921968818 4280296496
-0.2813827395 -0.1220192611 0.5923040509 4279441187
-0.2814334035 -0.1213830188 0.5924106836 4279704359
-0.2819058299 -0.1209274605 0.5934051275 4280164909
-0.2819560766 -0.1202895865 0.5935109258 4279835944
-0.2820060849 -0.1196513623 0.5936161280 4280295982
-0.2820558250 -0.1190128028 0.5937208533 4280624947
-0.2816830277 -0.1181967035 0.5929360986 4280624947
-0.2817322016 -0.1175584272 0.5930396318 4280624947
-0.2817811072 -0.1169198230 0.5931426287 4280822326
-0.2822523415 -0.1164552197 0.5941345096 4281282877
-0.2818782330 -0.1156416163 0.5933470130 4281875014
-0.2819263935 -0.1150020137 0.5934484601 4281940807
-0.2819743156 -0.1143620908 0.5935493112 4281743428
-0.2820219994 -0.1137218401 0.5936496854 4282203979
-0.2820694149 -0.1130812615 0.5937495232 4282138699
-0.2821165919 -0.1124403626 0.5938487649 4282138699
-0.2825865448 -0.1119667590 0.5948380232 4282072904
-0.2826332748 -0.1113242656 0.5949364305 4281941318
-0.2826797664 -0.1106814444 0.5950342417 4281349181
-0.2831492424 -0.1102030426 0.5960224867 4281217595
-0.2831952870 -0.1095586270 0.5961194038 4280955193
-0.2836644650 -0.1090767086 0.5971069932 4280823607
-0.2841334939 -0.1085925400 0.5980943441 4280560435
-0.2846024334 -0.1081061363 0.5990813971 4281020986
-0.2838004827 -0.1071377695 0.5973933339 4282139467
-0.2846926153 -0.1068087295 0.5992712379 4283257948
-0.2847373188 -0.1061595604 0.5993653536 4284639601
-0.2847817540 -0.1055100933 0.5994588733 4286152840
-0.2852497995 -0.1050163582 0.6004440784 4287732387
-0.2848698795 -0.1042102426 0.5996443629 4288850868
-0.2857615054 -0.1038680822 0.6015212536 4290035142
-0.2858050466 -0.1032154709 0.6016128659 4290824658
-0.2740874290 -0.1949530393 0.5782995820 4291482333
-0.2737542391 -0.1940742880 0.5775965452 4288850613
-0.2738305330 -0.1934864670 0.5777575970 4289113787
-0.2730865777 -0.1923206002 0.5761879086 4289113787
-0.2719318271 -0.1908698976 0.5737515092 4288850615
-0.2707762122 -0.1894239783 0.5713132024 4289047994
-0.2687989473 -0.1874106526 0.5671414137 4288784568
-0.2680518627 -0.1862613857 0.5655651093 4288784568
-0.2644298971 -0.1831246912 0.5579230785 4288916156
-0.2628593147 -0.1814208031 0.5546092987 4288981949
-0.2621093094 -0.1802887172 0.5530268550 4288851126
-0.2617695928 -0.1794413924 0.5523101091 4288916919
-0.2593742311 -0.1771913469 0.5472561121 4289047994
-0.2610889971 -0.1777507067 0.5508740544 4288982201
-0.2603367865 -0.1766283214 0.5492869616 4288784568
-0.2575270236 -0.1741182953 0.5433586836 4288389810
-0.2526580691 -0.1702340245 0.5330856442 4288192433
-0.2510791421 -0.1685815901 0.5297542214 4288389812
-0.2507342994 -0.1677622497 0.5290266275 4289047742
-0.2508008778 -0.1672188491 0.5291670561 4289968844
-0.2500433922 -0.1661276519 0.5275688767 4290429136
-0.2492852956 -0.1650395840 0.5259693861 4290297550
-0.2497630417 -0.1647703797 0.5269773602 4290362825
-0.2498285770 -0.1642279327 0.5271155834 4291547099
-0.2507186532 -0.1642252952 0.5289936066 4293061107
-0.2503715456 -0.1634109914 0.5282612443 4293784830
-0.2508492172 -0.1631346941 0.5292690396 4293521916
-0.2517395914 -0.1631235927 0.5311477184 4293587709
-0.2530429959 -0.1633749902 0.5338977575 4293324024
-0.2531081736 -0.1628237218 0.5340352654 4293126645
-0.2535861731 -0.1625367403 0.5350437760 4293587198
-0.2540641725 -0.1622475237 0.5360523462 4293718783
-0.2541289926 -0.1616931707 0.5361891389 4293653247
-0.2546069622 -0.1614004076 0.5371975303 4293719039
-0.2546714842 -0.1608443111 0.5373337269 4293390079
-0.2551493645 -0.1605480015 0.5383419991 4292929530
-0.2552136481 -0.1599901468 0.5384775996 4292600564
-0.2556914687 -0.1596902758 0.5394857526 4292403185
-0.2561692894 -0.1593881696 0.5404939651 4291811048
-0.2562331855 -0.1588272452 0.5406287909 4291218911
-0.2567109466 -0.1585215926 0.5416367650 4290824666
-0.2571887076 -0.1582137048 0.5426447988 4290429908
-0.2568379641 -0.1573958397 0.5419048071 4290034637
-0.2577298880 -0.1573382616 0.5437867045 4289376707
-0.2577931285 -0.1567725241 0.5439200997 4289113536
-0.2582707107 -0.1564574987 0.5449277759 4289047743
-0.2587483227 -0.1561402529 0.5459354520 4288916157
-0.2592259049 -0.1558207721 0.5469431281 4288850364
-0.2592886686 -0.1552506387 0.5470755100 4288652984
-0.2593511939 -0.1546801031 0.5472074747 4288455605
-0.2598285973 -0.1543557197 0.5482147336 4288587189
-0.2603060007 -0.1540291011 0.5492219925 4288587189
-0.2607833743 -0.1537002474 0.5502292514 4288389810
-0.2616761327 -0.1536129713 0.5521128774 4288192431
-0.2613227069 -0.1527928859 0.5513671637 4287995306
-0.2622155249 -0.1527002156 0.5532509685 4287929513
-0.2631085515 -0.1526034772 0.5551351905 4287995306
-0.2627544999 -0.1517821550 0.5543881655 4288126892
-0.2632317543 -0.1514407545 0.5553951263 4288324017
-0.2637089789 -0.1510971189 0.5564020276 4288324017
-0.2641862035 -0.1507512182 0.5574089289 4288389810
-0.2642472684 -0.1501666009 0.5575377941 4288521396
-0.2647243738 -0.1498171389 0.5585443974 4288850361
-0.2647851110 -0.1492307931 0.5586725473 4289113533
-0.2652620673 -0.1488777548 0.5596788526 4289245121
-0.2653826773 -0.1477012038 0.5599333644 4289508806
-0.2658593953 -0.1473432779 0.5609391928 4289706185
-0.2663360536 -0.1469830871 0.5619449019 4289903564
-0.2668127120 -0.1466206610 0.5629506111 4289969357
-0.2668723464 -0.1460278183 0.5630763769 4290100943
-0.2673488259 -0.1456618011 0.5640817881 4290166736
-0.2678253055 -0.1452935487 0.5650870800 4290232529
-0.2678844631 -0.1446976662 0.5652118921 4290298322
-0.2683607638 -0.1443258375 0.5662168860 4290232529
-0.2688370347 -0.1439517438 0.5672217607 4290232529
-0.2688957453 -0.1433528215 0.5673456192 4290167506
-0.2689542174 -0.1427534968 0.5674690008 4290233299
-0.2690124810 -0.1421537846 0.5675919056 4290299092
-0.2694883347 -0.1417734772 0.5685959458 4290299092
-0.2695462406 -0.1411720663 0.5687180758 4290299092
-0.2700219154 -0.1407881826 0.5697217584 4290299092
-0.2704975605 -0.1404020637 0.5707252622 4290299092
-0.2705549598 -0.1397976130 0.5708464384 4290233299
-0.2710304260 -0.1394079179 0.5718495846 4290233299
-0.2715058327 -0.1390159726 0.5728526711 4290233299
-0.2715627551 -0.1384084970 0.5729727149 4290167506
-0.2720379531 -0.1380129755 0.5739753842 4290167506
-0.2725131214 -0.1376152039 0.5749779344 4290167506
-0.2725695372 -0.1370047182 0.5750969648 4290167506
-0.2730444968 -0.1366033703 0.5760991573 4290166734
-0.2731005549 -0.1359911859 0.5762174129 4290035148
-0.2735753357 -0.1355862767 0.5772191286 4289969355
-0.2736310065 -0.1349724084 0.5773365498 4289903562
-0.2741055787 -0.1345639080 0.5783378482 4289706183
-0.2745800614 -0.1341531724 0.5793390274 4289574597
-0.2750545144 -0.1337401718 0.5803400278 4289508804
-0.2755288780 -0.1333249211 0.5813409686 4289377218
-0.2755837440 -0.1327054203 0.5814566612 4289048253
-0.2760578990 -0.1322865933 0.5824571252 4289048253
-0.2765319943 -0.1318655163 0.5834574103 4289114046
-0.2774257064 -0.1316413432 0.5853430629 4289048253
-0.2778997421 -0.1312147975 0.5863432288 4288456116
-0.2779538333 -0.1305887401 0.5864573717 4287337635
-0.2780076861 -0.1299623251 0.5865709782 4286284947
-0.2789013684 -0.1297262758 0.5884565711 4285692810
-0.2785347700 -0.1289028078 0.5876831412 4286021262
-0.2790081799 -0.1284678280 0.5886819363 4286416020
-0.2794815302 -0.1280305982 0.5896806121 4286942364
-0.2795343995 -0.1273995191 0.5897922516 4287008157
-0.2795870602 -0.1267680973 0.5899032950 4286547606
-0.2796394825 -0.1261363029 0.5900139213 4285494918
-0.2796916366 -0.1255041659 0.5901239514 4283784039
-0.2801642120 -0.1250594556 0.5911210775 4282073421
-0.2806367278 -0.1246124804 0.5921180248 4280757561
-0.2806883156 -0.1239773855 0.5922268629 4279441701
-0.2807396650 -0.1233419403 0.5923352242 4279046429
-0.2807907760 -0.1227061450 0.5924430490 4279506980
-0.2808416188 -0.1220699996 0.5925503373 4279638566
-0.2813133597 -0.1216155738 0.5935456753 4279704359
-0.2813637853 -0.1209777892 0.5936520696 4280033323
-0.2814140022 -0.1203396618 0.5937579870 4279901737
-0.2814639211 -0.1197011918 0.5938633680 4280428081
-0.2815136313 -0.1190623865 0.5939682126 4281086011
-0.2815630734 -0.1184232384 0.5940725207 4281217597
-0.2811906934 -0.1176074371 0.5932868719 4281151804
-0.2812395692 -0.1169685796 0.5933899879 4281414976
-0.2817099094 -0.1165037975 0.5943823457 4281875527
-0.2817583680 -0.1158633232 0.5944845676 4281875527
-0.2813847065 -0.1150500253 0.5936961770 4281612355
-0.2818545103 -0.1145813763 0.5946874619 4281743428
-0.2814801931 -0.1137693450 0.5938976407 4281809221
-0.2815275788 -0.1131285205 0.5939975977 4281217084
-0.2815746963 -0.1124873683 0.5940970182 4280953912
-0.2820437849 -0.1120135784 0.5950867534 4281019705
-0.2820904553 -0.1113708317 0.5951852798 4280953912
-0.2821368873 -0.1107277572 0.5952832699 4280625201
-0.2821830809 -0.1100843698 0.5953806639 4281283131
-0.2826514840 -0.1096045002 0.5963690281 4282139469
-0.2826972306 -0.1089595258 0.5964655280 4282928985
-0.2831653357 -0.1084761322 0.5974531770 4284047466
-0.2832106352 -0.1078295708 0.5975487828 4285363326
-0.2836784422 -0.1073426604 0.5985357761 4286876565
-0.2833004594 -0.1065355018 0.5977382660 4288192425
-0.2837678790 -0.1060460582 0.5987244844 4289442492
-0.2838122249 -0.1053972915 0.5988180041 4290560973
-0.2838563025 -0.1047482267 0.5989110470 4290955731
-0.2727348208 -0.1944466233 0.5767973661 4291087575
-0.2724021077 -0.1935693324 0.5760937333 4288850613
-0.2720689774 -0.1926933080 0.5753892064 4289047994
-0.2717354298 -0.1918185651 0.5746838450 4289113787
-0.2705827653 -0.1903690845 0.5722460747 4288850615
-0.2690197527 -0.1886373013 0.5689405203 4289047994
-0.2629502714 -0.1837635040 0.5561044216 4288718775
-0.2650710940 -0.1846227795 0.5605896711 4288850361
-0.2639144063 -0.1831969917 0.5581433773 4288850876
-0.2619370222 -0.1812088937 0.5539615154 4288785083
-0.2615984380 -0.1803599745 0.5532454252 4288785332
-0.2608493268 -0.1792305559 0.5516611338 4288851125
-0.2584585547 -0.1769805402 0.5466050506 4288982199
-0.2601699233 -0.1775410622 0.5502243042 4289047992
-0.2594191134 -0.1764191389 0.5486364961 4289047740
-0.2582571208 -0.1750220805 0.5461789966 4288587189
-0.2521659732 -0.1703015268 0.5332970023 4287995054
-0.2505901456 -0.1686484814 0.5299643874 4287863468
-0.2514787614 -0.1686556041 0.5318437219 4288126640
-0.2515455782 -0.1681093425 0.5319850445 4288981949
-0.2487343103 -0.1656460762 0.5260395408 4289573827
-0.2500337362 -0.1659239233 0.5287876725 4289836999
-0.2488655299 -0.1645639241 0.5263170600 4289442239
-0.2497537881 -0.1645644158 0.5281956196 4289573825
-0.2498191595 -0.1640204787 0.5283338428 4291087062
-0.2502960265 -0.1637454331 0.5293423533 4292534508
-0.2507729232 -0.1634681523 0.5303509235 4293587455
-0.2508379519 -0.1629211456 0.5304884911 4293850623
-0.2517268062 -0.1629069448 0.5323682427 4293719039
-0.2522037625 -0.1626230031 0.5333769917 4293719039
-0.2522685826 -0.1620720178 0.5335140228 4293719295
-0.2535701096 -0.1623123735 0.5362666249 4293324539
-0.2550016344 -0.1614311337 0.5392941236 4291679720
-0.2546533942 -0.1606123000 0.5385576487 4291219169
-0.2551304400 -0.1603136659 0.5395664573 4291284705
-0.2551945448 -0.1597542912 0.5397020578 4290692568
-0.2556715012 -0.1594521105 0.5407107472 4290034638
-0.2561484575 -0.1591476798 0.5417194963 4290100431
-0.2566254437 -0.1588410288 0.5427281857 4289705932
-0.2566890717 -0.1582772583 0.5428628325 4289508553
-0.2571659684 -0.1579670310 0.5438714027 4289113536
-0.2576428652 -0.1576545835 0.5448799729 4288981950
-0.2577061355 -0.1570877433 0.5450137258 4288718778
-0.2581829429 -0.1567717195 0.5460221767 4288389813
-0.2586597800 -0.1564534605 0.5470305681 4288389812
-0.2591365874 -0.1561329663 0.5480389595 4288652984
-0.2591993511 -0.1555617154 0.5481716990 4288521650
-0.2592619359 -0.1549900621 0.5483040214 4288126892
-0.2597385645 -0.1546646804 0.5493120551 4288061099
-0.2602151632 -0.1543370336 0.5503200293 4288192685
-0.2606917918 -0.1540071666 0.5513280034 4288257967
-0.2611684203 -0.1536750495 0.5523359776 4288257967
-0.2616450191 -0.1533406824 0.5533439517 4288257713
-0.2621216178 -0.1530040652 0.5543518662 4288257713
-0.2630130351 -0.1529064029 0.5562371612 4288323760
-0.2626598477 -0.1520838588 0.5554901361 4288389553
-0.2631362975 -0.1517414302 0.5564978123 4288784568
-0.2631976306 -0.1511583328 0.5566275120 4288981947
-0.2636739612 -0.1508123428 0.5576348901 4289113533
-0.2641502917 -0.1504640877 0.5586422682 4289310912
-0.2642111778 -0.1498779356 0.5587710142 4289640392
-0.2646873593 -0.1495261043 0.5597780943 4289837771
-0.2647479177 -0.1489382237 0.5599061847 4289706185
-0.2648082674 -0.1483499408 0.5600337982 4289706185
-0.2657000124 -0.1482251734 0.5619197488 4289969357
-0.2653442323 -0.1474031955 0.5611672997 4290166736
-0.2662360370 -0.1472730041 0.5630533099 4290232274
-0.2662957907 -0.1466803402 0.5631797314 4290232274
-0.2667715549 -0.1463155448 0.5641858578 4290035665
-0.2668309808 -0.1457211524 0.5643115640 4290035665
-0.2673065960 -0.1453527808 0.5653173923 4290035665
-0.2677821517 -0.1449821442 0.5663231611 4290167251
-0.2678411305 -0.1443847120 0.5664478540 4290101713
-0.2683165073 -0.1440104991 0.5674532652 4290167506
-0.2683751583 -0.1434113532 0.5675773025 4290233299
-0.2688503861 -0.1430335641 0.5685823560 4290299092
-0.2689086795 -0.1424327046 0.5687056184 4290430678
-0.2689667344 -0.1418314427 0.5688284039 4290364885
-0.2690245807 -0.1412298083 0.5689507127 4290364885
-0.2694993913 -0.1408458054 0.5699548721 4290430678
-0.2699741423 -0.1404595375 0.5709589124 4290233299
-0.2704488635 -0.1400710344 0.5719628930 4290233299
-0.2705060840 -0.1394650340 0.5720838904 4290233299
-0.2709805965 -0.1390729547 0.5730874538 4290167506
-0.2714550793 -0.1386786103 0.5740908980 4290035920
-0.2719295025 -0.1382820159 0.5750942826 4289904334
-0.2715682983 -0.1374602020 0.5743303299 4289838541
-0.2724603415 -0.1372715086 0.5762168765 4289838541
-0.2729345262 -0.1368690878 0.5772197247 4289771976
-0.2729905844 -0.1362557411 0.5773382783 4289574597
-0.2734645605 -0.1358497292 0.5783407092 4289508804
-0.2735202610 -0.1352346987 0.5784584880 4289508804
-0.2739940584 -0.1348251104 0.5794605017 4289245632
-0.2744677663 -0.1344132870 0.5804623365 4289179839
-0.2749414146 -0.1339991987 0.5814640522 4289114046
-0.2749964297 -0.1333798319 0.5815804005 4289048253
-0.2754698694 -0.1329621822 0.5825816989 4288850874
-0.2755245268 -0.1323411316 0.5826972127 4288785081
-0.2759977281 -0.1319199055 0.5836980343 4288192944
-0.2764708996 -0.1314964145 0.5846986771 4287140256
-0.2769439816 -0.1310706586 0.5856992006 4286350740
-0.2774169743 -0.1306426674 0.5866994858 4286416533
-0.2778899074 -0.1302123964 0.5876997113 4286942877
-0.2779435217 -0.1295844316 0.5878131390 4287403428
-0.2784162462 -0.1291505992 0.5888128281 4287205790
-0.2784694731 -0.1285209507 0.5889254212 4286876825
-0.2789419293 -0.1280835569 0.5899245739 4286021516
-0.2789947689 -0.1274522394 0.5900363326 4284376691
-0.2790473402 -0.1268205792 0.5901475549 4282797146
-0.2790997028 -0.1261885464 0.5902582407 4281876044
-0.2795715928 -0.1257449687 0.5912562013 4281218112
-0.2796235383 -0.1251112819 0.5913661122 4280494389
-0.2800951600 -0.1246641502 0.5923635364 4280494644
-0.2801466882 -0.1240288094 0.5924724936 4280560437
-0.2801979780 -0.1233931109 0.5925809741 4280691254
-0.2802490294 -0.1227570772 0.5926889181 4280888633
-0.2802998424 -0.1221206859 0.5927963853 4280888632
-0.2807706892 -0.1216660887 0.5937922001 4280691253
-0.2808210850 -0.1210280582 0.5938987732 4280757044
-0.2808712125 -0.1203896850 0.5940048099 4280888630
-0.2809211016 -0.1197509691 0.5941103101 4281414976
-0.2809707522 -0.1191119105 0.5942152739 4281612355
-0.2810201347 -0.1184725165 0.5943197012 4281678148
-0.2810692787 -0.1178327873 0.5944236517 4281678148
-0.2811181843 -0.1171927229 0.5945270658 4281349183
-0.2811668217 -0.1165523306 0.5946299434 4281283390
-0.2807942331 -0.1157380790 0.5938419700 4281349183
-0.2808423042 -0.1150979772 0.5939436555 4281414976
-0.2808901370 -0.1144575551 0.5940448046 4281414976
-0.2809377015 -0.1138167977 0.5941454172 4281283390
-0.2809850276 -0.1131757200 0.5942454934 4281546049
-0.2814534307 -0.1127030328 0.5952360630 4282072393
-0.2815003097 -0.1120603532 0.5953352451 4282532944
-0.2815469503 -0.1114173457 0.5954338908 4283125081
-0.2815933228 -0.1107740253 0.5955319405 4284046183
-0.2820610702 -0.1102952436 0.5965211987 4285756801
-0.2816853225 -0.1094864234 0.5957265496 4286744979
-0.2825744748 -0.1091680303 0.5976068974 4287995046
-0.2821981311 -0.1083595455 0.5968110561 4289442492
-0.2822433114 -0.1077136844 0.5969066024 4290297801
-0.2818662822 -0.1069074795 0.5961092114 4290889938
-0.2709766924 -0.1936480254 0.5744284987 4290758865
-0.2710525692 -0.1930638403 0.5745893121 4288653489
-0.2690865993 -0.1910297573 0.5704218149 4289179580
-0.2707952857 -0.1916049868 0.5740439296 4289113787
-0.2700533867 -0.1904439777 0.5724712014 4288850361
-0.2680848241 -0.1884243190 0.5682981610 4288784568
-0.2661149502 -0.1864130050 0.5641223192 4288850363
-0.2670060098 -0.1864083111 0.5660112500 4288850363
-0.2646253109 -0.1841229647 0.5609645247 4288916156
-0.2618339360 -0.1815640777 0.5550472736 4288850363
-0.2606777549 -0.1801483482 0.5525963306 4288785081
-0.2603393793 -0.1793013364 0.5518789887 4288785081
-0.2600005865 -0.1784556359 0.5511608720 4288981947
-0.2563849092 -0.1753700972 0.5434961915 4288916154
-0.2589121461 -0.1764889210 0.5488535166 4289179326
-0.2569329143 -0.1745346189 0.5446578264 4288718775
-0.2516732514 -0.1703689694 0.5335081816 4288126638
-0.2501005828 -0.1687152833 0.5301743746 4287271329
-0.2497571856 -0.1678953767 0.5294464231 4287534501
-0.2510542572 -0.1681760103 0.5321959853 4288587189
-0.2494795173 -0.1665335298 0.5288577676 4289047483
-0.2491350174 -0.1657167822 0.5281275511 4289113276
-0.2487901449 -0.1649014056 0.5273964405 4289113276
-0.2496768236 -0.1649010330 0.5292760730 4288915897
-0.2493314594 -0.1640857011 0.5285439491 4289113276
-0.2498074472 -0.1638105661 0.5295529366 4291152859
-0.2506944239 -0.1638017595 0.5314332247 4292994291
-0.2511705756 -0.1635212898 0.5324426293 4293454842
-0.2520579398 -0.1635053158 0.5343236923 4293191670
-0.2517116666 -0.1626878381 0.5335896611 4292533740
-0.2521878183 -0.1624016017 0.5345989466 4292008168
-0.2530754507 -0.1623771489 0.5364806652 4291613410
-0.2539633512 -0.1623486727 0.5383628011 4291152859
-0.2540280223 -0.1617917120 0.5384999514 4290692308
-0.2549161613 -0.1617569774 0.5403826833 4290034635
-0.2549806833 -0.1611973494 0.5405194163 4289837256
-0.2554570436 -0.1608968228 0.5415292382 4289639879
-0.2559334040 -0.1605940610 0.5425390601 4289442500
-0.2564097941 -0.1602890640 0.5435489416 4289113535
-0.2564738691 -0.1597250402 0.5436847210 4288916156
-0.2565377355 -0.1591605842 0.5438200831 4288850363
-0.2570139468 -0.1588506997 0.5448296070 4288784570
-0.2574901581 -0.1585385650 0.5458391309 4288521398
-0.2575536370 -0.1579710394 0.5459737182 4288455605
-0.2576169372 -0.1574030817 0.5461078286 4288389812
-0.2580929697 -0.1570860595 0.5471169949 4288389812
-0.2585690022 -0.1567667872 0.5481261015 4288389812
-0.2590450644 -0.1564452797 0.5491352677 4288324019
-0.2591078579 -0.1558729261 0.5492683649 4288324019
-0.2591704428 -0.1553001702 0.5494010448 4288455605
-0.2596462965 -0.1549737602 0.5504097939 4288258226
-0.2601221502 -0.1546451002 0.5514184833 4288389812
-0.2605979741 -0.1543142051 0.5524272323 4288521398
-0.2610737979 -0.1539810747 0.5534359217 4288652984
-0.2615496516 -0.1536456794 0.5544445515 4288718777
-0.2620254457 -0.1533080488 0.5554532409 4288850363
-0.2625012696 -0.1529681683 0.5564618707 4289047742
-0.2625629306 -0.1523856968 0.5565925837 4289310914
-0.2630386055 -0.1520422399 0.5576009750 4289312455
-0.2630999684 -0.1514580101 0.5577310324 4289444041
-0.2635755241 -0.1511109769 0.5587391257 4289641420
-0.2636365294 -0.1505250186 0.5588684678 4289707213
-0.2636973560 -0.1499386579 0.5589973927 4289838286
-0.2641726732 -0.1495867223 0.5600050092 4289904079
-0.2642331719 -0.1489986181 0.5601332188 4289970127
-0.2642934322 -0.1484101266 0.5602610111 4289970127
-0.2651835084 -0.1482853442 0.5621477962 4290035920
-0.2648284435 -0.1474630535 0.5613951683 4290233299
-0.2657185793 -0.1473328471 0.5632820725 4290232529
-0.2661935687 -0.1469692439 0.5642889738 4290429908
-0.2662531435 -0.1463750303 0.5644152761 4290429906
-0.2667279840 -0.1460078657 0.5654218793 4290232527
-0.2667872310 -0.1454119235 0.5655474663 4290364113
-0.2672619224 -0.1450411677 0.5665537119 4290364113
-0.2677365541 -0.1446681619 0.5675598979 4290561494
-0.2677953541 -0.1440691948 0.5676845312 4290495701
-0.2682698369 -0.1436925977 0.5686903596 4290496216
-0.2683282793 -0.1430919021 0.5688142180 4290496216
-0.2688026130 -0.1427117437 0.5698197484 4290364885
-0.2688606977 -0.1421093345 0.5699428916 4290364885
-0.2689185441 -0.1415065378 0.5700655580 4290561492
-0.2693925798 -0.1411214620 0.5710703731 4290298320
-0.2698665559 -0.1407341361 0.5720751286 4290429906
-0.2703404725 -0.1403445601 0.5730797648 4290495699
-0.2703977227 -0.1397374123 0.5732011199 4290364115
-0.2708714604 -0.1393442452 0.5742053986 4290100943
-0.2709283531 -0.1387353987 0.5743259788 4290232527
-0.2714019120 -0.1383386552 0.5753298402 4289837769
-0.2718754113 -0.1379396617 0.5763335824 4289706183
-0.2723488510 -0.1375384033 0.5773372650 4289706183
-0.2724050879 -0.1369252205 0.5774564743 4289442752
-0.2728783488 -0.1365203857 0.5784596801 4289245373
-0.2729341984 -0.1359054893 0.5785781145 4289179580
-0.2734072506 -0.1354970932 0.5795809031 4289245373
-0.2734627426 -0.1348804981 0.5796985030 4288850615
-0.2739355862 -0.1344685256 0.5807008743 4289179580
-0.2744083703 -0.1340542883 0.5817031264 4288850874
-0.2748810947 -0.1336377859 0.5827051997 4288258737
-0.2749359012 -0.1330168843 0.5828213692 4287732393
-0.2754083872 -0.1325968206 0.5838230252 4286613912
-0.2754628360 -0.1319742203 0.5839383602 4285956236
-0.2759351134 -0.1315505803 0.5849395394 4286022029
-0.2764073014 -0.1311246753 0.5859405398 4286219408
-0.2768794596 -0.1306965202 0.5869413614 4286745752
-0.2773514986 -0.1302661002 0.5879420638 4286351510
-0.2774050832 -0.1296378970 0.5880556703 4285298822
-0.2774583995 -0.1290093213 0.5881686807 4283784300
-0.2779300809 -0.1285740137 0.5891685486 4282665819
-0.2779830098 -0.1279437840 0.5892807841 4281810764
-0.2784544230 -0.1275049150 0.5902801156 4281679178
-0.2785069644 -0.1268730015 0.5903915167 4281613385
-0.2781403661 -0.1260508895 0.5896143913 4281481799
-0.2786113024 -0.1256081015 0.5906127095 4281678924
-0.2786631286 -0.1249751300 0.5907225013 4281942096
-0.2787146866 -0.1243418008 0.5908318162 4281876044
-0.2791852057 -0.1238941476 0.5918292403 4281810251
-0.2796556354 -0.1234442368 0.5928264856 4281547079
-0.2797066271 -0.1228079498 0.5929345489 4281218114
-0.2793379426 -0.1219881475 0.5921530128 4281218112
-0.2798078656 -0.1215343401 0.5931491852 4281349698
-0.2798581123 -0.1208970174 0.5932556987 4281349700
-0.2799081206 -0.1202593520 0.5933617353 4281086528
-0.2799578905 -0.1196213439 0.5934671760 4280889147
-0.2800073922 -0.1189830005 0.5935721397 4281152319
-0.2800566554 -0.1183443144 0.5936765671 4281152319
-0.2801056802 -0.1177052930 0.5937805176 4281020733
-0.2801544368 -0.1170659363 0.5938838720 4281020218
-0.2802029550 -0.1164262518 0.5939867496 4280757046
-0.2802512348 -0.1157862321 0.5940890312 4280954425
-0.2802992463 -0.1151458845 0.5941908360 4281678148
-0.2799267173 -0.1143335328 0.5934011340 4282336076
-0.2799741626 -0.1136934906 0.5935016870 4283191385
-0.2800213397 -0.1130531207 0.5936017632 4284046694
-0.2800683081 -0.1124124303 0.5937012434 4285165175
-0.2805355787 -0.1119392440 0.5946918726 4286810000
-0.2805821002 -0.1112969518 0.5947904587 4287994274
-0.2806283534 -0.1106543392 0.5948885083 4288915376
-0.2810951769 -0.1101763397 0.5958780646 4289770685
-0.2815618515 -0.1096960977 0.5968673825 4290364105
-0.2816075087 -0.1090506092 0.5969641209 4290758863
-0.2700373530 -0.1934321672 0.5737881660 4290758865
-0.2697055936 -0.1925577968 0.5730832219 4288653489
-0.2693734467 -0.1916846931 0.5723774433 4289047992
-0.2686332166 -0.1905237585 0.5708045959 4288982199
-0.2678923607 -0.1893658638 0.5692303777 4288850615
-0.2675587535 -0.1884983629 0.5685214996 4288850615
-0.2611050606 -0.1833352298 0.5548083782 4288916154
-0.2619931698 -0.1833402961 0.5566955209 4288916154
-0.2604323626 -0.1816332191 0.5533790588 4288981949
-0.2596870959 -0.1805003583 0.5517954826 4288784570
-0.2593496144 -0.1796535105 0.5510783792 4288784568
-0.2590117455 -0.1788079739 0.5503604412 4288850361
-0.2574475408 -0.1771203130 0.5470367074 4288916154
-0.2587435246 -0.1774010956 0.5497905612 4288850361
-0.2579956949 -0.1762792617 0.5482014418 4289113533
-0.2568382323 -0.1748820543 0.5457420349 4289047740
-0.2515890598 -0.1707139015 0.5345883369 4288652982
-0.2496104240 -0.1687820256 0.5303840637 4287666087
-0.2500863671 -0.1685134321 0.5313953757 4287337122
-0.2493340969 -0.1674178839 0.5297968984 4287995052
-0.2489907295 -0.1665994972 0.5290673375 4288455346
-0.2486469746 -0.1657824665 0.5283368826 4288521139
-0.2491222918 -0.1655112505 0.5293468833 4288521139
-0.2487779558 -0.1646951437 0.5286151767 4288652725
-0.2492531389 -0.1644212753 0.5296248794 4288652725
-0.2489082217 -0.1636061072 0.5288919806 4289836999
-0.2497934252 -0.1635982245 0.5307729244 4291152859
-0.2502685785 -0.1633185744 0.5317825675 4291679203
-0.2507437766 -0.1630367041 0.5327922702 4291350238
-0.2521048486 -0.1627313048 0.5356842875 4290560722
-0.2529909015 -0.1627059877 0.5375670791 4290231757
-0.2538772225 -0.1626766324 0.5394503474 4289771206
-0.2535310388 -0.1618562490 0.5387147665 4289508034
-0.2544174790 -0.1618215293 0.5405983329 4289047740
-0.2553041577 -0.1617827564 0.5424823761 4288850361
-0.2549574077 -0.1609611064 0.5417455435 4288784570
-0.2554328740 -0.1606582552 0.5427559018 4288718777
-0.2559083998 -0.1603531539 0.5437662601 4288652984
-0.2563838959 -0.1600458324 0.5447766781 4288587191
-0.2568594217 -0.1597362757 0.5457870960 4288587191
-0.2569232285 -0.1591693908 0.5459226370 4288587191
-0.2569868267 -0.1586020887 0.5460578203 4288455605
-0.2574622035 -0.1582876146 0.5470678806 4288455605
-0.2579375505 -0.1579709202 0.5480779409 4288389812
-0.2584128976 -0.1576519758 0.5490880013 4288389812
-0.2588882744 -0.1573307812 0.5500980616 4288324019
-0.2585389614 -0.1565081179 0.5493558049 4288389812
-0.2590141296 -0.1561842710 0.5503655076 4288587191
-0.2594892979 -0.1558581740 0.5513751507 4288784570
-0.2599644363 -0.1555298418 0.5523847938 4288784570
-0.2604396045 -0.1551992595 0.5533944368 4288850363
-0.2605019212 -0.1546213776 0.5535268784 4289113535
-0.2609769702 -0.1542872190 0.5545362830 4289245121
-0.2614520192 -0.1539508104 0.5555456877 4289310914
-0.2619270682 -0.1536121517 0.5565550327 4289376707
-0.2619888484 -0.1530298740 0.5566863418 4289508293
-0.2624637783 -0.1526876390 0.5576955080 4289705672
-0.2625252604 -0.1521036178 0.5578261018 4289772748
-0.2630000412 -0.1517578065 0.5588349700 4289772748
-0.2630612254 -0.1511720568 0.5589649677 4289838541
-0.2635358870 -0.1508226544 0.5599735379 4289904334
-0.2635967135 -0.1502351612 0.5601028204 4289970127
-0.2640712559 -0.1498821825 0.5611111522 4290035920
-0.2641317844 -0.1492929459 0.5612397194 4290101713
-0.2641920745 -0.1487033218 0.5613678694 4290035920
-0.2642521858 -0.1481132805 0.5614955425 4290167506
-0.2647263408 -0.1477540731 0.5625030398 4290233299
-0.2652004659 -0.1473926008 0.5635105371 4290364113
-0.2656745911 -0.1470288783 0.5645179749 4290495699
-0.2661486566 -0.1466629058 0.5655252934 4290364113
-0.2662080824 -0.1460671574 0.5656515360 4290232527
-0.2666819990 -0.1456976086 0.5666585565 4290298320
-0.2667410672 -0.1451001316 0.5667840242 4290232527
-0.2672148347 -0.1447270066 0.5677907467 4290429908
-0.2676885724 -0.1443516165 0.5687973499 4290364115
-0.2677471638 -0.1437510848 0.5689218640 4290364885
-0.2682207227 -0.1433721185 0.5699281096 4290430678
-0.2682789862 -0.1427698880 0.5700519085 4290233299
