VERSION 0.7
FIELDS x y z rgba
SIZE 4 4 4 4
TYPE F F F U
COUNT 1 1 1 1
WIDTH 920
HEIGHT 1
VIEWPOINT 0.0 0.0 0.0 1.0 0.0 0.0 0.0
POINTS 920
DATA ascii
-0.2767703831 -0.0849618837 0.5908837914 4280033575
-0.2768059075 -0.0843161941 0.5909596086 4280099368
-0.2768411636 -0.0836702511 0.5910348892 4280099368
-0.2772969604 -0.0831502378 0.5920079947 4280165161
-0.2773317397 -0.0825028270 0.5920822620 4279967528
-0.2773662508 -0.0818551704 0.5921559930 4280033321
-0.2782424092 -0.0814537257 0.5940264463 4280164907
-0.2782765031 -0.0808036253 0.5940992832 4280296493
-0.2787314057 -0.0802745447 0.5950704217 4280428079
-0.2787650228 -0.0796229839 0.5951421857 4280362286
-0.2783772349 -0.0788518935 0.5943142772 4280296493
-0.2784102857 -0.0782008469 0.5943848491 4280230700
-0.2784430385 -0.0775495768 0.5944548249 4280493872
-0.2784755528 -0.0768980682 0.5945242047 4280362286
-0.2785077989 -0.0762463361 0.5945930481 4280362286
-0.2781183720 -0.0754800141 0.5937616825 4280493872
-0.2785714865 -0.0749421939 0.5947290063 4280625458
-0.2786029279 -0.0742897913 0.5947961211 4280691251
-0.2786341012 -0.0736371726 0.5948626995 4280888630
-0.2786650062 -0.0729843304 0.5949286819 4281086009
-0.2786956429 -0.0723312721 0.5949940681 4281151802
-0.2787260115 -0.0716779977 0.5950589180 4281217595
-0.2787560821 -0.0710245147 0.5951231718 4281349181
-0.2792076766 -0.0704772845 0.5960872769 4281546560
-0.2792373002 -0.0698223859 0.5961504579 4281613123
-0.2796884775 -0.0692717731 0.5971137285 4281744709
-0.2797175944 -0.0686154738 0.5971758366 4282007879
-0.2801683545 -0.0680614784 0.5981382132 4282205258
-0.2801969647 -0.0674037859 0.5981993079 4282336330
-0.2802253067 -0.0667458922 0.5982598066 4282731088
-0.2806754410 -0.0661873296 0.5992207527 4282994260
-0.2807032466 -0.0655280501 0.5992801785 4283520604
-0.2807308137 -0.0648685694 0.5993390083 4284441706
-0.2811802924 -0.0643054619 0.6002986431 4285297015
-0.2812073529 -0.0636446029 0.6003564000 4286021252
-0.2812341154 -0.0629835650 0.6004135609 4286876561
-0.2816829383 -0.0624159127 0.6013717651 4287402905
-0.2825539112 -0.0619386695 0.6032311916 4288126628
-0.2821575999 -0.0611824989 0.6023851037 4288718767
-0.2826057673 -0.0606093295 0.6033419371 4289245111
-0.2826313078 -0.0599443838 0.6033964157 4289968834
-0.2830790281 -0.0593678690 0.6043522954 4290429385
-0.2831040323 -0.0587015748 0.6044057012 4290561484
-0.2831287682 -0.0580351055 0.6044584513 4290824656
-0.2835758328 -0.0574540831 0.6054129004 4290758352
-0.2695761621 -0.1810183674 0.5768925548 4286743950
-0.2693110704 -0.1795596927 0.5763252974 4285099125
-0.2685667574 -0.1784248650 0.5747324824 4283914851
-0.2674142122 -0.1770233214 0.5722660422 4283849058
-0.2650375366 -0.1748198420 0.5671799779 4283387988
-0.2663301229 -0.1750391871 0.5699461102 4282993230
-0.2639514804 -0.1728482842 0.5648558140 4283848540
-0.2632036507 -0.1717327535 0.5632554293 4282466887
-0.2624551952 -0.1706203669 0.5616537929 4280690476
-0.2617061436 -0.1695111543 0.5600507855 4281940543
-0.2605480850 -0.1681415588 0.5575725436 4282664266
-0.2606146634 -0.1675648540 0.5577149987 4282861645
-0.2606810331 -0.1669877172 0.5578570366 4283651161
-0.2607472241 -0.1664101481 0.5579987168 4283716954
-0.2608132064 -0.1658321172 0.5581399202 4283783261
-0.2608790100 -0.1652536690 0.5582807064 4283914847
-0.2613536119 -0.1649328917 0.5592963696 4283717468
-0.2618282139 -0.1646098495 0.5603120327 4283914847
-0.2623028457 -0.1642845720 0.5613276958 4284112226
-0.2627774477 -0.1639570296 0.5623434186 4283651675
-0.2632520795 -0.1636272222 0.5633590817 4284045918
-0.2633171976 -0.1630416065 0.5634984374 4283980125
-0.2642013431 -0.1629608721 0.5653904676 4283782746
-0.2646759748 -0.1626242995 0.5664061904 4283716953
-0.2655603886 -0.1625363082 0.5682988763 4283585368
-0.2664450407 -0.1624442190 0.5701919794 4283585368
-0.2665098310 -0.1618500501 0.5703306794 4283321942
-0.2678047717 -0.1619997025 0.5731018186 4282729805
-0.2682796717 -0.1616490781 0.5741180778 4283651677
-0.2691648602 -0.1615424603 0.5760124326 4284441193
-0.2722696364 -0.1342740208 0.5826566219 4283257178
-0.2719098330 -0.1334500760 0.5818867087 4281480767
-0.2719642520 -0.1328301281 0.5820031166 4280888373
-0.2716037631 -0.1320082694 0.5812316537 4281019959
-0.2704133689 -0.1307867467 0.5786842108 4281282359
-0.2712963820 -0.1305687726 0.5805739164 4281216566
-0.2696900666 -0.1291544437 0.5771363974 4281150773
-0.2697428167 -0.1285383403 0.5772492290 4281019187
-0.2689651847 -0.1275282651 0.5755851269 4281019187
-0.2681870162 -0.1265216321 0.5739198327 4280953394
-0.2678235173 -0.1257133484 0.5731419921 4281216566
-0.2674596310 -0.1249066070 0.5723632574 4281545531
-0.2670953572 -0.1241014078 0.5715836883 4281742910
-0.2671461403 -0.1234898195 0.5716924071 4281677117
-0.2676122785 -0.1230689883 0.5726898909 4281677117
-0.2680782974 -0.1226458997 0.5736871958 4281742910
-0.2685442567 -0.1222205609 0.5746843815 4281742910
-0.2685943842 -0.1216047332 0.5747915506 4281611324
-0.2686442435 -0.1209885553 0.5748983026 4281611324
-0.2686938643 -0.1203720346 0.5750045180 4281611324
-0.2695752978 -0.1201259345 0.5768907666 4281611324
-0.2692085207 -0.1193224043 0.5761058331 4281545531
-0.2696736753 -0.1188873798 0.5771012902 4281479738
-0.2697225213 -0.1182675883 0.5772057772 4281479738
-0.2697711289 -0.1176474690 0.5773097873 4281479738
-0.2698194683 -0.1170270145 0.5774133205 4281413945
-0.2698675990 -0.1164062247 0.5775163174 4281414713
-0.2699154913 -0.1157850996 0.5776187778 4281414713
-0.2699631453 -0.1151636541 0.5777207017 4281414713
-0.2695938647 -0.1143651083 0.5769304633 4281480506
-0.2700577080 -0.1139197648 0.5779231191 4281414713
-0.2701046169 -0.1132973358 0.5780235529 4281348920
-0.2701513171 -0.1126745790 0.5781234503 4281283127
-0.2701977491 -0.1120515019 0.5782228112 4281217334
-0.2706609964 -0.1116000637 0.5792141557 4281283127
-0.2702899277 -0.1108043939 0.5784200430 4281151541
-0.2707528174 -0.1103503853 0.5794106722 4281085748
-0.2707983553 -0.1097250730 0.5795081258 4280954162
-0.2708436549 -0.1090994477 0.5796050429 4280888369
-0.2713060975 -0.1086406484 0.5805947185 4280888369
-0.2713509798 -0.1080134287 0.5806907415 4280822576
-0.2718131542 -0.1075511128 0.5816797614 4280756783
-0.2718576193 -0.1069223061 0.5817748904 4280690224
-0.2723194957 -0.1064564735 0.5827633142 4280492845
-0.2723635435 -0.1058260947 0.5828575492 4280427050
-0.2724073231 -0.1051954031 0.5829512477 4280361257
-0.2728687227 -0.1047247872 0.5839386582 4280295464
-0.2733300030 -0.1042519361 0.5849258304 4280229671
-0.2737911940 -0.1037768424 0.5859127641 4280163878
-0.2742522359 -0.1032995135 0.5868993998 4280163878
-0.2742950320 -0.1026634425 0.5869910121 4280032292
-0.2747558057 -0.1021826118 0.5879769921 4280098085
-0.2752164304 -0.1016995385 0.5889627337 4280032292
-0.2752586007 -0.1010606438 0.5890530348 4279966499
-0.2748821378 -0.1002688408 0.5882473588 4279966499
-0.2749237418 -0.0996303335 0.5883364081 4280032292
-0.2753836215 -0.0991422087 0.5893205404 4280032292
-0.2754247785 -0.0985021517 0.5894086361 4280098085
-0.2754656672 -0.0978618115 0.5894961357 4279967269
-0.2750876248 -0.0970734283 0.5886871219 4280033062
-0.2751279771 -0.0964334980 0.5887734294 4280033062
-0.2743304074 -0.0955016688 0.5870666504 4280033062
-0.2747889757 -0.0950079560 0.5880480409 4280033062
-0.2748284936 -0.0943681598 0.5881326199 4280033062
-0.2748677433 -0.0937280878 0.5882166028 4280033062
-0.2749067545 -0.0930877402 0.5883000493 4280033062
-0.2749454975 -0.0924471244 0.5883829594 4279967271
-0.2754031420 -0.0919461846 0.5893623829 4279901478
-0.2754414380 -0.0913040489 0.5894442797 4279967271
-0.2758987546 -0.0907996446 0.5904229879 4280033064
-0.2767753005 -0.0904300362 0.5922987461 4280033064
-0.2772324085 -0.0899202079 0.5932769775 4280098857
-0.2772698700 -0.0892731026 0.5933571458 4280098857
-0.2768875659 -0.0884916559 0.5925390124 4280033064
-0.2769244909 -0.0878450051 0.5926179886 4280164907
-0.2765414715 -0.0870659798 0.5917983651 4280033321
-0.2765778005 -0.0864198059 0.5918760896 4280099114
-0.2761941254 -0.0856432095 0.5910550356 4280164907
-0.2762298584 -0.0849975049 0.5911315084 4280296493
-0.2762653530 -0.0843515545 0.5912074447 4280296493
-0.2763005793 -0.0837053508 0.5912828445 4280296493
-0.2763355374 -0.0830589011 0.5913576484 4280230700
-0.2767902613 -0.0825374573 0.5923307538 4280428079
-0.2772448063 -0.0820138007 0.5933035016 4280428079
-0.2772790790 -0.0813646540 0.5933768749 4280493872
-0.2777332664 -0.0808375627 0.5943487883 4280691251
-0.2773468494 -0.0800656453 0.5935218930 4280954423
-0.2782208920 -0.0796564445 0.5953922868 4281151802
-0.2778338790 -0.0788850412 0.5945641398 4281283388
-0.2778668702 -0.0782337263 0.5946347713 4281414974
-0.2778996229 -0.0775821880 0.5947048068 4281414976
-0.2779321074 -0.0769304112 0.5947743058 4281414976
-0.2779642940 -0.0762784183 0.5948432088 4281480767
-0.2779962420 -0.0756261870 0.5949115753 4281612353
-0.2780279219 -0.0749737397 0.5949793458 4281743939
-0.2780593038 -0.0743210688 0.5950465202 4281875525
-0.2780904472 -0.0736681819 0.5951131582 4282138697
-0.2781213224 -0.0730150715 0.5951792598 4282401869
-0.2781519294 -0.0723617449 0.5952447057 4282533455
-0.2781822681 -0.0717082024 0.5953096151 4282796627
-0.2786332071 -0.0711619481 0.5962746739 4283126362
-0.2786630690 -0.0705069900 0.5963385701 4283652706
-0.2791136205 -0.0699573457 0.5973027349 4284179050
-0.2791429460 -0.0693009868 0.5973655581 4284639601
-0.2795931101 -0.0687479526 0.5983288288 4285165945
-0.2796219587 -0.0680901930 0.5983905792 4285560703
-0.2800716758 -0.0675337836 0.5993530154 4286481035
-0.2796788216 -0.0667740628 0.5985122919 4287270551
-0.2801280916 -0.0662152693 0.5994737744 4288125860
-0.2801558971 -0.0655557141 0.5995332599 4288783790
-0.2801834345 -0.0648959726 0.5995921493 4289507513
-0.2806320488 -0.0643326193 0.6005522013 4290033857
-0.2806590796 -0.0636714995 0.6006100178 4290232006
-0.2811072767 -0.0631047934 0.6015691757 4290363592
-0.2811338007 -0.0624422915 0.6016259193 4290560971
-0.2811600268 -0.0617796071 0.6016820669 4290824143
-0.2816075683 -0.0612083711 0.6026397943 4290889936
-0.2820549011 -0.0606349595 0.6035971045 4290889936
-0.2679636478 -0.1790869832 0.5748080611 4284112228
-0.2676274180 -0.1782243997 0.5740867853 4282993747
-0.2664770782 -0.1768232435 0.5716192126 4282006852
-0.2657328546 -0.1756960601 0.5700227618 4281085233
-0.2645809352 -0.1743038595 0.5675518513 4280624682
-0.2638353705 -0.1731838733 0.5659524798 4282664266
-0.2626819313 -0.1718006730 0.5634782314 4282927438
-0.2619350255 -0.1706878990 0.5618760586 4281151541
-0.2611874938 -0.1695782691 0.5602725148 4281348920
-0.2600317597 -0.1682081670 0.5577934384 4281808956
-0.2605059445 -0.1678940207 0.5588105917 4282137921
-0.2605723441 -0.1673157811 0.5589530468 4282203714
-0.2598227859 -0.1662152261 0.5573451519 4282730058
-0.2598886192 -0.1656379253 0.5574862957 4282730573
-0.2599542141 -0.1650601774 0.5576270819 4282401608
-0.2604278326 -0.1647402197 0.5586429834 4282401608
-0.2609014511 -0.1644179970 0.5596589446 4282927952
-0.2613750696 -0.1640935242 0.5606749654 4283124816
-0.2622572184 -0.1640222669 0.5625671744 4282269507
-0.2627309561 -0.1636923850 0.5635834336 4281611575
-0.2627959847 -0.1631065607 0.5637229085 4281874747
-0.2632696331 -0.1627730578 0.5647389293 4281875517
-0.2641521692 -0.1626891494 0.5666320324 4282204482
-0.2650349140 -0.1626011431 0.5685256124 4282862414
-0.2663269341 -0.1627590805 0.5712971687 4283454551
-0.2663917542 -0.1621637791 0.5714362264 4283783261
-0.2672749758 -0.1620644182 0.5733308196 4283717468
-0.2677489817 -0.1617137045 0.5743476152 4283520091
-0.2690419853 -0.1618534178 0.5771211982 4284112228
-0.2717879415 -0.1337080598 0.5830115676 4282467662
-0.2714286149 -0.1328843683 0.5822407007 4280822580
-0.2710688710 -0.1320621818 0.5814690590 4280756787
-0.2707087398 -0.1312415302 0.5806965232 4281150773
-0.2703481913 -0.1304224133 0.5799231529 4280887601
-0.2699872553 -0.1296048164 0.5791488886 4280887601
-0.2683834434 -0.1281952560 0.5757085085 4281019187
-0.2676072121 -0.1271866858 0.5740435123 4280953394
-0.2684877813 -0.1269652992 0.5759323835 4280953394
-0.2672963738 -0.1257648319 0.5733767152 4281413945
-0.2677622437 -0.1253458560 0.5743759871 4281611324
-0.2678134441 -0.1247315258 0.5744858384 4281808703
-0.2674497664 -0.1239247173 0.5737057328 4281742910
-0.2675004303 -0.1233106479 0.5738144517 4281742910
-0.2679656744 -0.1228864565 0.5748124123 4281808703
-0.2680159509 -0.1222707331 0.5749202371 4281808703
-0.2684809566 -0.1218429878 0.5759177804 4281742910
-0.2685308456 -0.1212256253 0.5760247707 4281677117
-0.2689956129 -0.1207943261 0.5770217180 4281677117
-0.2690451145 -0.1201753169 0.5771279335 4281611324
-0.2695096433 -0.1197404712 0.5781243443 4281611324
-0.2695587277 -0.1191198304 0.5782296658 4281545531
-0.2696076035 -0.1184988543 0.5783344507 4281479738
-0.2696562111 -0.1178775355 0.5784387589 4281479738
-0.2697046101 -0.1172558814 0.5785425305 4281413945
-0.2697527409 -0.1166338921 0.5786458254 4281283129
-0.2698006332 -0.1160115749 0.5787485838 4281283129
-0.2698483169 -0.1153889298 0.5788508058 4281283129
-0.2694798708 -0.1145891100 0.5780605078 4281283129
-0.2695269883 -0.1139667705 0.5781615376 4281151543
-0.2699898481 -0.1135190129 0.5791544914 4281085750
-0.2700365782 -0.1128950566 0.5792546868 4280954162
-0.2704991698 -0.1124437675 0.5802469850 4280888369
-0.2701752186 -0.1110212505 0.5795521140 4280690990
-0.2702209651 -0.1103960127 0.5796502233 4280559404
-0.2706828713 -0.1099395901 0.5806410909 4280427818
-0.2711447179 -0.1094809324 0.5816317201 4280296232
-0.2711898386 -0.1088528186 0.5817285776 4280230439
-0.2712347507 -0.1082243919 0.5818248987 4280230439
-0.2712793946 -0.1075956523 0.5819206834 4280164646
-0.2717405856 -0.1071309149 0.5829099417 4280163878
-0.2722016573 -0.1066639349 0.5838990211 4280032292
-0.2718288004 -0.1058699638 0.5830991864 4280032292
-0.2722895145 -0.1054004356 0.5840874910 4280032292
-0.2727501094 -0.1049286649 0.5850754976 4279966499
-0.2732106149 -0.1044546664 0.5860632658 4279966499
-0.2732537985 -0.1038199142 0.5861559510 4280032292
-0.2737139761 -0.1033423990 0.5871430635 4280032292
-0.2733394206 -0.1025495157 0.5863396525 4279966499
-0.2742166221 -0.1022250578 0.5882213116 4280032292
-0.2746763825 -0.1017417982 0.5892075300 4280098085
-0.2747185230 -0.1011026576 0.5892978907 4280098085
-0.2743428051 -0.1003105342 0.5884919763 4280098085
-0.2748019993 -0.0998234823 0.5894770026 4280098085
-0.2748433650 -0.0991834626 0.5895657539 4280229671
-0.2748844922 -0.0985431522 0.5896539092 4280361257
-0.2749253511 -0.0979025513 0.5897415876 4280296236
-0.2745480835 -0.0971138552 0.5889322758 4280362029
-0.2741704285 -0.0963268280 0.5881221890 4280362029
-0.2742103934 -0.0956873298 0.5882079601 4280362029
-0.2742501199 -0.0950475559 0.5882931352 4280362029
-0.2738714516 -0.0942635909 0.5874809027 4280427822
-0.2743287981 -0.0937671736 0.5884619355 4280493615
-0.2743677497 -0.0931265727 0.5885455012 4280559408
-0.2744064629 -0.0924857035 0.5886284709 4280625201
-0.2748632431 -0.0919845626 0.5896083713 4280493615
-0.2744830847 -0.0912031457 0.5887928605 4280559408
-0.2749394774 -0.0906995162 0.5897718668 4280625201
-0.2758142650 -0.0903307348 0.5916483998 4280690994
-0.2762704492 -0.0898216888 0.5926269293 4280690994
-0.2767264843 -0.0893104151 0.5936051607 4280690994
-0.2767636478 -0.0886627883 0.5936849117 4280559408
-0.2763818204 -0.0878817439 0.5928658247 4280888630
-0.2764184177 -0.0872345790 0.5929443240 4280822837
-0.2760358751 -0.0864559636 0.5921237469 4280954423
-0.2760719061 -0.0858092681 0.5922010541 4281020216
-0.2756886780 -0.0850330889 0.5913789868 4281151802
-0.2757241428 -0.0843868777 0.5914550424 4281283388
-0.2757593095 -0.0837404132 0.5915305018 4281414974
-0.2757942379 -0.0830937028 0.5916054249 4281546560
-0.2758288980 -0.0824467465 0.5916797519 4281349183
-0.2762825489 -0.0819238573 0.5926528573 4281414976
-0.2767360210 -0.0813987702 0.5936256647 4281612355
-0.2767699957 -0.0807491168 0.5936985612 4281809734
-0.2772231102 -0.0802205950 0.5946704745 4282007113
-0.2768371701 -0.0794491097 0.5938425660 4282072906
-0.2772898376 -0.0789181441 0.5948136449 4282072906
-0.2773227990 -0.0782665685 0.5948843360 4282072906
-0.2769359052 -0.0774973407 0.5940544009 4282336078
-0.2769683003 -0.0768462867 0.5941238999 4282665043
-0.2770004272 -0.0761950091 0.5941928029 4283059801
-0.2770322859 -0.0755435079 0.5942611098 4283520352
-0.2774836421 -0.0750052482 0.5952293873 4283849317
-0.2779348791 -0.0744647980 0.5961973071 4284309868
-0.2779660225 -0.0738106519 0.5962641239 4284967798
-0.2779968977 -0.0731562823 0.5963303447 4285494142
-0.2780275047 -0.0725017041 0.5963960290 4286152842
-0.2776378393 -0.0717383772 0.5955601335 4286613393
-0.2776678503 -0.0710843503 0.5956245065 4287402907
-0.2781177461 -0.0705366731 0.5965895653 4288060837
-0.2781472802 -0.0698812380 0.5966529250 4288652974
-0.2785967588 -0.0693301708 0.5976170897 4289245111
-0.2786257863 -0.0686733276 0.5976793766 4289903041
-0.2790748477 -0.0681188777 0.5986426473 4290297799
-0.2791033983 -0.0674606413 0.5987039208 4290691787
-0.2791316807 -0.0668022037 0.5987645388 4291020752
-0.2669541836 -0.1794761717 0.5740102530 4284506986
-0.2670246661 -0.1788856238 0.5741617680 4283585884
-0.2662831247 -0.1777526736 0.5725672841 4282533196
-0.2655409276 -0.1766228527 0.5709714293 4280954164
-0.2647981346 -0.1754961759 0.5693742633 4280624682
-0.2640547156 -0.1743726283 0.5677757263 4281282612
-0.2633106709 -0.1732522398 0.5661758780 4282861645
-0.2625660300 -0.1721349806 0.5645747185 4282927438
-0.2614142001 -0.1707553416 0.5620980859 4281808956
-0.2606682181 -0.1696453094 0.5604940057 4282532679
-0.2599216104 -0.1685384512 0.5588886738 4283059023
-0.2595812678 -0.1676976085 0.5581568480 4282730058
-0.2600544691 -0.1673820317 0.5591742992 4281348405
-0.2597135305 -0.1665421128 0.5584412217 4282006335
-0.2597793639 -0.1659637094 0.5585827827 4282203714
-0.2598449886 -0.1653848588 0.5587239265 4282137921
-0.2603178322 -0.1650638878 0.5597406030 4282401093
-0.2603831887 -0.1644832492 0.5598810911 4282664265
-0.2608559132 -0.1641586870 0.5608975887 4282334787
-0.2617363334 -0.1640874445 0.5627907515 4281413685
-0.2622091770 -0.1637574583 0.5638074279 4280296483
-0.2622741461 -0.1631714404 0.5639471412 4280559655
-0.2627469003 -0.1628378332 0.5649636388 4280362278
-0.2640358210 -0.1630058587 0.5677351356 4280691243
-0.2632842064 -0.1619128287 0.5661189556 4281743933
-0.2649817169 -0.1623237133 0.5697689652 4282401863
-0.2662714422 -0.1624776274 0.5725421906 4283191124
-0.2671530545 -0.1623773575 0.5744378567 4284178019
-0.2668091059 -0.1615308672 0.5736982822 4284309607
-0.2676907778 -0.1614251435 0.5755940676 4284112228
-0.2681638896 -0.1610697806 0.5766113400 4284046696
-0.2690458596 -0.1609567553 0.5785077810 4284244075
-0.2708923221 -0.1329385340 0.5824780464 4282467405
-0.2705333233 -0.1321160495 0.5817061663 4281085752
-0.2701739371 -0.1312950850 0.5809334517 4281084980
-0.2689877748 -0.1300760210 0.5783829093 4280887601
-0.2686274648 -0.1292600036 0.5776081085 4281084980
-0.2674400210 -0.1280497015 0.5750548840 4281084980
-0.2683190405 -0.1278295517 0.5769449472 4280822578
-0.2675440907 -0.1268211901 0.5752786398 4281019957
-0.2671822011 -0.1260113269 0.5745005012 4281611324
-0.2676472366 -0.1255912334 0.5755004883 4281742910
-0.2676984668 -0.1249757335 0.5756106377 4281808703
-0.2673356533 -0.1241676658 0.5748304725 4281742910
-0.2673863173 -0.1235524043 0.5749394298 4281808703
-0.2678507566 -0.1231271029 0.5759381056 4281808703
-0.2679010630 -0.1225102022 0.5760462284 4281742910
-0.2679511309 -0.1218929440 0.5761538744 4281545531
-0.2684151828 -0.1214627847 0.5771517158 4281545531
-0.2684648633 -0.1208438873 0.5772585273 4281479738
-0.2685142756 -0.1202246472 0.5773648024 4281479738
-0.2685634792 -0.1196050644 0.5774706006 4281413945
-0.2686124444 -0.1189851463 0.5775758624 4281348152
-0.2686611712 -0.1183648854 0.5776806474 4281216566
-0.2691243589 -0.1179259866 0.5786765218 4281216566
-0.2691726685 -0.1173041016 0.5787804723 4281150773
-0.2692207694 -0.1166818738 0.5788838863 4280822580
-0.2692686021 -0.1160593182 0.5789867640 4280822580
-0.2693162262 -0.1154364273 0.5790891051 4280756787
-0.2693635821 -0.1148132086 0.5791909695 4280690994
-0.2694107294 -0.1141896620 0.5792922974 4280625199
-0.2694576085 -0.1135657877 0.5793931484 4280493613
-0.2695042491 -0.1129415929 0.5794934630 4280427820
-0.2699660063 -0.1124901325 0.5804862976 4280362027
-0.2700122297 -0.1118643284 0.5805857182 4280164648
-0.2700582445 -0.1112381965 0.5806846023 4280164648
-0.2705195248 -0.1107819229 0.5816764832 4280164648
-0.2705650926 -0.1101541966 0.5817745328 4280164648
-0.2706104517 -0.1095261574 0.5818719864 4280098855
-0.2706555426 -0.1088977978 0.5819689631 4280033062
-0.2707003951 -0.1082691252 0.5820654035 4279967269
-0.2707449794 -0.1076401398 0.5821613073 4279967269
-0.2707893252 -0.1070108488 0.5822566748 4280163880
-0.2712494731 -0.1065446585 0.5832460523 4280163880
-0.2717095017 -0.1060762256 0.5842351913 4280229671
-0.2717532516 -0.1054440737 0.5843293071 4280229671
-0.2722129822 -0.1049721241 0.5853177905 4280229671
-0.2722563148 -0.1043384001 0.5854109526 4280295464
-0.2727157474 -0.1038629413 0.5863988400 4280361259
-0.2723422050 -0.1030700430 0.5855956674 4280361259
-0.2732177675 -0.1027486697 0.5874782801 4280427052
-0.2732602358 -0.1021118015 0.5875695944 4280361259
-0.2737190425 -0.1016293317 0.5885561705 4280492843
-0.2733443677 -0.1008371860 0.5877505541 4280624429
-0.2738028169 -0.1003521830 0.5887362957 4280624429
-0.2738443315 -0.0997131690 0.5888255835 4280690222
-0.2738856077 -0.0990738645 0.5889142752 4280821810
-0.2739266157 -0.0984342769 0.5890024900 4280887603
-0.2739673555 -0.0977943987 0.5890901089 4280625201
-0.2735908031 -0.0970063582 0.5882804394 4280625201
-0.2732138634 -0.0962199941 0.5874699354 4280690994
-0.2736709118 -0.0957271382 0.5884526968 4280690994
-0.2737105787 -0.0950871110 0.5885379910 4280822580
-0.2733327150 -0.0943028331 0.5877254605 4280888373
-0.2737891674 -0.0938062221 0.5887069702 4281019959
-0.2738280892 -0.0931653604 0.5887905955 4281019959
-0.2738667428 -0.0925242379 0.5888737440 4281086009
-0.2739051282 -0.0918828323 0.5889562964 4281086009
-0.2743608654 -0.0913802534 0.5899362564 4281151802
-0.2748164535 -0.0908754468 0.5909158587 4281217595
-0.2752719223 -0.0903684124 0.5918951631 4281349181
-0.2753094733 -0.0897230133 0.5919759274 4281349181
-0.2757645547 -0.0892125145 0.5929545164 4281349181
-0.2758016586 -0.0885656103 0.5930342078 4281349181
-0.2754205167 -0.0877852291 0.5922147036 4281480769
-0.2754570246 -0.0871387869 0.5922932029 4281546562
-0.2754932642 -0.0864920840 0.5923711658 4281415746
-0.2751111388 -0.0857148618 0.5915495157 4281415746
-0.2751468122 -0.0850686356 0.5916261673 4281547332
-0.2751822174 -0.0844221562 0.5917023420 4281810504
-0.2752173841 -0.0837754309 0.5917779207 4282204492
-0.2752522528 -0.0831284598 0.5918529034 4282401871
-0.2757052481 -0.0826065913 0.5928269029 4282467664
-0.2757396698 -0.0819581449 0.5929009318 4282796629
-0.2757737935 -0.0813094601 0.5929743648 4282994778
-0.2762262225 -0.0807829350 0.5939471126 4283389536
-0.2758413255 -0.0800113678 0.5931195021 4283850087
-0.2762933075 -0.0794823915 0.5940913558 4284244845
-0.2763264477 -0.0788317695 0.5941626430 4284770419
-0.2763593197 -0.0781809166 0.5942333341 4285099384
-0.2763919532 -0.0775298327 0.5943034887 4285428864
-0.2764242887 -0.0768785104 0.5943730474 4286152587
-0.2764563859 -0.0762269720 0.5944420099 4287008151
-0.2769071162 -0.0756897107 0.5954112411 4287666081
-0.2773576975 -0.0751502439 0.5963800550 4288324011
-0.2773890793 -0.0744960532 0.5964475274 4288850355
-0.2774201930 -0.0738416389 0.5965144038 4289376699
-0.2774510384 -0.0731870010 0.5965807438 4289705664
-0.2774816155 -0.0725321546 0.5966464877 4289968836
-0.2770927250 -0.0717685148 0.5958102942 4290363594
-0.2771227062 -0.0711142197 0.5958747864 4290824143
-0.2659459114 -0.1798631996 0.5732111335 4285033841
-0.2660163939 -0.1792738140 0.5733630657 4284573290
-0.2656816542 -0.1784119904 0.5726416111 4283652188
-0.2649414241 -0.1772804409 0.5710461140 4282336328
-0.2646057904 -0.1764221787 0.5703226924 4280954675
-0.2638644278 -0.1752959937 0.5687248111 4280822061
-0.2635278702 -0.1744413078 0.5679993629 4282730058
-0.2627853751 -0.1733205169 0.5663990378 4284045919
-0.2620422542 -0.1722028553 0.5647973418 4283914333
-0.2604870498 -0.1705570370 0.5614452958 4282993230
-0.2597424984 -0.1694475114 0.5598405004 4283453781
-0.2589973211 -0.1683411449 0.5582343936 4284045405
-0.2590636611 -0.1677638739 0.5583773851 4283321682
-0.2595359683 -0.1674481928 0.5593953729 4281348146
-0.2591957748 -0.1666079909 0.5586621165 4281808697
-0.2592615187 -0.1660293788 0.5588037968 4281940542
-0.2593270838 -0.1654503345 0.5589451194 4282269507
-0.2597990036 -0.1651292741 0.5599623322 4282663752
-0.2598642707 -0.1645484418 0.5601029992 4282334787
-0.2603361309 -0.1642237753 0.5611199737 4281545525
-0.2612148523 -0.1641525328 0.5630139709 4280887595
-0.2612798214 -0.1635676622 0.5631540418 4281546036
-0.2617516816 -0.1632362306 0.5641710758 4282269759
-0.2622235417 -0.1629025340 0.5651881099 4281874747
-0.2631026804 -0.1628186107 0.5670829415 4281479989
-0.2635746300 -0.1624794751 0.5681002140 4281348405
-0.2644540668 -0.1623882949 0.5699957013 4280690475
-0.2653336823 -0.1622930169 0.5718916059 4280888369
-0.2649904788 -0.1614484936 0.5711518526 4282533194
-0.2646468580 -0.1606053710 0.5704112053 4284046437
-0.2667500973 -0.1612429470 0.5749444366 4284112230
-0.2672221959 -0.1608883888 0.5759620070 4284243562
-0.2676942945 -0.1605315506 0.5769795179 4284375148
-0.2681663632 -0.1601724625 0.5779970288 4284309356
-0.2682301700 -0.1595682204 0.5781345367 4284309356
-0.2691727281 -0.1317662597 0.5801661015 4281875266
-0.2684016228 -0.1307460368 0.5785041451 4280954164
-0.2688671052 -0.1303289235 0.5795074105 4280756785
-0.2685076296 -0.1295116395 0.5787325501 4281019187
-0.2681477368 -0.1286959052 0.5779568553 4280756015
-0.2677874565 -0.1278817058 0.5771803260 4280493613
-0.2666013837 -0.1266768575 0.5746239424 4281151543
-0.2670657039 -0.1262579113 0.5756247640 4281677117
-0.2671171129 -0.1256425381 0.5757355094 4281611324
-0.2671682835 -0.1250267923 0.5758458376 4281611324
-0.2672192156 -0.1244107112 0.5759556293 4281611324
-0.2672699392 -0.1237942651 0.5760648847 4281611324
-0.2673203945 -0.1231774762 0.5761736631 4281611324
-0.2673706412 -0.1225603297 0.5762819648 4281413945
-0.2678339779 -0.1221313179 0.5772806406 4281150773
-0.2678838074 -0.1215125322 0.5773880482 4281216566
-0.2679334283 -0.1208933964 0.5774949789 4281084980
-0.2679828107 -0.1202739179 0.5776014328 4281019187
-0.2680319548 -0.1196541041 0.5777073503 4281019187
-0.2676671445 -0.1188502461 0.5769210458 4280887601
-0.2685433030 -0.1185961813 0.5788094997 4280756015
-0.2685918212 -0.1179743856 0.5789140463 4280690222
-0.2686401010 -0.1173522621 0.5790181160 4280690222
-0.2686881125 -0.1167297959 0.5791215897 4280427822
-0.2687359154 -0.1161070019 0.5792246461 4280427822
-0.2687834799 -0.1154838726 0.5793271065 4280362029
-0.2688307762 -0.1148604155 0.5794290900 4280296236
-0.2688778639 -0.1142366305 0.5795305967 4280230443
-0.2689246833 -0.1136125177 0.5796315074 4280164650
-0.2693857253 -0.1131621748 0.5806252360 4280098857
-0.2694321573 -0.1125364453 0.5807253122 4280033064
-0.2694783509 -0.1119104028 0.5808248520 4280033064
-0.2699389458 -0.1114552394 0.5818175673 4280033064
-0.2699846923 -0.1108275875 0.5819162130 4280033064
-0.2700302303 -0.1101996154 0.5820143819 4280098857
-0.2700755298 -0.1095713228 0.5821119547 4280164650
-0.2701205611 -0.1089427248 0.5822090507 4280230443
-0.2701653540 -0.1083138064 0.5823056102 4280230443
-0.2702099085 -0.1076845750 0.5824016333 4280230443
-0.2702541947 -0.1070550382 0.5824971199 4280427052
-0.2702982724 -0.1064251885 0.5825920701 4280558638
-0.2707573473 -0.1059575453 0.5835815668 4280624429
-0.2712163329 -0.1054876596 0.5845708251 4280690222
-0.2712597847 -0.1048549563 0.5846644640 4280756015
-0.2713029981 -0.1042219475 0.5847576261 4280756015
-0.2717614770 -0.1037472785 0.5857458711 4280690224
-0.2722198665 -0.1032703668 0.5867338181 4280690224
-0.2722624540 -0.1026345193 0.5868256092 4280821810
-0.2723048031 -0.1019983739 0.5869168639 4280624431
-0.2723468840 -0.1013619304 0.5870075822 4280821810
-0.2728045881 -0.1008789763 0.5879940987 4281150775
-0.2728462517 -0.1002409756 0.5880839229 4281282361
-0.2728876472 -0.0996026844 0.5881731510 4281282361
-0.2729288042 -0.0989641026 0.5882618427 4281348156
-0.2729696929 -0.0983252302 0.5883499980 4281282363
-0.2730103433 -0.0976860747 0.5884375572 4281020470
-0.2726344764 -0.0968986973 0.5876274705 4281086263
-0.2726745605 -0.0962599516 0.5877138972 4281217849
-0.2727143764 -0.0956209227 0.5877997279 4281349435
-0.2727539539 -0.0949816108 0.5878850222 4281480767
-0.2727932632 -0.0943420231 0.5879697204 4281546560
-0.2732488811 -0.0938452184 0.5889517069 4281546560
-0.2724545300 -0.0929199532 0.5872396231 4281546560
-0.2729097009 -0.0924216211 0.5882206559 4281678146
-0.2733646929 -0.0919210687 0.5892013907 4281743939
-0.2738195658 -0.0914182886 0.5901817679 4281809732
-0.2738574743 -0.0907751173 0.5902634859 4281809732
-0.2743119895 -0.0902688652 0.5912431479 4281941318
-0.2743494511 -0.0896241814 0.5913238525 4282072904
-0.2743866146 -0.0889792368 0.5914039612 4282270283
-0.2744235396 -0.0883340314 0.5914835930 4282467662
-0.2744602263 -0.0876885653 0.5915625691 4282928215
-0.2744966149 -0.0870428383 0.5916410685 4283191387
-0.2745327652 -0.0863968581 0.5917189717 4283257950
-0.2745686471 -0.0857506245 0.5917963386 4283586915
-0.2741869390 -0.0849748030 0.5909736156 4284179052
-0.2746396363 -0.0844573975 0.5919493437 4284836982
-0.2750921845 -0.0839377865 0.5929247141 4285428349
-0.2751270831 -0.0832895637 0.5929999352 4285823107
-0.2751617134 -0.0826411024 0.5930746198 4286481037
-0.2747784853 -0.0818679780 0.5922486186 4286941588
-0.2748125494 -0.0812200084 0.5923219919 4287271323
-0.2744286358 -0.0804493576 0.5914945602 4287600288
-0.2752976418 -0.0800448284 0.5933675170 4287995046
-0.2749131620 -0.0792746842 0.5925388336 4288521390
-0.2646053135 -0.1793859601 0.5716902018 4285165429
-0.2642714083 -0.1785252094 0.5709688067 4284770671
-0.2647454739 -0.1782099307 0.5719930530 4284046948
-0.2640066743 -0.1770788729 0.5703968406 4282796881
-0.2632672489 -0.1759509295 0.5687992573 4281744193
-0.2629317045 -0.1750955135 0.5680743456 4281348403
-0.2625957727 -0.1742414385 0.5673485398 4282730056
-0.2618547082 -0.1731211245 0.5657474399 4284572262
-0.2611130476 -0.1720039696 0.5641450286 4283387988
-0.2591559589 -0.1700926721 0.5599166751 4282268994
-0.2584127188 -0.1689845473 0.5583109260 4284111198
-0.2580740452 -0.1681435555 0.5575791597 4284308831
-0.2585454285 -0.1678300500 0.5585976243 4283979866
-0.2586115003 -0.1672521383 0.5587403774 4281413939
-0.2586773634 -0.1666737795 0.5588827133 4280887595
-0.2583374977 -0.1658346355 0.5581483841 4282927178
-0.2584028840 -0.1652563065 0.5582896471 4283716694
-0.2588738203 -0.1649360508 0.5593070984 4283453009
-0.2593447566 -0.1646135449 0.5603246093 4282926665
-0.2598157227 -0.1642887890 0.5613421202 4281018668
-0.2606927454 -0.1642175615 0.5632369518 4281018668
-0.2611638010 -0.1638873667 0.5642547011 4282926924
-0.2612286210 -0.1633009464 0.5643947124 4283848026
-0.2621059418 -0.1632201970 0.5662902594 4283190096
-0.2629834712 -0.1631353647 0.5681861639 4283255889
-0.2630480826 -0.1625439823 0.5683257580 4283190096
-0.2635191381 -0.1622024924 0.5693435073 4282005822
-0.2643969655 -0.1621081233 0.5712400675 4281019187
-0.2640543580 -0.1612642109 0.5704998970 4281611324
-0.2653392255 -0.1614119560 0.5732759237 4283717470
-0.2658103704 -0.1610604674 0.5742937922 4284441193
-0.2686375082 -0.1318198293 0.5804019570 4282928213
-0.2678680122 -0.1307992190 0.5787394047 4280888371
-0.2675094903 -0.1299819946 0.5779648423 4280230441
-0.2675622404 -0.1293653399 0.5780787468 4280427050
-0.2663795948 -0.1281540841 0.5755236149 4280427050
-0.2664316297 -0.1275395453 0.5756360292 4280427820
-0.2660715580 -0.1267284751 0.5748580694 4280559406
-0.2665349841 -0.1263093799 0.5758593678 4280756015
-0.2665863335 -0.1256937683 0.5759702921 4280821808
-0.2666374445 -0.1250777990 0.5760807395 4280821808
-0.2662761211 -0.1242691129 0.5753000975 4280756015
-0.2667389810 -0.1238448098 0.5763000846 4280690222
-0.2667893767 -0.1232277825 0.5764089823 4280690222
-0.2668395638 -0.1226104051 0.5765174031 4280624429
-0.2673020065 -0.1221812367 0.5775165558 4280427050
-0.2673518062 -0.1215622127 0.5776241422 4280163878
-0.2674013674 -0.1209428459 0.5777311921 4280098085
-0.2666252255 -0.1199517623 0.5760543346 4280163880
-0.2674997747 -0.1197030768 0.5779438019 4280098087
-0.2675486207 -0.1190826818 0.5780493617 4279966501
-0.2675972283 -0.1184619516 0.5781543851 4279966501
-0.2676455975 -0.1178408787 0.5782589316 4280032294
-0.2681068480 -0.1174003631 0.5792554617 4279966501
-0.2681548297 -0.1167776659 0.5793591142 4279900708
-0.2682025731 -0.1161546335 0.5794622302 4279834915
-0.2682500482 -0.1155312657 0.5795648694 4279834915
-0.2682973146 -0.1149075627 0.5796669722 4279900708
-0.2683443427 -0.1142835394 0.5797685385 4279900708
-0.2683911324 -0.1136591882 0.5798696280 4279900708
-0.2688512802 -0.1132086739 0.5808638334 4280098087
-0.2693575323 -0.1121286601 0.5819576383 4279967271
-0.2694035172 -0.1115010828 0.5820569396 4280033064
-0.2694492340 -0.1108731925 0.5821557045 4280164650
-0.2694946826 -0.1102449745 0.5822539330 4280230443
-0.2695399225 -0.1096164435 0.5823516846 4280296236
-0.2695849240 -0.1089875996 0.5824488401 4280427822
-0.2696296573 -0.1083584353 0.5825455189 4280559408
-0.2696741521 -0.1077289656 0.5826416612 4280493615
-0.2697184086 -0.1070991755 0.5827372670 4280690994
-0.2701767981 -0.1066326350 0.5837276578 4280625201
-0.2702206373 -0.1060012653 0.5838223696 4280625201
-0.2706787288 -0.1055311933 0.5848121047 4280756787
-0.2707221210 -0.1048982441 0.5849058628 4280954166
-0.2707653046 -0.1042649969 0.5849991441 4281019959
-0.2712229192 -0.1037901416 0.5859878063 4280954166
-0.2708508670 -0.1029975787 0.5851839781 4281019959
-0.2713081241 -0.1025201827 0.5861719251 4281348924
-0.2713503540 -0.1018847600 0.5862631798 4281348924
-0.2713923156 -0.1012490466 0.5863538384 4281217338
-0.2718490958 -0.1007668748 0.5873407125 4281085752
-0.2718906403 -0.1001295969 0.5874304771 4281217338
-0.2719319165 -0.0994920209 0.5875196457 4281348924
-0.2719729543 -0.0988541618 0.5876083374 4281349181
-0.2720137537 -0.0982160196 0.5876964927 4281414974
-0.2720542848 -0.0975775793 0.5877840519 4281546049
-0.2720945776 -0.0969388634 0.5878710747 4281809221
-0.2717191279 -0.0961528420 0.5870599151 4282138186
-0.2721743882 -0.0956605822 0.5880435109 4282401358
-0.2722139060 -0.0950210169 0.5881289244 4282401871
-0.2722531855 -0.0943811759 0.5882137418 4282467664
-0.2718764842 -0.0935979486 0.5873998404 4282599250
-0.2723309398 -0.0931006745 0.5883817673 4282796629
-0.2723694444 -0.0924600065 0.5884649754 4283257950
-0.2719918191 -0.0916788951 0.5876490474 4283521122
-0.2728616595 -0.0913170725 0.5895283818 4283784292
-0.2728994489 -0.0906746238 0.5896100402 4284047464
-0.2729369998 -0.0900319144 0.5896911621 4284442222
-0.2733903825 -0.0895251930 0.5906707644 4284968566
-0.2734274864 -0.0888809711 0.5907508731 4285560703
-0.2734642923 -0.0882364884 0.5908304453 4286021254
-0.2735008597 -0.0875917450 0.5909094214 4286744979
-0.2735371888 -0.0869467407 0.5909878612 4287139737
-0.2735732198 -0.0863014832 0.5910657644 4287600288
-0.2736090124 -0.0856559724 0.5911430717 4287995046
-0.2632673383 -0.1789082140 0.5701676607 4285099636
-0.2633371949 -0.1783220321 0.5703189969 4284968050
-0.2630035281 -0.1774632037 0.5695962906 4284441706
-0.2626694143 -0.1766057163 0.5688727498 4283389018
-0.2619313300 -0.1754791737 0.5672742128 4282533709
-0.2615962923 -0.1746252626 0.5665486455 4281940540
-0.2612608969 -0.1737726778 0.5658222437 4281348403
-0.2609250546 -0.1729214489 0.5650949478 4282269507
-0.2601848245 -0.1718048006 0.5634917617 4281545784
-0.2582316101 -0.1698936820 0.5592616200 4280164131
-0.2574898303 -0.1687860638 0.5576551557 4282006335
-0.2571517825 -0.1679456830 0.5569229722 4283453779
-0.2576221824 -0.1676329821 0.5579417348 4283914330
-0.2576880455 -0.1670557857 0.5580844283 4282664006
-0.2573491037 -0.1662167907 0.5573503375 4282992971
-0.2574144900 -0.1656396091 0.5574919581 4284900968
-0.2574796975 -0.1650619954 0.5576331615 4285756277
-0.2583545744 -0.1650011837 0.5595279336 4285164140
-0.2588246465 -0.1646785736 0.5605459809 4283979866
-0.2592946887 -0.1643537134 0.5615639687 4282927176
-0.2601700127 -0.1642824858 0.5634596944 4282729797
-0.2602348328 -0.1636972278 0.5636000633 4283716953
-0.2607049048 -0.1633655876 0.5646181107 4282861644
-0.2611749768 -0.1630316824 0.5656362176 4281676857
-0.2624563575 -0.1632000059 0.5684112906 4283190096
-0.2621151209 -0.1623570919 0.5676723123 4284506469
-0.2629910409 -0.1622668207 0.5695692897 4283585367
-0.2626492977 -0.1614239514 0.5688291788 4281612092
-0.2635253072 -0.1613282263 0.5707263947 4280756783
-0.2639953494 -0.1609807462 0.5717443824 4283322712
-0.2673337162 -0.1308523268 0.5789744258 4281414717
-0.2665652335 -0.1298347414 0.5773100853 4280954166
-0.2657962143 -0.1288205832 0.5756445527 4280690994
-0.2662592828 -0.1284043342 0.5766474605 4280493615
-0.2659003735 -0.1275914162 0.5758701563 4280362540
-0.2659521103 -0.1269762814 0.5759822130 4280428333
-0.2655924857 -0.1261654943 0.5752033591 4280558636
-0.2656436861 -0.1255505979 0.5753142238 4280558636
-0.2661059499 -0.1251287460 0.5763154030 4280624429
-0.2657454014 -0.1243197471 0.5755345225 4280558636
-0.2657959163 -0.1237037927 0.5756438971 4280427050
-0.2658461928 -0.1230874956 0.5757527947 4280492843
-0.2663078308 -0.1226604208 0.5767526031 4280296236
-0.2663577199 -0.1220424697 0.5768606663 4280230443
-0.2664073706 -0.1214241683 0.5769681931 4279967271
-0.2668686211 -0.1209922358 0.5779671669 4279967271
-0.2665059865 -0.1201865301 0.5771817565 4280033064
-0.2665549219 -0.1195672005 0.5772877336 4280033064
-0.2666036487 -0.1189475283 0.5773932338 4280033064
-0.2666521370 -0.1183275133 0.5774982572 4280098857
-0.2667003870 -0.1177071631 0.5776027441 4280230443
-0.2667483985 -0.1170864776 0.5777066946 4280230443
-0.2672085166 -0.1166454703 0.5787032247 4280230443
-0.2672561109 -0.1160231531 0.5788063407 4280164650
-0.2673034966 -0.1154005080 0.5789089203 4280230443
-0.2677631974 -0.1149546653 0.5799045563 4280427822
-0.2678101659 -0.1143303961 0.5800062418 4280559408
-0.2678568959 -0.1137058064 0.5801074505 4280559408
-0.2683161795 -0.1132551208 0.5811021328 4280559408
-0.2683624923 -0.1126289144 0.5812024474 4280427822
-0.2688215077 -0.1121746972 0.5821965337 4280625199
-0.2684544027 -0.1113755330 0.5814015269 4280625199
-0.2685000002 -0.1107483581 0.5815002322 4280756785
-0.2681322098 -0.1099514514 0.5807037354 4280888371
-0.2685904503 -0.1094930619 0.5816961527 4281020470
-0.2686353326 -0.1088649333 0.5817933083 4281217849
-0.2690933049 -0.1084030122 0.5827851892 4281283642
-0.2691377401 -0.1077732965 0.5828814507 4281152056
-0.2691819370 -0.1071432680 0.5829771757 4281283131
-0.2692258954 -0.1065129340 0.5830723643 4281348924
-0.2692696154 -0.1058822870 0.5831670761 4281414717
-0.2697267830 -0.1054130048 0.5841571093 4281612096
-0.2697700560 -0.1047807783 0.5842508674 4281809732
-0.2698131204 -0.1041482463 0.5843440890 4281941318
-0.2702697814 -0.1036741808 0.5853331685 4282007111
-0.2703123987 -0.1030400768 0.5854254365 4282072904
-0.2707687914 -0.1025625020 0.5864138603 4282204490
-0.2708109617 -0.1019268259 0.5865051746 4282336076
-0.2708528936 -0.1012908593 0.5865960121 4282401869
-0.2708945870 -0.1006545946 0.5866862535 4282599248
-0.2709360123 -0.1000180393 0.5867760181 4282994006
-0.2709771991 -0.0993811935 0.5868651867 4283257178
-0.2710181177 -0.0987440571 0.5869538188 4283454557
-0.2710587978 -0.0981066301 0.5870419145 4283586143
-0.2710992098 -0.0974689201 0.5871294737 4284046696
-0.2711393833 -0.0968309194 0.5872164965 4284507247
-0.2707646787 -0.0960455611 0.5864049196 4285099384
-0.2708042860 -0.0954079777 0.5864906907 4285625728
-0.2712584138 -0.0949152485 0.5874742270 4286086279
-0.2700530887 -0.0938436687 0.5848638415 4286349451
-0.2713364661 -0.0936367363 0.5876433253 4286613393
-0.2709601820 -0.0928548723 0.5868283510 4287073944
-0.2709985375 -0.0922159180 0.5869114399 4287534495
-0.2718667388 -0.0918571651 0.5887917280 4287863460
-0.2719047070 -0.0912157074 0.5888739228 4288258218
-0.2620015442 -0.1778453737 0.5687945485 4285099636
-0.2612658143 -0.1767157614 0.5671972632 4284704878
-0.2617374659 -0.1764034480 0.5682212114 4283849569
-0.2610008121 -0.1752773970 0.5666219592 4283125846
-0.2606664002 -0.1744240820 0.5658959746 4282204484
-0.2603316009 -0.1735721081 0.5651691556 4280625452
-0.2599964142 -0.1727214903 0.5644414425 4280230694
-0.2592576146 -0.1716053337 0.5628375411 4280033315
-0.2573082745 -0.1696943939 0.5586056113 4280164131
-0.2565679550 -0.1685872823 0.5569983721 4281216819
-0.2562305331 -0.1677475125 0.5562658310 4282335298
-0.2566999197 -0.1674356312 0.5572848916 4283716951
-0.2567656338 -0.1668591499 0.5574275255 4284967018
-0.2564272881 -0.1660207659 0.5566930175 4285427569
-0.2564924955 -0.1654442996 0.5568345785 4285559155
-0.2565575242 -0.1648673862 0.5569757223 4285559155
-0.2574305832 -0.1648074985 0.5588711500 4285493103
-0.2583038807 -0.1647435278 0.5607670546 4284506208
-0.2587730587 -0.1644185781 0.5617855787 4284572001
-0.2596466541 -0.1643473506 0.5636821389 4284045657
-0.2597114146 -0.1637618840 0.5638226867 4282730056
-0.2597759366 -0.1631759703 0.5639628172 4280558887
-0.2602450252 -0.1628428847 0.5649811625 4279308820
-0.2607141137 -0.1625075340 0.5659995079 4281611575
-0.2615881264 -0.1624213457 0.5678969622 4283716953
-0.2624623179 -0.1623310745 0.5697948337 4283256402
-0.2625264525 -0.1617375016 0.5699340701 4281546299
-0.2617799342 -0.1606461406 0.5683133602 4280362025
-0.2634647787 -0.1610445827 0.5719711185 4283125333
-0.2656744123 -0.1290720403 0.5767681599 4280954423
-0.2657266259 -0.1284564584 0.5768815279 4280757044
-0.2653684616 -0.1276432127 0.5761039853 4280757044
-0.2650099099 -0.1268315315 0.5753255486 4280822837
-0.2650612891 -0.1262167543 0.5754370689 4280756017
-0.2651124299 -0.1256016344 0.5755481124 4280624431
-0.2651633322 -0.1249861568 0.5756586194 4280559408
-0.2652140260 -0.1243703216 0.5757686496 4280625201
-0.2652644813 -0.1237541437 0.5758782029 4280493615
-0.2653146982 -0.1231376082 0.5759872198 4280493615
-0.2653646767 -0.1225207224 0.5760957003 4280493615
-0.2658252716 -0.1220921949 0.5770956874 4280427822
-0.2658748627 -0.1214736551 0.5772033334 4280427822
-0.2659242451 -0.1208547801 0.5773105025 4280559408
-0.2655622661 -0.1200497150 0.5765247345 4280690994
-0.2660222650 -0.1196159869 0.5775232911 4280690994
-0.2660709321 -0.1189960763 0.5776289701 4280690994
-0.2657080293 -0.1181928664 0.5768411160 4280690994
-0.2657561302 -0.1175732464 0.5769456029 4280756787
-0.2662154734 -0.1171343252 0.5779427886 4280756787
-0.2662631869 -0.1165130660 0.5780463815 4280822837
-0.2663106918 -0.1158914790 0.5781494379 4280691251
-0.2663579285 -0.1152695566 0.5782520175 4280822837
-0.2668166757 -0.1148245037 0.5792479515 4281020216
-0.2664516866 -0.1140247285 0.5784555674 4281151802
-0.2673220038 -0.1137523651 0.5803450346 4281349181
-0.2673684359 -0.1131272092 0.5804458261 4281414974
-0.2674146295 -0.1125017256 0.5805460811 4281283388
-0.2674605846 -0.1118759140 0.5806458592 4281349181
-0.2679184675 -0.1114212051 0.5816399455 4281283388
-0.2679640353 -0.1107937917 0.5817387700 4281349435
-0.2675969899 -0.1099965721 0.5809419751 4281481021
-0.2676419914 -0.1093694866 0.5810396671 4281744193
-0.2676867247 -0.1087420806 0.5811368227 4282007365
-0.2677312195 -0.1081143692 0.5812333822 4282270537
-0.2681880891 -0.1076519638 0.5822252035 4282402123
-0.2682321668 -0.1070226580 0.5823209286 4282665295
-0.2682760060 -0.1063930392 0.5824161172 4282862674
-0.2687323987 -0.1059258357 0.5834069252 4282994260
-0.2687758207 -0.1052946374 0.5835011601 4283191639
-0.2688189745 -0.1046631336 0.5835948586 4283586143
-0.2688619196 -0.1040313244 0.5836880803 4283980901
-0.2693176568 -0.1035580486 0.5846774578 4284375659
-0.2693601549 -0.1029246673 0.5847697258 4284638831
-0.2698155940 -0.1024478748 0.5857584476 4285494140
-0.2698576450 -0.1018129289 0.5858497620 4285757312
-0.2698994577 -0.1011776775 0.5859405994 4286152070
-0.2699410319 -0.1005421430 0.5860308409 4286612621
-0.2699823678 -0.0999063104 0.5861204863 4287008149
-0.2700234354 -0.0992701873 0.5862096548 4287402907
-0.2700642347 -0.0986337736 0.5862982869 4287731872
-0.2701048255 -0.0979970694 0.5863863826 4287995044
-0.2701451182 -0.0973600820 0.5864738822 4288126632
-0.2607376277 -0.1767847687 0.5674187541 4284968050
-0.2604046762 -0.1759293675 0.5666941404 4284441706
-0.2600713074 -0.1750753224 0.5659686923 4283981155
-0.2597375214 -0.1742226034 0.5652423501 4283454549
-0.2594033480 -0.1733712405 0.5645151138 4282401861
-0.2594710588 -0.1727891117 0.5646624565 4281349173
-0.2587338090 -0.1716725528 0.5630580187 4281086001
-0.2567884624 -0.1697609127 0.5588245988 4281611575
-0.2560496926 -0.1686533988 0.5572168231 4281414196
-0.2561156750 -0.1680776030 0.5573604703 4281414196
-0.2561814785 -0.1675013602 0.5575036407 4282861642
-0.2562471032 -0.1669246852 0.5576464534 4283980377
-0.2563125193 -0.1663475484 0.5577888489 4282269759
-0.2559746504 -0.1655093431 0.5570535064 4281480243
-0.2560395896 -0.1649322361 0.5571948290 4281875001
-0.2569109499 -0.1648723632 0.5590910912 4281742902
-0.2577825189 -0.1648083925 0.5609878302 4281677109
-0.2582508028 -0.1644833386 0.5620068908 4284243034
-0.2587190866 -0.1641560346 0.5630259514 4284440413
-0.2587836385 -0.1635712832 0.5631664395 4281743161
-0.2588480115 -0.1629860848 0.5633065104 4279900957
-0.2593160868 -0.1626538187 0.5643251538 4279440406
-0.2605921924 -0.1628241539 0.5671022534 4281019438
-0.2602522373 -0.1619824767 0.5663624406 4282466886
-0.2611245513 -0.1618940234 0.5682607889 4282335300
-0.2615927160 -0.1615517735 0.5692796111 4281217334
-0.2620608807 -0.1612072587 0.5702984333 4280888369
-0.2625290453 -0.1608604789 0.5713172555 4283454298
-0.2643748224 -0.1281118691 0.5753340721 4281546560
-0.2640172839 -0.1273002326 0.5745559335 4281349181
-0.2640687227 -0.1266865432 0.5746679306 4281217595
-0.2641199529 -0.1260724962 0.5747793913 4281282877
-0.2641709745 -0.1254581064 0.5748903751 4281217084
-0.2642217278 -0.1248433441 0.5750008821 4281217084
-0.2642722726 -0.1242282391 0.5751108527 4281282877
-0.2643225789 -0.1236127764 0.5752203465 4281348670
-0.2643726468 -0.1229969636 0.5753293633 4281348670
-0.2648324668 -0.1225705370 0.5763299465 4281414463
-0.2648821473 -0.1219530776 0.5764381289 4281414463
-0.2649316192 -0.1213352606 0.5765457153 4281349181
-0.2649808526 -0.1207171082 0.5766528845 4281546560
-0.2646195889 -0.1199126914 0.5758666992 4281743939
-0.2646682560 -0.1192948073 0.5759726167 4281809732
-0.2651271224 -0.1188605800 0.5769712329 4281809732
-0.2651754022 -0.1182410568 0.5770763159 4281809732
-0.2648129165 -0.1174391136 0.5762873888 4282007111
-0.2652713060 -0.1170009971 0.5772849321 4282072904
-0.2653188705 -0.1163804606 0.5773885250 4282072906
-0.2653662264 -0.1157595962 0.5774915218 4282138699
-0.2654133439 -0.1151384041 0.5775940418 4282270285
-0.2654602230 -0.1145168766 0.5776960850 4282401871
-0.2663288414 -0.1142476350 0.5795864463 4282599250
-0.2663753927 -0.1136235297 0.5796877146 4282994008
-0.2664217055 -0.1129990965 0.5797885060 4283388764
-0.2664677799 -0.1123743355 0.5798887014 4283586143
-0.2669248879 -0.1119217053 0.5808835030 4284046694
-0.2665591836 -0.1111238450 0.5800876617 4284178280
-0.2661930919 -0.1103276014 0.5792909861 4284375659
-0.2666496336 -0.1098720804 0.5802844763 4284704624
