VERSION 0.7
FIELDS x y z rgba
SIZE 4 4 4 4
TYPE F F F U
COUNT 1 1 1 1
WIDTH 920
HEIGHT 1
VIEWPOINT 0.0 0.0 0.0 1.0 0.0 0.0 0.0
POINTS 920
DATA ascii
-0.2596297562 -0.1197349876 0.5377145410 4293125879
-0.2669872046 -0.1053113416 0.5529524088 4280756015
-0.2674601972 -0.1048824564 0.5539320707 4281150773
-0.2675921619 -0.1030869111 0.5542052984 4282137668
-0.2680645585 -0.1026520580 0.5551837087 4282532426
-0.2672499418 -0.1017251387 0.5534965992 4282861393
-0.2681509852 -0.1014510542 0.5553627014 4283190358
-0.2681938410 -0.1008501202 0.5554514527 4283519321
-0.2673780918 -0.0999281034 0.5537619591 4284111458
-0.2682788074 -0.0996473953 0.5556274652 4284900974
-0.2678916454 -0.0988871306 0.5548255444 4285624697
-0.2675040662 -0.0981285125 0.5540229082 4286151043
-0.2675455809 -0.0975280851 0.5541088581 4286282629
-0.2680163682 -0.0970829576 0.5550838709 4287072145
-0.2684870362 -0.0966356248 0.5560587049 4287203731
-0.2680982947 -0.0958787873 0.5552536249 4286874764
-0.2689983249 -0.0955816582 0.5571176410 4286743178
-0.2690388262 -0.0949769542 0.5572015047 4287203729
-0.2682193816 -0.0940704718 0.5555043817 4288124831
-0.2699788809 -0.0940663069 0.5591484308 4289967035
-0.2704487145 -0.0936076790 0.5601214767 4292203997
-0.2700583935 -0.0928511396 0.5593131185 4293585904
-0.2688075006 -0.0918025002 0.5567224026 4294441213
-0.2709972262 -0.0919267386 0.5612574816 4294901759
-0.2688851655 -0.0905915499 0.5568832159 4294901759
-0.2702144384 -0.0904176161 0.5596362948 4294770175
-0.2702528536 -0.0898085758 0.5597158074 4294507006
-0.2707214057 -0.0893413201 0.5606862307 4293454064
-0.2759248614 -0.0904235914 0.5714630485 4291940825
-0.2776853740 -0.0903615430 0.5751092434 4289506484
-0.2828907371 -0.0914044529 0.5858899355 4287795866
-0.2804220319 -0.0886709318 0.5807770491 4285362297
-0.2774440646 -0.0870908573 0.5746093988 4286678157
-0.2865961194 -0.1820518970 0.5949325562 4284045657
-0.2862510085 -0.1811724752 0.5942162275 4283914071
-0.2859054804 -0.1802943647 0.5934989452 4283519315
-0.2859782577 -0.1796806604 0.5936499834 4282795592
-0.2852131724 -0.1785421371 0.5920617580 4282663752
-0.2857041955 -0.1781905740 0.5930811167 4282795338
-0.2841001153 -0.1765348613 0.5897512436 4282861645
-0.2845906317 -0.1761832684 0.5907695293 4282927438
-0.2846619189 -0.1755708456 0.5909174681 4282927437
-0.2847329974 -0.1749579608 0.5910649896 4282664265
-0.2852232754 -0.1746013910 0.5920827985 4282795852
-0.2852940261 -0.1739866883 0.5922296643 4283124817
-0.2849448919 -0.1731165648 0.5915049314 4284045665
-0.2858546376 -0.1730099618 0.5933933854 4284374630
-0.2867645323 -0.1728992760 0.5952822566 4283914597
-0.2872546911 -0.1725322753 0.5962997079 4283717218
-0.2874642611 -0.1706691086 0.5967347622 4286217351
-0.2871133089 -0.1697985381 0.5960062146 4288059810
-0.2871823907 -0.1691770256 0.5961496234 4288388775
-0.2868306935 -0.1683082879 0.5954195857 4288388775
-0.2868992686 -0.1676868051 0.5955618620 4288191396
-0.2861260474 -0.1665749550 0.5939567685 4288454568
-0.2861939669 -0.1659543961 0.5940977931 4288257187
-0.2858406603 -0.1650902778 0.5933644176 4284309607
-0.2859080434 -0.1644697636 0.5935042500 4280887601
-0.2859751880 -0.1638488024 0.5936436057 4280953394
-0.2856208384 -0.1629870236 0.5929080844 4280361259
-0.2852660716 -0.1621266305 0.5921716094 4280295466
-0.2844894230 -0.1610290706 0.5905594230 4280624431
-0.2837121487 -0.1599347591 0.5889459252 4280624431
-0.2829342782 -0.1588436961 0.5873311758 4280624429
-0.2821557820 -0.1577558666 0.5857151151 4280624429
-0.2826422453 -0.1573759615 0.5867249370 4280493613
-0.2763774693 -0.1532502770 0.5737201571 4280493613
-0.2705316544 -0.1493848264 0.5615850687 4280559406
-0.2718593478 -0.1494909376 0.5643411875 4280559406
-0.2714984417 -0.1486662924 0.5635920167 4280756785
-0.2702924609 -0.1473825127 0.5610885620 4280690992
-0.2690857053 -0.1461038738 0.5585834980 4280690992
-0.2666106224 -0.1441450715 0.5534455776 4280625199
-0.2670924664 -0.1437895596 0.5544458032 4280559406
-0.2658834755 -0.1425254643 0.5519360900 4280559406
-0.2650965154 -0.1414921731 0.5503024459 4280625199
-0.2655776143 -0.1411364377 0.5513012409 4280559406
-0.2647897601 -0.1401070207 0.5496657491 4280493611
-0.2640013099 -0.1390809417 0.5480290055 4280625197
-0.2632122934 -0.1380581856 0.5463910699 4280756785
-0.2636924684 -0.1377018541 0.5473878980 4280822578
-0.2637492418 -0.1371231973 0.5475057960 4280690992
-0.2625354826 -0.1358866394 0.5449861884 4280690992
-0.2617444992 -0.1348735392 0.5433441997 4280756783
-0.2613765895 -0.1340811104 0.5425804257 4280690990
-0.2614319623 -0.1335065514 0.5426954031 4280756269
-0.2614871562 -0.1329316199 0.5428099632 4280624683
-0.2611182034 -0.1321418136 0.5420441031 4280690222
-0.2611728609 -0.1315671057 0.5421575904 4281084980
-0.2603791654 -0.1305667311 0.5405099392 4280690222
-0.2604332268 -0.1299931556 0.5406221747 4280032292
-0.2609112859 -0.1296300143 0.5416145921 4282137922
-0.2613893449 -0.1292646378 0.5426068902 4286151295
-0.2614428997 -0.1286881417 0.5427181125 4286151809
-0.2606472373 -0.1276953369 0.5410664678 4284967535
-0.2611248195 -0.1273270398 0.5420578122 4284835949
-0.2599036098 -0.1261321157 0.5395227671 4285493879
-0.2595311999 -0.1253527999 0.5387496948 4286546569
-0.2595832646 -0.1247792244 0.5388577580 4286809741
-0.2596350908 -0.1242053136 0.5389653444 4286743696
-0.2585137188 -0.1218801439 0.5366375446 4285757315
-0.2590906322 -0.1203594208 0.5378351808 4287599267
-0.2587152421 -0.1195883304 0.5370559096 4290296780
-0.2669182122 -0.0993705988 0.5540840626 4282203715
-0.2661447227 -0.0978549495 0.5524784327 4283321942
-0.2670433223 -0.0975694358 0.5543438196 4283979872
-0.2657984495 -0.0965015441 0.5517596006 4284966767
-0.2654104531 -0.0957485288 0.5509541631 4285229939
-0.2667374313 -0.0956120417 0.5537088513 4286151295
-0.2654911578 -0.0945529789 0.5511217713 4286809225
-0.2646732330 -0.0936512277 0.5494238138 4286940298
-0.2677160800 -0.0941104367 0.5557403564 4286611333
-0.2660395205 -0.0929074734 0.5522600412 4286808714
-0.2660788596 -0.0923075154 0.5523416996 4287664023
-0.2669763863 -0.0920031294 0.5542048812 4289243052
-0.2691617906 -0.0921354368 0.5587414503 4291282635
-0.2666247487 -0.0906520486 0.5534749031 4292993766
-0.2666631639 -0.0900500715 0.5535546541 4294046454
-0.2688486874 -0.0901680216 0.5580914617 4294507775
-0.2706050575 -0.0901329517 0.5617374182 4294573567
-0.2715024650 -0.0898056626 0.5636003613 4294639103
-0.2728295326 -0.0896153599 0.5663551092 4294375934
-0.2711487114 -0.0884378776 0.5628659725 4293519857
-0.2716160119 -0.0879638344 0.5638360381 4292203997
-0.2712235451 -0.0872111693 0.5630213022 4290427590
-0.2716904581 -0.0867346749 0.5639905930 4288388007
-0.2760639489 -0.0868574306 0.5730693340 4285822080
-0.2765309513 -0.0863665566 0.5740387440 4285296504
-0.2947864234 -0.0886686221 0.6119344831 4293257965
-0.2849436700 -0.1801030785 0.5928692818 4284309091
-0.2837625146 -0.1787005216 0.5904116631 4284111712
-0.2850885987 -0.1788765788 0.5931708217 4283651161
-0.2839064002 -0.1774784774 0.5907110572 4283059024
-0.2839780152 -0.1768667698 0.5908600688 4282730059
-0.2840494215 -0.1762546003 0.5910086632 4282795852
-0.2841206193 -0.1756419539 0.5911567807 4282795339
-0.2846101522 -0.1752866358 0.5921753645 4282795339
-0.2846810520 -0.1746721715 0.5923228264 4282992718
-0.2843329608 -0.1738012880 0.5915985703 4283321683
-0.2852410078 -0.1736969501 0.5934879184 4283650648
-0.2861492634 -0.1735885143 0.5953776836 4283848027
-0.2862860262 -0.1683768928 0.5956622362 4287401880
-0.2863545120 -0.1677551866 0.5958047509 4288717740
-0.2860027850 -0.1668879688 0.5950729251 4288125603
-0.2852981091 -0.1651576906 0.5936067104 4283389018
-0.2853654027 -0.1645369530 0.5937467217 4281020470
-0.2854324579 -0.1639157832 0.5938863158 4281086263
-0.2850788534 -0.1630536765 0.5931505561 4280888884
-0.2847248018 -0.1621929556 0.5924139023 4280559919
-0.2852116823 -0.1618109643 0.5934269428 4280821810
-0.2835947275 -0.1602379978 0.5900625587 4280756017
-0.2828184664 -0.1591455936 0.5884474516 4280756017
-0.2807787359 -0.1573487222 0.5842034817 4280690224
-0.2825272977 -0.1576754749 0.5878416300 4280624431
-0.2788014412 -0.1549516022 0.5800894499 4280624431
-0.2763373852 -0.1529433131 0.5749626160 4280756017
-0.2721866071 -0.1500167698 0.5663262606 4280887603
-0.2705623209 -0.1484960616 0.5629466772 4280756015
-0.2685155272 -0.1467519552 0.5586879849 4280821808
-0.2664675713 -0.1450166702 0.5544269085 4280821808
-0.2673704922 -0.1448899657 0.5563055873 4280690222
-0.2661645412 -0.1436211318 0.5537963510 4280624429
-0.2658015788 -0.1428108215 0.5530412197 4280690222
-0.2645942569 -0.1415504664 0.5505291820 4280690222
-0.2659187019 -0.1416442692 0.5532848835 4280690222
-0.2647103667 -0.1403886974 0.5507707596 4280756015
-0.2628272772 -0.1369596273 0.5468527079 4280887601
-0.2628836930 -0.1363813132 0.5469701290 4280887601
-0.2616717219 -0.1351476163 0.5444483757 4281019189
-0.2608817816 -0.1341365576 0.5428048372 4281084982
-0.2609371245 -0.1335617751 0.5429199338 4281084982
-0.2609922290 -0.1329866350 0.5430346131 4281216568
-0.2606240511 -0.1321965307 0.5422685742 4280953394
-0.2611018419 -0.1318352669 0.5432626605 4280887601
-0.2611562908 -0.1312590390 0.5433759689 4281479738
-0.2607871890 -0.1304706484 0.5426080227 4280953394
-0.2604176998 -0.1296837777 0.5418392420 4280558638
-0.2608948946 -0.1293182820 0.5428320765 4281874498
-0.2596775591 -0.1281145662 0.5402991772 4285427320
-0.2614254057 -0.1283725351 0.5439358950 4286743180
-0.2614785731 -0.1277941763 0.5440465212 4285428088
-0.2594121397 -0.1261845380 0.5397469997 4284638572
-0.2578718662 -0.1236469001 0.5365422368 4286678157
-0.2583473921 -0.1232776716 0.5375316143 4287007122
-0.2583985627 -0.1227047369 0.5376381278 4286810000
-0.2580251396 -0.1219309196 0.5368611217 4287007379
-0.2580758035 -0.1213582531 0.5369665027 4286481035
-0.2585507929 -0.1209839061 0.5379548073 4285691519
-0.2581764460 -0.1202118993 0.5371759534 4285363324
-0.2586511672 -0.1198349968 0.5381636620 4285692289
-0.2582762241 -0.1190642193 0.5373835564 4287139737
-0.2658180594 -0.1016477421 0.5530754924 4281084980
-0.2658608556 -0.1010495052 0.5531645417 4281084980
-0.2659457326 -0.0998521596 0.5533411503 4281216568
-0.2659878135 -0.0992530584 0.5534287095 4281413947
-0.2660296559 -0.0986536816 0.5535157323 4281413947
-0.2660712600 -0.0980540141 0.5536022782 4281479738
-0.2661125958 -0.0974540710 0.5536883473 4281742910
-0.2652979195 -0.0965424180 0.5519932508 4282335047
-0.2657666504 -0.0960985944 0.5529685020 4282992977
-0.2662352324 -0.0956525654 0.5539435148 4283519323
-0.2667037249 -0.0952043235 0.5549182296 4284177253
-0.2641749680 -0.0936909392 0.5496568084 4285098355
-0.2663556933 -0.0938485861 0.5541940928 4285822078
-0.2668236196 -0.0933966339 0.5551677346 4286348420
-0.2655780613 -0.0923466980 0.5525761247 4286611592
-0.2664739490 -0.0920421854 0.5544401407 4286677389
-0.2665128708 -0.0914395228 0.5545211434 4287269526
-0.2661230266 -0.0906905532 0.5537099838 4288716970
-0.2670185864 -0.0903784707 0.5555734038 4290690760
-0.2674855292 -0.0899181515 0.5565448999 4292467169
-0.2675235868 -0.0893125013 0.5566241145 4294177787
-0.2671326399 -0.0885644332 0.5558106899 4294901759
-0.2671701610 -0.0879592374 0.5558887124 4294901759
-0.2676363289 -0.0874940082 0.5568586588 4294901759
-0.2706761658 -0.0878620297 0.5631835461 4294901759
-0.2720004916 -0.0876631141 0.5659389496 4294243833
-0.2728958130 -0.0873208046 0.5678018332 4293191145
-0.2742202878 -0.0871106684 0.5705575943 4291941079
-0.2721112370 -0.0858116448 0.5661694407 4290493633
-0.2725769281 -0.0853283629 0.5671383142 4288585636
-0.2739010751 -0.0851096883 0.5698934197 4286809225
-0.2843271196 -0.1807884574 0.5929566622 4284112226
-0.2843998075 -0.1801756918 0.5931082964 4283717468
-0.2836380601 -0.1790358871 0.5915197134 4283388503
-0.2845445871 -0.1789487749 0.5934102535 4282993231
-0.2841993272 -0.1780731231 0.5926902294 4282466887
-0.2834362388 -0.1769382209 0.5910987854 4282401094
-0.2835075557 -0.1763258427 0.5912475586 4282532680
-0.2835786939 -0.1757129878 0.5913958549 4282664266
-0.2840673327 -0.1753575504 0.5924149752 4282861645
-0.2841381431 -0.1747428775 0.5925626159 4283322196
-0.2842087150 -0.1741277575 0.5927098393 4283782747
-0.2842791080 -0.1735121608 0.5928565860 4284111712
-0.2843492627 -0.1728961170 0.5930029154 4284309091
-0.2855935991 -0.1657117158 0.5955979228 4284178021
-0.2852415442 -0.1648464948 0.5948637724 4281744193
-0.2853086591 -0.1642241776 0.5950036645 4281481021
-0.2853755355 -0.1636014283 0.5951431394 4281086263
-0.2850224078 -0.1627385765 0.5944067240 4280823091
-0.2846688926 -0.1618771106 0.5936694741 4281216568
-0.2838949859 -0.1607792079 0.5920554996 4281084982
-0.2827003896 -0.1594476253 0.5895642042 4280953396
-0.2802445292 -0.1574131101 0.5844425559 4280821810
-0.2824100554 -0.1579751223 0.5889587402 4280756017
-0.2786914706 -0.1552492380 0.5812036991 4280756017
-0.2766526937 -0.1534724832 0.5769519210 4280756017
-0.2725100517 -0.1505429149 0.5683125257 4280821810
-0.2729922533 -0.1501767635 0.5693181753 4280821808
-0.2688464224 -0.1472731233 0.5606721044 4280821808
-0.2680650651 -0.1462239772 0.5590426326 4280756015
-0.2672831118 -0.1451781094 0.5574119091 4280624429
-0.2673426270 -0.1445909590 0.5575360060 4280558636
-0.2644541562 -0.1424159855 0.5515121818 4280624429
-0.2657761574 -0.1425120831 0.5542691946 4280690222
-0.2658346295 -0.1419274807 0.5543911457 4280690222
-0.2638435662 -0.1396417469 0.5502387881 4280756017
-0.2634793818 -0.1388384849 0.5494793057 4280756015
-0.2635364532 -0.1382579058 0.5495982766 4280756015
-0.2631715536 -0.1374566853 0.5488373041 4280953394
-0.2628062367 -0.1366569251 0.5480754972 4281019187
-0.2632844150 -0.1362955123 0.5490727425 4281084982
-0.2603863776 -0.1341919452 0.5430289507 4281216568
-0.2612858713 -0.1340500712 0.5449048281 4281084982
-0.2609189153 -0.1332572252 0.5441395044 4280887603
-0.2610285580 -0.1321035624 0.5443682075 4281282359
-0.2602922618 -0.1305246651 0.5428326130 4281150773
-0.2607687712 -0.1301593930 0.5438264012 4281084982
-0.2600304484 -0.1285858303 0.5422866940 4281217336
-0.2605065107 -0.1282176226 0.5432794690 4284572779
-0.2601365447 -0.1274327636 0.5425079465 4286349190
-0.2593431473 -0.1264431626 0.5408532619 4286151811
-0.2589723170 -0.1256623119 0.5400799513 4285099123
-0.2590243518 -0.1250873655 0.5401884317 4285691260
-0.2590761483 -0.1245120764 0.5402964950 4286020227
-0.2582809329 -0.1235314235 0.5386380553 4286678157
-0.2587556243 -0.1231589019 0.5396280289 4287007379
-0.2579595447 -0.1221822649 0.5379678011 4287270551
-0.2580102086 -0.1216084361 0.5380735397 4287204758
-0.2580606937 -0.1210342720 0.5381787419 4286546828
-0.2581109405 -0.1204597652 0.5382835865 4286152070
-0.2581609786 -0.1198849231 0.5383878946 4285691519
-0.2573627830 -0.1189179271 0.5367233157 4285165177
-0.2574122250 -0.1183443144 0.5368263721 4285099384
-0.2657850087 -0.1012546718 0.5542876720 4280822578
-0.2639831603 -0.0956748053 0.5505299568 4281479738
-0.2623544335 -0.0938687027 0.5471332669 4282137670
-0.2637549341 -0.0925363377 0.5500539541 4283848286
-0.2650766373 -0.0923858285 0.5528103113 4284440423
-0.2629776001 -0.0910449252 0.5484328866 4285690490
-0.2638714015 -0.0907429382 0.5502968431 4285953662
-0.2647652030 -0.0904368162 0.5521607995 4286216834
-0.2639478147 -0.0895460322 0.5504562259 4286743178
-0.2644135356 -0.0890913457 0.5514274240 4287466901
-0.2678745091 -0.0896367952 0.5586452484 4289374898
-0.2666285038 -0.0886020437 0.5560466647 4291677653
-0.2679500878 -0.0884203464 0.5588028431 4293585650
-0.2684156001 -0.0879520029 0.5597736239 4294507006
-0.2688809633 -0.0874814689 0.5607441664 4294901759
-0.2676333487 -0.0864554197 0.5581423044 4294901759
-0.2685265243 -0.0861217380 0.5600049496 4294901759
-0.2681346536 -0.0853747651 0.5591877699 4294704383
-0.2690275908 -0.0850357115 0.5610499978 4294178040
-0.2694920897 -0.0845580846 0.5620186329 4292599008
-0.2699564099 -0.0840782598 0.5629870296 4290691011
-0.2725991607 -0.0836380571 0.5684983730 4285954430
-0.2734919786 -0.0832782760 0.5703603029 4284770156
-0.2743847668 -0.0829143524 0.5722221732 4284309605
-0.2765638530 -0.0829320103 0.5767666101 4285033328
-0.2796008885 -0.0831948444 0.5831003189 4286809739
-0.2813517749 -0.0830638930 0.5867516994 4289046956
-0.2835834920 -0.1787583977 0.5927789211 4283914847
-0.2832388282 -0.1778833270 0.5920585394 4283651675
-0.2833104134 -0.1772702932 0.5922080874 4283783261
-0.2833817601 -0.1766567826 0.5923572779 4283849054
-0.2834529281 -0.1760428250 0.5925059915 4283914333
-0.2835238576 -0.1754284054 0.5926542878 4283980126
-0.2840116322 -0.1750705987 0.5936738849 4284309091
-0.2846967876 -0.1649136543 0.5951060653 4282006852
-0.2847638130 -0.1642911136 0.5952461958 4281546301
-0.2844117582 -0.1634274423 0.5945102572 4281349435
-0.2840592563 -0.1625651866 0.5937734246 4281283642
-0.2832872868 -0.1614654511 0.5921598077 4281611326
-0.2820955515 -0.1601310372 0.5896686912 4281413947
-0.2834185660 -0.1602237970 0.5924341679 4281216568
-0.2801290154 -0.1577135473 0.5855579972 4281019189
-0.2810322344 -0.1575693637 0.5874459743 4280953396
-0.2785792053 -0.1555470079 0.5823184252 4280887603
-0.2790623307 -0.1551686376 0.5833283067 4280887603
-0.2694717050 -0.1492100656 0.5632808805 4280821810
-0.2728913128 -0.1504697651 0.5704289675 4280887601
-0.2683336139 -0.1473334730 0.5609018803 4280821808
-0.2662937343 -0.1455949843 0.5566378832 4280756015
-0.2676136196 -0.1456951052 0.5593968630 4280690222
-0.2668328285 -0.1446502954 0.5577647686 4280690222
-0.2652108371 -0.1431550682 0.5543742776 4280690222
-0.2648490667 -0.1423446834 0.5536180735 4280624429
-0.2657483518 -0.1422108114 0.5554978848 4280624429
-0.2645449042 -0.1409523934 0.5529822707 4280690224
-0.2641820312 -0.1401454955 0.5522237420 4280756017
-0.2633979917 -0.1391178370 0.5505849123 4280756017
-0.2638759613 -0.1387574226 0.5515839458 4280756017
-0.2630910277 -0.1377336532 0.5499432087 4280953396
-0.2614634633 -0.1362743378 0.5465410948 4281084982
-0.2627828419 -0.1363516897 0.5492990017 4281084982
-0.2607327998 -0.1346824318 0.5450137854 4281216568
-0.2599456012 -0.1336720586 0.5433682799 4281019189
-0.2604219913 -0.1333122104 0.5443640947 4281216568
-0.2600553632 -0.1325205714 0.5435977578 4281216568
-0.2601099312 -0.1319442689 0.5437117815 4281019189
-0.2610076070 -0.1317934394 0.5455882549 4281150775
-0.2602184415 -0.1307905912 0.5439385772 4281413947
-0.2602723539 -0.1302132159 0.5440512896 4281216568
-0.2607479692 -0.1298455894 0.5450454950 4280887603
-0.2603795528 -0.1290573925 0.5442753434 4280625199
-0.2604328096 -0.1284789443 0.5443867445 4281677887
-0.2604858577 -0.1279001385 0.5444976091 4283717470
-0.2592719197 -0.1267019212 0.5419600606 4285888639
-0.2589019239 -0.1259198189 0.5411866307 4286480776
-0.2589539886 -0.1253437102 0.5412954688 4286217604
-0.2590058148 -0.1247672662 0.5414038301 4285099125
-0.2573670149 -0.1233800948 0.5379782319 4284178023
-0.2574180663 -0.1228067279 0.5380849838 4285428347
-0.2574689388 -0.1222330183 0.5381912589 4286020484
-0.2566738427 -0.1212594286 0.5365293026 4287007379
-0.2571470439 -0.1208857596 0.5375183821 4287138965
-0.2563511133 -0.1199162155 0.5358546376 4286941586
-0.2564008236 -0.1193439886 0.5359585881 4286810000
-0.2560271621 -0.1185754389 0.5351775289 4286086279
-0.2560763657 -0.1180034950 0.5352803469 4285559935
-0.2561253607 -0.1174312159 0.5353827477 4285164918
-0.2557506859 -0.1166654602 0.5345996022 4284835953
-0.2630161643 -0.0961564928 0.5497866869 4281479738
-0.2626302540 -0.0954054594 0.5489801168 4281413945
-0.2627103329 -0.0942142680 0.5491474867 4281611326
-0.2623234689 -0.0934662819 0.5483388305 4281677119
-0.2623628676 -0.0928709805 0.5484210849 4281742912
-0.2632553279 -0.0925754830 0.5502866507 4282137668
-0.2632943392 -0.0919777080 0.5503682494 4282466633
-0.2637599111 -0.0915277675 0.5513414145 4282598472
-0.2629448175 -0.0906342268 0.5496375561 4282993230
-0.2642638087 -0.0904751197 0.5523946881 4284177505
-0.2643019855 -0.0898743570 0.5524744987 4285888123
-0.2647669613 -0.0894175470 0.5534464121 4286151041
-0.2639504969 -0.0885287896 0.5517398119 4286019455
-0.2644150555 -0.0880704969 0.5527108312 4287072143
-0.2644522488 -0.0874686986 0.5527886152 4288980140
-0.2640619278 -0.0867263153 0.5519726872 4290953930
-0.2662352920 -0.0868217945 0.5565156937 4292993513
-0.2645623684 -0.0856617987 0.5530188084 4294638591
-0.2650260627 -0.0851964131 0.5539880395 4294901759
-0.2659171224 -0.0848652720 0.5558506846 4294901759
-0.2676633298 -0.0848009139 0.5595008135 4294901759
-0.2702650428 -0.0849974900 0.5649391413 4294901759
-0.2685902417 -0.0838469714 0.5614383221 4294178038
-0.2711922228 -0.0840294063 0.5668772459 4292073179
-0.2703721821 -0.0831473842 0.5651631355 4290165182
-0.2695516944 -0.0822690204 0.5634480119 4288454564
-0.2742936015 -0.0830792412 0.5733601451 4286414981
-0.2751847506 -0.0827100426 0.5752229095 4285164914
-0.2769319117 -0.0825919956 0.5788750052 4284704363
-0.2722580433 -0.0805657580 0.5691052079 4284638570
-0.2837334871 -0.1647381037 0.5944725871 4282138438
-0.2833823562 -0.1638745666 0.5937369466 4281612094
-0.2834489048 -0.1632531881 0.5938763618 4281546301
-0.2830970287 -0.1623915285 0.5931391716 4281348922
-0.2815553546 -0.1601963192 0.5899090767 4281545533
-0.2820389867 -0.1598149240 0.5909223557 4281413947
-0.2816854715 -0.1589588672 0.5901816487 4281282361
-0.2804942429 -0.1576336771 0.5876858234 4281150775
-0.2788834572 -0.1560792476 0.5843109488 4281150775
-0.2764340341 -0.1540648937 0.5791789293 4281150775
-0.2693749368 -0.1495035738 0.5643888712 4281150775
-0.2681788206 -0.1482154429 0.5618827939 4280953394
-0.2686584294 -0.1478550881 0.5628876686 4280821808
-0.2662034631 -0.1458843201 0.5577440858 4280756015
-0.2658437490 -0.1450683177 0.5569903851 4280756015
-0.2667418122 -0.1449374557 0.5588720441 4280756015
-0.2651230693 -0.1434407085 0.5554804206 4280690222
-0.2647621334 -0.1426290870 0.5547242165 4280690222
-0.2652401626 -0.1422691494 0.5557257533 4280690222
-0.2648786008 -0.1414586157 0.5549682975 4280624431
-0.2640967965 -0.1404262930 0.5533302426 4280756017
-0.2637343407 -0.1396196336 0.5525708795 4280756017
-0.2633715272 -0.1388144493 0.5518106222 4280756017
-0.2630082965 -0.1380107552 0.5510495901 4280887603
-0.2613839507 -0.1365499347 0.5476463437 4281019189
-0.2631212771 -0.1368450075 0.5512863398 4281084982
-0.2606549859 -0.1349555403 0.5461190343 4281150775
-0.2607103884 -0.1343773305 0.5462351441 4281282361
-0.2607656121 -0.1337987483 0.5463507771 4281084982
-0.2599792480 -0.1327900589 0.5447032452 4281084980
-0.2600338459 -0.1322126240 0.5448176265 4281084980
-0.2605090737 -0.1318478137 0.5458133221 4281019187
-0.2601423860 -0.1310566366 0.5450450182 4281084980
-0.2601963282 -0.1304781139 0.5451580882 4281282359
-0.2602500618 -0.1298992187 0.5452706814 4281150773
-0.2603035867 -0.1293199807 0.5453827977 4281217336
-0.2599355876 -0.1285320520 0.5446118116 4280822578
-0.2604099810 -0.1281604171 0.5456056595 4281085750
-0.2575125992 -0.1261350214 0.5395351648 4282467403
-0.2600939274 -0.1267939359 0.5449435115 4284572779
-0.2576164901 -0.1249864921 0.5397528410 4286151811
-0.2576681077 -0.1244117096 0.5398609638 4285954434
-0.2572976947 -0.1236339062 0.5390849113 4284572781
-0.2573488057 -0.1230593771 0.5391919613 4283849058
-0.2569777071 -0.1222837120 0.5384144783 4283717472
-0.2566062510 -0.1215095967 0.5376361609 4284835953
-0.2562343776 -0.1207370237 0.5368570685 4286020227
-0.2562843561 -0.1201639697 0.5369617939 4286875793
-0.2559118271 -0.1193935648 0.5361812115 4287599516
-0.2559612691 -0.1188207865 0.5362848639 4287336344
-0.2560105026 -0.1182476729 0.5363880396 4286941586
-0.2556369901 -0.1174800545 0.5356054306 4286349192
-0.2561083436 -0.1171004698 0.5365929604 4285625469
-0.2553115189 -0.1161417961 0.5349234939 4284770160
-0.2554076910 -0.1149964258 0.5351249576 4285625469
-0.2614384890 -0.0927591249 0.5477606058 4281611326
-0.2619033754 -0.0923143849 0.5487346053 4281874496
-0.2602385283 -0.0911217630 0.5452464819 4281808703
-0.2630601525 -0.0878231078 0.5511583090 4285229939
-0.2643764317 -0.0876471102 0.5539161563 4285822076
-0.2631340027 -0.0866226628 0.5513129830 4286216834
-0.2644501328 -0.0864403248 0.5540705919 4287927452
-0.2653398216 -0.0861134455 0.5559346080 4290033082
-0.2658028305 -0.0856449530 0.5569046736 4292072665
-0.2649855614 -0.0847647637 0.5551924109 4293783283
-0.2658749223 -0.0844303221 0.5570557117 4294638591
-0.2667642236 -0.0840917304 0.5589189529 4294835967
-0.2659460008 -0.0832147077 0.5572046638 4294704383
-0.2664081156 -0.0827391371 0.5581728816 4294441213
-0.2660160959 -0.0819981322 0.5573515296 4293849076
-0.2707483172 -0.0828265324 0.5672663450 4292862181
-0.2720646560 -0.0825958848 0.5700243115 4290954184
-0.2695366442 -0.0812009573 0.5647277236 4289046187
-0.2704254389 -0.0808391944 0.5665898919 4287401362
-0.2678960562 -0.0794594437 0.5612903833 4285691258
-0.2752284408 -0.0803528652 0.5766530633 4284835949
-0.2830595076 -0.0800034106 0.5930604935 4291612883
-0.2818105221 -0.0789943710 0.5904436707 4293257708
-0.2827711105 -0.1645622849 0.5938381553 4282533198
-0.2828377783 -0.1639411449 0.5939781666 4281743682
-0.2829042375 -0.1633195579 0.5941177607 4281480510
-0.2821357548 -0.1622176021 0.5925039053 4281085752
-0.2826190293 -0.1618360281 0.5935187936 4281545533
-0.2818496227 -0.1607377827 0.5919029713 4281545533
-0.2814972699 -0.1598800123 0.5911629796 4281545533
-0.2811444700 -0.1590236425 0.5904220939 4281479740
-0.2807912529 -0.1581686735 0.5896803737 4281413947
-0.2770941257 -0.1554395407 0.5819161534 4281479740
-0.2767393291 -0.1545947939 0.5811710358 4281479740
-0.2726209760 -0.1516580433 0.5725221634 4281413947
-0.2697551548 -0.1494343728 0.5665037632 4281216566
-0.2669478059 -0.1466334462 0.5606081486 4280887601
-0.2661705613 -0.1455854625 0.5589759350 4280821808
-0.2658113539 -0.1447687596 0.5582215786 4280821808
-0.2650330663 -0.1437264681 0.5565871000 4280690222
-0.2650917470 -0.1431397498 0.5567103028 4280690222
-0.2659879625 -0.1430030465 0.5585924387 4280690222
-0.2643705308 -0.1415165961 0.5551956892 4280690224
-0.2656855583 -0.1416005939 0.5579574108 4280690224
-0.2636477053 -0.1398993284 0.5536777377 4280690224
-0.2632857263 -0.1390929073 0.5529175401 4280690224
-0.2633426487 -0.1385085136 0.5530371070 4280756017
-0.2613022327 -0.1368256360 0.5487521291 4280887603
-0.2630363703 -0.1371199191 0.5523938537 4280953394
-0.2609945238 -0.1354465485 0.5481058955 4280953394
-0.2606303692 -0.1346494257 0.5473411679 4281084980
-0.2611053884 -0.1342855841 0.5483387113 4280624429
-0.2599008977 -0.1330596805 0.5458091497 4280953394
-0.2595355511 -0.1322670579 0.5450419188 4281216566
-0.2595898807 -0.1316890419 0.5451560020 4280756015
-0.2600641251 -0.1313228011 0.5461519957 4280821808
-0.2601180971 -0.1307431161 0.5462653041 4281216566
-0.2601718605 -0.1301630735 0.5463782549 4281019187
-0.2593846023 -0.1291639954 0.5447249413 4280954164
-0.2602787316 -0.1290019155 0.5466026664 4281085750
-0.2578608096 -0.1266001761 0.5415248871 4280954164
-0.2583337128 -0.1262295842 0.5425180197 4281743680
-0.2579649091 -0.1254474670 0.5417435169 4283125333
-0.2575957477 -0.1246668771 0.5409682393 4284967537
-0.2572261691 -0.1238878295 0.5401921272 4286086018
-0.2572773099 -0.1233121380 0.5402994752 4286151811
-0.2564858794 -0.1223343536 0.5386374593 4284967537
-0.2561151683 -0.1215599328 0.5378589034 4284572781
-0.2561653852 -0.1209860519 0.5379644036 4284375402
-0.2557939887 -0.1202137917 0.5371844172 4284835953
-0.2554222047 -0.1194430813 0.5364036560 4285954434
-0.2550500333 -0.1186739281 0.5356220603 4286678157
-0.2547748685 -0.1167624816 0.5350441933 4287533466
-0.2558589280 -0.1142742857 0.5373207927 4285229939
-0.2546394765 -0.1131354943 0.5347598791 4286151041
-0.2539346516 -0.1110448092 0.5332797170 4291875032
-0.2523360252 -0.1091681719 0.5299224854 4294111994
-0.2587762475 -0.0926325247 0.5434473753 4281282361
-0.2596651316 -0.0923448280 0.5453140736 4281545533
-0.2601289749 -0.0919028148 0.5462881923 4281874498
-0.2610178292 -0.0916078016 0.5481548309 4281874498
-0.2619832158 -0.0901127458 0.5501822233 4282071618
-0.2620587945 -0.0889158100 0.5503409505 4281940032
-0.2649067938 -0.0849372149 0.5563219190 4288782761
-0.2637353241 -0.0827154666 0.5538617373 4294309373
-0.2650485933 -0.0825089067 0.5566197038 4294572799
-0.2667881548 -0.0824279189 0.5602728724 4294770175
-0.2672491968 -0.0819467902 0.5612410903 4294572799
-0.2664312422 -0.0810743049 0.5595233440 4294375420
-0.2664654851 -0.0804629773 0.5595952868 4293454318
-0.2669258714 -0.0799791738 0.5605621338 4291809493
-0.2725035846 -0.0810145885 0.5722756386 4289901495
-0.2738173604 -0.0807662606 0.5750346780 4288190877
-0.2674531043 -0.0782649815 0.5616693497 4286611845
-0.2683394253 -0.0778982267 0.5635306835 4286019708
-0.2683723867 -0.0772815943 0.5635998845 4285099376
-0.2851832509 -0.0787953958 0.5989038348 4292205020
-0.2818096876 -0.1643861979 0.5932027102 4282664782
-0.2818761766 -0.1637657583 0.5933427215 4281414715
-0.2815260291 -0.1629038751 0.5926056504 4281414715
-0.2811754346 -0.1620434076 0.5918676257 4281283129
-0.2816577256 -0.1616626233 0.5928828716 4281479740
-0.2813065052 -0.1608031243 0.5921435952 4281545533
-0.2792874873 -0.1589957923 0.5878935456 4281545533
-0.2801858783 -0.1588519514 0.5897846818 4281611326
-0.2781651616 -0.1570557207 0.5855310559 4281611326
-0.2778117955 -0.1562064737 0.5847872496 4281611326
-0.2766235471 -0.1548914015 0.5822860599 4281545533
-0.2729305923 -0.1521852463 0.5745124221 4281545533
-0.2704879344 -0.1501906216 0.5693707466 4281348152
-0.2684614658 -0.1484375447 0.5651050806 4281216566
-0.2672690451 -0.1471531540 0.5625950694 4281150773
-0.2664935589 -0.1461029053 0.5609626770 4281019187
-0.2673886716 -0.1459682733 0.5628468394 4280953394
-0.2649408281 -0.1440123469 0.5576941967 4280756015
-0.2658354938 -0.1438769400 0.5595774651 4280690222
-0.2658941746 -0.1432868242 0.5597009659 4280624429
-0.2651163042 -0.1422476023 0.5580635667 4280690222
-0.2660108805 -0.1421054453 0.5599466562 4280624429
-0.2643955350 -0.1406241357 0.5565463901 4280690224
-0.2640345395 -0.1398146302 0.5557864904 4280690224
-0.2636731565 -0.1390065849 0.5550258160 4280624429
-0.2633113861 -0.1382000297 0.5542642474 4280756015
-0.2608556747 -0.1363010556 0.5490950346 4280887601
-0.2596550584 -0.1350664347 0.5465677381 4280821808
-0.2622236609 -0.1357892901 0.5519746542 4280690222
-0.2614413500 -0.1347727180 0.5503278375 4280887601
-0.2594012320 -0.1331143677 0.5460335016 4280887601
-0.2598749399 -0.1327496618 0.5470306277 4280821808
-0.2607678771 -0.1325959116 0.5489102006 4281019187
-0.2595642805 -0.1313768476 0.5463767052 4281084980
-0.2600376308 -0.1310082525 0.5473730564 4280953394
-0.2600914240 -0.1304270476 0.5474863052 4281019187
-0.2593058050 -0.1294266433 0.5458326340 4280625197
-0.2593590021 -0.1288466007 0.5459445715 4280625197
-0.2589921951 -0.1280586571 0.5451724529 4280822578
-0.2594647110 -0.1276854575 0.5461670756 4281085750
-0.2582574487 -0.1264873445 0.5436258316 4281151543
-0.2570494413 -0.1252945215 0.5410830379 4280756785
-0.2562608421 -0.1243107840 0.5394230485 4281743680
-0.2575725913 -0.1243447065 0.5421842337 4283520091
-0.2559427619 -0.1229593009 0.5387535095 4284770158
-0.2552030385 -0.1214101985 0.5371963978 4286151813
-0.2544120848 -0.1204389036 0.5355314612 4285625469
-0.2544617951 -0.1198673025 0.5356360674 4284704367
-0.2549319565 -0.1194925457 0.5366258025 4284572781
-0.2541397810 -0.1185268611 0.5349582434 4284704624
-0.2541887462 -0.1179552078 0.5350613594 4285230968
-0.2542375028 -0.1173832268 0.5351639390 4286216834
-0.2547070384 -0.1170043051 0.5361523032 4286611592
-0.2543343604 -0.1162382737 0.5353678465 4287270292
-0.2548035979 -0.1158568114 0.5363556147 4287928222
-0.2544303238 -0.1150920242 0.5355698466 4288257187
-0.2548992932 -0.1147080064 0.5365570188 4287796636
-0.2553682029 -0.1143217757 0.5375440717 4286677385
-0.2549940944 -0.1135579199 0.5367565751 4285558904
-0.2546195984 -0.1127956510 0.5359683037 4285229939
-0.2542447448 -0.1120349616 0.5351791978 4285493111
-0.2538695037 -0.1112758666 0.5343893170 4286480006
-0.2534939051 -0.1105183586 0.5335986614 4288585382
-0.2522741854 -0.1093965769 0.5310311913 4290888137
-0.2511435151 -0.1071441621 0.5286511779 4294375166
-0.2570090294 -0.0922150016 0.5409979224 4281084982
-0.2628062665 -0.0826167837 0.5532009602 4290164416
-0.2641170025 -0.0824111253 0.5559600592 4292862181
-0.2637608349 -0.0810662284 0.5552102923 4294901759
-0.2650714517 -0.0808491036 0.5579691529 4294901759
-0.2647138238 -0.0795018077 0.5572163463 4294770175
-0.2681524754 -0.0799073949 0.5644546747 4294046454
-0.2686119080 -0.0794160813 0.5654217005 4291941078
-0.2673681974 -0.0784230605 0.5628037453 4289769909
-0.2691045105 -0.0783029646 0.5664586425 4287993498
-0.2752646208 -0.0762327164 0.5794255137 4286282880
-0.2804337442 -0.1639669240 0.5916897655 4283388505
-0.2804999948 -0.1633480936 0.5918294787 4281414715
-0.2805660069 -0.1627288163 0.5919687748 4281217336
-0.2802160382 -0.1618689448 0.5912304521 4281151543
-0.2802815139 -0.1612497121 0.5913685560 4281545533
-0.2799308300 -0.1603917331 0.5906286836 4281545533
-0.2783316076 -0.1588229388 0.5872544646 4281545533
-0.2792282104 -0.1586799920 0.5891461968 4281611326
-0.2767951190 -0.1566484272 0.5840126276 4281611326
-0.2772749662 -0.1562699825 0.5850250125 4281545533
-0.2702591419 -0.1516823620 0.5702222586 4281545533
-0.2728198171 -0.1524799764 0.5756250620 4281479740
-0.2712152600 -0.1509473920 0.5722395778 4281348152
-0.2687763274 -0.1489598900 0.5670936704 4281348152
-0.2675864697 -0.1476731598 0.5645831227 4281413945
-0.2659789026 -0.1461624652 0.5611913800 4281348152
-0.2672893107 -0.1462559849 0.5639562011 4281150773
-0.2652634382 -0.1445256025 0.5596817732 4280953394
-0.2657394409 -0.1441619843 0.5606860518 4280756015
-0.2654392719 -0.1427546293 0.5600527525 4280756015
-0.2643027902 -0.1409042478 0.5576549172 4280690224
-0.2647779286 -0.1405368298 0.5586573482 4280690224
-0.2639998198 -0.1395049542 0.5570156574 4280624431
-0.2636389732 -0.1386962235 0.5562543273 4280690224
-0.2628598213 -0.1376701146 0.5546103716 4280756015
-0.2604081333 -0.1357756108 0.5494375229 4280756015
-0.2621359527 -0.1360619664 0.5530830622 4280887601
-0.2597374916 -0.1335992515 0.5480225086 4281019189
-0.2597921789 -0.1330183595 0.5481379032 4280821810
-0.2611019313 -0.1330768913 0.5509013534 4280887603
-0.2594823539 -0.1316431463 0.5474842191 4281084982
-0.2595362961 -0.1310621053 0.5475980639 4280887601
-0.2595900297 -0.1304806918 0.5477114320 4280887601
-0.2592247725 -0.1296893954 0.5469407439 4280822062
-0.2588591278 -0.1288996339 0.5461692214 4281085234
-0.2589120269 -0.1283190101 0.5462808609 4280953394
-0.2585456669 -0.1275313497 0.5455079079 4280821808
-0.2577598095 -0.1265394688 0.5438498259 4281084980
-0.2573926151 -0.1257558018 0.5430750847 4281348152
-0.2566057444 -0.1247697920 0.5414147973 4281217336
-0.2558183074 -0.1237872168 0.5397533774 4281414715
-0.2562886775 -0.1234140247 0.5407458544 4281875266
-0.2555004060 -0.1224354655 0.5390826464 4282598989
-0.2551311851 -0.1216604486 0.5383036733 4283914851
-0.2547615767 -0.1208869740 0.5375238061 4285099125
-0.2543916106 -0.1201150566 0.5367432237 4285757312
-0.2540212572 -0.1193446964 0.5359618068 4285954691
-0.2536505163 -0.1185758933 0.5351795554 4285494140
-0.2536994219 -0.1180040240 0.5352827907 4285165175
-0.2537481189 -0.1174318194 0.5353855491 4284572009
-0.2542167902 -0.1170527637 0.5363743901 4284900974
-0.2542651296 -0.1164789572 0.5364763737 4285296502
-0.2543132603 -0.1159048304 0.5365778804 4285822846
-0.2543611526 -0.1153303683 0.5366789699 4286283397
-0.2548293471 -0.1149452701 0.5376667976 4286875534
-0.2552974820 -0.1145579368 0.5386545062 4287664280
-0.2540828586 -0.1134172827 0.5360918045 4287927452
-0.2545505464 -0.1130293161 0.5370785594 4287269522
-0.2554389834 -0.1128249988 0.5389531255 4286151041
-0.2542230189 -0.1116919518 0.5363875031 4285295986
-0.2534273565 -0.1107482687 0.5347086787 4285098607
-0.2505258918 -0.1088930294 0.5285868645 4285756537
-0.2509921491 -0.1085073054 0.5295706987 4287138190
-0.2514583766 -0.1081193686 0.5305543542 4289572531
-0.2506606579 -0.1071887687 0.5288712382 4292072665
-0.2507051528 -0.1066200733 0.5289651155 4294506751
-0.2511708438 -0.1062293127 0.5299476981 4294901503
-0.2574012578 -0.0919687524 0.5430933237 4281019189
-0.2627964914 -0.0815751925 0.5544767976 4290032828
-0.2636800706 -0.0812313184 0.5563409925 4292204251
-0.2641389370 -0.0807534754 0.5573091507 4294243834
-0.2645976543 -0.0802734345 0.5582770705 4294901759
-0.2633571625 -0.0792797133 0.5556597114 4294901759
-0.2655147016 -0.0793067738 0.5602118969 4294901759
-0.2646983564 -0.0784424245 0.5584895611 4294770175
-0.2651563585 -0.0779565498 0.5594558716 4293388525
-0.2652218640 -0.0767323077 0.5595940351 4290296253
-0.2695051134 -0.0773397163 0.5686312914 4288322463
-0.2708131671 -0.0770802349 0.5713911653 4287072396
-0.2687197328 -0.0758544430 0.5669742823 4286282880
-0.2700274885 -0.0755905807 0.5697334409 4285230192
-0.2760457993 -0.0759810880 0.5824316144 4284178274
-0.2855664790 -0.0752544180 0.6025193334 4293191915
-0.2790603638 -0.1635471880 0.5901750922 4283783261
-0.2791263461 -0.1629299670 0.5903145671 4281546299
-0.2787772417 -0.1620711386 0.5895763040 4281348920
-0.2788426578 -0.1614539623 0.5897146463 4281348920
-0.2789078653 -0.1608363539 0.5898525715 4281545533
-0.2785577476 -0.1599798799 0.5891120434 4281479740
-0.2786224186 -0.1593623310 0.5892488360 4281545533
-0.2782715261 -0.1585077643 0.5885068178 4281545533
-0.2775048316 -0.1574189663 0.5868852735 4281479740
-0.2754909396 -0.1556292176 0.5826262236 4281413947
-0.2734758854 -0.1538482755 0.5783646107 4281413947
-0.2731225193 -0.1530077010 0.5776172876 4281479740
-0.2736003399 -0.1526325047 0.5786278248 4281413945
-0.2686714232 -0.1492515057 0.5682038665 4281479738
-0.2674840093 -0.1479633451 0.5656926036 4281479738
-0.2658797204 -0.1464511603 0.5622997880 4281413945
-0.2680200934 -0.1470003277 0.5668263435 4281282359
-0.2651658952 -0.1448118240 0.5607901216 4281084980
-0.2652247548 -0.1442207396 0.5609146357 4280887601
-0.2656998634 -0.1438547522 0.5619193912 4280821808
-0.2653418183 -0.1430374235 0.5611621737 4280756015
-0.2649833858 -0.1422215551 0.5604041815 4280624429
-0.2646245658 -0.1414071620 0.5596452951 4280624431
-0.2642653286 -0.1405942291 0.5588855743 4280690224
-0.2639057040 -0.1397827864 0.5581250191 4280690224
-0.2635456920 -0.1389728338 0.5573636293 4280690224
-0.2627681792 -0.1379453838 0.5557193160 4280756015
-0.2603213787 -0.1360491961 0.5505446196 4280821808
-0.2607941926 -0.1356834769 0.5515445471 4280887603
-0.2608495951 -0.1350993663 0.5516617298 4280690224
-0.2600698769 -0.1340844482 0.5500127673 4280953396
-0.2601246834 -0.1335014701 0.5501286387 4280887603
-0.2610144913 -0.1333448142 0.5520104766 4280821812
-0.2602336109 -0.1323343962 0.5503590107 4280953398
-0.2594521642 -0.1313273609 0.5487063527 4280953396
-0.2599238157 -0.1309553385 0.5497038364 4281019189
-0.2591415048 -0.1299522668 0.5480493307 4280690476
-0.2583586276 -0.1289525926 0.5463936925 4280756269
-0.2579933405 -0.1281640381 0.5456211567 4280756015
-0.2572094202 -0.1271702349 0.5439632535 4280887601
-0.2568432689 -0.1263856888 0.5431889296 4280887601
-0.2568951249 -0.1258075535 0.5432986021 4281084980
-0.2556913197 -0.1246172115 0.5407527089 4280954164
-0.2565796375 -0.1244472414 0.5426313281 4281085750
-0.2553748190 -0.1232628077 0.5400832891 4281019957
-0.2554254532 -0.1226870641 0.5401904583 4280888371
-0.2546382844 -0.1217106208 0.5385256410 4280954423
-0.2551072240 -0.1213353276 0.5395174026 4281480767
-0.2543191910 -0.1203629225 0.5378508568 4282072904
-0.2531115711 -0.1191966310 0.5352968574 4282599248
-0.2531606257 -0.1186248735 0.5354006290 4283454557
-0.2527902722 -0.1178573295 0.5346173644 4284375659
-0.2532581389 -0.1174803674 0.5356068611 4284506216
-0.2537259459 -0.1171011701 0.5365961790 4284900974
-0.2541936934 -0.1167197526 0.5375853777 4284638572
-0.2534027696 -0.1157611385 0.5359126925 4284638572
-0.2542897761 -0.1155688241 0.5377885699 4284835951
-0.2547571659 -0.1151826307 0.5387771130 4284901744
-0.2548047304 -0.1146054044 0.5388776660 4285756283
-0.2540123761 -0.1136521474 0.5372019410 4286743178
-0.2548992038 -0.1134499833 0.5390774608 4287927706
-0.2524722517 -0.1111833006 0.5339447856 4288125085
-0.2516779304 -0.1102421060 0.5322648883 4287401362
-0.2513032854 -0.1094875112 0.5314726233 4286414467
-0.2509283125 -0.1087345108 0.5306795835 4285624951
-0.2505976856 -0.1074135453 0.5299803019 4287203470
-0.2506421804 -0.1068436801 0.5300744772 4290098621
-0.2503098547 -0.1055256724 0.5293716192 4294309627
-0.2616453767 -0.0777198002 0.5533446670 4294704383
-0.2650709748 -0.0781145021 0.5605894327 4294375420
-0.2638313770 -0.0771292597 0.5579678416 4294309627
-0.2651365101 -0.0768877938 0.5607280135 4293717490
-0.2655931711 -0.0763961449 0.5616937876 4292335837
-0.2668983340 -0.0761444122 0.5644540191 4290691011
-0.2660816610 -0.0752861947 0.5627268553 4288980393
-0.2656889856 -0.0745507777 0.5618963838 4287269775
-0.2712385654 -0.0754706115 0.5736330152 4286414466
-0.2773723304 -0.0732667372 0.5866051316 4287204497
-0.2846251130 -0.0745137259 0.6019437313 4289573300
-0.2829571068 -0.0734121725 0.5984161496 4291744469
-0.2777552605 -0.1625113785 0.5887979865 4282137411
-0.2774066925 -0.1616540551 0.5880590677 4281282102
-0.2774718702 -0.1610385031 0.5881972313 4281413688
-0.2775368094 -0.1604225188 0.5883348584 4281282361
-0.2771871984 -0.1595675796 0.5875937939 4281282361
-0.2768371701 -0.1587140411 0.5868517756 4281084982
-0.2760722339 -0.1576252580 0.5852302313 4281084982
-0.2753066719 -0.1565397382 0.5836073756 4281216566
-0.2753699422 -0.1559271365 0.5837414861 4281150773
-0.2746033967 -0.1548462957 0.5821164846 4281084980
-0.2709318995 -0.1521378458 0.5743334889 4281084980
-0.2697484791 -0.1508379877 0.5718248487 4281348152
-0.2689793706 -0.1497743875 0.5701944828 4281348152
-0.2677944899 -0.1484838724 0.5676826835 4281348152
-0.2666088343 -0.1471985281 0.5651692748 4281413945
-0.2683300078 -0.1475168020 0.5688179135 4281413945
-0.2654815912 -0.1453255862 0.5627797246 4281413945
-0.2651250064 -0.1445059329 0.5620238185 4281282359
-0.2660149634 -0.1443644613 0.5639104247 4281084980
-0.2648263872 -0.1430956870 0.5613907576 4281019189
-0.2648845315 -0.1425032169 0.5615140200 4280887603
-0.2645265460 -0.1416875869 0.5607551336 4280756017
-0.2637521327 -0.1406515837 0.5591135621 4280690224
-0.2633932531 -0.1398398280 0.5583527684 4280624431
-0.2630339861 -0.1390295625 0.5575911403 4280756017
-0.2626743019 -0.1382207721 0.5568287373 4280953396
-0.2614814937 -0.1369772404 0.5543001294 4280953396
-0.2611208558 -0.1361733079 0.5535356402 4280887601
-0.2611763775 -0.1355871111 0.5536533594 4280887601
-0.2603984177 -0.1345699281 0.5520041585 4280887601
-0.2604533136 -0.1339848489 0.5521205664 4280821808
-0.2609248459 -0.1336128563 0.5531200767 4280821808
-0.2601456046 -0.1326011121 0.5514682531 4280887601
-0.2589488029 -0.1313811839 0.5489312410 4281019187
-0.2590025067 -0.1307983994 0.5490450859 4281084980
-0.2586388290 -0.1300055683 0.5482740998 4281084980
-0.2582747638 -0.1292142421 0.5475023389 4281084980
-0.2579103112 -0.1284244508 0.5467297435 4281084980
-0.2562932074 -0.1270155907 0.5433017612 4281019187
-0.2571802437 -0.1268494427 0.5451821089 4281084980
-0.2568146288 -0.1260642409 0.5444070697 4281150773
-0.2564486265 -0.1252805740 0.5436311960 4281150775
-0.2560822368 -0.1244984269 0.5428545475 4281150775
-0.2565511167 -0.1241221353 0.5438485146 4281150775
-0.2549303770 -0.1227375641 0.5404127836 4281216568
-0.2537267506 -0.1215604767 0.5378612876 4281216568
-0.2533586025 -0.1207873523 0.5370808244 4281150775
-0.2529900372 -0.1200157851 0.5362995863 4281150775
-0.2530393600 -0.1194431931 0.5364041328 4281216568
-0.2522518337 -0.1184773147 0.5347346663 4281282361
-0.2523005307 -0.1179059595 0.5348379612 4281413947
-0.2523490489 -0.1173342690 0.5349407792 4281742910
-0.2523973286 -0.1167622507 0.5350431204 4282335047
-0.2524454296 -0.1161899045 0.5351450443 4282927184
-0.2524932623 -0.1156172305 0.5352464914 4283256149
-0.2533785105 -0.1154258102 0.5371230841 4283519575
-0.2538449764 -0.1150404215 0.5381119251 4283980126
-0.2538924217 -0.1144639254 0.5382124782 4284506470
-0.2543586791 -0.1140750423 0.5392008424 4284967021
-0.2535674870 -0.1131229922 0.5375236869 4285361779
-0.2536141872 -0.1125464812 0.5376226902 4285822330
-0.2536606491 -0.1119696572 0.5377211571 4286480259
-0.2528682053 -0.1110242754 0.5360413194 4287335568
-0.2520752251 -0.1100824028 0.5343602896 4287796119
-0.2512817383 -0.1091440320 0.5326781869 4287532947
-0.2505324483 -0.1076384261 0.5310899019 4285822329
-0.2505770028 -0.1070673764 0.5311842561 4285428088
-0.2506213188 -0.1064960286 0.5312782526 4287401878
-0.2502455413 -0.1057469398 0.5304816365 4289507254
-0.2507092655 -0.1053524166 0.5314646959 4291875802
-0.2503328919 -0.1046046466 0.5306668282 4293651443
-0.2499561608 -0.1038585007 0.5298682451 4294901503
-0.2499992251 -0.1032875702 0.5299594998 4294901503
-0.2504622936 -0.1028889716 0.5309411287 4294901503
-0.2606183589 -0.0794385150 0.5524704456 4287006093
-0.2624107003 -0.0781306624 0.5562699437 4293716979
-0.2620202601 -0.0773972720 0.5554422140 4294703871
-0.2628994882 -0.0770377815 0.5573060513 4294967039
-0.2616616786 -0.0760587752 0.5546820760 4294967295
-0.2621171176 -0.0755737945 0.5556475520 4294901503
-0.2629959285 -0.0752077401 0.5575104952 4294638079
-0.2676866651 -0.0759186447 0.5674541593 4293453805
-0.2664478123 -0.0749397278 0.5648279190 4291808728
-0.2664793432 -0.0743209645 0.5648947954 4289966524
-0.2859281600 -0.0716638714 0.6061232686 4293191662
-0.2763867676 -0.1620923281 0.5872796774 4282795852
-0.2760387361 -0.1612365246 0.5865402222 4281019441
-0.2761036158 -0.1606225967 0.5866780877 4281019441
-0.2761683166 -0.1600082219 0.5868154764 4281085752
-0.2762327492 -0.1593934149 0.5869524479 4281085752
-0.2754697502 -0.1583028138 0.5853312016 4280822580
-0.2751198709 -0.1574522257 0.5845877528 4280822580
-0.2743557692 -0.1563672125 0.5829641819 4280954166
-0.2735910714 -0.1552854627 0.5813392997 4281019959
-0.2736537755 -0.1546749920 0.5814725161 4281085752
-0.2708175778 -0.1524325609 0.5754460692 4281019959
-0.2712933719 -0.1520598680 0.5764570236 4281216568
-0.2684548795 -0.1498351097 0.5704256296 4281282361
-0.2672723532 -0.1485441029 0.5679129958 4281413945
-0.2694047987 -0.1490932554 0.5724440813 4281479738
-0.2662080824 -0.1460671574 0.5656515360 4281479738
-0.2654377520 -0.1450178325 0.5640147328 4281479738
-0.2650817037 -0.1441974938 0.5632581711 4281413945
-0.2647252679 -0.1433786154 0.5625007749 4281216568
-0.2643684149 -0.1425611973 0.5617424846 4281084982
-0.2640111446 -0.1417452544 0.5609834194 4281019189
-0.2648991048 -0.1415966153 0.5628702044 4280887603
-0.2628801763 -0.1398968101 0.5585802794 4280821810
-0.2625216544 -0.1390862316 0.5578184128 4280887603
-0.2625781894 -0.1384962797 0.5579385757 4280953396
-0.2613878548 -0.1372513324 0.5554092526 4280953396
-0.2610280514 -0.1364461482 0.5546447635 4280887601
-0.2602521181 -0.1354261339 0.5529960394 4280887601
-0.2603072524 -0.1348402947 0.5531132221 4280887601
-0.2611940205 -0.1346829981 0.5549974442 4280821808
-0.2600009143 -0.1334539503 0.5524622798 4280821808
-0.2592231631 -0.1324427575 0.5508096814 4280887601
-0.2588610053 -0.1316465884 0.5500401258 4280953394
-0.2593309879 -0.1312733591 0.5510388017 4280953394
-0.2585518956 -0.1302685738 0.5493832827 4281019187
-0.2586050928 -0.1296848506 0.5494963527 4281019187
-0.2582415640 -0.1288928688 0.5487238765 4281019187
-0.2578776479 -0.1281024218 0.5479506254 4281019187
-0.2570966482 -0.1271074861 0.5462911129 4281084980
-0.2563150823 -0.1261159629 0.5446304679 4281150773
-0.2551161349 -0.1249237433 0.5420828462 4281216568
-0.2564180791 -0.1249559149 0.5448493361 4281282361
