VERSION 0.7
FIELDS x y z rgba
SIZE 4 4 4 4
TYPE F F F U
COUNT 1 1 1 1
WIDTH 920
HEIGHT 1
VIEWPOINT 0.0 0.0 0.0 1.0 0.0 0.0 0.0
POINTS 920
DATA ascii
-0.2835561335 -0.1316151172 0.5423554182 4290535258
-0.2836133838 -0.1310389787 0.5424649715 4290404188
-0.2841235995 -0.1306709051 0.5434408188 4288167226
-0.2841804922 -0.1300931573 0.5435496569 4291261037
-0.2837838531 -0.1293084919 0.5427909493 4290932072
-0.2838402092 -0.1287309676 0.5428987741 4291393902
-0.2838963270 -0.1281531155 0.5430061221 4291196523
-0.2839522362 -0.1275749058 0.5431130528 4290866531
-0.2840079069 -0.1269963533 0.5432195067 4290669152
-0.2840633392 -0.1264174730 0.5433255434 4290668898
-0.2841185331 -0.1258382499 0.5434311032 4290932070
-0.2841735184 -0.1252586842 0.5435362458 4291196784
-0.2842282355 -0.1246787906 0.5436409712 4291328370
-0.2842827439 -0.1240985617 0.5437452197 4291396222
-0.2843370140 -0.1235179976 0.5438490510 4291133050
-0.2843910456 -0.1229371056 0.5439524055 4291462015
-0.2844448686 -0.1223558784 0.5440552831 4291330429
-0.2844984233 -0.1217743233 0.5441577435 4291329659
-0.2850063145 -0.1213860363 0.5451291800 4291395452
-0.2850595117 -0.1208028942 0.5452309251 4291460471
-0.2851124406 -0.1202194318 0.5453321934 4291921022
-0.2856199741 -0.1198264435 0.5463029146 4291264387
-0.2856725156 -0.1192414016 0.5464034081 4290935422
-0.2857248485 -0.1186560318 0.5465034842 4290870141
-0.2857769132 -0.1180703491 0.5466030836 4291528071
-0.2858287394 -0.1174843386 0.5467022657 4291397248
-0.2858803570 -0.1168980151 0.5468009710 4291726213
-0.2863870263 -0.1164965779 0.5477700233 4292252297
-0.2864382267 -0.1159086898 0.5478679538 4291791746
-0.2864891887 -0.1153204814 0.5479654670 4291461239
-0.2869954407 -0.1149143651 0.5489338040 4291132274
-0.2870460153 -0.1143245921 0.5490304828 4292707964
-0.2875520289 -0.1139150485 0.5499983430 4293365894
-0.2880579829 -0.1135033146 0.5509660840 4293888630
-0.2885638177 -0.1130893975 0.5519335866 4292375391
-0.2886136472 -0.1124955788 0.5520288944 4291451709
-0.2891192436 -0.1120782346 0.5529959798 4291517502
-0.2891686559 -0.1114828661 0.5530904531 4291321673
-0.2896740139 -0.1110620946 0.5540570021 4291913810
-0.2906354964 -0.1108130962 0.5558961034 4292390575
-0.3428198397 -0.1974263340 0.6571045518 4288781223
-0.3429037035 -0.1967443675 0.6572653055 4289621335
-0.3425401449 -0.1958062798 0.6565684676 4288963405
-0.3417288363 -0.1946147382 0.6550133824 4290140725
-0.3404694498 -0.1931724250 0.6525993943 4289811760
-0.3378666341 -0.1909761280 0.6476104259 4289941543
-0.3330242038 -0.1875297725 0.6383286715 4289678371
-0.2941524088 -0.1650141627 0.5638206005 4289678371
-0.2897444665 -0.1619243324 0.5553716421 4289546785
-0.2875738442 -0.1600988358 0.5512110591 4289809442
-0.2858499885 -0.1585303694 0.5479068160 4289875235
-0.2850213647 -0.1574638188 0.5463185310 4289480994
-0.2846403718 -0.1566471308 0.5455882549 4289283615
-0.2842589319 -0.1558318436 0.5448571444 4289283876
-0.2838770747 -0.1550179571 0.5441251993 4289218083
-0.2834948003 -0.1542054564 0.5433924794 4289086756
-0.2835607529 -0.1536374539 0.5435189009 4289284135
-0.2831777632 -0.1528268456 0.5427847505 4290073651
-0.2832431793 -0.1522589624 0.5429102182 4289810479
-0.2828594446 -0.1514502764 0.5421746373 4288954396
-0.2829243541 -0.1508824974 0.5422990918 4289151775
-0.2829890549 -0.1503143311 0.5424230695 4289282330
-0.2826042473 -0.1495080739 0.5416855216 4289413916
-0.2826684117 -0.1489400417 0.5418084860 4289610267
-0.2822828591 -0.1481357217 0.5410695076 4290465576
-0.2823464870 -0.1475678235 0.5411914587 4289415986
-0.2824099064 -0.1469995230 0.5413129926 4289350193
-0.2824731171 -0.1464308500 0.5414341688 4288627500
-0.2825360894 -0.1458617896 0.5415548682 4289285430
-0.2825988531 -0.1452923566 0.5416752100 4289746242
-0.2826614082 -0.1447225362 0.5417950749 4289877828
-0.2827237546 -0.1441523433 0.5419145823 4289812035
-0.2827858627 -0.1435817778 0.5420336127 4289812035
-0.2823973596 -0.1427831054 0.5412889123 4290403659
-0.2824589312 -0.1422127038 0.5414069891 4290469452
-0.2825202942 -0.1416419148 0.5415245891 4290272073
-0.2825814188 -0.1410707682 0.5416417718 4290601038
-0.2826423347 -0.1404992491 0.5417584777 4290799447
-0.2827030122 -0.1399273574 0.5418748260 4290799447
-0.2823125124 -0.1391328275 0.5411263108 4290668635
-0.2823726535 -0.1385611147 0.5412416458 4290602842
-0.2824325860 -0.1379890442 0.5413565040 4290800470
-0.2824923098 -0.1374166012 0.5414709449 4290734677
-0.2825517952 -0.1368438005 0.5415849686 4290800724
-0.2826110423 -0.1362706274 0.5416985154 4290603345
-0.2826700807 -0.1356971115 0.5418117046 4291063129
-0.2827289104 -0.1351232231 0.5419244170 4291063129
-0.2827874720 -0.1345489770 0.5420367122 4289351999
-0.2828458548 -0.1339743882 0.5421485901 4290733652
-0.2829039693 -0.1333994269 0.5422600508 4290996058
-0.2829618752 -0.1328241229 0.5423710346 4291588195
-0.2830195725 -0.1322484612 0.5424816012 4291521891
-0.2830770314 -0.1316724569 0.5425916910 4291521891
-0.2831342518 -0.1310960948 0.5427014232 4290864220
-0.2836436331 -0.1307278872 0.5436777472 4289219395
-0.2837004960 -0.1301499009 0.5437867641 4291391334
-0.2837571204 -0.1295715719 0.5438953042 4291391334
-0.2833608687 -0.1287871748 0.5431357622 4291327082
-0.2834169567 -0.1282090843 0.5432432890 4291721840
-0.2834728062 -0.1276306510 0.5433503389 4291720818
-0.2835284173 -0.1270518601 0.5434569716 4291786611
-0.2835838199 -0.1264727563 0.5435631275 4291393655
-0.2836389840 -0.1258932948 0.5436688662 4291327862
-0.2836939096 -0.1253135055 0.5437741280 4291396483
-0.2837485969 -0.1247333735 0.5438789725 4291396483
-0.2838030457 -0.1241529062 0.5439833403 4291134853
-0.2838572860 -0.1235721111 0.5440872908 4291003267
-0.2839112878 -0.1229909807 0.5441907644 4291396996
-0.2839650512 -0.1224095225 0.5442938209 4291133824
-0.2844722569 -0.1220223457 0.5452660322 4291067770
-0.2845256329 -0.1214392930 0.5453683734 4291265149
-0.2845787704 -0.1208559200 0.5454702377 4290937464
-0.2846316993 -0.1202722192 0.5455716252 4291134843
-0.2851383984 -0.1198790818 0.5465428829 4291723390
-0.2851909101 -0.1192938015 0.5466434956 4291460218
-0.2852431834 -0.1187081933 0.5467436910 4291461499
-0.2852952182 -0.1181222647 0.5468434691 4291790464
-0.2853470147 -0.1175360233 0.5469427705 4291330680
-0.2853985727 -0.1169494539 0.5470415950 4291593852
-0.2859044373 -0.1165478602 0.5480111837 4292053372
-0.2859555781 -0.1159597337 0.5481092334 4291395442
-0.2864612043 -0.1155547053 0.5490784049 4290669662
-0.2865119576 -0.1149650067 0.5491756797 4290077525
-0.2870173454 -0.1145565435 0.5501443744 4290798418
-0.2870677114 -0.1139652804 0.5502408743 4291193176
-0.2875728309 -0.1135533899 0.5512090921 4291915094
-0.2880778909 -0.1131393015 0.5521771908 4290993992
-0.2885828316 -0.1127230376 0.5531450510 4290926908
-0.2886324525 -0.1121277288 0.5532401800 4291255873
-0.2891371548 -0.1117080301 0.5542075634 4291322444
-0.2896417677 -0.1112861484 0.5551747680 4291848788
-0.2901462913 -0.1108620837 0.5561417937 4292587955
-0.3413430452 -0.1969952434 0.6556697488 4288912294
-0.3405340016 -0.1958015710 0.6541156769 4289555536
-0.3415099680 -0.1956338733 0.6559903622 4289094985
-0.3398069441 -0.1939330846 0.6527190804 4290272309
-0.3389960527 -0.1927468181 0.6511615515 4289877551
-0.3363975286 -0.1905514002 0.6461701393 4289810729
-0.3306695223 -0.1866010725 0.6351674795 4289481764
-0.2940983474 -0.1653358191 0.5649196506 4289284903
-0.2870157063 -0.1607415527 0.5513148904 4289153317
-0.2893200219 -0.1614146084 0.5557411909 4290005277
-0.2858105898 -0.1588466763 0.5490000248 4290005277
-0.2849835157 -0.1577787995 0.5474113822 4289480477
-0.2846033275 -0.1569609046 0.5466811061 4289217305
-0.2837751210 -0.1558985114 0.5450901985 4289217822
-0.2833939493 -0.1550842971 0.5443580747 4289349408
-0.2830123901 -0.1542714834 0.5436251163 4289414947
-0.2830783129 -0.1537032574 0.5437517762 4289414947
-0.2826960087 -0.1528923512 0.5430173874 4289611810
-0.2827613950 -0.1523242444 0.5431429744 4289809189
-0.2828265727 -0.1517557502 0.5432682037 4289545502
-0.2824431956 -0.1509472579 0.5425317883 4289808674
-0.2825078368 -0.1503788680 0.5426560044 4289479711
-0.2821237445 -0.1495722979 0.5419181585 4289413918
-0.2821878493 -0.1490040421 0.5420413613 4289085212
-0.2822517455 -0.1484353989 0.5421640873 4289414177
-0.2818666101 -0.1476312876 0.5414242744 4289282585
-0.2819299698 -0.1470627785 0.5415459871 4289282585
-0.2819931209 -0.1464938968 0.5416672826 4289085719
-0.2820560336 -0.1459246129 0.5417881608 4289348891
-0.2821187675 -0.1453549713 0.5419086218 4289217050
-0.2821812630 -0.1447849274 0.5420286655 4289217050
-0.2822435498 -0.1442145258 0.5421482921 4289349408
-0.2823055983 -0.1436437368 0.5422675014 4289283615
-0.2819178104 -0.1428447515 0.5415226221 4289809705
-0.2819793224 -0.1422741115 0.5416407585 4289743912
-0.2820406258 -0.1417031139 0.5417585373 4289218083
-0.2821017206 -0.1411317438 0.5418758392 4289415462
-0.2821625769 -0.1405600011 0.5419927835 4289875759
-0.2822232246 -0.1399878860 0.5421092510 4289809966
-0.2822836339 -0.1394153982 0.5422253013 4289678380
-0.2818935215 -0.1386211216 0.5414759517 4289546794
-0.2819533944 -0.1380488127 0.5415909886 4289809454
-0.2820130587 -0.1374761462 0.5417056084 4289941040
-0.2820725143 -0.1369031221 0.5418197513 4289809967
-0.2821317017 -0.1363297403 0.5419334769 4289744174
-0.2821907103 -0.1357559860 0.5420467854 4289875760
-0.2822494507 -0.1351818740 0.5421596766 4290073139
-0.2823080122 -0.1346074045 0.5422720909 4289283882
-0.2823663056 -0.1340325922 0.5423840880 4290073398
-0.2824243903 -0.1334574074 0.5424956679 4289811258
-0.2824822664 -0.1328818798 0.5426068306 4289942844
-0.2825399041 -0.1323059946 0.5427175164 4290600520
-0.2825973034 -0.1317297518 0.5428278446 4290403141
-0.2826544940 -0.1311531663 0.5429376364 4290402884
-0.2831630409 -0.1307848096 0.5439145565 4289744954
-0.2832198739 -0.1302065998 0.5440236926 4290731079
-0.2832764387 -0.1296280473 0.5441323519 4290731079
-0.2833327949 -0.1290491521 0.5442405939 4290272835
-0.2833889425 -0.1284698993 0.5443484187 4290864972
-0.2829927504 -0.1276863366 0.5435874462 4290930514
-0.2830483317 -0.1271073371 0.5436941981 4291259479
-0.2831036747 -0.1265279800 0.5438004732 4291128412
-0.2831587791 -0.1259482950 0.5439063311 4290799447
-0.2832136750 -0.1253682673 0.5440117717 4290996826
-0.2832683325 -0.1247879043 0.5441167355 4290733654
-0.2833227515 -0.1242072135 0.5442212820 4291059533
-0.2838295996 -0.1238236651 0.5451948643 4291125326
-0.2838836312 -0.1232413724 0.5452986956 4291779907
-0.2839374244 -0.1226587519 0.5454019904 4291714114
-0.2839910090 -0.1220757961 0.5455049276 4292041788
-0.2844973505 -0.1216862798 0.5464775562 4292173374
-0.2845505476 -0.1211017370 0.5465797186 4291977275
-0.2846034765 -0.1205168664 0.5466814041 4291845689
-0.2846561968 -0.1199316680 0.5467826128 4292174140
-0.2847086489 -0.1193461493 0.5468834043 4292174140
-0.2852143347 -0.1189494208 0.5478547215 4292372544
-0.2852663994 -0.1183623224 0.5479547977 4291846200
-0.2853182554 -0.1177749038 0.5480543375 4291320626
-0.2853698432 -0.1171871647 0.5481534600 4291649591
-0.2854211926 -0.1165991053 0.5482521057 4291583798
-0.2854723334 -0.1160107329 0.5483503342 4291254833
-0.2864310741 -0.1157890409 0.5501919389 4291516724
-0.2864818573 -0.1151981652 0.5502895117 4291056173
-0.2865324318 -0.1146069765 0.5503866076 4290858795
-0.2870368958 -0.1141961664 0.5513556600 4290924588
-0.2870870531 -0.1136034206 0.5514519811 4291386170
-0.2875913084 -0.1131891683 0.5524205565 4291254584
-0.2880954444 -0.1127727404 0.5533889532 4291518528
-0.2885995209 -0.1123541221 0.5543571711 4292044872
-0.2886489034 -0.1117573157 0.5544520617 4291585615
-0.2891527116 -0.1113352627 0.5554198027 4292046166
-0.2901111543 -0.1110851392 0.5572608113 4292785334
-0.3398685455 -0.1965636462 0.6542332172 4288977571
-0.3399518430 -0.1958847344 0.6543935537 4289752400
-0.3382522762 -0.1941819787 0.6511219144 4289291849
-0.3392261565 -0.1940155327 0.6529965997 4290403634
-0.3370791376 -0.1920666397 0.6488636732 4290074669
-0.3344847858 -0.1898730099 0.6438696980 4290008108
-0.3287662864 -0.1859237105 0.6328618526 4289679143
-0.2935959399 -0.1654062569 0.5651603341 4289350955
-0.2892032564 -0.1623129696 0.5567045808 4289219369
-0.2870402634 -0.1604850888 0.5525408983 4289807898
-0.2853224874 -0.1589144468 0.5492342710 4289873691
-0.2844969034 -0.1578461528 0.5476450324 4289611550
-0.2841174304 -0.1570279300 0.5469145179 4289479964
-0.2832906842 -0.1559651196 0.5453230739 4289415201
-0.2833571732 -0.1553956866 0.5454511046 4289415201
-0.2829764187 -0.1545816511 0.5447181463 4289217822
-0.2825952470 -0.1537690163 0.5439844131 4289152029
-0.2826608717 -0.1532001942 0.5441107750 4289413916
-0.2822789550 -0.1523894668 0.5433756113 4289545502
-0.2818966210 -0.1515801549 0.5426396132 4289348123
-0.2819614410 -0.1510119438 0.5427643657 4289413916
-0.2820260227 -0.1504433602 0.5428887010 4289151005
-0.2820903957 -0.1498743743 0.5430126190 4289479970
-0.2817066908 -0.1490679979 0.5422739983 4289283876
-0.2813225687 -0.1482630521 0.5415345430 4289086497
-0.2813860774 -0.1476947069 0.5416568518 4289479192
-0.2814494073 -0.1471259892 0.5417787433 4289610778
-0.2815124989 -0.1465568841 0.5419001579 4289742618
-0.2815753818 -0.1459873915 0.5420212150 4289742618
-0.2816380262 -0.1454175264 0.5421418548 4289610519
-0.2817004919 -0.1448472738 0.5422620177 4289610519
-0.2817627192 -0.1442766488 0.5423818231 4289676571
-0.2813759446 -0.1434767991 0.5416373014 4289544985
-0.2814376354 -0.1429063380 0.5417560935 4289545502
-0.2814991176 -0.1423354894 0.5418744087 4289413916
-0.2815603614 -0.1417642683 0.5419923067 4288823064
-0.2816213965 -0.1411926746 0.5421097875 4288954650
-0.2812329531 -0.1403964311 0.5413620472 4289414431
-0.2812934518 -0.1398250014 0.5414785147 4289282845
-0.2813537121 -0.1392532140 0.5415945053 4289282330
-0.2814137638 -0.1386810541 0.5417101383 4289282330
-0.2814736068 -0.1381085366 0.5418252945 4289478171
-0.2815332115 -0.1375356466 0.5419400334 4289741343
-0.2815925777 -0.1369623989 0.5420543551 4289544477
-0.2816517651 -0.1363887936 0.5421682000 4289741856
-0.2817106843 -0.1358148158 0.5422816873 4289610527
-0.2817693949 -0.1352404803 0.5423946977 4289807906
-0.2818278968 -0.1346657872 0.5425072908 4289611299
-0.2818861604 -0.1340907365 0.5426194668 4289611299
-0.2819441855 -0.1335153431 0.5427311659 4289283876
-0.2820020020 -0.1329395771 0.5428424478 4289283876
-0.2820595801 -0.1323634684 0.5429533124 4289481514
-0.2825676203 -0.1319975257 0.5439312458 4289349928
-0.2826248407 -0.1314197779 0.5440413952 4289678381
-0.2826818526 -0.1308417022 0.5441511273 4289415209
-0.2827385962 -0.1302632540 0.5442603827 4289940012
-0.2827951312 -0.1296844780 0.5443692207 4289742633
-0.2824003398 -0.1288994402 0.5436092019 4289807395
-0.2824563384 -0.1283208877 0.5437170267 4289873188
-0.2825120986 -0.1277419776 0.5438243151 4289413669
-0.2825676203 -0.1271627396 0.5439312458 4289479462
-0.2826229036 -0.1265831739 0.5440376997 4289348653
-0.2826779783 -0.1260032505 0.5441436768 4289217067
-0.2827328146 -0.1254229993 0.5442492366 4289479469
-0.2827874124 -0.1248423979 0.5443543196 4289347883
-0.2828418016 -0.1242614686 0.5444589853 4289741094
-0.2833478451 -0.1238777786 0.5454331040 4289806887
-0.2834018171 -0.1232952476 0.5455370545 4290002203
-0.2834555805 -0.1227123886 0.5456405282 4290331168
-0.2835091054 -0.1221292019 0.5457435846 4290529052
-0.2840146422 -0.1217395365 0.5467166901 4290331673
-0.2840677798 -0.1211547554 0.5468189716 4290267419
-0.2841206789 -0.1205696538 0.5469208360 4290201626
-0.2841733396 -0.1199842170 0.5470222235 4290594593
-0.2842257917 -0.1193984598 0.5471231341 4290857765
-0.2847306430 -0.1190015748 0.5480949879 4291384361
-0.2847826779 -0.1184142381 0.5481951237 4290660638
-0.2848344743 -0.1178265810 0.5482948422 4290529051
-0.2848860323 -0.1172386035 0.5483940840 4290923809
-0.2853903472 -0.1168357581 0.5493648648 4290923810
-0.2854414880 -0.1162462085 0.5494633317 4291055396
-0.2859455943 -0.1158399284 0.5504336953 4291252264
-0.2859963477 -0.1152488068 0.5505313873 4291515436
-0.2860468626 -0.1146573722 0.5506286025 4291581488
-0.2865505219 -0.1142463982 0.5515981913 4291581488
-0.2870541215 -0.1138332412 0.5525676012 4291451963
-0.2871040702 -0.1132389978 0.5526637435 4291386170
-0.2876074016 -0.1128223985 0.5536326170 4291125314
-0.2881106734 -0.1124036089 0.5546013713 4291585865
-0.2886138260 -0.1119826362 0.5555699468 4291979855
-0.2886630297 -0.1113843396 0.5556646585 4292440406
-0.2896198630 -0.1111341268 0.5575065613 4292851127
-0.3383963704 -0.1961315423 0.6527950168 4288780962
-0.3380346000 -0.1951973289 0.6520971060 4289949781
-0.3372274637 -0.1940084547 0.6505400538 4289423437
-0.3359746337 -0.1925675869 0.6481232643 4290600245
-0.3351660371 -0.1913857460 0.6465634108 4290139694
-0.3325758874 -0.1891939044 0.6415668130 4290073128
-0.3264216185 -0.1849932671 0.6296947002 4289744163
-0.2935383320 -0.1657281220 0.5662600398 4289547557
-0.2887077928 -0.1623820513 0.5569415689 4289481764
-0.2865485549 -0.1605534405 0.5527762175 4289545755
-0.2852795422 -0.1592309475 0.5503281951 4289611548
-0.2840096653 -0.1579134315 0.5478785038 4289480222
-0.2836308777 -0.1570949107 0.5471478105 4289480222
-0.2828056216 -0.1560316682 0.5455557704 4289480224
-0.2828720510 -0.1554620266 0.5456839204 4289217052
-0.2824920118 -0.1546476781 0.5449507833 4289020443
-0.2825579047 -0.1540781409 0.5450779200 4289283615
-0.2821771204 -0.1532656848 0.5443433523 4289086236
-0.2817959189 -0.1524546444 0.5436080098 4288691478
-0.2818609774 -0.1518857181 0.5437334776 4288888087
-0.2814790308 -0.1510766000 0.5429967046 4289217052
-0.2815435827 -0.1505077779 0.5431211591 4289084437
-0.2816078961 -0.1499385834 0.5432452559 4289150230
-0.2812249064 -0.1491318941 0.5425064564 4289544474
-0.2817358971 -0.1487990171 0.5434921980 4289478681
-0.2809049487 -0.1477580816 0.5418892503 4289281815
-0.2809682190 -0.1471891403 0.5420112610 4289413401
-0.2810312510 -0.1466198117 0.5421328545 4289348123
-0.2810940742 -0.1460501105 0.5422540903 4289216537
-0.2811566889 -0.1454800218 0.5423748493 4289479194
-0.2812190950 -0.1449095607 0.5424951911 4289479194
-0.2812812626 -0.1443387121 0.5426151156 4289347608
-0.2808952034 -0.1435385495 0.5418704152 4289281815
-0.2809568346 -0.1429678649 0.5419893265 4288953365
-0.2810182571 -0.1423967928 0.5421078205 4288887572
-0.2810794711 -0.1418253630 0.5422258973 4288756501
-0.2811404467 -0.1412535459 0.5423434973 4288953880
-0.2812012136 -0.1406813562 0.5424607396 4289413918
-0.2808131576 -0.1398853362 0.5417121649 4289413918
-0.2808733881 -0.1393133253 0.5418283343 4289544988
-0.2809333801 -0.1387409568 0.5419440866 4289808160
-0.2809931636 -0.1381682158 0.5420594215 4290267171
-0.2810527086 -0.1375951022 0.5421742797 4290332964
-0.2811120450 -0.1370216310 0.5422887206 4290136614
-0.2811711729 -0.1364477873 0.5424028039 4290399786
-0.2812300622 -0.1358736008 0.5425163507 4290202153
-0.2812887132 -0.1352990419 0.5426295400 4290202153
-0.2813471556 -0.1347241253 0.5427423120 4290202407
-0.2814053893 -0.1341488510 0.5428546071 4290005028
-0.2814633548 -0.1335732192 0.5429664254 4290202407
-0.2815211415 -0.1329972297 0.5430778861 4290268200
-0.2815786600 -0.1324208975 0.5431888700 4290071850
-0.2820858657 -0.1320548207 0.5441673398 4289874471
-0.2821430564 -0.1314768493 0.5442776084 4290071080
-0.2822000086 -0.1308985353 0.5443874598 4289676322
-0.2822567225 -0.1303198636 0.5444968939 4289873188
-0.2823131979 -0.1297408491 0.5446058512 4289675809
-0.2819191217 -0.1289554983 0.5438456535 4289676322
-0.2819750607 -0.1283767074 0.5439535379 4289610529
-0.2820307910 -0.1277975887 0.5440610647 4289676322
-0.2820862532 -0.1272181123 0.5441680551 4289742115
-0.2821415067 -0.1266383082 0.5442746878 4289873190
-0.2821965516 -0.1260581613 0.5443807840 4289873190
-0.2822513282 -0.1254776716 0.5444865227 4289938472
-0.2823058963 -0.1248968467 0.5445917249 4290004265
-0.2828112543 -0.1245142668 0.5455666780 4290332460
-0.2828654349 -0.1239318401 0.5456711650 4290200874
-0.2829193771 -0.1233490855 0.5457752347 4290070056
-0.2829731107 -0.1227659881 0.5458788872 4290267435
-0.2830265760 -0.1221825629 0.5459820032 4290202153
-0.2830798328 -0.1215988100 0.5460847616 4290070567
-0.2831328213 -0.1210147291 0.5461869836 4290202153
-0.2836372554 -0.1206223965 0.5471600890 4290202153
-0.2836898863 -0.1200367212 0.5472615957 4290333482
-0.2837422490 -0.1194507331 0.5473626256 4290530861
-0.2837944031 -0.1188644096 0.5474632382 4290990634
-0.2842983007 -0.1184661090 0.5484352708 4290595876
-0.2838979959 -0.1176908091 0.5476630330 4290792737
-0.2844015658 -0.1172899976 0.5486344695 4290858530
-0.2849050760 -0.1168869957 0.5496057868 4291055396
-0.2849561870 -0.1162972078 0.5497043729 4291055396
-0.2854594588 -0.1158907637 0.5506752729 4291580200
-0.2855101824 -0.1152994037 0.5507730842 4291645993
-0.2855606377 -0.1147077307 0.5508704782 4291514406
-0.2860635221 -0.1142965928 0.5518405437 4291580199
-0.2865662873 -0.1138832644 0.5528104305 4291778606
-0.2866162062 -0.1132887825 0.5529066920 4292173364
-0.2875715792 -0.1130500510 0.5547497272 4291846202
-0.2880741060 -0.1126301512 0.5557191372 4292306753
-0.2881235182 -0.1120319217 0.5558144450 4291979596
-0.2886257768 -0.1116085872 0.5567833185 4292637526
-0.2891279459 -0.1111830696 0.5577520728 4292916919
-0.3364826143 -0.1954410821 0.6504969001 4288518821
-0.3361212015 -0.1945091784 0.6497982144 4289818455
-0.3353151679 -0.1933225244 0.6482400298 4289357904
-0.3340642750 -0.1918837577 0.6458216906 4290731833
-0.3337011337 -0.1909584105 0.6451197267 4290271282
-0.3306708336 -0.1885140836 0.6392614841 4290269991
-0.3240823448 -0.1840618849 0.6265244484 4289941026
-0.2930338681 -0.1657985449 0.5665006638 4289744415
-0.2882116735 -0.1624510884 0.5571783185 4289612829
-0.2860562205 -0.1606217176 0.5530112982 4289873432
-0.2847894430 -0.1592987031 0.5505623221 4289873432
-0.2835218310 -0.1579806656 0.5481117368 4289610519
-0.2831437290 -0.1571618170 0.5473808646 4289742105
-0.2823199332 -0.1560981572 0.5457882285 4289873952
-0.2823863328 -0.1555283070 0.5459165573 4289742366
-0.2820069790 -0.1547136307 0.5451832414 4289875752
-0.2820728421 -0.1541438848 0.5453105569 4290994233
-0.2816927433 -0.1533311158 0.5445757508 4290468409
-0.2813122571 -0.1525197625 0.5438401699 4289020963
-0.2813772559 -0.1519506276 0.5439658165 4288889378
-0.2809960246 -0.1511411816 0.5432288647 4289744687
-0.2810605168 -0.1505721658 0.5433534980 4289743142
-0.2811247706 -0.1500027478 0.5434777141 4288953626
-0.2807424963 -0.1491957456 0.5427386761 4289149970
-0.2812526524 -0.1488627493 0.5437249541 4289149970
-0.2808697522 -0.1480567753 0.5429846644 4289282065
-0.2804864049 -0.1472522467 0.5422435999 4289282065
-0.2805494070 -0.1466826946 0.5423653722 4288953616
-0.2806121707 -0.1461127847 0.5424867272 4288624651
-0.2806747258 -0.1455424726 0.5426076651 4289085204
-0.2807370722 -0.1449717879 0.5427281857 4289150997
-0.2807991803 -0.1444007307 0.5428482890 4289084688
-0.2808610797 -0.1438292861 0.5429679751 4289282067
-0.2804754376 -0.1430293471 0.5422223806 4289413653
-0.2805368006 -0.1424580514 0.5423410535 4289347860
-0.2805979550 -0.1418863982 0.5424592495 4289479446
-0.2806588709 -0.1413143575 0.5425770283 4289742618
-0.2807195783 -0.1407419592 0.5426943898 4290005790
-0.2807800770 -0.1401691884 0.5428113341 4289939997
-0.2803924382 -0.1393733919 0.5420619249 4289874204
-0.2804523706 -0.1388007998 0.5421778560 4290071583
-0.2805120945 -0.1382278353 0.5422933102 4290202153
-0.2805716097 -0.1376544982 0.5424083471 4290070567
-0.2806308866 -0.1370808035 0.5425229669 4290071082
-0.2806899548 -0.1365067512 0.5426371098 4290268461
-0.2807488143 -0.1359323263 0.5427508950 4290070828
-0.2808074057 -0.1353575438 0.5428642035 4290005035
-0.2808658183 -0.1347824037 0.5429770947 4290332714
-0.2809239626 -0.1342069060 0.5430895090 4290398507
-0.2809818983 -0.1336310506 0.5432015061 4290528808
-0.2810396254 -0.1330548376 0.5433130860 4290463015
-0.2810971141 -0.1324782670 0.5434242487 4290398505
-0.2811543941 -0.1319013536 0.5435349345 4290201126
-0.2816606462 -0.1315338612 0.5445136428 4290267689
-0.2817175388 -0.1309553236 0.5446236730 4290201896
-0.2817741930 -0.1303764284 0.5447332263 4290136103
-0.2818306386 -0.1297971904 0.5448423624 4289938724
-0.2814372778 -0.1290115118 0.5440818667 4290069288
-0.2814931870 -0.1284324974 0.5441899300 4289871909
-0.2815488577 -0.1278531402 0.5442975760 4290265890
-0.2816042900 -0.1272734404 0.5444047451 4290068511
-0.2816594839 -0.1266933978 0.5445114374 4290067222
-0.2817144692 -0.1261130273 0.5446177125 4290198808
-0.2817692161 -0.1255322993 0.5447235703 4290592283
-0.2818237245 -0.1249512434 0.5448289514 4290921248
-0.2823282778 -0.1245685220 0.5458043814 4290463009
-0.2823824286 -0.1239858642 0.5459090471 4290397216
-0.2824363112 -0.1234028712 0.5460132360 4290136612
-0.2824899852 -0.1228195429 0.5461170077 4290070819
-0.2825434208 -0.1222358868 0.5462203026 4290070819
-0.2825966179 -0.1216518953 0.5463231206 4290268198
-0.2826495767 -0.1210675761 0.5464255214 4290464037
-0.2831532061 -0.1206750870 0.5473991036 4290332451
-0.2832057774 -0.1200891882 0.5475007296 4290530343
-0.2832581103 -0.1195029542 0.5476019382 4290530343
-0.2833102047 -0.1189163998 0.5477026701 4290530079
-0.2833620906 -0.1183295175 0.5478029251 4290530079
-0.2838650048 -0.1179298088 0.5487751961 4290924322
-0.2843678594 -0.1175279021 0.5497473478 4290726943
-0.2844191790 -0.1169381961 0.5498465300 4291055909
-0.2844702303 -0.1163481623 0.5499452353 4290858530
-0.2849726975 -0.1159415618 0.5509166121 4291252264
-0.2850233614 -0.1153499633 0.5510146022 4291515436
-0.2855255902 -0.1149399132 0.5519854426 4291777836
-0.2855758369 -0.1143467426 0.5520826578 4291843629
-0.2860778272 -0.1139332578 0.5530530810 4291713326
-0.2861276865 -0.1133385226 0.5531494617 4292108084
-0.2866294086 -0.1129215956 0.5541194081 4291583798
-0.2871310115 -0.1125024706 0.5550891757 4292373314
-0.2876325548 -0.1120811626 0.5560587645 4291913802
-0.2881340086 -0.1116576642 0.5570281744 4292637525
-0.2890877724 -0.1114063188 0.5588719845 4292851380
-0.3345727026 -0.1947498918 0.6481963992 4288715428
-0.3342116475 -0.1938203275 0.6474969387 4289817426
-0.3334067762 -0.1926358640 0.6459375620 4289685840
-0.3326012194 -0.1914544851 0.6443769336 4290403893
-0.3317950070 -0.1902761906 0.6428149343 4290009135
-0.3292133510 -0.1880870312 0.6378133297 4289812009
-0.3217484951 -0.1831295937 0.6233509779 4289680423
-0.2920848429 -0.1656171978 0.5658810735 4289744677
-0.2877149582 -0.1625200659 0.5574148893 4289481505
-0.2855632603 -0.1606899500 0.5532462001 4289743394
-0.2842987180 -0.1593664140 0.5507963300 4289743394
-0.2830333412 -0.1580478400 0.5483447909 4289743136
-0.2826559544 -0.1572286785 0.5476136804 4289677343
-0.2818336487 -0.1561645865 0.5460205078 4289612063
-0.2818999588 -0.1555945277 0.5461490154 4289809442
-0.2815213501 -0.1547795385 0.5454154611 4291060798
-0.2815871239 -0.1542095840 0.5455429554 4293363553
-0.2812077701 -0.1533965021 0.5448079705 4292706147
-0.2808279693 -0.1525848210 0.5440721512 4289548083
-0.2808929384 -0.1520154774 0.5441979766 4290008901
-0.2805123925 -0.1512057185 0.5434607863 4291456347
-0.2805768251 -0.1506364793 0.5435855985 4290602068
-0.2806410491 -0.1500668526 0.5437099934 4289483587
-0.2802594602 -0.1492595375 0.5429707170 4288564279
-0.2803231478 -0.1486900300 0.5430940986 4288301107
-0.2803865969 -0.1481201351 0.5432170630 4288957229
-0.2804498672 -0.1475498676 0.5433396101 4288036127
-0.2800669074 -0.1467455328 0.5425977111 4289943611
-0.2801296413 -0.1461753845 0.5427191854 4289614646
-0.2801921368 -0.1456048638 0.5428403020 4288824101
-0.2802544236 -0.1450339705 0.5429609418 4288889894
-0.2803165019 -0.1444626898 0.5430812240 4289414181
-0.2803783417 -0.1438910216 0.5432010293 4289414181
-0.2804399729 -0.1433189809 0.5433204174 4290597426
-0.2800547183 -0.1425192654 0.5425740480 4289742117
-0.2801158130 -0.1419473886 0.5426924229 4290071598
-0.2801766992 -0.1413751394 0.5428103805 4290005805
-0.2802373469 -0.1408025026 0.5429278612 4289808424
-0.2802977860 -0.1402295083 0.5430449843 4290005803
-0.2803579867 -0.1396561414 0.5431616306 4290662956
-0.2799707651 -0.1388605833 0.5424113870 4290662956
-0.2800304294 -0.1382873952 0.5425270200 4290268197
-0.2800898850 -0.1377138495 0.5426421762 4289807646
-0.2801491320 -0.1371399313 0.5427569747 4290398754
-0.2802081406 -0.1365656555 0.5428712964 4290530340
-0.2802669108 -0.1359910071 0.5429852009 4290332704
-0.2803254724 -0.1354160011 0.5430986285 4290332704
-0.2803838253 -0.1348406374 0.5432116389 4290136612
-0.2804419398 -0.1342649162 0.5433242321 4290531370
-0.2804998457 -0.1336888373 0.5434364080 4290071078
-0.2805574834 -0.1331124008 0.5435481668 4289939492
-0.2806149423 -0.1325356066 0.5436594486 4290333739
-0.2806721628 -0.1319584548 0.5437702537 4290202153
-0.2807291448 -0.1313809603 0.5438807011 4290136103
-0.2812344432 -0.1310120672 0.5448596478 4290136103
-0.2812910676 -0.1304329485 0.5449693203 4290267946
-0.2813474536 -0.1298534721 0.5450785756 4290333739
-0.2809548080 -0.1290674806 0.5443179011 4290661425
-0.2810106575 -0.1284882277 0.5444260836 4290661425
-0.2810662985 -0.1279086471 0.5445338488 4290398246
-0.2815707624 -0.1275321245 0.5455111861 4290398246
-0.2816259861 -0.1269509196 0.5456182361 4289872412
-0.2816810012 -0.1263693869 0.5457248092 4289675033
-0.2817358077 -0.1257875115 0.5458309650 4290004768
-0.2817903459 -0.1252052933 0.5459366441 4290202147
-0.2818446755 -0.1246227324 0.5460419059 4290005026
-0.2818987668 -0.1240398362 0.5461466908 4290399784
-0.2819526196 -0.1234566122 0.5462509990 4290202147
-0.2820062339 -0.1228730530 0.5463548899 4290333733
-0.2820596397 -0.1222891584 0.5464583635 4290333733
-0.2825627327 -0.1218990460 0.5474330187 4290136354
-0.2826157212 -0.1213135570 0.5475357175 4290465319
-0.2826685011 -0.1207277402 0.5476379395 4290399526
-0.2827210426 -0.1201416031 0.5477397442 4290726179
-0.2832235992 -0.1197455078 0.5487133861 4290726179
-0.2832757533 -0.1191577837 0.5488144159 4290726694
-0.2833276391 -0.1185697317 0.5489149690 4290924073
-0.2833793163 -0.1179813594 0.5490151048 4290990634
-0.2838813365 -0.1175792962 0.5499877334 4291056427
-0.2843832970 -0.1171750426 0.5509601831 4291252521
-0.2844344079 -0.1165838391 0.5510592461 4291252521
-0.2844852805 -0.1159923151 0.5511577725 4291383848
-0.2845359147 -0.1154004708 0.5512558818 4291647020
-0.2850373089 -0.1149902642 0.5522272587 4291581740
-0.2855386436 -0.1145778596 0.5531985164 4291647533
-0.2855887115 -0.1139831990 0.5532954931 4291976497
-0.2860897779 -0.1135673523 0.5542662740 4292173876
-0.2865907550 -0.1131493151 0.5552368760 4292371509
-0.2870916426 -0.1127290875 0.5562072992 4292700474
-0.2875924408 -0.1123066694 0.5571775436 4291979847
-0.2880931497 -0.1118820608 0.5581476092 4292440398
-0.2885937691 -0.1114552543 0.5591174960 4292590778
-0.3326666355 -0.1940579861 0.6458935142 4288649635
-0.3323059678 -0.1931307316 0.6451932192 4289882706
-0.3315022290 -0.1919484884 0.6436327100 4289751120
-0.3306978047 -0.1907693297 0.6420708895 4290469686
-0.3298927248 -0.1895932555 0.6405077577 4290074928
-0.3273153007 -0.1874058843 0.6355035305 4289746216
-0.3198630810 -0.1824490726 0.6210345626 4289680423
-0.2915798724 -0.1656873971 0.5661209226 4289875750
-0.2872175872 -0.1625889689 0.5576512218 4289612578
-0.2850696445 -0.1607581228 0.5534809232 4290202909
-0.2838073671 -0.1594340503 0.5510300994 4290071323
-0.2829877734 -0.1583631635 0.5494388342 4290005530
-0.2821675837 -0.1572954655 0.5478463173 4290071323
-0.2817904949 -0.1564773768 0.5471141934 4289808925
-0.2814129889 -0.1556606889 0.5463812351 4289545753
-0.2810350657 -0.1548453867 0.5456475019 4290206257
-0.2806567252 -0.1540314853 0.5449129343 4292311633
-0.2807221413 -0.1534618139 0.5450399518 4291721052
-0.2803430855 -0.1526498348 0.5443039536 4289418297
-0.2804079652 -0.1520802677 0.5444299579 4290209113
-0.2800281644 -0.1512701958 0.5436925292 4292051317
-0.2800925374 -0.1507007480 0.5438175201 4291527289
-0.2801566720 -0.1501308978 0.5439420342 4291329910
-0.2797758281 -0.1493232697 0.5432025790 4290344557
-0.2798394561 -0.1487535536 0.5433261395 4289884006
-0.2799028456 -0.1481834501 0.5434492230 4290279283
-0.2799660563 -0.1476129591 0.5435718894 4289621353
-0.2795838118 -0.1468083113 0.5428298116 4290607478
-0.2796464860 -0.1462379545 0.5429514647 4289686376
-0.2797089219 -0.1456672102 0.5430727005 4289092438
-0.2797711492 -0.1450960934 0.5431935191 4288697680
-0.2798331678 -0.1445245892 0.5433139205 4289156172
-0.2798949778 -0.1439527124 0.5434339046 4289616723
-0.2799565494 -0.1433804631 0.5435534716 4290273366
-0.2795720100 -0.1425804198 0.5428068638 4289681229
-0.2796330452 -0.1420083195 0.5429254174 4289417542
-0.2796938717 -0.1414358467 0.5430434942 4289680714
-0.2797544897 -0.1408630013 0.5431611538 4289482817
-0.2798148692 -0.1402897835 0.5432783961 4289219645
-0.2798750401 -0.1397162080 0.5433952212 4291258968
-0.2799349725 -0.1391422451 0.5435115695 4290995796
-0.2799946964 -0.1385679245 0.5436275601 4290598972
-0.2800541818 -0.1379932314 0.5437430739 4290204214
-0.2801134586 -0.1374181807 0.5438581705 4290006835
-0.2801725268 -0.1368427575 0.5439727902 4289546284
-0.2802313566 -0.1362669617 0.5440870523 4290071856
-0.2802899480 -0.1356908232 0.5442008376 4289874477
-0.2803483307 -0.1351143122 0.5443142056 4289741866
-0.2804065049 -0.1345374435 0.5444270968 4290399796
-0.2804644406 -0.1339602172 0.5445395708 4290268724
-0.2805221379 -0.1333826333 0.5446516275 4290334517
-0.2805796266 -0.1328046918 0.5447632074 4291519302
-0.2806368768 -0.1322264075 0.5448744297 4291190337
-0.2806939185 -0.1316477507 0.5449851155 4290137392
-0.2807507217 -0.1310687512 0.5450954437 4289940013
-0.2808072865 -0.1304894090 0.5452052355 4290399024
-0.2808636427 -0.1299097091 0.5453146696 4290333231
-0.2809197605 -0.1293296665 0.5454236269 4289808939
-0.2805275321 -0.1285439283 0.5446620584 4290006318
-0.2805830836 -0.1279641092 0.5447699428 4290860598
-0.2810867429 -0.1275874376 0.5457478166 4291321149
-0.2811419368 -0.1270060092 0.5458549857 4291582779
-0.2811969221 -0.1264242381 0.5459617376 4291451193
-0.2812516391 -0.1258421242 0.5460680127 4290726957
-0.2813061476 -0.1252596825 0.5461738110 4290069027
-0.2813604474 -0.1246768907 0.5462791920 4289674271
-0.2814144790 -0.1240937710 0.5463841558 4289740064
-0.2814682722 -0.1235103086 0.5464886427 4290068257
-0.2815218568 -0.1229265183 0.5465926528 4290134050
-0.2815752029 -0.1223423928 0.5466961861 4290330910
-0.2820774913 -0.1219521239 0.5476714373 4290659875
-0.2821304500 -0.1213664040 0.5477742553 4291053856
-0.2821831703 -0.1207803562 0.5478765965 4290659098
-0.2822356522 -0.1201939732 0.5479785204 4290792485
-0.2827374041 -0.1197977290 0.5489526987 4290726692
-0.2827894986 -0.1192097664 0.5490538478 4290726692
-0.2832910419 -0.1188100651 0.5500276089 4290792485
-0.2833427489 -0.1182205155 0.5501279831 4291055657
-0.2833942175 -0.1176306456 0.5502279401 4291121450
-0.2834454179 -0.1170404553 0.5503273606 4291055909
-0.2839464247 -0.1166347936 0.5513000488 4291121702
-0.2839972377 -0.1160430238 0.5513987541 4291318568
-0.2844979763 -0.1156339124 0.5523709655 4291581740
-0.2845484018 -0.1150405705 0.5524688959 4291647533
-0.2850489020 -0.1146280095 0.5534406304 4291713326
-0.2855493426 -0.1142132506 0.5544122458 4292042290
-0.2855992019 -0.1136170924 0.5545090437 4292173876
-0.2860993445 -0.1131988913 0.5554801226 4292437048
-0.2865994275 -0.1127784923 0.5564510822 4292766013
-0.2870994210 -0.1123559102 0.5574218035 4291914054
-0.2875992954 -0.1119311303 0.5583924055 4292440398
-0.2885499597 -0.1116786525 0.5602381825 4292722364
-0.3312060833 -0.1936235130 0.6444473863 4288715169
-0.3308458626 -0.1926976889 0.6437465549 4289882706
-0.3300433755 -0.1915167719 0.6421850920 4289685327
-0.3292402327 -0.1903389394 0.6406223178 4290535479
-0.3279943466 -0.1889095902 0.6381981373 4290206514
-0.3258632720 -0.1869777292 0.6340516210 4289877802
-0.3179816008 -0.1817678362 0.6187157631 4289680423
-0.2910742462 -0.1657575220 0.5663605332 4289875750
-0.2867195606 -0.1626578271 0.5578873754 4289612578
-0.2845754325 -0.1608262211 0.5537154078 4290071319
-0.2833153903 -0.1595016271 0.5512636304 4290005526
-0.2824972868 -0.1584303230 0.5496718287 4289939735
-0.2816785574 -0.1573622078 0.5480787754 4289939735
-0.2813021839 -0.1565438062 0.5473464131 4289677593
-0.2809253931 -0.1557267904 0.5466132760 4289217042
-0.2805481851 -0.1549111754 0.5458793044 4289021981
-0.2801705599 -0.1540969610 0.5451445580 4290272048
-0.2802359164 -0.1535270810 0.5452717543 4289419067
-0.2798575461 -0.1527147740 0.5445355177 4288761137
-0.2799223959 -0.1521449983 0.5446617007 4289289552
-0.2795432806 -0.1513346136 0.5439240336 4290342240
-0.2796075940 -0.1507649422 0.5440492034 4290410867
-0.2796716988 -0.1501948982 0.5441738963 4291200383
-0.2792915404 -0.1493869424 0.5434342623 4290149750
-0.2797992527 -0.1490536034 0.5444220901 4290478715
-0.2794184685 -0.1482466906 0.5436812043 4291267718
-0.2794816196 -0.1476759911 0.5438040495 4290807167
-0.2791001201 -0.1468710303 0.5430617332 4290806654
-0.2791627049 -0.1463004500 0.5431835651 4290346103
-0.2792251110 -0.1457294971 0.5433049202 4291331455
-0.2792872787 -0.1451581717 0.5434259176 4291199869
-0.2793492377 -0.1445864439 0.5435464978 4290869102
-0.2794109881 -0.1440143436 0.5436666012 4290737516
-0.2794725001 -0.1434418708 0.5437862873 4291393902
-0.2790886760 -0.1426415294 0.5430395007 4291525488
-0.2791496813 -0.1420692056 0.5431581736 4291459950
-0.2792104483 -0.1414965242 0.5432764292 4291130985
-0.2792710066 -0.1409234554 0.5433942080 4289156423
-0.2793313265 -0.1403500140 0.5435116291 4288498493
-0.2793914378 -0.1397762150 0.5436285734 4292446325
-0.2794513404 -0.1392020285 0.5437451005 4291196258
-0.2795110047 -0.1386274844 0.5438612103 4291918965
-0.2795704305 -0.1380525678 0.5439769030 4291853172
-0.2796296775 -0.1374772936 0.5440921187 4290999916
-0.2796886861 -0.1369016469 0.5442069173 4290670951
-0.2797474563 -0.1363256425 0.5443212986 4291064937
-0.2798060179 -0.1357492656 0.5444352627 4290933351
-0.2798643410 -0.1351725310 0.5445487499 4291259749
-0.2799224555 -0.1345954388 0.5446618199 4290996577
-0.2799803317 -0.1340179890 0.5447744131 4289745993
-0.2800379992 -0.1334401816 0.5448866487 4290206544
-0.2800954282 -0.1328620166 0.5449984074 4291458919
-0.2801526487 -0.1322834939 0.5451096892 4291129954
-0.2802096307 -0.1317046285 0.5452205539 4290470741
-0.2802663743 -0.1311254054 0.5453310013 4290733913
-0.2803229094 -0.1305458248 0.5454409719 4291389276
-0.2803792059 -0.1299659014 0.5455505252 4290665553
-0.2804352641 -0.1293856204 0.5456596017 4290405191
-0.2804911137 -0.1288049966 0.5457682610 4290405191
-0.2805467248 -0.1282240301 0.5458765030 4289944387
-0.2806020975 -0.1276427060 0.5459842682 4291852384
-0.2806572616 -0.1270610541 0.5460915565 4291851357
-0.2807121873 -0.1264790595 0.5461984277 4292377701
-0.2807668746 -0.1258967072 0.5463048220 4291192400
-0.2808213234 -0.1253140271 0.5464107990 4290073919
-0.2808755636 -0.1247310117 0.5465162992 4289811006
-0.2809295654 -0.1241476536 0.5466213822 4290074178
-0.2809833288 -0.1235639602 0.5467259884 4290271044
-0.2810368538 -0.1229799315 0.5468301773 4290073665
-0.2815384567 -0.1225907803 0.5478061438 4291124287
-0.2815915942 -0.1220051572 0.5479095578 4291519045
-0.2816445231 -0.1214191988 0.5480125546 4291318831
-0.2821457684 -0.1210253239 0.5489878058 4290726694
-0.2821982801 -0.1204377785 0.5490900278 4290924069
-0.2822505832 -0.1198499054 0.5491917729 4290924069
-0.2827514410 -0.1194513068 0.5501663685 4290792483
-0.2832522392 -0.1190505177 0.5511407852 4290858276
-0.2833039761 -0.1184597984 0.5512414575 4291121448
-0.2833554745 -0.1178687513 0.5513416529 4291187241
-0.2834067345 -0.1172773838 0.5514414310 4291252775
-0.2834577858 -0.1166856959 0.5515406728 4291252775
-0.2839578688 -0.1162776798 0.5525137186 4291384874
-0.2840084732 -0.1156844199 0.5526122451 4291450667
-0.2845083177 -0.1152729467 0.5535848141 4291582253
-0.2845585644 -0.1146781147 0.5536825657 4291779632
-0.2850581408 -0.1142631918 0.5546546578 4291977010
-0.2855576575 -0.1138460785 0.5556265712 4292174389
-0.2856073081 -0.1132484227 0.5557231903 4292502841
-0.2861065865 -0.1128278598 0.5566946268 4292831806
-0.2866057456 -0.1124051064 0.5576658845 4291979847
-0.2871048152 -0.1119801551 0.5586369634 4292506191
-0.2880539000 -0.1117275879 0.5604836345 4292788414
-0.3293070197 -0.1929302663 0.6421400309 4288649376
-0.3289471865 -0.1920067668 0.6414383650 4289882706
-0.3285868764 -0.1910845488 0.6407358050 4289751120
-0.3277849853 -0.1899080426 0.6391720772 4290535479
-0.3265411258 -0.1884799302 0.6367465854 4290206514
-0.3244136274 -0.1865490675 0.6325980425 4289943596
-0.3143380582 -0.1800742447 0.6129509211 4289746217
-0.2910095751 -0.1660796106 0.5674610138 4289810470
-0.2862209380 -0.1627266109 0.5581232905 4289613091
-0.2840805948 -0.1608942747 0.5539496541 4289809692
-0.2828227878 -0.1595691442 0.5514970422 4290007071
-0.2820061743 -0.1584974229 0.5499046445 4289941024
-0.2811889052 -0.1574288756 0.5483109951 4289809438
-0.2808132470 -0.1566101611 0.5475784540 4289875231
-0.2808794975 -0.1560385674 0.5477076769 4289809438
-0.2805031240 -0.1552217454 0.5469737053 4289350431
-0.2796837687 -0.1541623771 0.5453760028 4289547810
-0.2797490656 -0.1535922885 0.5455033183 4289023020
-0.2793714106 -0.1527796686 0.5447669029 4289023020
-0.2794362009 -0.1522096843 0.5448932052 4289485642
-0.2795007527 -0.1516392976 0.5450191498 4289419849
-0.2791220546 -0.1508291066 0.5442807078 4288566604
-0.2791860998 -0.1502588242 0.5444055796 4289816671
-0.2792499363 -0.1496881694 0.5445300341 4289161051
-0.2793135345 -0.1491171122 0.5446540713 4289424223
-0.2793769240 -0.1485456824 0.5447776914 4290409578
-0.2789965570 -0.1477389634 0.5440359712 4290935922
-0.2790594101 -0.1471676528 0.5441585183 4291132533
-0.2791220844 -0.1465959698 0.5442807078 4290737775
-0.2791845202 -0.1460238844 0.5444024801 4291723643
-0.2792467177 -0.1454514265 0.5445237756 4291592057
-0.2793087363 -0.1448785812 0.5446446538 4291459445
-0.2789263725 -0.1440759301 0.5438990593 4291130480
-0.2789878249 -0.1435032338 0.5440189242 4291657076
-0.2790490985 -0.1429301649 0.5441383719 4291722869
-0.2791101038 -0.1423567235 0.5442574024 4292117627
-0.2791709304 -0.1417828947 0.5443759561 4292183420
-0.2787868977 -0.1409838498 0.5436270833 4289815385
-0.2788471580 -0.1404101849 0.5437446237 4288433732
-0.2789072096 -0.1398361623 0.5438617468 4292052093
-0.2789670527 -0.1392617673 0.5439784527 4290538854
-0.2790266871 -0.1386869997 0.5440946817 4292117629
-0.2790860832 -0.1381118596 0.5442104936 4292643973
-0.2791452408 -0.1375363618 0.5443258882 4291329912
-0.2792041898 -0.1369604915 0.5444408655 4291856256
-0.2792629302 -0.1363842636 0.5445553660 4291790461
-0.2793214321 -0.1358076632 0.5446694493 4291987840
-0.2793797255 -0.1352307051 0.5447831154 4291920248
-0.2794377804 -0.1346533895 0.5448963046 4290341216
-0.2799413800 -0.1342895627 0.5458783507 4288168248
-0.2799990773 -0.1337106079 0.5459908247 4289023557
-0.2796106040 -0.1329192966 0.5452333093 4292248437
-0.2796677649 -0.1323405504 0.5453447700 4291787886
-0.2797246873 -0.1317614466 0.5454558134 4291195749
-0.2797814012 -0.1311820000 0.5455663800 4292643195
-0.2798378766 -0.1306021959 0.5456764698 4292773757
-0.2798941135 -0.1300220340 0.5457862020 4292115827
-0.2799501419 -0.1294415295 0.5458953977 4292246641
-0.2800059319 -0.1288606822 0.5460042357 4291851883
-0.2800615132 -0.1282794774 0.5461125374 4288299833
-0.2801168263 -0.1276979297 0.5462204814 4291786862
-0.2801719308 -0.1271160543 0.5463278890 4290866530
-0.2802268267 -0.1265338212 0.5464349389 4292577148
-0.2802814543 -0.1259512454 0.5465414524 4292577659
-0.2803358734 -0.1253683269 0.5466476083 4292182901
-0.2803900540 -0.1247850806 0.5467532277 4291789686
-0.2804439962 -0.1242014915 0.5468584299 4292447616
-0.2804977298 -0.1236175671 0.5469631553 4292513409
-0.2805511951 -0.1230333075 0.5470674634 4292250237
-0.2810519934 -0.1226440072 0.5480440259 4293234041
-0.2811051011 -0.1220581457 0.5481475592 4292839283
-0.2811579704 -0.1214719564 0.5482506156 4291848010
-0.2812106013 -0.1208854392 0.5483532548 4290334771
-0.2817108631 -0.1204901487 0.5493288040 4290858530
-0.2817631066 -0.1199020371 0.5494306684 4290858530
-0.2822631598 -0.1195032820 0.5504057407 4290858017
-0.2827631235 -0.1191023365 0.5513806939 4290989603
-0.2828148305 -0.1185113788 0.5514814854 4291186982
-0.2828662992 -0.1179200932 0.5515818000 4291252775
-0.2829174995 -0.1173284873 0.5516816974 4291318567
-0.2834169269 -0.1169215664 0.5526555777 4291318567
-0.2834677696 -0.1163283810 0.5527547002 4291384873
-0.2835183442 -0.1157348827 0.5528532863 4291450666
-0.2835686803 -0.1151410639 0.5529514551 4291516459
-0.2840675414 -0.1147281751 0.5539242625 4291713838
-0.2845663130 -0.1143130884 0.5548968315 4292108594
-0.2850650251 -0.1138958111 0.5558692813 4292240180
-0.2855636179 -0.1134763360 0.5568415523 4292568888
-0.2856130600 -0.1128771827 0.5569379926 4292832060
-0.2861114144 -0.1124542579 0.5579097271 4292045640
-0.2866096795 -0.1120291427 0.5588813424 4292637777
-0.2875571549 -0.1117764786 0.5607289076 4292920000
-0.3274118304 -0.1922362745 0.6398302317 4288649122
-0.3279327452 -0.1918300837 0.6408481598 4290014292
-0.3271327317 -0.1906518340 0.6392847896 4289816913
-0.3263320923 -0.1894766539 0.6377201080 4290338872
-0.3246497512 -0.1877949536 0.6344324946 4289944114
-0.3220850825 -0.1856120825 0.6294206381 4289943596
-0.3107045889 -0.1783790886 0.6071808338 4289812010
-0.2896202505 -0.1656454653 0.5659776330 4289876009
-0.2861625850 -0.1630465686 0.5592206717 4289744423
-0.2835851014 -0.1609622538 0.5541837811 4289678884
-0.2823295593 -0.1596366018 0.5517301559 4289678884
-0.2815144360 -0.1585644633 0.5501372218 4289612578
-0.2806986570 -0.1574954987 0.5485430360 4289415199
-0.2803237140 -0.1566764563 0.5478102565 4289480991
-0.2799483240 -0.1558588296 0.5470767617 4289678370
-0.2800142169 -0.1552875191 0.5472054482 4289415711
-0.2796381116 -0.1544717699 0.5464704633 4289349918
-0.2792615891 -0.1536574364 0.5457347035 4289285163
-0.2788846493 -0.1528445035 0.5449981093 4289021991
-0.2789493799 -0.1522742957 0.5451245308 4289682508
-0.2790138721 -0.1517037004 0.5452505946 4290537817
-0.2790781856 -0.1511327028 0.5453762412 4289948000
-0.2786998749 -0.1503227055 0.5446370244 4290540137
-0.2787636518 -0.1497518420 0.5447615981 4288896850
-0.2788271904 -0.1491805762 0.5448858142 4288041541
-0.2788905501 -0.1486089081 0.5450096130 4288040262
-0.2789536715 -0.1480368674 0.5451329350 4288106055
-0.2785736918 -0.1472303718 0.5443903804 4288171335
-0.2786362767 -0.1466584504 0.5445127487 4288171335
-0.2786986828 -0.1460861564 0.5446346402 4289025618
-0.2787608206 -0.1455134898 0.5447561145 4289157204
-0.2788227797 -0.1449404210 0.5448771715 4289946720
-0.2788845003 -0.1443669796 0.5449978113 4289880927
-0.2785025537 -0.1435645521 0.5442513824 4289880413
-0.2785637379 -0.1429912597 0.5443709493 4289946206
-0.2786247134 -0.1424175948 0.5444900990 4290209891
-0.2786854804 -0.1418435574 0.5446088314 4290736235
-0.2787460089 -0.1412691325 0.5447271466 4290407783
-0.2783623934 -0.1404703110 0.5439774394 4289289302
-0.2784223855 -0.1398960650 0.5440947413 4290276712
-0.2784821689 -0.1393214464 0.5442115664 4289092438
-0.2785417438 -0.1387464553 0.5443279743 4290670443
-0.2786010802 -0.1381710917 0.5444439054 4291130994
-0.2786602080 -0.1375953704 0.5445594788 4290143845
-0.2787190974 -0.1370192915 0.5446745753 4291196533
-0.2787777781 -0.1364428252 0.5447892547 4290408300
-0.2788362205 -0.1358660161 0.5449034572 4291526781
-0.2788944542 -0.1352888346 0.5450172424 4291000948
-0.2789524794 -0.1347112954 0.5451306105 4290343018
-0.2790102661 -0.1341333985 0.5452435613 4289354323
-0.2795128822 -0.1337681413 0.5462257862 4290078046
-0.2791251540 -0.1329765171 0.5454680324 4292049783
