VERSION 0.7
FIELDS x y z rgba
SIZE 4 4 4 4
TYPE F F F U
COUNT 1 1 1 1
WIDTH 920
HEIGHT 1
VIEWPOINT 0.0 0.0 0.0 1.0 0.0 0.0 0.0
POINTS 920
DATA ascii
-0.3113034070 -0.1305444688 0.5212382674 4287991697
-0.3113643229 -0.1299907714 0.5213402510 4287860111
-0.3109235168 -0.1292283088 0.5206021667 4286084213
-0.3109838665 -0.1286748499 0.5207031965 4287597452
-0.3110439479 -0.1281210780 0.5208038688 4287202694
-0.3106020391 -0.1273612231 0.5200639367 4287005315
-0.3106615841 -0.1268076897 0.5201635957 4288189589
-0.3107208908 -0.1262538582 0.5202628970 4287992210
-0.3107799590 -0.1256996989 0.5203617811 4287861140
-0.3103366196 -0.1249430478 0.5196194649 4288124312
-0.3103951216 -0.1243891492 0.5197174549 4288584865
-0.3104533553 -0.1238349453 0.5198149681 4288124314
-0.3100089431 -0.1230809465 0.5190708637 4287531659
-0.3100666404 -0.1225270182 0.5191674232 4286939522
-0.3101240695 -0.1219727769 0.5192636251 4287663245
-0.3101812899 -0.1214182302 0.5193594098 4288386968
-0.3097354174 -0.1206674874 0.5186128616 4287860624
-0.3097920716 -0.1201132312 0.5187076926 4287794831
-0.3098484576 -0.1195586696 0.5188021064 4287136901
-0.3099046052 -0.1190038100 0.5188961625 4286742143
-0.3094573319 -0.1182563603 0.5181472898 4286084729
-0.3100162148 -0.1178931817 0.5190829635 4286150522
-0.3095682561 -0.1171469390 0.5183329582 4286150522
-0.3096233606 -0.1165917814 0.5184252262 4286413694
-0.3096782267 -0.1160363257 0.5185170770 4286216317
-0.3092291951 -0.1152928025 0.5177652836 4286282110
-0.3092834949 -0.1147376671 0.5178561807 4286479489
-0.3093375266 -0.1141822413 0.5179466605 4285755766
-0.3093913198 -0.1136265174 0.5180367231 4286545539
-0.3099488616 -0.1132546663 0.5189702511 4286940297
-0.3100022376 -0.1126974598 0.5190595984 4286874504
-0.3100554049 -0.1121399701 0.5191485882 4287203469
-0.3101083040 -0.1115821972 0.5192371607 4287861399
-0.3101609349 -0.1110241339 0.5193253756 4287992985
-0.3102133572 -0.1104657948 0.5194131136 4287927706
-0.3102655113 -0.1099071652 0.5195004344 4287927706
-0.3103174269 -0.1093482599 0.5195873976 4288256671
-0.3103691041 -0.1087890714 0.5196738839 4288190878
-0.3104205430 -0.1082295999 0.5197600126 4288454050
-0.3099668622 -0.1074947864 0.5190004110 4288848808
-0.3100177050 -0.1069356725 0.5190855265 4288454050
-0.3100683093 -0.1063762903 0.5191702247 4288717222
-0.3101186454 -0.1058166325 0.5192545056 4288388003
-0.3101687431 -0.1052567065 0.5193384290 4288519589
-0.3102185726 -0.1046965048 0.5194218755 4288585115
-0.3102681935 -0.1041360348 0.5195049047 4288256150
-0.3103175163 -0.1035752967 0.5195875168 4288584863
-0.3103666306 -0.1030142903 0.5196697116 4288848035
-0.3104154468 -0.1024530232 0.5197514892 4290492607
-0.3104640543 -0.1018914878 0.5198328495 4291216330
-0.3105123937 -0.1013296917 0.5199137926 4290756782
-0.3110662699 -0.1009317487 0.5208411813 4289440922
-0.3106082976 -0.1002053097 0.5200743675 4290358332
-0.3111618459 -0.0998050198 0.5210012197 4290095160
-0.3117152750 -0.0994026288 0.5219278932 4290292269
-0.3117625117 -0.0988377035 0.5220069289 4289371167
-0.3123156428 -0.0984320566 0.5229331255 4288909856
-0.3128687143 -0.0980243161 0.5238591433 4287659789
-0.3134216368 -0.0976144820 0.5247849822 4287989781
-0.3139744997 -0.0972025618 0.5257106423 4285950208
-0.3145272136 -0.0967885479 0.5266361237 4285356800
-0.3150798380 -0.0963724479 0.5275614262 4288778025
-0.3156323433 -0.0959542543 0.5284865499 4290887064
-0.3161847293 -0.0955339745 0.5294114351 4289965962
-0.3232171237 -0.1508534253 0.5421945453 4288255380
-0.3197998106 -0.1486624330 0.5364620686 4287861138
-0.3193702102 -0.1478674859 0.5357414484 4288453275
-0.3179434836 -0.1466143280 0.5333480835 4288189335
-0.3180112243 -0.1460528523 0.5334617496 4288452507
-0.3170816302 -0.1450349391 0.5319023132 4288453275
-0.3156527281 -0.1437930167 0.5295053720 4288124310
-0.3147217333 -0.1427823305 0.5279436111 4288123796
-0.3137900531 -0.1417748034 0.5263807774 4287597452
-0.3133567274 -0.1409949809 0.5256538391 4287334280
-0.3134220541 -0.1404402107 0.5257633924 4286807936
-0.3129879534 -0.1396623403 0.5250352025 4288979103
-0.3130527139 -0.1391077638 0.5251438022 4289702826
-0.3126178384 -0.1383318603 0.5244143009 4288913310
-0.3126820028 -0.1377774924 0.5245220065 4288058001
-0.3127459586 -0.1372227669 0.5246292949 4288254867
-0.3123099804 -0.1364493817 0.5238979459 4288781211
-0.3123733699 -0.1358948648 0.5240042806 4288518293
-0.3114367425 -0.1349069327 0.5224330425 4288649879
-0.3114994466 -0.1343535185 0.5225382447 4288123792
-0.3110618293 -0.1335850209 0.5218041539 4288913308
-0.3111239970 -0.1330318302 0.5219084024 4289440424
-0.3107472062 -0.1317123622 0.5212763548 4289440424
-0.3108085394 -0.1311590821 0.5213792920 4288848287
-0.3108696640 -0.1306054741 0.5214818120 4289506217
-0.3109305501 -0.1300515383 0.5215839148 4288848287
-0.3104903996 -0.1292887330 0.5208455920 4287466380
-0.3105507195 -0.1287350506 0.5209467411 4288650654
-0.3106108010 -0.1281810254 0.5210475326 4287729552
-0.3106706440 -0.1276266873 0.5211479664 4286940036
-0.3102290630 -0.1268670857 0.5204071999 4287531659
-0.3102883399 -0.1263130009 0.5205066204 4286742143
-0.3103473783 -0.1257586032 0.5206056833 4286610557
-0.3104061782 -0.1252038926 0.5207043290 4286742143
-0.3099631965 -0.1244474947 0.5199611783 4287597452
-0.3100214303 -0.1238930449 0.5200588703 4286215799
-0.3095776737 -0.1231387183 0.5193144679 4285492076
-0.3096353114 -0.1225845516 0.5194112062 4285821041
-0.3096927404 -0.1220300719 0.5195075274 4287070854
-0.3097499311 -0.1214752868 0.5196034312 4288057749
-0.3098068535 -0.1209201962 0.5196989775 4286939268
-0.3093613684 -0.1201697141 0.5189516544 4287136647
-0.3094177246 -0.1196149141 0.5190461874 4287071622
-0.3094738722 -0.1190598086 0.5191403627 4286611071
-0.3095297515 -0.1185044050 0.5192341208 4287466382
-0.3090828061 -0.1177572235 0.5184843540 4287926933
-0.3091381192 -0.1172021255 0.5185771585 4288190107
-0.3091931939 -0.1166467220 0.5186695457 4288650658
-0.3092480302 -0.1160910279 0.5187615156 4289374381
-0.3093026280 -0.1155350357 0.5188531280 4287992728
-0.3093569577 -0.1149787530 0.5189442635 4288190105
-0.3094110787 -0.1144221798 0.5190350413 4287269003
-0.3094649315 -0.1138653085 0.5191253424 4287532173
-0.3095185459 -0.1133081466 0.5192152858 4287926931
-0.3095719218 -0.1127507016 0.5193048120 4288059032
-0.3101285100 -0.1123753935 0.5202385187 4288322204
-0.3101814687 -0.1118164659 0.5203273296 4288322204
-0.3102341890 -0.1112572476 0.5204157829 4287927446
-0.3102866411 -0.1106977537 0.5205038190 4287795860
-0.3098350763 -0.1099591702 0.5197463036 4287598481
-0.3098869622 -0.1094000190 0.5198333263 4287532434
-0.3099386096 -0.1088405848 0.5199199915 4287532434
-0.3099900186 -0.1082808673 0.5200061798 4287730327
-0.3100411594 -0.1077208742 0.5200920105 4287927706
-0.3100920618 -0.1071606055 0.5201773643 4287993245
-0.3101427257 -0.1066000611 0.5202623606 4288124831
-0.3101931214 -0.1060392410 0.5203468800 4288519330
-0.3102432787 -0.1054781526 0.5204310417 4288650916
-0.3102931976 -0.1049167886 0.5205147266 4288979891
-0.3103428483 -0.1043551564 0.5205980539 4289308856
-0.3103922307 -0.1037932560 0.5206809044 4288980391
-0.3104414046 -0.1032310873 0.5207633972 4287203980
-0.3104902804 -0.1026686504 0.5208454132 4290295994
-0.3105389476 -0.1021059528 0.5209270120 4291019717
-0.3105873466 -0.1015429869 0.5210081935 4291086501
-0.3106354773 -0.1009797603 0.5210889578 4288388988
-0.3106833696 -0.1004162654 0.5211693048 4285422084
-0.3107309937 -0.0998525172 0.5212491751 4284764160
-0.3112837076 -0.0994499549 0.5221763849 4286408704
-0.3118363321 -0.0990453064 0.5231033564 4283974400
-0.3118833601 -0.0984789431 0.5231822729 4286210048
-0.3129412532 -0.0982297137 0.5249568820 4286341633
-0.3129879236 -0.0976610109 0.5250351429 4287724812
-0.3135400414 -0.0972489119 0.5259613395 4285685248
-0.3140920401 -0.0968347117 0.5268872976 4285815552
-0.3146439493 -0.0964184254 0.5278131366 4290355257
-0.3151957095 -0.0960000455 0.5287387371 4290165419
-0.3157474101 -0.0955795795 0.5296641588 4289112731
-0.3232612908 -0.1511556655 0.5432808995 4287729034
-0.3228335381 -0.1503528208 0.5425620079 4288913310
-0.3204151988 -0.1486282200 0.5384976864 4289044896
-0.3189908564 -0.1473718733 0.5361039042 4288649886
-0.3165701330 -0.1456623822 0.5320355296 4288320921
-0.3151438236 -0.1444176435 0.5296384692 4288058519
-0.3142146170 -0.1434050947 0.5280768275 4288255898
-0.3157751262 -0.1435276419 0.5306994319 4288452507
-0.3133506179 -0.1418405324 0.5266247988 4288847265
-0.3134162426 -0.1412849873 0.5267350674 4288913312
-0.3129832447 -0.1405053735 0.5260073543 4288518554
-0.3125498295 -0.1397271752 0.5252789259 4289242791
-0.3126145303 -0.1391723603 0.5253876448 4289769135
-0.3121803403 -0.1383961290 0.5246579647 4289110691
-0.3122444749 -0.1378415078 0.5247657299 4288321175
-0.3123084009 -0.1372865587 0.5248731971 4287597452
-0.3118731081 -0.1365128458 0.5241416097 4287136901
-0.3119364679 -0.1359581053 0.5242480636 4286150006
-0.3115003705 -0.1351863742 0.5235151649 4286215799
-0.3115631640 -0.1346318424 0.5236207247 4286544764
-0.3116257191 -0.1340769827 0.5237258673 4287400073
-0.3111885488 -0.1333077997 0.5229911208 4287334794
-0.3107509315 -0.1325400770 0.5222556591 4287795345
-0.3103128970 -0.1317737997 0.5215194821 4288453275
-0.3103742301 -0.1312202811 0.5216225386 4288519068
-0.3104353249 -0.1306664348 0.5217252374 4289044898
-0.3104961514 -0.1301122606 0.5218275189 4289308070
-0.3100566864 -0.1293491423 0.5210888982 4289110691
-0.3101169765 -0.1287952065 0.5211902261 4289637035
-0.3101770282 -0.1282409579 0.5212911367 4289834414
-0.3102368414 -0.1276863813 0.5213916898 4289176484
-0.3102964163 -0.1271314919 0.5214918256 4289242277
-0.3098551929 -0.1263721287 0.5207502842 4288781726
-0.3099142015 -0.1258174926 0.5208494663 4289110691
-0.3099729717 -0.1252625436 0.5209482312 4289044898
-0.3095306456 -0.1245058030 0.5202048421 4288979105
-0.3095888495 -0.1239511222 0.5203026533 4288584347
-0.3091457784 -0.1231964603 0.5195580125 4288058001
-0.3092034161 -0.1226420552 0.5196548700 4287794829
-0.3092608154 -0.1220873371 0.5197513103 4288058003
-0.3093179762 -0.1215323135 0.5198473930 4288189589
-0.3093748689 -0.1209769845 0.5199430585 4286676350
-0.3094315529 -0.1204213426 0.5200383067 4286610557
-0.3089863956 -0.1196711287 0.5192901492 4286544764
-0.3090424836 -0.1191157848 0.5193843842 4285886834
-0.3090983629 -0.1185601428 0.5194783211 4285558383
-0.3086521029 -0.1178126261 0.5187283158 4286150520
-0.3087073863 -0.1172572821 0.5188212395 4286018936
-0.3087624311 -0.1167016402 0.5189137459 4286874245
-0.3088172376 -0.1161457077 0.5190058351 4288519070
-0.3088718057 -0.1155894697 0.5190975666 4286808452
-0.3089261353 -0.1150329486 0.5191888809 4286150520
-0.3089801967 -0.1144761220 0.5192797184 4286018934
-0.3090340495 -0.1139190122 0.5193701982 4286282106
-0.3090876341 -0.1133616120 0.5194602609 4286479485
-0.3091409802 -0.1128039211 0.5195499063 4287137930
-0.3096968234 -0.1124284491 0.5204840899 4287993239
-0.3097497821 -0.1118692756 0.5205730796 4289111720
-0.3098024726 -0.1113098189 0.5206616521 4289901236
-0.3098549247 -0.1107500717 0.5207498074 4290098615
-0.3099071085 -0.1101900414 0.5208375454 4290164408
-0.3094559014 -0.1094517559 0.5200791955 4290164154
-0.3095075190 -0.1088920757 0.5201659203 4290229947
-0.3095588982 -0.1083321124 0.5202522874 4290362047
-0.3096100092 -0.1077718735 0.5203382373 4290559426
-0.3096609116 -0.1072113514 0.5204237103 4290559426
-0.3097115159 -0.1066505611 0.5205088258 4290625219
-0.3097619116 -0.1060894951 0.5205934644 4290756805
-0.3098120391 -0.1055281535 0.5206777453 4290888391
-0.3098619282 -0.1049665436 0.5207615495 4290756300
-0.3094076216 -0.1042348966 0.5199980736 4291085265
-0.3094569445 -0.1036736518 0.5200809240 4290691011
-0.3100100756 -0.1032800823 0.5210105181 4287861912
-0.3100589514 -0.1027173996 0.5210927129 4290493373
-0.3096033335 -0.1019883379 0.5203269720 4291085510
-0.3096516132 -0.1014260352 0.5204081535 4290888873
-0.3102040589 -0.1010277495 0.5213365555 4287993981
-0.3102519214 -0.1004640013 0.5214170218 4283315968
-0.3102995455 -0.0998999998 0.5214970708 4283842304
-0.3108515441 -0.0994972661 0.5224247575 4286276365
-0.3108987212 -0.0989318267 0.5225040317 4283842048
-0.3114504516 -0.0985258147 0.5234312415 4286933780
-0.3125069141 -0.0982764810 0.5252068043 4286736401
-0.3125535548 -0.0977075249 0.5252851844 4287264012
-0.3131049573 -0.0972952396 0.5262118578 4285619200
-0.3136562407 -0.0968808532 0.5271383524 4286078976
-0.3142074049 -0.0964643806 0.5280647278 4290618681
-0.3147584796 -0.0960458219 0.5289908051 4290165934
-0.3153094351 -0.0956251621 0.5299167633 4288521109
-0.3196186125 -0.1515256763 0.5381634831 4289505439
-0.3206811547 -0.1514294744 0.5399525166 4287992200
-0.3212473691 -0.1510958523 0.5409058928 4285952366
-0.3223101795 -0.1509927809 0.5426954031 4285097057
-0.3223797381 -0.1504222602 0.5428125262 4287071106
-0.3204616904 -0.1489277780 0.5395830274 4287268485
-0.3205303550 -0.1483600438 0.5396986008 4287728525
-0.3171194196 -0.1461880058 0.5339553952 4286873216
-0.3161925375 -0.1451691985 0.5323947668 4287662991
-0.3137732446 -0.1434714496 0.5283212066 4288189335
-0.3133421242 -0.1426881254 0.5275952816 4288320921
-0.3129105866 -0.1419062316 0.5268686414 4288978851
-0.3124785721 -0.1411257386 0.5261412859 4288386714
-0.3125438392 -0.1405705065 0.5262511373 4288518300
-0.3121110797 -0.1397919655 0.5255224705 4288320921
-0.3121757507 -0.1392369270 0.5256314278 4288189335
-0.3117422163 -0.1384603530 0.5249014497 4288979105
-0.3118063509 -0.1379055083 0.5250093937 4289044898
-0.3118702471 -0.1373503357 0.5251169801 4288913312
-0.3114356101 -0.1365762800 0.5243851542 4289176484
-0.3119973242 -0.1362389326 0.5253309608 4288452761
-0.3115620315 -0.1354659945 0.5245980024 4288189589
-0.3111262918 -0.1346944869 0.5238643289 4287466380
-0.3111888170 -0.1341393888 0.5239695907 4287071622
-0.3107523024 -0.1333698779 0.5232346654 4286807682
-0.3108142614 -0.1328150034 0.5233389735 4287597198
-0.3098779917 -0.1318352073 0.5217624903 4287597198
-0.3104383945 -0.1314928532 0.5227060914 4286873475
-0.3100003600 -0.1307273656 0.5219685435 4286610303
-0.3100611866 -0.1301729679 0.5220709443 4286807682
-0.3101217747 -0.1296182275 0.5221729875 4286939268
-0.3096826375 -0.1288553476 0.5214335918 4287399819
-0.3097426593 -0.1283008605 0.5215346217 4287136901
-0.3098024428 -0.1277460456 0.5216352940 4286939522
-0.3098619878 -0.1271909177 0.5217355490 4287926417
-0.3099213243 -0.1266354620 0.5218354464 4288255382
-0.3094804287 -0.1258763522 0.5210930705 4288255382
-0.3095391691 -0.1253211498 0.5211920142 4288650140
-0.3090975285 -0.1245640963 0.5204483867 4288847006
-0.3091557026 -0.1240091771 0.5205463171 4289373350
-0.3092136383 -0.1234539449 0.5206438899 4289439654
-0.3087708950 -0.1226995364 0.5198984146 4289637033
-0.3088282645 -0.1221445799 0.5199950337 4289439656
-0.3088853955 -0.1215893179 0.5200911760 4289439656
-0.3089422882 -0.1210337430 0.5201869607 4289110691
-0.3089989424 -0.1204778627 0.5202823877 4289176484
-0.3090553284 -0.1199216843 0.5203773379 4288781724
-0.3086105287 -0.1191717386 0.5196283460 4288715931
-0.3086663485 -0.1186158508 0.5197224021 4288650138
-0.3087219596 -0.1180596575 0.5198159814 4288518552
-0.3082760572 -0.1173124239 0.5190652013 4287268487
-0.3083310723 -0.1167565361 0.5191578269 4287268487
-0.3083858490 -0.1162003577 0.5192500949 4288716447
-0.3084403872 -0.1156438813 0.5193418860 4287137415
-0.3084946871 -0.1150871143 0.5194333196 4286413692
-0.3085487485 -0.1145300493 0.5195243359 4287071622
-0.3086025417 -0.1139726937 0.5196149349 4286874245
-0.3086560965 -0.1134150475 0.5197051167 4287071624
-0.3087094426 -0.1128571108 0.5197949409 4287203723
-0.3087625206 -0.1122988835 0.5198842883 4286677379
-0.3093174696 -0.1119220629 0.5208187103 4287598481
-0.3093701601 -0.1113623604 0.5209074020 4289638064
-0.3094225824 -0.1108023673 0.5209956765 4290164408
-0.3094747663 -0.1102420911 0.5210835338 4289901236
-0.3095266819 -0.1096815318 0.5211709738 4290098361
-0.3095783591 -0.1091206893 0.5212579966 4290164154
-0.3091271520 -0.1083833352 0.5204982758 4290230460
-0.3091782629 -0.1078228429 0.5205843449 4290296253
-0.3092291057 -0.1072620824 0.5206699371 4290165182
-0.3092797399 -0.1067010388 0.5207551718 4290230975
-0.3093300760 -0.1061397195 0.5208399296 4290362046
-0.3093802035 -0.1055781320 0.5209243298 4290493632
-0.3094300628 -0.1050162688 0.5210082531 4291019723
-0.3089764416 -0.1042842865 0.5202444792 4290756551
-0.3090257347 -0.1037228033 0.5203274488 4290888390
-0.3090747595 -0.1031610444 0.5204100013 4288059291
-0.3096269965 -0.1027661189 0.5213398933 4290756543
-0.3091720641 -0.1020367295 0.5205738544 4291019715
-0.3092203140 -0.1014741808 0.5206551552 4290887851
-0.3097720444 -0.1010757163 0.5215840936 4288387717
-0.3093161285 -0.1003482863 0.5208164454 4282854912
-0.3098674715 -0.0999474600 0.5217447877 4283973382
-0.3104187548 -0.0995445475 0.5226730108 4286407448
-0.3104659021 -0.0989788547 0.5227524042 4283973120
-0.3110169172 -0.0985726714 0.5236801505 4286539024
-0.3115677834 -0.0981643870 0.5246077180 4285091584
-0.3121185601 -0.0977540091 0.5255351067 4285618688
-0.3126692474 -0.0973415449 0.5264623165 4286079232
-0.3132198155 -0.0969269797 0.5273893476 4288118798
-0.3137702644 -0.0965103209 0.5283161998 4291408448
-0.3143205941 -0.0960915759 0.5292428136 4290297270
-0.3148708344 -0.0956707299 0.5301693082 4288455066
-0.3197332025 -0.1512647122 0.5393650532 4288847766
-0.3223516941 -0.1512951553 0.5437822938 4288584343
-0.3199411631 -0.1495641172 0.5397158861 4288321173
-0.3185216188 -0.1483035088 0.5373212099 4287136899
-0.3185898960 -0.1477381736 0.5374364257 4286742143
-0.3166725636 -0.1462555230 0.5342020392 4285689455
-0.3157470822 -0.1452362835 0.5326407552 4285755246
-0.3148209453 -0.1442202181 0.5310784578 4285492074
-0.3133974671 -0.1429807246 0.5286771655 4286215284
-0.3129666746 -0.1421975940 0.5279504657 4288320660
-0.3125354648 -0.1414158940 0.5272230506 4287663243
-0.3126007915 -0.1408595443 0.5273332596 4288650138
-0.3121688068 -0.1400797814 0.5266044736 4288321175
-0.3122335672 -0.1395236254 0.5267137289 4288123796
-0.3118008077 -0.1387458444 0.5259836912 4288715933
-0.3118650019 -0.1381898820 0.5260919929 4288715933
-0.3119289577 -0.1376335770 0.5261998773 4288452761
-0.3114950955 -0.1368583143 0.5254679918 4288386968
-0.3110607862 -0.1360844821 0.5247353911 4287794831
-0.3106260598 -0.1353120804 0.5240020156 4288058003
-0.3106887937 -0.1347570866 0.5241078138 4288058003
-0.3102532923 -0.1339866817 0.5233731866 4288386968
-0.3103154302 -0.1334319115 0.5234780312 4289044646
-0.3099407852 -0.1321089715 0.5228459835 4288781474
-0.3100021482 -0.1315540969 0.5229495168 4288320923
-0.3095647693 -0.1307882816 0.5222117305 4287794577
-0.3096255660 -0.1302336305 0.5223142505 4288057749
-0.3096861243 -0.1296786666 0.5224164128 4288057749
-0.3092476726 -0.1289154440 0.5216767788 4287794577
-0.3093076646 -0.1283607185 0.5217779875 4287136647
-0.3093674481 -0.1278056800 0.5218788385 4286347131
-0.3094269633 -0.1272503138 0.5219792128 4286873729
-0.3094862401 -0.1266946346 0.5220792294 4287400073
-0.3095453084 -0.1261386275 0.5221788287 4285821041
-0.3091047406 -0.1253797561 0.5214356780 4285426283
-0.3091632426 -0.1248240098 0.5215343237 4286347385
-0.3087219298 -0.1240671948 0.5207898617 4288715933
-0.3087798357 -0.1235117242 0.5208875537 4289439656
-0.3088375032 -0.1229559407 0.5209848881 4289571242
-0.3083951175 -0.1222017929 0.5202385783 4289439656
-0.3084522188 -0.1216462925 0.5203348994 4289505449
-0.3085090816 -0.1210904792 0.5204308033 4289439656
-0.3085657060 -0.1205343604 0.5205263495 4289702828
-0.3086220920 -0.1199779361 0.5206214786 4289637035
-0.3081779480 -0.1192276627 0.5198722482 4289571242
-0.3082337379 -0.1186715364 0.5199663639 4289966000
-0.3082893193 -0.1181151047 0.5200601220 4289900207
-0.3083446324 -0.1175583750 0.5201534629 4289308070
-0.3078990877 -0.1168114096 0.5194018483 4289110691
-0.3079538345 -0.1162549853 0.5194941759 4290097586
-0.3080083430 -0.1156982705 0.5195861459 4289637035
-0.3080626130 -0.1151412576 0.5196776986 4289505449
-0.3081166446 -0.1145839468 0.5197688341 4289768621
-0.3081704378 -0.1140263453 0.5198595524 4289834160
-0.3082239628 -0.1134684607 0.5199499130 4289505195
-0.3082772791 -0.1129102781 0.5200397968 4289571758
-0.3083303273 -0.1123518050 0.5201292634 4289637551
-0.3083831370 -0.1117930487 0.5202183723 4289637551
-0.3084357083 -0.1112340093 0.5203070641 4289703344
-0.3089896142 -0.1108546332 0.5212414861 4289703857
-0.3090417683 -0.1102941111 0.5213294625 4290098615
-0.3090936840 -0.1097333059 0.5214170218 4290032822
-0.3091453314 -0.1091722175 0.5215041637 4290164408
-0.3086948097 -0.1084345356 0.5207441449 4290164667
-0.3087458909 -0.1078737974 0.5208303332 4290230460
-0.3087967336 -0.1073127836 0.5209160447 4290230460
-0.3088473082 -0.1067514941 0.5210013986 4290296253
-0.3088976443 -0.1061899215 0.5210863352 4290427839
-0.3089477420 -0.1056280881 0.5211707950 4290559425
-0.3089975715 -0.1050659716 0.5212548971 4290624955
-0.3090471625 -0.1045035869 0.5213385224 4290690748
-0.3085938990 -0.1037719250 0.5205739141 4290822595
-0.3086428940 -0.1032099202 0.5206565857 4287927703
-0.3091944158 -0.1028148234 0.5215869546 4290822075
-0.3092429936 -0.1022513658 0.5216689110 4291151040
-0.3087884188 -0.1015222967 0.5209020376 4290888101
-0.3093394041 -0.1011236608 0.5218315125 4287795830
-0.3088841736 -0.1003959030 0.5210635662 4284171008
-0.3094348013 -0.0999949053 0.5219924450 4284828933
-0.3099853396 -0.0995918065 0.5229212046 4285749760
-0.3100324869 -0.0990258679 0.5230007172 4283973376
-0.3105827570 -0.0986194983 0.5239289403 4286144512
-0.3106294572 -0.0980521217 0.5240077376 4286012928
-0.3111794293 -0.0976424813 0.5249355435 4287724299
-0.3122329116 -0.0973878279 0.5267126560 4289763882
-0.3127827644 -0.0969730839 0.5276401639 4290816560
-0.3133324981 -0.0965562388 0.5285675526 4292198213
-0.3138821125 -0.0961373076 0.5294947028 4290297019
-0.3144316077 -0.0957162753 0.5304216743 4288915366
-0.3204102814 -0.1506662518 0.5415218472 4289176480
-0.3214702308 -0.1505610049 0.5433132648 4289505447
-0.3180713952 -0.1483718902 0.5375689268 4289965998
-0.3166530430 -0.1471156478 0.5351718068 4289439402
-0.3152338266 -0.1458643228 0.5327731371 4288781472
-0.3128222227 -0.1441610157 0.5286973119 4288057488
-0.3143762052 -0.1442868263 0.5313237309 4286873214
-0.3144427240 -0.1437268853 0.5314361453 4286346870
-0.3125247061 -0.1422633231 0.5281945467 4287465351
-0.3120941520 -0.1414812803 0.5274668336 4286412663
-0.3121594489 -0.1409247071 0.5275772214 4287399558
-0.3117281199 -0.1401446164 0.5268482566 4286610042
-0.3117928505 -0.1395882368 0.5269576311 4286083698
-0.3118573427 -0.1390314996 0.5270666480 4286741628
-0.3114249408 -0.1382539272 0.5263357759 4287267972
-0.3114888668 -0.1376973838 0.5264438391 4288189074
-0.3110556602 -0.1369217783 0.5257117152 4288847004
-0.3111190200 -0.1363654584 0.5258188248 4288781724
-0.3106850684 -0.1355918348 0.5250853896 4288979103
-0.3102506697 -0.1348196566 0.5243511796 4288320660
-0.3103131354 -0.1342640966 0.5244567990 4288649625
-0.3098779917 -0.1334939301 0.5237213373 4288320923
-0.3099398911 -0.1329385787 0.5238259435 4288057751
-0.3090063632 -0.1319579184 0.5222482085 4288386714
-0.3095652759 -0.1316153109 0.5231928229 4288518300
-0.3091285825 -0.1308491528 0.5224547982 4288518300
-0.3091893792 -0.1302942783 0.5225574970 4288715679
-0.3092499077 -0.1297390759 0.5226597786 4288649886
-0.3088121116 -0.1289755255 0.5219199061 4288913058
-0.3088720739 -0.1284205616 0.5220212340 4288913058
-0.3089318275 -0.1278652847 0.5221222043 4288781472
-0.3089913130 -0.1273096800 0.5222227573 4288584347
-0.3090505600 -0.1267537624 0.5223228931 4288913312
-0.3091095984 -0.1261975169 0.5224226713 4288123796
-0.3091683686 -0.1256409585 0.5225220323 4288058003
-0.3087281585 -0.1248823330 0.5217780471 4288058003
-0.3087863922 -0.1243260428 0.5218764544 4289242277
-0.3083454370 -0.1235694811 0.5211311579 4289637035
-0.3084030747 -0.1230134591 0.5212286115 4289637035
-0.3084604740 -0.1224571317 0.5213255882 4289439656
-0.3080184162 -0.1217032373 0.5205785036 4289373863
-0.3080752492 -0.1211471856 0.5206745267 4289308070
-0.3081318438 -0.1205908284 0.5207701921 4289505449
-0.3081882000 -0.1200341657 0.5208654404 4289505449
-0.3082443178 -0.1194771975 0.5209602714 4289571242
-0.3078005314 -0.1187271923 0.5202102065 4289571242
-0.3078560829 -0.1181705222 0.5203040838 4289637035
-0.3079113662 -0.1176135466 0.5203976035 4289637035
-0.3079664409 -0.1170562804 0.5204906464 4289505449
-0.3080212474 -0.1164987087 0.5205832720 4289637035
-0.3080758452 -0.1159408465 0.5206755400 4289637035
-0.3081301749 -0.1153826788 0.5207673311 4289702828
-0.3076839447 -0.1146378219 0.5200132132 4289505449
-0.3077377081 -0.1140799820 0.5201041102 4289373609
-0.3077912331 -0.1135218441 0.5201945305 4289702574
-0.3078445196 -0.1129634231 0.5202845335 4289834160
-0.3078975379 -0.1124047041 0.5203741789 4289768367
-0.3079503179 -0.1118457019 0.5204634070 4289636781
-0.3085036576 -0.1114673689 0.5213986039 4289702574
-0.3090569377 -0.1110869274 0.5223336816 4289900723
-0.3086081743 -0.1103461087 0.5215752125 4290098102
-0.3086600602 -0.1097850576 0.5216629505 4290032309
-0.3087117076 -0.1092237234 0.5217502117 4290163895
-0.3082618415 -0.1084857062 0.5209898949 4290230201
-0.3083128929 -0.1079247221 0.5210762024 4290295994
-0.3083637059 -0.1073634624 0.5211620927 4290361533
-0.3084142804 -0.1068019196 0.5212475061 4290493119
-0.3084645867 -0.1062401086 0.5213325620 4290559425
-0.3085146546 -0.1056780145 0.5214171410 4290625218
-0.3085644543 -0.1051156521 0.5215013623 4290887868
-0.3086140454 -0.1045530215 0.5215851068 4290822075
-0.3086633384 -0.1039901152 0.5216684937 4290690752
-0.3087123930 -0.1034269407 0.5217514038 4288059032
-0.3087612092 -0.1028634980 0.5218338966 4290953663
-0.3088097870 -0.1022997946 0.5219159722 4291019456
-0.3088580966 -0.1017358229 0.5219976306 4291019681
-0.3089061379 -0.1011715829 0.5220788121 4287927410
-0.3089539409 -0.1006070822 0.5221596360 4286145280
-0.3090015054 -0.1000423208 0.5222399831 4287197966
-0.3095513284 -0.0996390507 0.5231692195 4287724804
-0.3095984459 -0.0990728512 0.5232488513 4287987976
-0.3101479709 -0.0986663103 0.5241776109 4289894944
-0.3106974065 -0.0982576683 0.5251062512 4290947632
-0.3107439280 -0.0976888537 0.5251848102 4291474742
-0.3112930655 -0.0972769409 0.5261129141 4291672121
-0.3123450875 -0.0970191658 0.5278909206 4291539765
-0.3128940761 -0.0966021419 0.5288187861 4292263488
-0.3134429753 -0.0961830169 0.5297464728 4289967288
-0.3188282549 -0.1514039338 0.5398614407 4288518803
-0.3199560344 -0.1507356018 0.5417711139 4287794316
-0.3210145235 -0.1506303251 0.5435634255 4287597452
-0.3191047907 -0.1491338760 0.5403297544 4288781726
-0.3196682036 -0.1487957835 0.5412837267 4288320923
-0.3167669475 -0.1468493938 0.5363711119 4288913060
-0.3153493404 -0.1455989331 0.5339707136 4289306787
-0.3129405677 -0.1438980252 0.5298920274 4289635752
-0.3120163083 -0.1428860128 0.5283269882 4289570729
-0.3120821118 -0.1423290223 0.5284384489 4289768108
-0.3116522431 -0.1415466517 0.5277105570 4288715420
-0.3112219274 -0.1407656968 0.5269818902 4288912799
-0.3112868369 -0.1402094215 0.5270918608 4287202181
-0.3113515377 -0.1396528035 0.5272014141 4286281079
-0.3109201193 -0.1388743520 0.5264708996 4285623149
-0.3114802539 -0.1385385245 0.5274193287 4285162598
-0.3110481501 -0.1377611607 0.5266876817 4285096805
-0.3106156290 -0.1369852275 0.5259553194 4284965219
-0.3106789589 -0.1364286691 0.5260625482 4285096805
-0.3102456927 -0.1356547177 0.5253288746 4285952114
-0.3098119497 -0.1348822117 0.5245944262 4285754735
-0.3098743856 -0.1343264133 0.5247001648 4286675837
-0.3094398975 -0.1335559040 0.5239644647 4287728784
-0.3095017672 -0.1330003291 0.5240692496 4287136647
-0.3085696399 -0.1320192367 0.5224908590 4287465612
-0.3091278374 -0.1316764802 0.5234360695 4287860370
-0.3086917996 -0.1309100091 0.5226977468 4288650140
-0.3082553744 -0.1301449835 0.5219587088 4288518554
-0.3083157837 -0.1295904368 0.5220609903 4288386968
-0.3083759546 -0.1290355772 0.5221629143 4288847519
-0.3084358871 -0.1284803748 0.5222644210 4288255382
-0.3084955812 -0.1279248595 0.5223655105 4288189589
-0.3085550368 -0.1273690313 0.5224661827 4288321175
-0.3086142838 -0.1268128604 0.5225664973 4288584347
-0.3086732626 -0.1262563914 0.5226663947 4288123796
-0.3082340658 -0.1254968494 0.5219227076 4288321175
-0.3082925081 -0.1249406338 0.5220215917 4288189589
-0.3078525364 -0.1241831630 0.5212766528 4288781726
-0.3079104125 -0.1236272156 0.5213746428 4289044387
-0.3079680204 -0.1230709553 0.5214721560 4289373352
-0.3075269759 -0.1223161370 0.5207253695 4289373350
-0.3075840175 -0.1217601597 0.5208219886 4289504936
-0.3076408207 -0.1212038696 0.5209181905 4289833901
-0.3076974154 -0.1206472740 0.5210139751 4289833901
-0.3072549403 -0.1198957339 0.5202647448 4289570988
-0.3073109388 -0.1193394288 0.5203595757 4289768367
-0.3073666990 -0.1187828183 0.5204539895 4289702574
-0.3074222207 -0.1182259098 0.5205479860 4289768367
-0.3074775040 -0.1176686957 0.5206415653 4289768621
-0.3075325191 -0.1171111837 0.5207347870 4289702828
-0.3075873256 -0.1165533736 0.5208275914 4289637035
-0.3071424663 -0.1158069596 0.5200743079 4289768621
-0.3071966767 -0.1152494624 0.5201660991 4289834160
-0.3072506487 -0.1146916747 0.5202574730 4289899953
-0.3073043823 -0.1141335890 0.5203484893 4289702828
-0.3073578775 -0.1135752052 0.5204390287 4289966000
-0.3074111342 -0.1130165383 0.5205292106 4289833901
-0.3074641228 -0.1124575809 0.5206189752 4289833901
-0.3075168729 -0.1118983328 0.5207083225 4289768621
-0.3075694144 -0.1113387942 0.5207971931 4289768621
-0.3076216578 -0.1107789725 0.5208857059 4289966516
-0.3081739843 -0.1103980914 0.5218209028 4290032309
-0.3082258403 -0.1098367870 0.5219087005 4290163895
-0.3082774580 -0.1092752069 0.5219961405 4290229688
-0.3083288074 -0.1087133437 0.5220831037 4290361274
-0.3078792989 -0.1079756245 0.5213219523 4290427067
-0.3079300821 -0.1074141189 0.5214079618 4290492860
-0.3074798584 -0.1066785827 0.5206455588 4290690239
-0.3075300455 -0.1061174348 0.5207306147 4290756291
-0.3075800240 -0.1055560112 0.5208151937 4290756291
-0.3076297343 -0.1049943119 0.5208993554 4290953409
-0.3076791763 -0.1044323444 0.5209830999 4290624444
-0.3077284098 -0.1038701087 0.5210664272 4290427069
-0.3077773452 -0.1033075973 0.5211493373 4288124314
-0.3078260720 -0.1027448252 0.5212318301 4291150274
-0.3078745306 -0.1021817774 0.5213139057 4291084481
-0.3084242344 -0.1017839760 0.5222446918 4291216290
-0.3084722757 -0.1012194827 0.5223259926 4289176707
-0.3085200489 -0.1006547362 0.5224069357 4289962277
-0.3085675836 -0.1000897214 0.5224874020 4291014965
-0.3091166615 -0.0996862724 0.5234171748 4291475244
-0.3091637790 -0.0991198197 0.5234969258 4291935795
-0.3097125888 -0.0987130925 0.5244262218 4291605811
-0.3102612793 -0.0983042717 0.5253552794 4291737397
-0.3108099103 -0.0978933573 0.5262842178 4291934776
-0.3108561933 -0.0973231122 0.5263626575 4291671604
-0.3119067848 -0.0970652252 0.5281415582 4291474227
-0.3124550581 -0.0966480151 0.5290699601 4292461122
-0.3130032122 -0.0962287113 0.5299981236 4290296000
-0.3178116679 -0.1518045813 0.5391540527 4289110942
-0.3178812265 -0.1512386501 0.5392720699 4289045149
-0.3194317222 -0.1513742208 0.5419024229 4288189587
-0.3195011318 -0.1508049071 0.5420202017 4288123794
-0.3210521340 -0.1509318203 0.5446513891 4287202694
-0.3176631927 -0.1487398744 0.5389021635 4287334280
-0.3192138970 -0.1488642842 0.5415329337 4286084476
-0.3163168430 -0.1469170302 0.5366181731 4286018683
-0.3149013221 -0.1456660181 0.5342167616 4286610046
-0.3139793873 -0.1446477324 0.5326527953 4287004804
-0.3125622571 -0.1434057355 0.5302486420 4288123285
-0.3121335804 -0.1426207125 0.5295214653 4289439145
-0.3117044866 -0.1418371201 0.5287934542 4289899694
-0.3117698133 -0.1412792057 0.5289043188 4289833901
-0.3113399446 -0.1404975653 0.5281750560 4289175971
-0.3109096289 -0.1397173405 0.5274450183 4289373350
-0.3104788661 -0.1389385611 0.5267142653 4289372580
-0.3105429709 -0.1383818984 0.5268230438 4289240994
-0.3101114631 -0.1376050860 0.5260909796 4288518041
-0.3096795082 -0.1368297189 0.5253582001 4287596939
-0.3097427189 -0.1362738013 0.5254654288 4286478458
-0.3093099892 -0.1355004162 0.5247313380 4286215286
-0.3093726337 -0.1349447221 0.5248376131 4285688172
-0.3089391291 -0.1341733336 0.5241022110 4286082930
-0.3085052371 -0.1334033757 0.5233660936 4286478971
-0.3086284697 -0.1322932243 0.5235751867 4285031525
-0.3081934750 -0.1315258443 0.5228372216 4284965732
-0.3082544208 -0.1309708208 0.5229405761 4285228902
-0.3078186512 -0.1302054673 0.5222012997 4285821039
-0.3078790307 -0.1296506971 0.5223037601 4287794829
-0.3079391718 -0.1290955991 0.5224058032 4288386966
-0.3079990745 -0.1285401583 0.5225074291 4288058001
-0.3080587387 -0.1279844195 0.5226086378 4287860622
-0.3081181943 -0.1274283379 0.5227094889 4288255380
-0.3081773818 -0.1268719435 0.5228099227 4287531657
-0.3082363605 -0.1263152212 0.5229099393 4287596937
-0.3082950711 -0.1257582009 0.5230095983 4288649625
-0.3078562319 -0.1249989048 0.5222650766 4288386453
-0.3074169457 -0.1242410988 0.5215198398 4288254867
-0.3074747622 -0.1236849129 0.5216179490 4288123283
-0.3075323701 -0.1231284216 0.5217156410 4287728525
-0.3075897098 -0.1225716099 0.5218129754 4287596937
-0.3071490228 -0.1218170524 0.5210653543 4287531144
-0.3072057962 -0.1212605238 0.5211616755 4287531144
-0.3072623312 -0.1207036898 0.5212575793 4287662730
-0.3073186576 -0.1201465502 0.5213531256 4288057490
-0.3068765402 -0.1193952784 0.5206030607 4288320662
-0.3069322705 -0.1188384295 0.5206975937 4288254869
-0.3069877625 -0.1182812750 0.5207917690 4288518041
-0.3070430160 -0.1177238226 0.5208854675 4288650140
-0.3070980012 -0.1171660647 0.5209788084 4289044898
-0.3071527779 -0.1166080162 0.5210717320 4288913312
-0.3067086041 -0.1158612743 0.5203181505 4289242277
-0.3067627847 -0.1153035313 0.5204101205 4289242023
-0.3068167269 -0.1147454977 0.5205016136 4289176230
-0.3068704605 -0.1141871661 0.5205927491 4289439656
-0.3069239259 -0.1136285439 0.5206834674 4289571242
-0.3069771230 -0.1130696312 0.5207737684 4289768619
-0.3070301116 -0.1125104278 0.5208635926 4289834412
-0.3070828319 -0.1119509339 0.5209530592 4290031793
-0.3071353436 -0.1113911569 0.5210421085 4290229172
-0.3071875870 -0.1108310893 0.5211307406 4290163895
-0.3072395623 -0.1102707386 0.5212189555 4290163895
-0.3072913289 -0.1097101048 0.5213067532 4290163895
-0.3078425825 -0.1093266606 0.5222419500 4290295481
-0.3078939021 -0.1087645516 0.5223290324 4290361274
-0.3079450130 -0.1082021594 0.5224156976 4290361274
-0.3074958622 -0.1074647456 0.5216537118 4290427067
-0.3075463772 -0.1069027111 0.5217394233 4290558653
-0.3070964813 -0.1061674878 0.5209761858 4290624705
-0.3071464300 -0.1056058183 0.5210609436 4290690498
-0.3071961105 -0.1050438732 0.5211452246 4290557885
-0.3072455525 -0.1044816524 0.5212290883 4290755264
-0.3072947264 -0.1039191633 0.5213125348 4290822077
-0.3073436618 -0.1033564061 0.5213955641 4288190357
-0.3073923588 -0.1027933806 0.5214781761 4291084479
-0.3079414964 -0.1023965850 0.5224097967 4291281858
-0.3079897761 -0.1018321067 0.5224916339 4290887327
-0.3080377877 -0.1012673676 0.5225731134 4289505674
-0.3085865080 -0.1008661017 0.5235039592 4291409713
-0.3086340725 -0.1002999172 0.5235846639 4291343920
-0.3086814284 -0.0997334719 0.5236650109 4291343658
-0.3092296720 -0.0993277505 0.5245950818 4291738416
-0.3092765808 -0.0987598598 0.5246746540 4291671353
-0.3098245561 -0.0983508602 0.5256042480 4291539767
-0.3103724420 -0.0979397595 0.5265337229 4291803190
-0.3109202087 -0.0975265652 0.5274629593 4291934776
-0.3119694293 -0.0972676501 0.5292429328 4291408434
-0.3125170469 -0.0968493298 0.5301719308 4292066364
-0.3130645454 -0.0964289159 0.5311008096 4289770428
-0.3205249906 -0.1515737474 0.5447835922 4288650138
-0.3171419203 -0.1493750215 0.5390334725 4288124310
-0.3157983720 -0.1475494802 0.5367499590 4288979881
-0.3158661127 -0.1469846368 0.5368650556 4288519330
-0.3149463236 -0.1459618509 0.5353017449 4287794318
-0.3135321140 -0.1447143555 0.5328980684 4286741630
-0.3121170700 -0.1434718072 0.5304929614 4287334280
-0.3116890490 -0.1426864564 0.5297655463 4288715933
-0.3112606406 -0.1419025362 0.5290372968 4289834414
-0.3113259375 -0.1413443834 0.5291482806 4290031793
-0.3108967245 -0.1405624002 0.5284188390 4289965487
-0.3104670942 -0.1397818625 0.5276885629 4289899694
-0.3105314970 -0.1392244250 0.5277979970 4289833901
-0.3101010621 -0.1384458542 0.5270664692 4290162866
-0.3101648986 -0.1378886253 0.5271749496 4289833899
-0.3097337186 -0.1371120214 0.5264421105 4289899692
-0.3093021214 -0.1363368630 0.5257085562 4289636520
-0.3093650639 -0.1357803792 0.5258154869 4289833899
-0.3094277680 -0.1352235675 0.5259220600 4289504164
-0.3089950681 -0.1344509423 0.5251866579 4289372578
-0.3085619211 -0.1336797774 0.5244504213 4288847517
-0.3081283569 -0.1329100579 0.5237135291 4287663243
-0.3081898391 -0.1323545724 0.5238180161 4287334278
-0.3082510829 -0.1317987591 0.5239220858 4286742141
-0.3078164160 -0.1310316175 0.5231832862 4286281590
-0.3078770936 -0.1304760426 0.5232864618 4285623660
-0.3079375327 -0.1299201250 0.5233891606 4287070593
-0.3079977334 -0.1293638945 0.5234915018 4286478456
-0.3075616360 -0.1285999119 0.5227503181 4284899424
-0.3076213002 -0.1280439347 0.5228517056 4284965217
-0.3076806962 -0.1274876297 0.5229526758 4286017905
-0.3077398837 -0.1269309968 0.5230532289 4285623147
-0.3077988029 -0.1263740361 0.5231534243 4286939007
-0.3078575134 -0.1258167624 0.5232532024 4287728523
-0.3074193299 -0.1250571460 0.5225084424 4286675835
-0.3069807291 -0.1242990121 0.5217629671 4287333765
-0.3070385456 -0.1237425879 0.5218611956 4288320660
-0.3070960939 -0.1231858507 0.5219590068 4288386453
-0.3071534336 -0.1226288080 0.5220564604 4288386707
-0.3067134023 -0.1218739226 0.5213086009 4288518293
-0.3067701459 -0.1213171557 0.5214050412 4288715672
-0.3068266809 -0.1207600757 0.5215011239 4288386707
-0.3068829477 -0.1202026978 0.5215967298 4288320660
-0.3064415157 -0.1194510907 0.5208464861 4288649625
-0.3064972162 -0.1188940033 0.5209411383 4288583834
-0.3065526783 -0.1183366105 0.5210354328 4288583834
-0.3066079021 -0.1177789196 0.5211292505 4288518552
-0.3066628873 -0.1172209233 0.5212227106 4288518552
-0.3067176342 -0.1166626289 0.5213157535 4287860622
-0.3062741160 -0.1159155518 0.5205619335 4288452759
-0.3063282967 -0.1153575704 0.5206540227 4288781726
-0.3063822091 -0.1147992909 0.5207456946 4288386968
-0.3064358830 -0.1142407209 0.5208369493 4288058001
-0.3064893484 -0.1136818528 0.5209277272 4287794829
-0.3065425456 -0.1131227016 0.5210181475 4288058001
-0.3065954745 -0.1125632524 0.5211081505 4287794829
-0.3066481948 -0.1120035127 0.5211977363 4287663243
-0.3067006469 -0.1114434898 0.5212869048 4287926415
-0.3067528605 -0.1108831763 0.5213756561 4287729554
-0.3068048358 -0.1103225797 0.5214639902 4288058519
-0.3068565726 -0.1097617000 0.5215519071 4288321691
-0.3074070811 -0.1093780994 0.5224876404 4288650656
-0.3074584007 -0.1088157371 0.5225748420 4288716449
-0.3075094819 -0.1082530990 0.5226616263 4288716449
-0.3070610166 -0.1075153574 0.5218994021 4288782242
-0.3071115017 -0.1069530696 0.5219852328 4288782242
-0.3071617484 -0.1063905135 0.5220705867 4288782501
-0.3067122102 -0.1056555957 0.5213065743 4288979880
-0.3067618608 -0.1050934047 0.5213909745 4289176230
-0.3068112731 -0.1045309380 0.5214749575 4289505195
-0.3068604469 -0.1039681956 0.5215585232 4290296241
-0.3069093525 -0.1034051850 0.5216416717 4288256658
-0.3069580197 -0.1028419137 0.5217243433 4291413695
-0.3075064421 -0.1024449468 0.5226565003 4291347902
-0.3075546920 -0.1018802151 0.5227385163 4290295190
-0.3081028461 -0.1014799625 0.5236701965 4289768846
-0.3081506789 -0.1009137854 0.5237514377 4291146541
-0.3086985350 -0.1005102471 0.5246826410 4291278127
-0.3087459505 -0.0999426320 0.5247632265 4291672372
-0.3092935383 -0.0995358080 0.5256939530 4291277614
-0.3093405068 -0.0989667475 0.5257737637 4291736897
-0.3098878264 -0.0985566452 0.5267040133 4291605311
-0.3104350567 -0.0981444418 0.5276340842 4291803192
-0.3104813695 -0.0975727662 0.5277128816 4291737399
-0.3110283017 -0.0971572846 0.5286424756 4291540020
-0.3120760620 -0.0968952402 0.5304232836 4291276848
-0.3126228452 -0.0964746326 0.5313526392 4288849326
-0.3179583251 -0.1518475562 0.5414432883 4288255631
-0.3190819025 -0.1511767209 0.5433565378 4287992208
-0.3201361597 -0.1510705203 0.5451518297 4288519072
-0.3167570233 -0.1488766074 0.5393975973 4288387486
-0.3183034658 -0.1490011960 0.5420309305 4288057749
-0.3139362633 -0.1463628858 0.5345941782 4288320921
-0.3130175173 -0.1453423202 0.5330296755 4288848035
-0.3116050959 -0.1440969408 0.5306245089 4288782242
-0.3111780882 -0.1433107257 0.5298973918 4288979621
-0.3102574050 -0.1422996968 0.5283295512 4289045414
-0.3108161688 -0.1419679075 0.5292810202 4289768367
-0.3108814359 -0.1414095163 0.5293921828 4289965746
-0.3104529083 -0.1406272203 0.5286624432 4289834414
-0.3100239336 -0.1398463249 0.5279319882 4290031793
-0.3100883067 -0.1392886788 0.5280416012 4289965487
-0.3096585572 -0.1385097653 0.5273097754 4289702315
-0.3097223639 -0.1379522979 0.5274184346 4289833901
-0.3092918694 -0.1371753663 0.5266853571 4289899694
-0.3088609278 -0.1363998801 0.5259515047 4290097073
-0.3089238405 -0.1358431727 0.5260586739 4289833901
-0.3089865148 -0.1352861226 0.5261653662 4289899692
-0.3090489507 -0.1347287297 0.5262717009 4289965485
-0.3081220090 -0.1337416619 0.5246932507 4289702313
-0.3081837893 -0.1331853867 0.5247984529 4290097071
-0.3077505529 -0.1324158907 0.5240607262 4290097073
-0.3078117669 -0.1318598539 0.5241649747 4289702315
-0.3078727722 -0.1313034743 0.5242688060 4289768108
-0.3074384332 -0.1305365562 0.5235291719 4289504936
-0.3074988425 -0.1299804151 0.5236320496 4289833899
-0.3075590432 -0.1294239610 0.5237345695 4289241762
-0.3076189756 -0.1288671643 0.5238366127 4288057488
-0.3071832359 -0.1281034201 0.5230945945 4287596937
-0.3072426021 -0.1275468767 0.5231957436 4288057488
-0.3073017597 -0.1269900054 0.5232964158 4287531144
-0.3073606491 -0.1264328212 0.5233967304 4287465351
-0.3074193299 -0.1258753091 0.5234966874 4286610042
-0.3069818318 -0.1251153648 0.5227516890 4285557608
-0.3070399463 -0.1245581210 0.5228505731 4285097057
-0.3066016734 -0.1238002330 0.5221043229 4286018416
-0.3066592216 -0.1232432649 0.5222022533 4286018416
-0.3067165017 -0.1226859763 0.5222998261 4284702556
-0.3067735732 -0.1221283749 0.5223969817 4284702556
-0.3068303764 -0.1215704679 0.5224937797 4286347381
-0.3063903749 -0.1208164394 0.5217444897 4287597448
-0.3064466417 -0.1202588156 0.5218402743 4286478967
-0.3065026402 -0.1197008863 0.5219356418 4286478967
-0.3060615659 -0.1189495549 0.5211845636 4287005313
-0.3061169982 -0.1183919236 0.5212789178 4287202692
-0.3061721921 -0.1178339869 0.5213729143 4287860622
-0.3062271476 -0.1172757521 0.5214664936 4288452759
-0.3062818646 -0.1167172119 0.5215597153 4286873727
-0.3063363433 -0.1161583811 0.5216524601 4287729036
-0.3063905537 -0.1155992448 0.5217447877 4288584345
-0.3059470654 -0.1148530692 0.5209895968 4288847517
-0.3060007393 -0.1142942533 0.5210809708 4288123285
-0.3060541451 -0.1137351394 0.5211719275 4288715422
-0.3061073124 -0.1131757423 0.5212624669 4288847265
-0.3061602414 -0.1126160473 0.5213525891 4288518300
-0.3062129319 -0.1120560691 0.5214422941 4288320921
-0.3062653542 -0.1114958003 0.5215315819 4288781472
-0.3063175678 -0.1109352410 0.5216204524 4287926935
-0.3063695133 -0.1103743985 0.5217089653 4288650658
-0.3064212203 -0.1098132730 0.5217970014 4289111209
-0.3069709837 -0.1094295084 0.5227332115 4289308588
-0.3070222735 -0.1088669002 0.5228205323 4289045673
-0.3070733249 -0.1083040088 0.5229074359 4289177259
-0.3066255450 -0.1075659394 0.5221449733 4289506224
-0.3066760004 -0.1070034057 0.5222308636 4289769396
-0.3067262173 -0.1064405963 0.5223163962 4290361533
-0.3062773645 -0.1057053581 0.5215520263 4290624705
-0.3063270152 -0.1051429138 0.5216366053 4290361787
-0.3063763976 -0.1045801938 0.5217207074 4290624959
-0.3064255416 -0.1040172055 0.5218043923 4290428089
-0.3069735765 -0.1036224440 0.5227376223 4288322713
-0.3070223033 -0.1030579954 0.5228205919 4290428866
-0.3070707619 -0.1024932861 0.5229030848 4290757831
-0.3076183796 -0.1020940393 0.5238355994 4290821784
-0.3076664209 -0.1015278772 0.5239174366 4289703303
-0.3077142239 -0.1009614468 0.5239987969 4291278640
-0.3082613647 -0.1005577371 0.5249305367 4291476019
-0.3083087206 -0.0999898612 0.5250111818 4291866414
-0.3088555932 -0.0995828584 0.5259424448 4291998000
-0.3094023764 -0.0991737619 0.5268735290 4291736619
-0.3094491363 -0.0986032635 0.5269531608 4291802412
-0.3099956214 -0.0981908813 0.5278837681 4291473714
-0.3100419343 -0.0976189449 0.5279626250 4291671093
-0.3105881512 -0.0972032845 0.5288927555 4292062780
-0.3116344512 -0.0969411284 0.5306744576 4290417955
-0.3121804893 -0.0965203345 0.5316043496 4288390564
-0.3195381761 -0.1522854865 0.5451646447 4286281590
-0.3191161156 -0.1514794379 0.5444445610 4286084211
-0.3201690614 -0.1513723284 0.5462409854 4287794577
-0.3167949319 -0.1491765529 0.5404843688 4289242023
-0.3188313246 -0.1495311111 0.5439586639 4289439145
-0.3154549301 -0.1473496109 0.5381981730 4289110180
-0.3140457571 -0.1460960805 0.5357940197 4288715679
-0.3126357198 -0.1448474824 0.5333883166 4288518300
-0.3117172718 -0.1438310742 0.5318213701 4288386714
-0.3112907410 -0.1430441737 0.5310936570 4288123542
-0.3098784387 -0.1418077946 0.5286841393 4288649886
-0.3099435568 -0.1412500590 0.5287952423 4288781472
-0.3100084662 -0.1406919956 0.5289059877 4289176484
-0.3095801771 -0.1399107724 0.5281752348 4289242277
-0.3096444905 -0.1393528879 0.5282850266 4289373350
-0.3092154562 -0.1385736465 0.5275529623 4289504936
-0.3092792034 -0.1380159557 0.5276618004 4289702315
-0.3088493943 -0.1372386813 0.5269284844 4289570729
-0.3084191084 -0.1364628524 0.5261943936 4290031280
-0.3079884350 -0.1356884688 0.5254595876 4290097073
-0.3085446358 -0.1353486329 0.5264085531 4289833899
-0.3081132770 -0.1345753521 0.5256726146 4289833899
-0.3076815009 -0.1338035166 0.5249359012 4289768106
-0.3073107004 -0.1324771941 0.5243032575 4289833901
-0.3073718846 -0.1319209039 0.5244076848 4289833901
-0.3074328303 -0.1313643008 0.5245116353 4290360245
-0.3069991767 -0.1305970550 0.5237718225 4290294452
-0.3070595562 -0.1300406903 0.5238748193 4290491829
-0.3071197271 -0.1294839829 0.5239774585 4290294450
-0.3071796298 -0.1289269477 0.5240796804 4290162864
-0.3072393239 -0.1283695996 0.5241814852 4289899692
-0.3072987497 -0.1278119236 0.5242829323 4290031278
-0.3068630397 -0.1270489991 0.5235395432 4289702313
-0.3069218993 -0.1264915764 0.5236399770 4289767336
-0.3069805503 -0.1259338260 0.5237400532 4289306785
-0.3070389628 -0.1253757626 0.5238396525 4289109406
-0.3066017926 -0.1246160641 0.5230938196 4288977820
-0.3061642349 -0.1238578558 0.5223472714 4288847258
-0.3062217236 -0.1233006418 0.5224453807 4288584086
-0.3062790036 -0.1227431148 0.5225431323 4288123281
-0.3063360155 -0.1221852824 0.5226404071 4288189074
-0.3063928187 -0.1216271371 0.5227373242 4288254867
-0.3059535027 -0.1208727732 0.5219877958 4288386453
-0.3065056801 -0.1205099151 0.5229298472 4287399558
-0.3060656786 -0.1197567433 0.5221791863 4286675835
-0.3061214387 -0.1191982701 0.5222743154 4286939520
-0.3056806922 -0.1184472069 0.5215223432 4287334278
-0.3057358563 -0.1178890318 0.5216164589 4286413176
-0.3057908118 -0.1173305511 0.5217102170 4287465864
-0.3058454990 -0.1167717725 0.5218034983 4286742141
-0.3058999181 -0.1162126958 0.5218963623 4285492074
-0.3059541285 -0.1156533211 0.5219888687 4286018420
-0.3060081005 -0.1150936559 0.5220809579 4287400073
-0.3055649698 -0.1143477559 0.5213248730 4285952116
-0.3056183457 -0.1137884036 0.5214160085 4286281081
