VERSION 0.7
FIELDS x y z rgba
SIZE 4 4 4 4
TYPE F F F U
COUNT 1 1 1 1
WIDTH 920
HEIGHT 1
VIEWPOINT 0.0 0.0 0.0 1.0 0.0 0.0 0.0
POINTS 920
DATA ascii
-0.2966422439 -0.1322675198 0.5281180739 4286085689
-0.2967020273 -0.1317072809 0.5282244682 4286940998
-0.2962829173 -0.1309351772 0.5274783373 4287268925
-0.2963421345 -0.1303751618 0.5275837779 4287663683
-0.2964011431 -0.1298148185 0.5276888013 4287008913
-0.2964598835 -0.1292541325 0.5277934074 4285561467
-0.2965184152 -0.1286931187 0.5278976560 4283388262
-0.2965767086 -0.1281317770 0.5280014277 4282138195
-0.2966347933 -0.1275701076 0.5281047821 4283387719
-0.2966926098 -0.1270080954 0.5282077789 4285690474
-0.2967502177 -0.1264457703 0.5283102989 4287137866
-0.2968075871 -0.1258831024 0.5284124613 4287269452
-0.2968647182 -0.1253201216 0.5285141468 4287202871
-0.2974013090 -0.1249583587 0.5294694304 4286413355
-0.2974580526 -0.1243938133 0.5295704603 4287793730
-0.2975145876 -0.1238289475 0.5296710730 4288385867
-0.2980508208 -0.1234625727 0.5306257606 4288189250
-0.2981069386 -0.1228961498 0.5307257175 4288320836
-0.2981628478 -0.1223294139 0.5308252573 4284571462
-0.2982185185 -0.1217623577 0.5309243202 4281544984
-0.2982739508 -0.1211949810 0.5310230255 4282730072
-0.2983291149 -0.1206272915 0.5311212540 4286019722
-0.2988645732 -0.1202526167 0.5320745111 4285099909
-0.2989193499 -0.1196833849 0.5321720839 4283060326
-0.2989739180 -0.1191138402 0.5322691798 4283981440
-0.2990282476 -0.1185439825 0.5323659182 4283455096
-0.2990823090 -0.1179738194 0.5324621797 4282205546
-0.2991361320 -0.1174033433 0.5325580239 4283258234
-0.2991897464 -0.1168325618 0.5326533914 4283258218
-0.2992430925 -0.1162614673 0.5327484012 4284376699
-0.2992962003 -0.1156900749 0.5328429341 4287074204
-0.2998303175 -0.1153034568 0.5337938666 4285363586
-0.2998830378 -0.1147305369 0.5338876843 4284111711
-0.2999354899 -0.1141573191 0.5339810848 4284111711
-0.3004692197 -0.1137661114 0.5349313021 4286150524
-0.3005212843 -0.1131913736 0.5350239873 4289703346
-0.3010547757 -0.1127968132 0.5359737873 4289966778
-0.3011064231 -0.1122205555 0.5360657573 4290032571
-0.3016396761 -0.1118226275 0.5370150805 4289836480
-0.3016909063 -0.1112448573 0.5371062756 4290099652
-0.3022239208 -0.1108435765 0.5380552411 4289442241
-0.3027568161 -0.1104401574 0.5390039682 4285099903
-0.3028074801 -0.1098596603 0.5390941501 4284704627
-0.3033401370 -0.1094528884 0.5400424600 4286612624
-0.3038727045 -0.1090439707 0.5409905910 4286480275
-0.3044051528 -0.1086329147 0.5419385433 4287335584
-0.3049375415 -0.1082197204 0.5428863764 4284309106
-0.3054698110 -0.1078043804 0.5438339710 4286085517
-0.3060020208 -0.1073869094 0.5447814465 4288651696
-0.3065341115 -0.1069672927 0.5457287431 4290493900
-0.3070660830 -0.1065455377 0.5466758609 4291546839
-0.3075979650 -0.1061216369 0.5476227403 4290888909
-0.3081297576 -0.1056956053 0.5485695004 4290362046
-0.3086614311 -0.1052674279 0.5495160818 4290822597
-0.3096761107 -0.1050009206 0.5513225198 4290230458
-0.3102076352 -0.1045675427 0.5522688031 4289046184
-0.3107390702 -0.1041320190 0.5532149076 4287335818
-0.3112703860 -0.1036943495 0.5541608334 4287862162
-0.3118015826 -0.1032545492 0.5551065207 4287796622
-0.3128161430 -0.1029717624 0.5569127798 4287994001
-0.3133471906 -0.1025267467 0.5578582287 4287797916
-0.2958294749 -0.1896266788 0.5277145505 4288783012
-0.2954444587 -0.1887943149 0.5270277858 4288454047
-0.2950590253 -0.1879632175 0.5263401866 4288519840
-0.2932721674 -0.1862436533 0.5231527090 4288125082
-0.2938196957 -0.1860090196 0.5241293907 4288519840
-0.2924982905 -0.1845927536 0.5217722058 4287993496
-0.2916433215 -0.1834751517 0.5202471018 4287862162
-0.2912551463 -0.1826536953 0.5195546746 4287664783
-0.2908665538 -0.1818335056 0.5188614726 4287861903
-0.2905559242 -0.1804875582 0.5183073282 4289046177
-0.2906341255 -0.1799601167 0.5184468627 4289967279
-0.2907121778 -0.1794322431 0.5185860395 4290098611
-0.2912582755 -0.1791920364 0.5195602179 4289440681
-0.3091550469 -0.1712078154 0.5514853001 4287531908
-0.3083613515 -0.1695459336 0.5500695109 4287465856
-0.3079638481 -0.1687169969 0.5493603945 4287400063
-0.3070934415 -0.1676314920 0.5478077531 4287399809
-0.3052772284 -0.1660350412 0.5445678830 4287399809
-0.3040053844 -0.1641382426 0.5422991514 4287399809
-0.3036051095 -0.1633203775 0.5415850878 4287465856
-0.3027313352 -0.1622503549 0.5400264263 4287268477
-0.3013837934 -0.1609307826 0.5376226306 4287465856
-0.3019283414 -0.1606231332 0.5385940075 4287531649
-0.3010528088 -0.1595606953 0.5370321870 4287465602
-0.3006501198 -0.1587513685 0.5363138318 4287531395
-0.3007907569 -0.1576333046 0.5365647078 4287597188
-0.2999131382 -0.1565789580 0.5349991918 4287465856
-0.2999826968 -0.1560207158 0.5351232886 4287597442
-0.2995780408 -0.1552164853 0.5344014168 4287729028
-0.2991729081 -0.1544136405 0.5336787105 4288057993
-0.2992416024 -0.1538559943 0.5338012576 4287663235
-0.2993100882 -0.1532979757 0.5339233875 4287531649
-0.2989038825 -0.1524975151 0.5331988335 4287465856
-0.2989718020 -0.1519396156 0.5333200097 4287531649
-0.2985648513 -0.1511410475 0.5325940251 4287531649
-0.2981574535 -0.1503438652 0.5318673253 4287465856
-0.2982245088 -0.1497866064 0.5319869518 4287531649
-0.2982913554 -0.1492289752 0.5321061611 4287597442
-0.2978828847 -0.1484342217 0.5313774943 4287531649
-0.2974739671 -0.1476408690 0.5306481123 4287531649
-0.2975399494 -0.1470838934 0.5307657719 4287597442
-0.2971302867 -0.1462924778 0.5300350189 4287663235
-0.2971957028 -0.1457356513 0.5301517248 4287860614
-0.2972609103 -0.1451784670 0.5302680135 4288189579
-0.2973258793 -0.1446209103 0.5303839445 4289045673
-0.2973906398 -0.1440629810 0.5304994583 4289835189
-0.2969792485 -0.1432750821 0.5297656059 4288849072
-0.2970434725 -0.1427173316 0.5298801064 4285756801
-0.2971074581 -0.1421592087 0.5299942493 4285561226
-0.2971712053 -0.1416007280 0.5301080346 4282008404
-0.2972347438 -0.1410418898 0.5302213430 4283520867
-0.2968216240 -0.1402575672 0.5294843912 4283849832
-0.2968846262 -0.1396989077 0.5295967460 4282206035
-0.2964707315 -0.1389165521 0.5288584828 4280232245
-0.2965331674 -0.1383580863 0.5289698839 4282138438
-0.2965953946 -0.1377992779 0.5290808082 4285888639
-0.2966573834 -0.1372400969 0.5291914344 4286939701
-0.2967191339 -0.1366805881 0.5293015838 4283847430
-0.2963035405 -0.1359018683 0.5285602212 4281939467
-0.2963647544 -0.1353425533 0.5286694169 4283781671
-0.2964257300 -0.1347828954 0.5287781954 4284375613
-0.2964864671 -0.1342228800 0.5288865566 4284244027
-0.2965469956 -0.1336625367 0.5289945006 4282662679
-0.2961296737 -0.1328875124 0.5282500386 4280820480
-0.2961896360 -0.1323273778 0.5283570290 4286017316
-0.2962493896 -0.1317669004 0.5284636021 4287267383
-0.2963089049 -0.1312060952 0.5285697579 4286939958
-0.2958901525 -0.1304342300 0.5278227925 4287729474
-0.2959491313 -0.1298736632 0.5279279947 4286150781
-0.2960078418 -0.1293127388 0.5280327201 4283979612
-0.2960663438 -0.1287515014 0.5281370878 4282271051
-0.2961246073 -0.1281899214 0.5282410383 4281020984
-0.2966611087 -0.1278342009 0.5291980505 4283454798
-0.2967190146 -0.1272710562 0.5293013453 4286349690
-0.2967766523 -0.1267075837 0.5294042230 4287796055
-0.2968340814 -0.1261437833 0.5295066237 4286677574
-0.2968912721 -0.1255796403 0.5296086669 4283979804
-0.2974271774 -0.1252168268 0.5305646062 4282137600
-0.2974840105 -0.1246511415 0.5306659937 4282663690
-0.2975405753 -0.1240851283 0.5307669044 4284176929
-0.2975969017 -0.1235187948 0.5308673978 4287138895
-0.2981323302 -0.1231501251 0.5318225026 4287862618
-0.2981882989 -0.1225822344 0.5319222808 4285165903
-0.2982439995 -0.1220140234 0.5320217013 4281349909
-0.2982994914 -0.1214454994 0.5321206450 4280888900
-0.2983547151 -0.1208766550 0.5322192311 4283389034
-0.2988894880 -0.1205009148 0.5331731439 4282665572
-0.2984645069 -0.1197380275 0.5324150324 4283586674
-0.2985190153 -0.1191682369 0.5325123072 4286349216
-0.2985732853 -0.1185981408 0.5326091051 4284835977
-0.2986273468 -0.1180277318 0.5327054858 4284440453
-0.2986811399 -0.1174570173 0.5328015089 4286809001
-0.2987346947 -0.1168859899 0.5328970551 4285624717
-0.2992683947 -0.1165016666 0.5338490605 4284703615
-0.2993215322 -0.1159291118 0.5339438915 4286282896
-0.2993744612 -0.1153562516 0.5340382457 4283914348
-0.2994271219 -0.1147830859 0.5341322422 4282467151
-0.2999602556 -0.1143929437 0.5350832343 4285362043
-0.3000125289 -0.1138182580 0.5351765156 4288717736
-0.3005454242 -0.1134247482 0.5361270905 4289573045
-0.3005972803 -0.1128485426 0.5362195969 4289902265
-0.3011299372 -0.1124516726 0.5371697545 4289704886
-0.3011814058 -0.1118739545 0.5372615457 4289573300
-0.3017137945 -0.1114737242 0.5382112861 4289968058
-0.3017648458 -0.1108944863 0.5383023024 4287467671
-0.3022969961 -0.1104908958 0.5392516255 4284506986
-0.3028290570 -0.1100851670 0.5402007103 4284835700
-0.3033610284 -0.1096772924 0.5411496758 4287730592
-0.3038929105 -0.1092672795 0.5420984626 4285624196
-0.3044247031 -0.1088551283 0.5430471301 4289111225
-0.3054381609 -0.1086121425 0.5448549390 4286611859
-0.3054879904 -0.1080243960 0.5449438691 4283848553
-0.3060194850 -0.1076058149 0.5458920002 4286546318
-0.3065508902 -0.1071850955 0.5468399525 4290164933
-0.3070822060 -0.1067622304 0.5477876663 4291019976
-0.3076134026 -0.1063372269 0.5487352610 4290559425
-0.3081444800 -0.1059100851 0.5496826768 4290757054
-0.3086754680 -0.1054807976 0.5506298542 4290559675
-0.3092063665 -0.1050493717 0.5515768528 4289705136
-0.3097371459 -0.1046158001 0.5525236726 4287336588
-0.3102678061 -0.1041800901 0.5534703135 4287402127
-0.3112809658 -0.1039033309 0.5552776456 4285625716
-0.3118114769 -0.1034624055 0.5562239885 4285164651
-0.3128246367 -0.1031785682 0.5580313206 4286546304
-0.3133549690 -0.1027324274 0.5589773655 4287862940
-0.2953706682 -0.1897084415 0.5279421210 4289375149
-0.2945203185 -0.1885773987 0.5264222026 4289111977
-0.2959999740 -0.1889369786 0.5290669203 4289243563
-0.2946826220 -0.1875108778 0.5267122984 4288848805
-0.2952298820 -0.1872728020 0.5276904702 4288848805
-0.2934445739 -0.1855575889 0.5244994164 4288585633
-0.2930580378 -0.1847311705 0.5238085389 4288256922
-0.2922042608 -0.1836127043 0.5222825408 4288059543
-0.2913498282 -0.1824971884 0.5207552910 4287993235
-0.2904946804 -0.1813846380 0.5192267895 4288124821
-0.2910403013 -0.1811473519 0.5202020407 4288782751
-0.2906514406 -0.1803281009 0.5195069909 4289703853
-0.2907295227 -0.1797991991 0.5196465850 4290099124
-0.2908074558 -0.1792698652 0.5197858810 4289901745
-0.2908851802 -0.1787400991 0.5199248195 4289177770
-0.3071140349 -0.1716349572 0.5489320755 4287729287
-0.3095453084 -0.1723789871 0.5532776713 4287663494
-0.3091499209 -0.1715448499 0.5525709987 4287597442
-0.3106396198 -0.1717545688 0.5552336574 4287465856
-0.3093008101 -0.1704000980 0.5528406501 4287465602
-0.3084327281 -0.1693093181 0.5512890220 4287465602
-0.3075639307 -0.1682216227 0.5497362018 4287465602
-0.3066945076 -0.1671370119 0.5481821895 4287399809
-0.3048804700 -0.1655429751 0.5449398160 4287334016
-0.3058977127 -0.1654878259 0.5467580557 4287334016
-0.3040821552 -0.1639017314 0.5435128808 4287400063
-0.3032100201 -0.1628295034 0.5419541001 4287400063
-0.3028096557 -0.1620131433 0.5412384272 4287400063
-0.3009912968 -0.1604425162 0.5379883051 4287465856
-0.3020075560 -0.1603844762 0.5398048162 4287399809
-0.3006604016 -0.1590719670 0.5373969078 4287465602
-0.3002580404 -0.1582628042 0.5366777182 4287597188
-0.2993822992 -0.1572066545 0.5351124406 4287597188
-0.3003981411 -0.1571435183 0.5369281769 4287597442
-0.2995215356 -0.1560901105 0.5353612900 4287729028
-0.2991175354 -0.1552855670 0.5346392393 4287729028
-0.2987131178 -0.1544823796 0.5339163542 4287992200
-0.2987817526 -0.1539245248 0.5340390205 4287597442
-0.2988501787 -0.1533662975 0.5341613293 4287531649
-0.2984446585 -0.1525654942 0.5334365368 4287465856
-0.2989863753 -0.1522486657 0.5344048142 4287597442
-0.2981062829 -0.1512084901 0.5328317285 4287597442
-0.2981736362 -0.1506505013 0.5329520702 4287597442
-0.2977665961 -0.1498535126 0.5322245359 4287531649
-0.2978333831 -0.1492956579 0.5323439240 4287531649
-0.2974255979 -0.1485005766 0.5316150784 4287531649
-0.2970173955 -0.1477069110 0.5308854580 4287597442
-0.2975578904 -0.1473847777 0.5318515301 4287729028
-0.2966743410 -0.1463579684 0.5302722454 4287729028
-0.2967397273 -0.1458009183 0.5303891301 4287729028
-0.2968048751 -0.1452435106 0.5305055976 4287860614
-0.2968698144 -0.1446857303 0.5306216478 4288387734
-0.2969345450 -0.1441275775 0.5307373405 4288650906
-0.2969990373 -0.1435690671 0.5308526158 4288321951
-0.2965880036 -0.1427813768 0.5301179290 4287532435
-0.2966519594 -0.1422230452 0.5302322507 4284901503
-0.2967156768 -0.1416643411 0.5303461552 4281282888
-0.2967791557 -0.1411052793 0.5304596424 4285163899
-0.2968424559 -0.1405458599 0.5305727124 4285887622
-0.2964296937 -0.1397617459 0.5298349857 4284507762
-0.2964923978 -0.1392025054 0.5299471021 4282402386
-0.2960788906 -0.1384203732 0.5292080045 4283257170
-0.2961410582 -0.1378613263 0.5293191075 4285757304
-0.2962030172 -0.1373019367 0.5294298530 4286085670
-0.2962647378 -0.1367421895 0.5295401812 4283256576
-0.2963262498 -0.1361820996 0.5296500921 4281940748
-0.2959109843 -0.1354036033 0.5289078951 4284375089
-0.2959719300 -0.1348437220 0.5290167928 4286349665
-0.2960326672 -0.1342834830 0.5291253328 4285954907
-0.2960931361 -0.1337229013 0.5292334557 4284965445
-0.2961533964 -0.1331619918 0.5293411613 4281675795
-0.2957364321 -0.1323871911 0.5285958648 4285688611
-0.2957961261 -0.1318264902 0.5287025571 4287530815
-0.2958556116 -0.1312654614 0.5288088918 4287400527
-0.2959148586 -0.1307040751 0.5289147496 4286808390
-0.2959738672 -0.1301423609 0.5290202498 4284374630
-0.2960326672 -0.1295803189 0.5291253328 4282729805
-0.2960911989 -0.1290179342 0.5292299986 4281941585
-0.2961495221 -0.1284552217 0.5293342471 4281086276
-0.2962076068 -0.1278921664 0.5294380188 4283125317
-0.2962654531 -0.1273287833 0.5295414329 4286875518
-0.2963230908 -0.1267650872 0.5296444297 4287203408
-0.2963804901 -0.1262010485 0.5297470093 4285163825
-0.2964376211 -0.1256366819 0.5298491716 4281939968
-0.2969727814 -0.1252737194 0.5308057070 4281150464
-0.2970295548 -0.1247077957 0.5309071541 4280624128
-0.2970860898 -0.1241415441 0.5310082436 4280821504
-0.2971423864 -0.1235749722 0.5311088562 4285230128
-0.2976770401 -0.1232061610 0.5320644975 4288125020
-0.2977329791 -0.1226380318 0.5321644545 4286020700
-0.2977886498 -0.1220695898 0.5322639942 4281809948
-0.2978440821 -0.1215008274 0.5323630571 4280625476
-0.2978993058 -0.1209317446 0.5324617624 4283257196
-0.2984333038 -0.1205558553 0.5334162116 4281086287
-0.2984881103 -0.1199852228 0.5335142016 4283718007
-0.2980634868 -0.1192226037 0.5327551961 4285625495
-0.2985970378 -0.1188430265 0.5337088704 4284112256
-0.2986511290 -0.1182714626 0.5338055491 4284572037
-0.2982255220 -0.1175106615 0.5330448151 4287203757
-0.2982790470 -0.1169393957 0.5331404805 4284506234
-0.2988119721 -0.1165549085 0.5340930223 4283256167
-0.2988650799 -0.1159821153 0.5341879725 4282993246
-0.2989179790 -0.1154090092 0.5342825055 4282861660
-0.2994505167 -0.1150199324 0.5352343321 4285756801
-0.2995029986 -0.1144452989 0.5353281498 4289112244
-0.3000352681 -0.1140528545 0.5362795591 4289902010
-0.3000873625 -0.1134767011 0.5363726616 4289638838
-0.3006193936 -0.1130808890 0.5373236537 4289639093
-0.3006710708 -0.1125032157 0.5374159813 4289902265
-0.3012028635 -0.1121040359 0.5383664966 4289836472
-0.3012541234 -0.1115248501 0.5384581089 4289704886
-0.3017856777 -0.1111223102 0.5394082069 4285361525
-0.3023171425 -0.1107176319 0.5403581858 4284572009
-0.3023678064 -0.1101357043 0.5404487252 4284572013
-0.3028990328 -0.1097276658 0.5413982272 4288256421
-0.3034301400 -0.1093174815 0.5423475504 4284439922
-0.3039611876 -0.1089051515 0.5432966948 4287992744
-0.3049731255 -0.1086620763 0.5451054573 4289112247
-0.3050229549 -0.1080740690 0.5451944470 4286546320
-0.3055536747 -0.1076553166 0.5461431146 4287533212
-0.3060843050 -0.1072344184 0.5470915437 4290033346
-0.3066148460 -0.1068113744 0.5480398536 4290362046
-0.3071452975 -0.1063861921 0.5489879251 4290296253
-0.3076756299 -0.1059588641 0.5499358177 4290362296
-0.3082058430 -0.1055293977 0.5508835912 4290428089
-0.3087359667 -0.1050977856 0.5518310666 4287007623
-0.3097476959 -0.1048270613 0.5536394715 4285954935
-0.3102776706 -0.1043902338 0.5545867085 4285757556
-0.3108075559 -0.1039512604 0.5555338264 4285494384
-0.3118192554 -0.1036703810 0.5573421121 4285690993
-0.3123489618 -0.1032261923 0.5582888722 4286283130
-0.3133606315 -0.1029382348 0.5600971580 4288257698
-0.2925043106 -0.1888232082 0.5238587856 4288783014
-0.2930506468 -0.1885927469 0.5248371959 4289506735
-0.2954581976 -0.1895541996 0.5291489959 4289177770
-0.2955397666 -0.1890184432 0.5292950869 4289309356
-0.2965522110 -0.1890758872 0.5311083794 4289046184
-0.2952366471 -0.1876496226 0.5287522674 4288717219
-0.2939201295 -0.1862279922 0.5263944268 4288651426
-0.2930685878 -0.1851052940 0.5248693824 4288585633
-0.2926824093 -0.1842789650 0.5241777301 4288454047
-0.2936943173 -0.1843316853 0.5259900093 4288191129
-0.2919087112 -0.1826301217 0.5227921009 4288125336
-0.2910547554 -0.1815166920 0.5212627053 4288585887
-0.2906666994 -0.1806962788 0.5205677152 4289441196
-0.2902781665 -0.1798771471 0.5198718905 4290033333
-0.2903560400 -0.1793476343 0.5200113654 4290230712
-0.2904337049 -0.1788176745 0.5201504230 4289704114
-0.3095373213 -0.1727174073 0.5543639064 4287597701
-0.3086721897 -0.1716204584 0.5528145432 4287597442
-0.3096889853 -0.1715695560 0.5546355844 4287465856
-0.3092937469 -0.1707351357 0.5539277196 4287531395
-0.3084271550 -0.1696430445 0.5523757339 4287465602
-0.3075599074 -0.1685540378 0.5508224964 4287399811
-0.3066920042 -0.1674681008 0.5492681265 4287334018
-0.3048809469 -0.1658725142 0.5460246205 4287334016
-0.3058968186 -0.1658165008 0.5478439927 4287268223
-0.3036127687 -0.1639742553 0.5437533855 4287334016
-0.3027420640 -0.1629015803 0.5421940088 4287399809
-0.3023423553 -0.1620848924 0.5414781570 4287400063
-0.3009986579 -0.1607655883 0.5390716195 4287465856
-0.3015416265 -0.1604555696 0.5400441289 4287465856
-0.3006686270 -0.1593927294 0.5384805799 4287531649
-0.3002670407 -0.1585823596 0.5377613902 4287597442
-0.2993928194 -0.1575248986 0.5361956954 4287597442
-0.2999349535 -0.1572133154 0.5371666551 4287663235
-0.2990597486 -0.1561594754 0.5355991721 4287794821
-0.2986564338 -0.1553545892 0.5348768830 4287926153
-0.2987253666 -0.1547960192 0.5350003242 4288123532
-0.2983213067 -0.1539930254 0.5342766643 4287728774
-0.2983896732 -0.1534345597 0.5343991518 4287662981
-0.2979848385 -0.1526334435 0.5336741209 4287531395
-0.2985257804 -0.1523164958 0.5346428752 4287597188
-0.2976471186 -0.1512758881 0.5330692530 4287531395
-0.2977144122 -0.1507176757 0.5331897736 4287531395
-0.2973080575 -0.1499203742 0.5324620008 4287662981
-0.2973748147 -0.1493622959 0.5325815678 4287597188
-0.2969677150 -0.1485668868 0.5318524837 4287531395
-0.2965601981 -0.1477728933 0.5311226249 4287597188
-0.2970999181 -0.1474506557 0.5320892334 4287728774
-0.2966917157 -0.1466576904 0.5313581824 4287794567
-0.2962831259 -0.1458661556 0.5306264162 4287728774
-0.2963482440 -0.1453085095 0.5307430029 4287597188
-0.2964131236 -0.1447505057 0.5308592319 4288057739
-0.2964777946 -0.1441921443 0.5309751034 4288123532
-0.2965422571 -0.1436334103 0.5310904980 4287860622
-0.2961319089 -0.1428453922 0.5303556323 4287794829
-0.2961958349 -0.1422868371 0.5304700732 4285361027
-0.2962595224 -0.1417279094 0.5305840969 4281610826
-0.2963229716 -0.1411686242 0.5306977630 4282662739
-0.2963862121 -0.1406089813 0.5308110118 4283847013
-0.2964492142 -0.1400489807 0.5309238434 4282993495
-0.2960368097 -0.1392650753 0.5301852822 4281348670
-0.2956239879 -0.1384826154 0.5294459462 4283191379
-0.2956861258 -0.1379233450 0.5295572281 4285954685
-0.2957480252 -0.1373637319 0.5296680927 4285494047
-0.2958097160 -0.1368037611 0.5297785997 4283059712
-0.2958711684 -0.1362434328 0.5298886299 4281875479
-0.2959324121 -0.1356827617 0.5299983025 4283520304
-0.2955175340 -0.1349045038 0.5292552710 4285165893
-0.2955782115 -0.1343440413 0.5293639302 4285692237
-0.2956386507 -0.1337832361 0.5294722319 4284571197
-0.2956988811 -0.1332220882 0.5295800567 4281347340
-0.2957588732 -0.1326605976 0.5296875238 4285887270
-0.2953422666 -0.1318860352 0.5289413929 4287663681
-0.2954017222 -0.1313247681 0.5290478468 4287203408
-0.2954609096 -0.1307631731 0.5291538835 4285821755
-0.2955198884 -0.1302012205 0.5292595029 4283321946
-0.2955786288 -0.1296389401 0.5293647051 4282335051
-0.2956371605 -0.1290763319 0.5294695497 4281480783
-0.2956954539 -0.1285133809 0.5295739174 4280888646
-0.2957534790 -0.1279501021 0.5296778679 4282664255
-0.2958112955 -0.1273864955 0.5297814012 4287269765
-0.2958689034 -0.1268225461 0.5298845768 4286347847
-0.2964035571 -0.1264619231 0.5308420658 4282860818
-0.2964607477 -0.1258964092 0.5309445262 4282860820
-0.2965177298 -0.1253305823 0.5310465693 4284439852
-0.2970520556 -0.1249653250 0.5320035219 4283781663
-0.2966309786 -0.1241979301 0.5312494040 4281544704
-0.2971650064 -0.1238302067 0.5322058201 4283782684
-0.2972211242 -0.1232621670 0.5323063135 4287664471
-0.2972770333 -0.1226937994 0.5324064493 4286086495
-0.2978107035 -0.1223214567 0.5333622098 4282270501
-0.2978661954 -0.1217515394 0.5334616303 4281348948
-0.2979214489 -0.1211813092 0.5335605741 4283651703
-0.2979764938 -0.1206107512 0.5336591005 4282205031
-0.2980312705 -0.1200398877 0.5337572098 4281744480
-0.2980858088 -0.1194687039 0.5338549018 4282862448
-0.2981401086 -0.1188972071 0.5339521766 4282204518
-0.2981941700 -0.1183253974 0.5340489745 4282730085
-0.2982479930 -0.1177532822 0.5341454148 4283716980
-0.2983015776 -0.1171808541 0.5342413187 4283650923
-0.2983549237 -0.1166081205 0.5343368649 4284308853
-0.2988869846 -0.1162213311 0.5352898240 4285230206
-0.2989399433 -0.1156470701 0.5353845954 4286546066
-0.2989926338 -0.1150724962 0.5354789495 4288849072
-0.2995243073 -0.1146811098 0.5364311934 4289901760
-0.2995766103 -0.1141050160 0.5365248322 4289836217
-0.3001080453 -0.1137102619 0.5374766588 4289967803
-0.3001599312 -0.1131326407 0.5375695229 4289968056
-0.3006911278 -0.1127345189 0.5385209322 4289836470
-0.3007425964 -0.1121553779 0.5386130810 4289901493
-0.3012735546 -0.1117538959 0.5395640135 4289769907
-0.3013246059 -0.1111732349 0.5396554470 4283651161
-0.3018553257 -0.1107683852 0.5406059027 4284309091
-0.3023859262 -0.1103613898 0.5415561795 4283585114
-0.3024364114 -0.1097780019 0.5416465998 4287795866
-0.3029667437 -0.1093676463 0.5425963998 4285427585
-0.3034970164 -0.1089551449 0.5435460806 4284045932
-0.3045074642 -0.1087119728 0.5453557372 4287204248
-0.3045572639 -0.1081237122 0.5454449058 4289112245
-0.3050872087 -0.1077047810 0.5463940501 4289967805
-0.3056170940 -0.1072837040 0.5473430157 4290559942
-0.3061468601 -0.1068604887 0.5482918024 4290493630
-0.3066765368 -0.1064351201 0.5492404699 4290427837
-0.3072061241 -0.1060076132 0.5501888394 4290822847
-0.3077355623 -0.1055779681 0.5511370897 4289835952
-0.3087458313 -0.1053102091 0.5529464483 4287138439
-0.3092751503 -0.1048753336 0.5538944006 4285559407
-0.3102854490 -0.1046004966 0.5557037592 4284967268
-0.3108146191 -0.1041604057 0.5566514730 4288125332
-0.3118248880 -0.1038784757 0.5584608316 4288915103
-0.3123539090 -0.1034331694 0.5594082475 4286678141
-0.2944512963 -0.1898718178 0.5283967853 4289638321
-0.2963910997 -0.1905317158 0.5318777561 4289375149
-0.2960083187 -0.1896954477 0.5311908722 4289309610
-0.2956250608 -0.1888604164 0.5305030942 4289112231
-0.2943114936 -0.1874344349 0.5281459093 4288783266
-0.2934620380 -0.1863083392 0.5266215205 4288783266
-0.2921466827 -0.1848907769 0.5242611170 4288585633
-0.2945530117 -0.1858263761 0.5285792947 4288519840
-0.2913749516 -0.1832404733 0.5228762627 4288322461
-0.2905228436 -0.1821253449 0.5213471055 4288256668
-0.2901357710 -0.1813042015 0.5206524730 4288585887
-0.2897482514 -0.1804843247 0.5199570656 4289178024
-0.2902922034 -0.1802443713 0.5209332108 4289835952
-0.2903701365 -0.1797138005 0.5210730433 4290164917
-0.2899816632 -0.1788952053 0.5203759670 4290098872
-0.2900590897 -0.1783646494 0.5205149055 4289046184
-0.3083445132 -0.1705503911 0.5533283353 4287531395
-0.3074792325 -0.1694587320 0.5517755747 4287465602
-0.3066132665 -0.1683701426 0.5502215624 4287399809
-0.3057466447 -0.1672846526 0.5486664176 4287334016
-0.3048793375 -0.1662022471 0.5471100211 4287399809
-0.3035407662 -0.1648673266 0.5447079539 4287334016
-0.3026720285 -0.1637919992 0.5431489944 4287334016
-0.3018026352 -0.1627197713 0.5415888429 4287399809
-0.3014034927 -0.1619036198 0.5408725739 4287400063
-0.3005328774 -0.1608367413 0.5393102169 4287531649
-0.3001327515 -0.1600241959 0.5385922194 4287531649
-0.2997322083 -0.1592130214 0.5378734469 4287531649
-0.2998026013 -0.1586526483 0.5379997492 4287597442
-0.2994012833 -0.1578433216 0.5372796059 4287597442
-0.2989995182 -0.1570353657 0.5365586281 4287597440
-0.2985973358 -0.1562287807 0.5358369350 4287729026
-0.2981947362 -0.1554235816 0.5351144075 4287860362
-0.2982636094 -0.1548647881 0.5352380276 4288123534
-0.2983322740 -0.1543056220 0.5353612304 4287728776
-0.2984007001 -0.1537460536 0.5354840755 4287728776
-0.2979966700 -0.1529437304 0.5347589850 4287728776
-0.2975922227 -0.1521427929 0.5340331793 4287728776
-0.2971873283 -0.1513432562 0.5333065987 4287728776
-0.2972545624 -0.1507848203 0.5334272981 4287728776
-0.2968489230 -0.1499871910 0.5326993465 4287662983
-0.2969156206 -0.1494288892 0.5328190327 4287662983
-0.2965092063 -0.1486331671 0.5320897102 4287662983
-0.2965753675 -0.1480750144 0.5322084427 4287662983
-0.2966413200 -0.1475164890 0.5323268175 4287662983
-0.2962338328 -0.1467231959 0.5315955281 4287728776
-0.2962992191 -0.1461648196 0.5317128897 4287662983
-0.2963643968 -0.1456060708 0.5318298936 4287597190
-0.2964293659 -0.1450469643 0.5319464207 4287860362
-0.2960204780 -0.1442566663 0.5312126875 4287926155
-0.2960848808 -0.1436977088 0.5313282609 4287795848
-0.2961490750 -0.1431383938 0.5314434171 4287466883
-0.2962130308 -0.1425787061 0.5315582156 4285953929
-0.2962767780 -0.1420186609 0.5316725969 4282730072
-0.2958661616 -0.1412319243 0.5309357643 4281610816
-0.2959293425 -0.1406720579 0.5310491323 4282268746
-0.2959923148 -0.1401118338 0.5311621428 4282467151
-0.2955806255 -0.1393276006 0.5304233432 4281085498
-0.2956430316 -0.1387675703 0.5305353403 4282862163
-0.2952305675 -0.1379853338 0.5297952294 4285757055
-0.2952924371 -0.1374254823 0.5299062133 4286151214
-0.2953540981 -0.1368652880 0.5300168395 4283651080
-0.2954155207 -0.1363047361 0.5301270485 4281348367
-0.2954767048 -0.1357438415 0.5302368402 4281611539
-0.2955376506 -0.1351825893 0.5303462744 4282665735
-0.2955983877 -0.1346209943 0.5304552317 4282928907
-0.2951835692 -0.1338435262 0.5297108293 4282728722
-0.2952437401 -0.1332821548 0.5298188329 4283584031
-0.2953037024 -0.1327204257 0.5299264193 4287465794
-0.2953634262 -0.1321583688 0.5300335884 4287531587
-0.2954229116 -0.1315959692 0.5301403403 4286479446
-0.2954821885 -0.1310332268 0.5302467346 4284571449
-0.2955412269 -0.1304701418 0.5303526521 4282598239
-0.2956000268 -0.1299067289 0.5304581523 4282400860
-0.2951824963 -0.1291346848 0.5297089219 4281612630
-0.2952407300 -0.1285715103 0.5298134089 4281020493
-0.2952987552 -0.1280079931 0.5299175382 4282006834
-0.2953565419 -0.1274441481 0.5300212502 4286480758
-0.2954140902 -0.1268799752 0.5301244855 4284835111
-0.2954714000 -0.1263154745 0.5302273631 4281940224
-0.2960051298 -0.1259534657 0.5311851501 4284834357
-0.2960620821 -0.1253874004 0.5312873721 4286939733
-0.2961187959 -0.1248209998 0.5313891172 4286084164
-0.2966521978 -0.1244543716 0.5323463082 4282662928
-0.2967085242 -0.1238864139 0.5324473977 4283124241
-0.2967646122 -0.1233181357 0.5325480103 4287927130
-0.2968204618 -0.1227495298 0.5326482654 4286152288
-0.2973533571 -0.1223770380 0.5336045623 4282599466
-0.2974088192 -0.1218068823 0.5337041020 4281612379
-0.2974640727 -0.1212364137 0.5338032246 4282796653
-0.2975190580 -0.1206656173 0.5339018703 4282929269
-0.2975738049 -0.1200945079 0.5340001583 4281350237
-0.2976283133 -0.1195230857 0.5340979695 4284375685
-0.2976825833 -0.1189513505 0.5341953635 4285559959
-0.2982144952 -0.1185693219 0.5351499319 4285756814
-0.2977903783 -0.1178069487 0.5343888402 4285822607
-0.2978439331 -0.1172342822 0.5344849229 4287006617
-0.2978972495 -0.1166613027 0.5345805883 4289046200
-0.2984285653 -0.1162743568 0.5355340242 4289507003
-0.2984814644 -0.1156998500 0.5356289148 4289507003
-0.2990125418 -0.1153095290 0.5365819931 4289638842
-0.2990650237 -0.1147334874 0.5366761684 4289967807
-0.2995958924 -0.1143397987 0.5376287699 4290099644
-0.2996479869 -0.1137622297 0.5377222896 4289902265
-0.3001785874 -0.1133651733 0.5386744738 4290230458
-0.3002302647 -0.1127860770 0.5387672186 4290493630
-0.3007606268 -0.1123856530 0.5397189260 4290033079
-0.3008118868 -0.1118050367 0.5398109555 4289243563
-0.3013419807 -0.1114012450 0.5407621861 4284637542
-0.3018720150 -0.1109953001 0.5417133570 4286413953
-0.3019226789 -0.1104119495 0.5418043137 4284242784
-0.3024524450 -0.1100026444 0.5427549481 4284834921
-0.3029821217 -0.1095911860 0.5437054634 4287467420
-0.3030322194 -0.1090051085 0.5437953472 4284177770
-0.3040411770 -0.1087618396 0.5456058979 4284177769
-0.3045705557 -0.1083439514 0.5465559363 4287993763
-0.3050998449 -0.1079239100 0.5475057364 4290888905
-0.3056290150 -0.1075017303 0.5484553576 4291217870
-0.3061581254 -0.1070774049 0.5494047999 4290756802
-0.3066870868 -0.1066509336 0.5503540635 4290493630
-0.3072159886 -0.1062223092 0.5513031483 4290625470
-0.3077447414 -0.1057915464 0.5522520542 4288256922
-0.3087535799 -0.1055227444 0.5540624261 4288388504
-0.3092822134 -0.1050867587 0.5550110340 4286283128
-0.3102910817 -0.1048108786 0.5568214655 4286875520
-0.3108195662 -0.1043696627 0.5577698350 4289770412
-0.3118284047 -0.1040866897 0.5595802069 4289967530
-0.3123567104 -0.1036402583 0.5605282784 4287730568
-0.2963913977 -0.1909124106 0.5329405069 4289835700
-0.2964733541 -0.1903729141 0.5330879092 4289441196
-0.2956269681 -0.1892388016 0.5315659642 4289243817
-0.2947798371 -0.1881076247 0.5300427675 4288980645
-0.2934677005 -0.1866840124 0.5276834369 4288914852
-0.2972638309 -0.1885049641 0.5345092416 4288585633
-0.2922343612 -0.1847317815 0.5254657269 4288519840
-0.2913844585 -0.1836124063 0.5239375830 4288388254
-0.2900690436 -0.1822040081 0.5215722919 4288322461
-0.2901476026 -0.1816736907 0.5217135549 4288454301
-0.2897608876 -0.1808526516 0.5210182071 4288849059
-0.2893736959 -0.1800328940 0.5203220248 4289572780
-0.2894514501 -0.1795029938 0.5204618573 4290099124
-0.2895290256 -0.1789726764 0.5206013322 4290099126
-0.2900720239 -0.1787288189 0.5215776563 4289441196
-0.3106053770 -0.1727645546 0.5584986210 4287400320
-0.3092733324 -0.1714057773 0.5561034679 4287597188
-0.3084098101 -0.1703110337 0.5545507669 4287465602
-0.3080151379 -0.1694777310 0.5538411140 4287399809
-0.3066807091 -0.1681308150 0.5514417291 4287465602
-0.3058151603 -0.1670453399 0.5498853922 4287400063
-0.3044790924 -0.1657072455 0.5474829674 4287400063
-0.3036120832 -0.1646288335 0.5459240079 4287400063
-0.3027444482 -0.1635535359 0.5443639159 4287400063
-0.3014059067 -0.1622282565 0.5419570804 4287465856
-0.3010071218 -0.1614122689 0.5412400365 4287597442
-0.3006079197 -0.1605976373 0.5405222178 4287531647
-0.3002082705 -0.1597843617 0.5398036242 4287465854
-0.2993375361 -0.1587228924 0.5382379293 4287663233
-0.2994076610 -0.1581619233 0.5383640528 4287597440
-0.2990067005 -0.1573527604 0.5376430750 4287531647
-0.2986053228 -0.1565449685 0.5369213820 4287663233
-0.2986745834 -0.1559845805 0.5370458961 4287991948
-0.2982724309 -0.1551786661 0.5363227725 4288189327
-0.2978698313 -0.1543741226 0.5355989337 4287728776
-0.2979382575 -0.1538143456 0.5357218981 4287794569
-0.2975349128 -0.1530116946 0.5349966288 4287728776
-0.2976027429 -0.1524520367 0.5351186395 4287794569
-0.2971986532 -0.1516512781 0.5343920588 4287794569
-0.2967941165 -0.1508519202 0.5336646438 4287860362
-0.2968611121 -0.1502928883 0.5337851048 4287728776
-0.2964558005 -0.1494954377 0.5330563188 4287794569
-0.2965222597 -0.1489365548 0.5331758261 4287728776
-0.2961162031 -0.1481410265 0.5324457288 4287662983
-0.2961821258 -0.1475822777 0.5325642228 4287662983
-0.2957753241 -0.1467886716 0.5318327546 4287662983
-0.2958406806 -0.1462300718 0.5319502354 4287728776
-0.2959057987 -0.1456710994 0.5320673585 4287662983
-0.2959707081 -0.1451117545 0.5321841240 4288056971
-0.2960354090 -0.1445520520 0.5323004127 4288122764
-0.2956268787 -0.1437619627 0.5315658450 4287861639
-0.2956910431 -0.1432024240 0.5316811800 4287598467
-0.2957549393 -0.1426425129 0.5317960978 4285625728
-0.2958186567 -0.1420822442 0.5319106579 4283191387
-0.2954087257 -0.1412951797 0.5311735868 4284966516
-0.2954718769 -0.1407350898 0.5312871337 4285756032
-0.2955347896 -0.1401746422 0.5314002633 4285033591
-0.2951237857 -0.1393900961 0.5306612253 4282270285
-0.2951861620 -0.1388298273 0.5307734013 4282532428
-0.2952483296 -0.1382692158 0.5308851600 4285295734
-0.2948362529 -0.1374872029 0.5301442146 4286873904
-0.2948978543 -0.1369267702 0.5302549601 4285229079
-0.2949592173 -0.1363659948 0.5303653479 4282795017
-0.2950203717 -0.1358048767 0.5304752588 4282334466
-0.2950812876 -0.1352434009 0.5305848122 4282334464
-0.2951419950 -0.1346815825 0.5306939483 4283255566
-0.2952024639 -0.1341194063 0.5308026671 4284833068
-0.2947880030 -0.1333421767 0.5300574303 4287201616
-0.2948479056 -0.1327802241 0.5301651955 4287530832
-0.2949075997 -0.1322179437 0.5302724838 4286214972
-0.2949670553 -0.1316553056 0.5303794146 4284900928
-0.2950262725 -0.1310923249 0.5304859281 4283256103
-0.2950852811 -0.1305290163 0.5305919647 4283914358
-0.2951440513 -0.1299653649 0.5306976438 4283848565
-0.2947272062 -0.1291930079 0.5299481750 4282468442
-0.2947854102 -0.1286295950 0.5300528407 4281218375
-0.2953189611 -0.1282724142 0.5310121775 4281940794
-0.2953767776 -0.1277074218 0.5311161280 4286151546
-0.2954343855 -0.1271421164 0.5312197208 4284112166
-0.2954917550 -0.1265764683 0.5313228965 4281743618
-0.2955489159 -0.1260104924 0.5314256549 4285229376
-0.2956058085 -0.1254441887 0.5315279365 4286084685
-0.2961385846 -0.1250786483 0.5324859619 4284965943
-0.2961951196 -0.1245107725 0.5325875878 4281281536
-0.2962513864 -0.1239425838 0.5326887965 4283256089
-0.2967838347 -0.1235724166 0.5336461663 4288058978
-0.2968397439 -0.1230026633 0.5337466598 4286020450
-0.2968954146 -0.1224325895 0.5338467956 4282401835
-0.2969508469 -0.1218621954 0.5339464545 4282796655
-0.2974827588 -0.1214861721 0.5349029303 4284967824
-0.2975378036 -0.1209142208 0.5350018740 4284443021
-0.2975926101 -0.1203419566 0.5351004004 4282732403
-0.2976471782 -0.1197693795 0.5351985097 4286284193
-0.2977015078 -0.1191964895 0.5352962017 4286284193
-0.2977555692 -0.1186232790 0.5353934169 4285165443
-0.2978094220 -0.1180497631 0.5354902744 4285428615
-0.2978630066 -0.1174759343 0.5355865955 4286743696
-0.2979163826 -0.1169017926 0.5356825590 4289375416
-0.2979694903 -0.1163273454 0.5357780457 4289507256
-0.2984999418 -0.1159380972 0.5367318988 4289573049
-0.2985526621 -0.1153621152 0.5368266702 4290033598
-0.2990829051 -0.1149694920 0.5377801061 4290165184
-0.2991352081 -0.1143919826 0.5378741622 4290164667
-0.2996652126 -0.1139959767 0.5388271213 4290427839
-0.2997170985 -0.1134169400 0.5389204621 4290164665
-0.3002468646 -0.1130175665 0.5398730040 4290559423
-0.3002983332 -0.1124370098 0.5399655700 4290295994
-0.3008278310 -0.1120342687 0.5409176946 4289703857
-0.3008789122 -0.1114521846 0.5410094857 4288914341
-0.3014081717 -0.1110460758 0.5419611335 4290559166
-0.3019373119 -0.1106378138 0.5429126024 4287861653
-0.3024663925 -0.1102274060 0.5438639522 4284572003
-0.3029953837 -0.1098148525 0.5448151231 4288388521
-0.3035242558 -0.1094001532 0.5457661152 4289375416
-0.3040530384 -0.1089833081 0.5467169285 4288256419
-0.3045817316 -0.1085643098 0.5476675630 4290098623
-0.3051103354 -0.1081431657 0.5486180186 4291546321
-0.3056388497 -0.1077198833 0.5495682955 4291743700
-0.3061672449 -0.1072944403 0.5505183935 4290691011
-0.3066955209 -0.1068668589 0.5514683127 4290691011
-0.3072237074 -0.1064371318 0.5524180532 4290033333
-0.3077518046 -0.1060052514 0.5533676147 4285493616
-0.3087592125 -0.1057354137 0.5551790595 4285230183
-0.3092871606 -0.1052983105 0.5561283231 4286217078
-0.3102945685 -0.1050213799 0.5579397678 4289440932
-0.3108223677 -0.1045790464 0.5588887930 4289440932
-0.3118297756 -0.1042950228 0.5607002378 4289441184
-0.3123574257 -0.1038474664 0.5616489649 4288191117
-0.3133648038 -0.1035563424 0.5634603500 4287862940
-0.2965535223 -0.1902117878 0.5342990756 4289046954
-0.2961716950 -0.1893739998 0.5336111188 4288980645
-0.2943985462 -0.1876509190 0.5304164886 4288914852
-0.2954066992 -0.1877021641 0.5322328210 4288717473
-0.2936319113 -0.1859866679 0.5290352106 4288585887
-0.2927839160 -0.1848634481 0.5275074244 4288323229
-0.2914711237 -0.1834510863 0.5251421332 4288257436
-0.2906216383 -0.1823346466 0.5236116052 4288322715
-0.2902358472 -0.1815115958 0.5229165554 4288520094
-0.2893850803 -0.1804002523 0.5213837624 4289243815
-0.2899275422 -0.1801580340 0.5223610997 4290033331
-0.2895405591 -0.1793379486 0.5216638446 4290230712
-0.2891531289 -0.1785191596 0.5209658146 4289967540
-0.2896952629 -0.1782739460 0.5219425559 4289112231
-0.3115266860 -0.1736237407 0.5612761378 4287400322
-0.3101971149 -0.1722617745 0.5588806868 4287531649
-0.3088666499 -0.1709046364 0.5564835668 4287465856
-0.3080041111 -0.1698107868 0.5549294949 4287465856
-0.3057340980 -0.1679472625 0.5508397222 4287400063
-0.3067459762 -0.1678890735 0.5526627898 4287334270
-0.3044740856 -0.1660361141 0.5485695601 4287268477
-0.3036086261 -0.1649563909 0.5470102429 4287268477
-0.3027425110 -0.1638797671 0.5454497337 4287268477
-0.3014062345 -0.1625530571 0.5430421829 4287400061
-0.3010082543 -0.1617358625 0.5423251390 4287663233
-0.3001401424 -0.1606685817 0.5407610536 4287531647
-0.2997411788 -0.1598549932 0.5400422215 4287465854
-0.2993417680 -0.1590427607 0.5393226147 4287729025
-0.2989419401 -0.1582318991 0.5386022329 4287663232
-0.2985416651 -0.1574224085 0.5378810763 4287531647
-0.2981409431 -0.1566142887 0.5371591449 4287663233
-0.2982101738 -0.1560536921 0.5372838378 4288057993
-0.2978087068 -0.1552474499 0.5365605354 4288255372
-0.2978773713 -0.1546869576 0.5366842747 4287860614
-0.2974751592 -0.1538825929 0.5359596014 4287860614
-0.2970725000 -0.1530796140 0.5352340937 4287794821
-0.2976112068 -0.1527614444 0.5362046957 4287794821
-0.2967368960 -0.1517186612 0.5346294641 4287794821
-0.2963330448 -0.1509189755 0.5339018703 4287794821
-0.2959287763 -0.1501206905 0.5331734419 4287860614
-0.2959953845 -0.1495619565 0.5332934856 4287860614
-0.2960617840 -0.1490028501 0.5334131122 4287794821
-0.2956564426 -0.1482069790 0.5326827765 4287729028
-0.2957223058 -0.1476480216 0.5328014493 4287729028
-0.2953161895 -0.1468540877 0.5320697427 4287794821
-0.2953814864 -0.1462952644 0.5321874619 4287860614
-0.2954465747 -0.1457360834 0.5323047042 4287926407
-0.2955114543 -0.1451765150 0.5324215889 4288451981
-0.2951039374 -0.1443855762 0.5316873789 4288057223
-0.2951682806 -0.1438261718 0.5318032503 4287861641
-0.2952323854 -0.1432664096 0.5319187641 4287664262
-0.2952962518 -0.1427062899 0.5320338607 4285362808
-0.2948873341 -0.1419183612 0.5312971473 4282796881
-0.2949506640 -0.1413584054 0.5314112306 4285032309
-0.2950137854 -0.1407980919 0.5315249562 4285558653
-0.2946037948 -0.1400126815 0.5307862759 4284704113
-0.2946663499 -0.1394525468 0.5308989882 4282138186
-0.2947286963 -0.1388920546 0.5310112834 4281940030
-0.2947908044 -0.1383312047 0.5311232209 4284703336
-0.2948527038 -0.1377700120 0.5312346816 4287202095
-0.2949143648 -0.1372084618 0.5313457847 4286873130
-0.2949757874 -0.1366465539 0.5314564705 4286018332
-0.2950370014 -0.1360843033 0.5315667391 4285952539
-0.2950979769 -0.1355216950 0.5316766500 4286018858
-0.2946849763 -0.1347421259 0.5309324861 4287005753
-0.2947453856 -0.1341797262 0.5310413837 4287531848
-0.2948055863 -0.1336169839 0.5311498642 4287531848
-0.2943915129 -0.1328399926 0.5304037929 4285755962
-0.2944511473 -0.1322774738 0.5305112600 4284900653
-0.2945105731 -0.1317145973 0.5306183100 4283454515
-0.2945697606 -0.1311514080 0.5307249427 4282467620
-0.2946287096 -0.1305878609 0.5308311582 4283257446
-0.2946874499 -0.1300239861 0.5309369564 4284573306
-0.2947459519 -0.1294597685 0.5310423970 4282731866
-0.2948042154 -0.1288952082 0.5311473608 4281481799
-0.2948622406 -0.1283303350 0.5312519073 4281940808
-0.2949200571 -0.1277651042 0.5313560367 4285625216
-0.2949776053 -0.1271995604 0.5314597487 4284968003
-0.2950349450 -0.1266336739 0.5315630436 4281086216
-0.2950920463 -0.1260674745 0.5316659212 4282860830
-0.2951489091 -0.1255009323 0.5317683816 4283124002
-0.2956809103 -0.1251352429 0.5327268839 4282597658
-0.2957374156 -0.1245671436 0.5328286886 4280492288
-0.2957936525 -0.1239987165 0.5329300165 4285230398
-0.2963253260 -0.1236284003 0.5338879228 4288322669
-0.2963812053 -0.1230584159 0.5339885950 4285691747
-0.2964368165 -0.1224881038 0.5340888500 4282204718
-0.2964922190 -0.1219174713 0.5341886282 4282138725
-0.2970233858 -0.1215412915 0.5351456404 4283520378
-0.2970783710 -0.1209691092 0.5352447033 4283719297
-0.2971331477 -0.1203966066 0.5353434086 4282732402
-0.2971876860 -0.1198237836 0.5354416370 4285494930
-0.2972419560 -0.1192506477 0.5355394483 4284179070
-0.2972960174 -0.1186771989 0.5356368423 4284244340
-0.2973498106 -0.1181034446 0.5357337594 4284836477
-0.2974033952 -0.1175293699 0.5358302593 4284572779
-0.2974567115 -0.1169549897 0.5359263420 4288520359
-0.2975097895 -0.1163803041 0.5360219479 4289902012
-0.2980394959 -0.1159908921 0.5369763374 4289704633
-0.2985691130 -0.1155993342 0.5379305482 4289901496
-0.2986216247 -0.1150218844 0.5380252004 4290164668
-0.2991510332 -0.1146269441 0.5389789939 4290230460
-0.2987259328 -0.1138660684 0.5382130742 4290493632
-0.2997322679 -0.1136496514 0.5400262475 4290559425
-0.2997839749 -0.1130691469 0.5401193500 4290296253
-0.3003128767 -0.1126674563 0.5410723090 4290164154
-0.3003641665 -0.1120854318 0.5411646962 4290493119
-0.3008928001 -0.1116803735 0.5421171784 4291611600
-0.3014213741 -0.1112731621 0.5430694818 4291480014
-0.3019498587 -0.1108638123 0.5440216064 4289900982
-0.3020003736 -0.1102778167 0.5441126227 4287203469
-0.3025285900 -0.1098650917 0.5450643301 4289572277
-0.3035347164 -0.1096228510 0.5468770266 4291282895
-0.3040628135 -0.1092048958 0.5478285551 4290624965
-0.3041126430 -0.1086140200 0.5479183197 4291348688
-0.3046404719 -0.1081927046 0.5488693118 4291217356
-0.3051682115 -0.1077692360 0.5498201251 4291480528
-0.3061742187 -0.1075116098 0.5516326427 4290822597
-0.3067018390 -0.1070829108 0.5525832176 4290691011
-0.3072293401 -0.1066520661 0.5535336137 4288585887
-0.3082353473 -0.1063842699 0.5553461909 4286019960
-0.3087626994 -0.1059481949 0.5562962890 4284111701
-0.3092899621 -0.1055099741 0.5572462678 4287532937
-0.3102959394 -0.1052320004 0.5590587258 4288520082
-0.3108230233 -0.1047885492 0.5600084066 4287335808
-0.3118290305 -0.1045034751 0.5618208647 4289506976
-0.3123559654 -0.1040547863 0.5627702475 4288059530
-0.3133619130 -0.1037626117 0.5645827055 4287862940
-0.2956245542 -0.1899961531 0.5336933136 4289178542
-0.2961688042 -0.1897518635 0.5346758366 4289243563
-0.2943986654 -0.1880272329 0.5314801931 4289111977
-0.2935533226 -0.1868985295 0.5299541354 4288914852
-0.2931704521 -0.1860667169 0.5292629600 4288783266
-0.2918606102 -0.1846499741 0.5268982649 4288454815
-0.2910132110 -0.1835301369 0.5253684521 4288389022
-0.2901651263 -0.1824132651 0.5238373876 4288454301
-0.2920982540 -0.1830426157 0.5273272395 4288388508
-0.2898581922 -0.1810574979 0.5232833028 4288914852
-0.2894723415 -0.1802358329 0.5225866437 4289704368
-0.2890860140 -0.1794154346 0.5218892097 4290362298
-0.2891634107 -0.1788834631 0.5220289826 4290559677
-0.2892405987 -0.1783510596 0.5221683383 4289967540
-0.2897820175 -0.1781036407 0.5231457353 4288980645
-0.3119752407 -0.1742223650 0.5632113218 4287597442
-0.3111158907 -0.1731184274 0.5616599321 4287729028
-0.3097879291 -0.1717581004 0.5592625737 4287729028
-0.3070548177 -0.1696268767 0.5543285012 4287663233
-0.3085338175 -0.1698250473 0.5569984913 4287465854
-0.3057985902 -0.1677061319 0.5520606041 4287400061
-0.3044670224 -0.1663651615 0.5496566892 4287334268
-0.3036030829 -0.1652841121 0.5480970144 4287268477
-0.3022698462 -0.1639519930 0.5456901193 4287334270
-0.3014044464 -0.1628780365 0.5441278219 4287400063
-0.3005384207 -0.1618072093 0.5425643325 4287597442
-0.3001406789 -0.1609910429 0.5418463349 4287531647
-0.2992734313 -0.1599255800 0.5402806997 4287465854
-0.2988747358 -0.1591130197 0.5395608544 4287729026
-0.2984755635 -0.1583018303 0.5388402939 4287663233
-0.2980760038 -0.1574920118 0.5381188989 4287531647
-0.2976759672 -0.1566835791 0.5373967290 4287663233
-0.2977451384 -0.1561227590 0.5375216603 4287860614
-0.2973443568 -0.1553161889 0.5367981195 4288189579
-0.2969431579 -0.1545110047 0.5360738039 4287860614
-0.2974814177 -0.1541943848 0.5370455384 4287926407
-0.2970795631 -0.1533901989 0.5363200307 4287926407
-0.2966772616 -0.1525873989 0.5355937481 4288057993
-0.2962745428 -0.1517859846 0.5348667502 4288057993
-0.2958713770 -0.1509859860 0.5341389179 4288123786
-0.2959382832 -0.1504265219 0.5342596769 4288057993
-0.2955343425 -0.1496284157 0.5335304737 4287992200
-0.2956007123 -0.1490690857 0.5336502790 4287926407
-0.2956668437 -0.1485093832 0.5337696671 4287860614
-0.2952618599 -0.1477137208 0.5330385566 4287860614
-0.2948564291 -0.1469194591 0.5323066115 4287926407
-0.2949216962 -0.1463604271 0.5324244499 4288057993
-0.2949867547 -0.1458010226 0.5325419307 4288057993
-0.2950515747 -0.1452412307 0.5326589346 4288518542
-0.2951161861 -0.1446810812 0.5327755809 4288255370
-0.2947090566 -0.1438903511 0.5320405364 4288256150
-0.2947731018 -0.1433303654 0.5321562290 4286742911
-0.2948369384 -0.1427700073 0.5322714448 4283717981
-0.2944287360 -0.1419817656 0.5315344930 4282073156
-0.2944920063 -0.1414215863 0.5316487551 4282729296
-0.2945550978 -0.1408610493 0.5317625999 4283189847
-0.2946179211 -0.1403001547 0.5318760872 4283520091
-0.2942083180 -0.1395149529 0.5311365724 4283125333
-0.2942706048 -0.1389542371 0.5312490463 4282137668
-0.2943326831 -0.1383931637 0.5313611031 4283321942
-0.2943945229 -0.1378317475 0.5314727426 4286215224
-0.2944561541 -0.1372699589 0.5315839648 4286873154
-0.2945175469 -0.1367078424 0.5316948295 4286677307
-0.2945787013 -0.1361453533 0.5318052769 4287466823
-0.2946396470 -0.1355825216 0.5319152474 4287336251
-0.2947003543 -0.1350193471 0.5320248604 4286941493
-0.2942877114 -0.1342400014 0.5312799215 4286612286
-0.2943478823 -0.1336770356 0.5313885212 4285691184
-0.2944078147 -0.1331137121 0.5314967036 4283980855
-0.2939940989 -0.1323369592 0.5307498574 4283651890
-0.2940534651 -0.1317738593 0.5308570266 4284244578
-0.2941126227 -0.1312104315 0.5309638381 4285034094
-0.2941715419 -0.1306466609 0.5310701728 4282138974
-0.2942302227 -0.1300825477 0.5311761498 4283586420
-0.2942886949 -0.1295181066 0.5312817097 4283323238
-0.2943469286 -0.1289533228 0.5313867927 4282796894
-0.2944049239 -0.1283882111 0.5314915180 4281808454
-0.2944626808 -0.1278227568 0.5315957665 4284242795
-0.2949944735 -0.1274618953 0.5325558186 4286744664
-0.2950518727 -0.1268948764 0.5326594710 4284047151
-0.2951090336 -0.1263275146 0.5327626467 4282663449
-0.2951659560 -0.1257598251 0.5328654051 4282795035
-0.2952226400 -0.1251918226 0.5329677463 4282860831
-0.2952790856 -0.1246234775 0.5330696702 4283124003
-0.2958101332 -0.1242542565 0.5340283513 4287401574
-0.2958661914 -0.1236843541 0.5341295600 4287796332
