VERSION 0.7
FIELDS x y z rgba
SIZE 4 4 4 4
TYPE F F F U
COUNT 1 1 1 1
WIDTH 920
HEIGHT 1
VIEWPOINT 0.0 0.0 0.0 1.0 0.0 0.0 0.0
POINTS 920
DATA ascii
-0.3054504693 -0.1436698586 0.4984606206 4286278761
-0.3055174351 -0.1431474090 0.4985698760 4283186490
-0.3050765395 -0.1423876882 0.4978504181 4283448630
-0.3051429689 -0.1418654174 0.4979588091 4284172353
-0.3052091599 -0.1413428187 0.4980668426 4283515964
-0.3052751422 -0.1408198625 0.4981745183 4283252792
-0.3048328757 -0.1400631368 0.4974527657 4284766549
-0.3048983216 -0.1395403743 0.4975595474 4287200890
-0.3044552505 -0.1387856007 0.4968365431 4287926668
-0.3045201600 -0.1382630467 0.4969424605 4287795082
-0.3040763438 -0.1375101954 0.4962182045 4287730829
-0.3041407168 -0.1369878501 0.4963232279 4287862415
-0.3042048514 -0.1364651769 0.4964278936 4288057742
-0.3037599623 -0.1357148439 0.4957019091 4288057742
-0.3038235605 -0.1351923794 0.4958056808 4287926668
-0.3033778965 -0.1344440132 0.4950784445 4287926668
-0.3034409583 -0.1339217722 0.4951813221 4287992461
-0.3035037816 -0.1333992034 0.4952838719 4288058254
-0.3035663962 -0.1328763217 0.4953860343 4287927182
-0.3036288023 -0.1323531121 0.4954878390 4287927182
-0.3031814098 -0.1316083819 0.4947577715 4287927182
-0.3027336001 -0.1308650970 0.4940270185 4287795596
-0.3022853732 -0.1301232427 0.4932955503 4287795596
-0.3023465872 -0.1296013892 0.4933954179 4287795596
-0.3024075627 -0.1290792227 0.4934949279 4287795596
-0.3019582331 -0.1283399463 0.4927617013 4287861389
-0.3020186722 -0.1278180182 0.4928603172 4287927436
-0.3020788729 -0.1272957921 0.4929585457 4287927436
-0.3026492298 -0.1269873828 0.4938893020 4287861643
-0.3027091026 -0.1264636517 0.4939869940 4287861643
-0.3027687371 -0.1259396076 0.4940843284 4287861643
-0.3028281331 -0.1254152507 0.4941812754 4287861643
-0.3028873205 -0.1248905808 0.4942778647 4287993229
-0.3029462993 -0.1243656129 0.4943740964 4288059022
-0.3030050397 -0.1238403320 0.4944699407 4288059022
-0.3035746217 -0.1235226989 0.4953994453 4288124815
-0.3036330044 -0.1229959279 0.4954946935 4288124815
-0.3042024076 -0.1226750240 0.4964239299 4288059022
-0.3042604327 -0.1221467555 0.4965186417 4288190354
-0.3043182492 -0.1216181889 0.4966129363 4288190354
-0.3043758273 -0.1210893169 0.4967069030 4288190354
-0.3044331670 -0.1205601469 0.4968004823 4288190354
-0.3044902682 -0.1200306788 0.4968936741 4288190354
-0.3045471311 -0.1195009127 0.4969864786 4288190354
-0.3046037853 -0.1189708561 0.4970789254 4288256147
-0.3041481674 -0.1182414368 0.4963354170 4288256147
-0.3036921322 -0.1175135076 0.4955912232 4288059281
-0.3037479222 -0.1169843525 0.4956822395 4288059281
-0.3038034439 -0.1164548993 0.4957728684 4288059279
-0.3038587570 -0.1159251630 0.4958631098 4287993486
-0.3039138317 -0.1153951287 0.4959529638 4288059279
-0.3039686680 -0.1148648113 0.4960424602 4288256658
-0.3040232658 -0.1143342108 0.4961315691 4288388246
-0.3040776253 -0.1138033196 0.4962203205 4288454039
-0.3041317761 -0.1132721528 0.4963086545 4288256660
-0.3046986461 -0.1129308119 0.4972337186 4288322453
-0.3047524095 -0.1123981774 0.4973214567 4288322453
-0.3053190708 -0.1120535880 0.4982461929 4288322453
-0.3053724468 -0.1115194932 0.4983333051 4288454039
-0.3054255843 -0.1109851226 0.4984200001 4288454039
-0.3054784834 -0.1104504690 0.4985063374 4288322454
-0.3060446680 -0.1101002768 0.4994302690 4288256661
-0.3060971797 -0.1095641702 0.4995159805 4288321940
-0.3061494529 -0.1090277880 0.4996012747 4288453526
-0.3062014878 -0.1084911376 0.4996862113 4288519319
-0.3062533140 -0.1079542115 0.4997707605 4288190354
-0.3063048720 -0.1074170098 0.4998548925 4287795596
-0.3063561916 -0.1068795398 0.4999386370 4287664010
-0.3069213629 -0.1065202281 0.5008609891 4287598471
-0.3069722950 -0.1059813201 0.5009440780 4287532678
-0.3075372577 -0.1056187600 0.5018660426 4287532678
-0.3075878024 -0.1050784141 0.5019484758 4287466885
-0.3076380789 -0.1045378000 0.5020305514 4287597701
-0.3082026541 -0.1041708291 0.5029518604 4287663494
-0.3082525134 -0.1036287844 0.5030332804 4287663492
-0.3083021641 -0.1030864716 0.5031142831 4287729285
-0.3083515465 -0.1025439054 0.5031948686 4287795078
-0.3089155555 -0.1021713614 0.5041152239 4287860871
-0.3089645505 -0.1016273648 0.5041952133 4288057991
-0.3090132773 -0.1010831073 0.5042747259 4288057991
-0.3095768690 -0.1007061601 0.5051944256 4287992711
-0.3106555641 -0.1004937962 0.5069547296 4288058504
-0.3107038140 -0.0999460518 0.5070334673 4288058504
-0.3112671375 -0.0995628908 0.5079527497 4288124297
-0.3118303716 -0.0991776586 0.5088719130 4288190090
-0.3123935163 -0.0987903550 0.5097908974 4288255883
-0.3124409914 -0.0982388631 0.5098683834 4288190604
-0.3124882281 -0.0976871252 0.5099454522 4288256397
-0.3130509257 -0.0972954258 0.5108637214 4288256912
-0.3130977154 -0.0967422798 0.5109400749 4288454291
-0.3131442666 -0.0961888880 0.5110160112 4288717463
-0.3131905496 -0.0956352502 0.5110915303 4288980635
-0.3132365942 -0.0950813591 0.5111666918 4289178014
-0.3127662539 -0.0943715051 0.5103991628 4289375393
-0.3128117025 -0.0938180462 0.5104733109 4289309348
-0.3133731782 -0.0934182480 0.5113895535 4289440934
-0.3134181798 -0.0928633958 0.5114630461 4289506728
-0.3139793575 -0.0924603790 0.5123788118 4289572521
-0.3140239418 -0.0919041336 0.5124515295 4289638571
-0.3145848215 -0.0914978981 0.5133668780 4289638571
-0.3146289587 -0.0909402743 0.5134388804 4289638571
-0.3146728575 -0.0903824046 0.5135104656 4289770157
-0.3157500327 -0.0901193023 0.5152683258 4289243815
-0.3163966835 -0.1634565443 0.5172611475 4287664785
-0.3169758916 -0.1631799936 0.5182080269 4287532937
-0.3165470064 -0.1623842120 0.5175068974 4288388246
-0.3156134784 -0.1613320410 0.5159807205 4288914842
-0.3141749799 -0.1600260437 0.5136290193 4286151536
-0.3142488003 -0.1594928354 0.5137496591 4282532921
-0.3148269355 -0.1592143923 0.5146948099 4284177746
-0.3133864999 -0.1579166949 0.5123399496 4284571740
-0.3124499321 -0.1568772048 0.5108087659 4283453259
-0.3115126491 -0.1558407694 0.5092764497 4283782223
-0.3110797107 -0.1550591141 0.5085686445 4286545529
-0.3106463253 -0.1542788297 0.5078601241 4287137666
-0.3097072542 -0.1532498896 0.5063248873 4287071873
-0.3087674975 -0.1522240192 0.5047885776 4286940288
-0.3083325326 -0.1514495164 0.5040774345 4287137667
-0.3078971505 -0.1506763846 0.5033656359 4287071874
-0.3075308204 -0.1493798941 0.5027667880 4287137669
-0.3076001406 -0.1488548219 0.5028800964 4287137669
-0.3071632087 -0.1480854452 0.5021657944 4287268485
-0.3067258298 -0.1473174393 0.5014507174 4287202692
-0.3062880039 -0.1465508044 0.5007349849 4287268483
-0.3063561320 -0.1460269243 0.5008463264 4287334276
-0.3059175611 -0.1452621967 0.5001293421 4287532684
-0.3054785430 -0.1444988400 0.4994116127 4286808961
-0.3050390780 -0.1437368840 0.4986931682 4285160537
-0.3045991957 -0.1429763287 0.4979740083 4282528817
-0.3046658039 -0.1424541771 0.4980828762 4283645752
-0.3047321737 -0.1419316977 0.4981914163 4283645752
-0.3047983646 -0.1414088756 0.4982995987 4283645497
-0.3043570518 -0.1406512856 0.4975781441 4283579704
-0.3044226766 -0.1401286423 0.4976854324 4283120443
-0.3039806187 -0.1393730044 0.4969627261 4286278507
-0.3040457070 -0.1388505697 0.4970691502 4287531655
-0.3036028743 -0.1380968690 0.4963451922 4287597448
-0.3036674261 -0.1375746280 0.4964507222 4287467402
-0.3032238483 -0.1368228793 0.4957255125 4287664781
-0.3037958741 -0.1365291774 0.4966607094 4288057741
-0.3033516407 -0.1357785165 0.4959344566 4288057741
-0.3029069901 -0.1350292712 0.4952074885 4287795082
-0.3034785688 -0.1347328275 0.4961419404 4287729289
-0.3030332625 -0.1339846849 0.4954139292 4287795082
-0.3030960560 -0.1334618926 0.4955165982 4287795082
-0.3031586409 -0.1329387873 0.4956189096 4287795082
-0.3027122617 -0.1321931779 0.4948891401 4287860875
-0.3027743101 -0.1316702962 0.4949905574 4287926666
-0.3023271561 -0.1309266835 0.4942595363 4287860873
-0.3018795848 -0.1301845163 0.4935278296 4287926666
-0.3019407392 -0.1296624392 0.4936278462 4287926666
-0.3014924228 -0.1289222687 0.4928948879 4287730057
-0.3015530407 -0.1284004450 0.4929940104 4287795850
-0.3016134501 -0.1278783083 0.4930927455 4287927436
-0.3016736209 -0.1273558587 0.4931911528 4287927436
-0.3017335832 -0.1268330812 0.4932891726 4287861641
-0.3017933369 -0.1263100058 0.4933868349 4287861641
-0.3018528521 -0.1257866174 0.4934841394 4287861643
-0.3024221361 -0.1254745126 0.4944148064 4287795850
-0.3024812937 -0.1249496266 0.4945115447 4287861643
-0.3025402129 -0.1244244277 0.4946078956 4287927436
-0.3025989532 -0.1238989234 0.4947038889 4287927436
-0.3026574254 -0.1233731136 0.4947994947 4287927436
-0.3032261729 -0.1230541617 0.4957293272 4287927436
-0.3037948906 -0.1227331311 0.4966590703 4287927436
-0.3038528860 -0.1222046390 0.4967539012 4287993229
-0.3039106727 -0.1216758415 0.4968483746 4287993229
-0.3034573495 -0.1209431291 0.4961072505 4288058768
-0.3035145700 -0.1204146221 0.4962007999 4288124561
-0.3035715520 -0.1198858172 0.4962939620 4288058768
-0.3036283255 -0.1193567142 0.4963867664 4288124561
-0.3036848605 -0.1188273132 0.4964791834 4288124561
-0.3032298088 -0.1180984601 0.4957352579 4287992975
-0.3032857776 -0.1175693646 0.4958267510 4288124815
-0.3028299809 -0.1168426052 0.4950816035 4288124815
-0.3028854132 -0.1163138151 0.4951722324 4288059022
-0.3029406071 -0.1157847345 0.4952624440 4288059022
-0.3029955626 -0.1152553707 0.4953522980 4288059022
-0.3030502796 -0.1147257164 0.4954417646 4288124815
-0.3036167622 -0.1143886745 0.4963679016 4288124815
-0.3036711216 -0.1138575524 0.4964567423 4288256401
-0.3037252426 -0.1133261397 0.4965452254 4288190354
-0.3037791252 -0.1127944514 0.4966333210 4288190354
-0.3043451309 -0.1124517918 0.4975586534 4288190608
-0.3043986559 -0.1119186431 0.4976461530 4288190608
-0.3044519126 -0.1113852113 0.4977332354 4288322194
-0.3045049608 -0.1108514965 0.4978199303 4288322194
-0.3050704598 -0.1105032265 0.4987444580 4288321940
-0.3051231205 -0.1099680662 0.4988305271 4288256147
-0.3051755428 -0.1094326228 0.4989162087 4288256401
-0.3052276969 -0.1088969037 0.4990015030 4288387987
-0.3052796423 -0.1083609089 0.4990864098 4288387987
-0.3053313196 -0.1078246459 0.4991709292 4288256401
-0.3053827882 -0.1072881073 0.4992550611 4288059022
-0.3059473336 -0.1069307178 0.5001780391 4287795850
-0.3059984148 -0.1063927338 0.5002614856 4287598471
-0.3065627217 -0.1060320958 0.5011841059 4287532678
-0.3066133857 -0.1054926738 0.5012668967 4287532678
-0.3066638112 -0.1049529910 0.5013493299 4287532678
-0.3072277606 -0.1045879349 0.5022712946 4287532678
-0.3072777689 -0.1040468141 0.5023530722 4287532678
-0.3078414798 -0.1036785170 0.5032746792 4287598469
-0.3078911006 -0.1031359583 0.5033558011 4287664262
-0.3079404831 -0.1025931463 0.5034365058 4287730055
-0.3079895973 -0.1020500734 0.5035167933 4287730055
-0.3085527420 -0.1016761959 0.5044374466 4288123784
-0.3086014688 -0.1011316925 0.5045171380 4288189577
-0.3086499274 -0.1005869359 0.5045963526 4288190090
-0.3092126548 -0.1002086625 0.5055163503 4288190090
-0.3102898598 -0.0999941379 0.5072774291 4288255883
-0.3103378415 -0.0994458869 0.5073558092 4288321676
-0.3109003007 -0.0990613922 0.5082753897 4288453262
-0.3114626706 -0.0986748263 0.5091947317 4288453262
-0.3115100563 -0.0981239974 0.5092722178 4288387983
-0.3120721281 -0.0977341980 0.5101911426 4288453776
-0.3121190965 -0.0971819609 0.5102679133 4288454289
-0.3126809299 -0.0967889279 0.5111864209 4288585875
-0.3127274513 -0.0962352753 0.5112624764 4288849047
-0.3127737045 -0.0956813842 0.5113381147 4289112219
-0.3128197491 -0.0951272473 0.5114133358 4289309598
-0.3123500645 -0.0944170579 0.5106455088 4289441184
-0.3123955131 -0.0938633457 0.5107197762 4289375141
-0.3124406934 -0.0933093950 0.5107936859 4289506727
-0.3130012751 -0.0929082632 0.5117101073 4289572520
-0.3130460083 -0.0923529193 0.5117833018 4289638313
-0.3136062920 -0.0919485614 0.5126992464 4289769900
-0.3136506081 -0.0913918316 0.5127717257 4289835693
-0.3142105937 -0.0909842551 0.5136871934 4289901486
-0.3142544627 -0.0904261395 0.5137589574 4289901486
-0.3148141801 -0.0900153443 0.5146739483 4289243815
-0.3164708614 -0.1637922674 0.5183235407 4287664272
-0.3160429597 -0.1629956812 0.5176227093 4287072386
-0.3166213334 -0.1627178043 0.5185700059 4286875007
-0.3156892657 -0.1616643220 0.5170434713 4288585364
-0.3152601421 -0.1608708799 0.5163406134 4285953644
-0.3143268228 -0.1598226279 0.5148119926 4282663992
-0.3128889799 -0.1585221589 0.5124570131 4283321922
-0.3119541705 -0.1574808806 0.5109260082 4283321924
-0.3120268285 -0.1569497585 0.5110450387 4284571991
-0.3110909164 -0.1559128761 0.5095121264 4283124545
-0.3106586039 -0.1551309079 0.5088041425 4285427300
-0.3102258742 -0.1543502808 0.5080953836 4287861641
-0.3092881441 -0.1533208936 0.5065595508 4287730055
-0.3088544011 -0.1525438428 0.5058491230 4287532678
-0.3084202111 -0.1517681628 0.5051379800 4287137920
-0.3079855740 -0.1509938240 0.5044261813 4287268483
-0.3075505197 -0.1502208710 0.5037136078 4287268483
-0.3071149886 -0.1494492739 0.5030003190 4287268485
-0.3066790402 -0.1486790478 0.5022862554 4287268485
-0.3067480028 -0.1481542885 0.5023992062 4287334278
-0.3063112795 -0.1473859549 0.5016839504 4287268485
-0.3053685427 -0.1463766396 0.5001398921 4287202690
-0.3054365218 -0.1458534151 0.5002512336 4287268483
-0.3055042922 -0.1453298330 0.5003622174 4287137669
-0.3050659299 -0.1445661634 0.4996442795 4286874497
-0.3046271205 -0.1438038796 0.4989255965 4285094998
-0.3041878939 -0.1430429965 0.4982061982 4282660657
-0.3042544723 -0.1425206363 0.4983152449 4283314988
-0.3038144708 -0.1417616606 0.4975946248 4283117609
-0.3038805127 -0.1412394941 0.4977027774 4283445550
-0.3039463162 -0.1407169849 0.4978105724 4283445550
-0.3035052419 -0.1399604827 0.4970881641 4283448122
-0.3035705090 -0.1394381672 0.4971950650 4285948256
-0.3031286895 -0.1386836022 0.4964714050 4287202433
-0.3031934202 -0.1381614804 0.4965774417 4287465605
-0.3027508259 -0.1374088675 0.4958525300 4287335558
-0.3028150201 -0.1368869543 0.4959576726 4287269765
-0.3028790057 -0.1363647282 0.4960624576 4287597188
-0.3019278646 -0.1353870630 0.4945046902 4287662981
-0.3019911945 -0.1348659247 0.4946084321 4287531910
-0.3020543158 -0.1343444437 0.4947117865 4287531910
-0.3021171987 -0.1338226497 0.4948148131 4287531910
-0.3016720116 -0.1330764890 0.4940856695 4287531910
-0.3022423387 -0.1327780634 0.4950197339 4287597703
-0.3017964959 -0.1320330203 0.4942895472 4287663496
-0.3013502359 -0.1312894076 0.4935586452 4287729287
-0.3014118373 -0.1307677478 0.4936594963 4287795080
-0.3014732003 -0.1302457601 0.4937600195 4287795080
-0.3015343547 -0.1297234595 0.4938601553 4287860873
-0.3010866642 -0.1289829761 0.4931269586 4287730055
-0.3006385863 -0.1282439381 0.4923930764 4287730055
-0.3006988764 -0.1277224571 0.4924917817 4287795848
-0.3007589281 -0.1272006631 0.4925901592 4287795848
-0.3008187413 -0.1266785562 0.4926881492 4287795848
-0.3008783758 -0.1261561364 0.4927857816 4287861641
-0.3014469445 -0.1258459836 0.4937170446 4287795850
-0.3015062213 -0.1253220737 0.4938141108 4287795850
-0.3015652597 -0.1247978359 0.4939108193 4287927436
-0.3016240895 -0.1242733002 0.4940071404 4287993229
-0.3016826808 -0.1237484589 0.4941031039 4287927436
-0.3017410338 -0.1232233122 0.4941987097 4287861643
-0.3023089767 -0.1229051203 0.4951288998 4287861643
-0.3023670018 -0.1223784760 0.4952239096 4287861643
-0.3024247885 -0.1218515262 0.4953185320 4287861389
-0.3024823368 -0.1213242784 0.4954128265 4287861389
-0.3025396764 -0.1207967326 0.4955067039 4287927182
-0.3020865023 -0.1200660691 0.4947644770 4287992975
-0.3021432757 -0.1195388138 0.4948574603 4287992975
-0.3027102947 -0.1192122921 0.4957861602 4287992975
-0.3027667105 -0.1186835542 0.4958785474 4287992975
-0.3028228879 -0.1181545183 0.4959705770 4287927182
-0.3028788269 -0.1176251918 0.4960622191 4287927436
-0.3024237156 -0.1168981045 0.4953168035 4287927436
-0.3024791181 -0.1163690835 0.4954075217 4288059022
-0.3025342822 -0.1158397794 0.4954978824 4288124815
-0.3025892079 -0.1153101772 0.4955878556 4288190608
-0.3026439250 -0.1147802919 0.4956774712 4288124815
-0.3026984036 -0.1142501161 0.4957666695 4288059022
-0.3032640219 -0.1139117554 0.4966931045 4288059022
-0.3033181429 -0.1133801118 0.4967817068 4288059022
-0.3033719957 -0.1128481925 0.4968699217 4288059022
-0.3034256399 -0.1123159826 0.4969577491 4287993229
-0.3039907813 -0.1119719967 0.4978833795 4288059022
-0.3040440381 -0.1114383340 0.4979706109 4288190608
-0.3040970564 -0.1109043881 0.4980574250 4288256401
-0.3041498363 -0.1103701591 0.4981438518 4288256401
-0.3047145009 -0.1100205630 0.4990686774 4288190608
-0.3047668934 -0.1094848812 0.4991545081 4288321424
-0.3048190475 -0.1089489236 0.4992399216 4288387217
-0.3048709333 -0.1084126979 0.4993249476 4288322194
-0.3049226105 -0.1078761965 0.4994095862 4288322194
-0.3049740493 -0.1073394194 0.4994938076 4288124815
-0.3050252497 -0.1068023667 0.4995776713 4287795850
-0.3055889606 -0.1064436510 0.5005009174 4287598471
-0.3056397438 -0.1059051603 0.5005841255 4287532678
-0.3062032163 -0.1055431962 0.5015069842 4287598471
-0.3062536120 -0.1050032675 0.5015895367 4287598471
-0.3063037694 -0.1044630706 0.5016716719 4287598469
-0.3068668544 -0.1040966883 0.5025938749 4287664262
-0.3064033687 -0.1033818871 0.5018348098 4287730055
-0.3069661260 -0.1030131653 0.5027564764 4287795848
-0.3070154190 -0.1024710163 0.5028371811 4287861641
-0.3075779080 -0.1020990461 0.5037584901 4287927434
-0.3076267838 -0.1015554667 0.5038385391 4288255372
-0.3076753914 -0.1010116339 0.5039181709 4288255372
-0.3082374930 -0.1006352603 0.5048387647 4288255629
-0.3087995350 -0.1002568156 0.5057592392 4288387215
-0.3088475764 -0.0997103900 0.5058379173 4288453008
-0.3099232912 -0.0994937047 0.5075997710 4288584594
-0.3104850352 -0.0991090462 0.5085198283 4288519571
-0.3110467196 -0.0987223014 0.5094397664 4288585364
-0.3110940754 -0.0981712267 0.5095173120 4288651157
-0.3111411631 -0.0976198986 0.5095944405 4288716950
-0.3111880422 -0.0970683172 0.5096712112 4288717461
-0.3117490709 -0.0966760218 0.5105901361 4288717461
-0.3123100400 -0.0962816551 0.5115088224 4288914840
-0.3123562932 -0.0957275033 0.5115845799 4289178012
-0.3124022782 -0.0951731130 0.5116599202 4289375391
-0.3119332790 -0.0944625959 0.5108917952 4289441184
-0.3119786978 -0.0939086303 0.5109661818 4289375141
-0.3120238781 -0.0933544263 0.5110401511 4289506727
-0.3125837445 -0.0929531083 0.5119571686 4289506727
-0.3126284778 -0.0923975110 0.5120304227 4289440934
-0.3131880760 -0.0919929743 0.5129469037 4289506728
-0.3132323623 -0.0914359838 0.5130194426 4289704107
-0.3132763803 -0.0908787549 0.5130915642 4289770157
-0.3133201599 -0.0903212950 0.5131632686 4289770157
-0.3143944740 -0.0900588706 0.5149227977 4289178022
-0.3155551553 -0.0886686668 0.5168237686 4288980645
-0.3159650862 -0.1644045264 0.5184382796 4287664013
-0.3160406053 -0.1638676673 0.5185621977 4287992978
-0.3156133592 -0.1630707532 0.5178611279 4285558888
-0.3156883419 -0.1625339836 0.5179841518 4283979856
-0.3152602911 -0.1617388576 0.5172818303 4286348400
-0.3148317933 -0.1609450728 0.5165787339 4284308817
-0.3133967817 -0.1596401334 0.5142241716 4281676582
-0.3144766390 -0.1596169025 0.5159960389 4282400305
-0.3125370741 -0.1580626816 0.5128135681 4281874729
-0.3105963767 -0.1565149575 0.5096292496 4283651140
-0.3101650774 -0.1557321548 0.5089215636 4284111691
-0.3092296720 -0.1546987593 0.5073867440 4283651140
-0.3093011081 -0.1541706175 0.5075039268 4287992708
-0.3088684678 -0.1533918828 0.5067940354 4288979603
-0.3084353507 -0.1526145041 0.5060834289 4288650641
-0.3080018461 -0.1518384814 0.5053721070 4287400574
-0.3075678647 -0.1510638297 0.5046600103 4287071357
-0.3071334362 -0.1502905488 0.5039471984 4287071357
-0.3072030246 -0.1497645378 0.5040614009 4287136897
-0.3067678511 -0.1489931345 0.5033473372 4287202690
-0.3063322008 -0.1482231021 0.5026325583 4287267972
-0.3053913713 -0.1472111046 0.5010887980 4287267972
-0.3049547374 -0.1464446932 0.5003724098 4287202179
-0.3050227165 -0.1459212452 0.5004839301 4287136386
-0.3050904274 -0.1453974545 0.5005950332 4287071874
-0.3046527207 -0.1446334571 0.4998768568 4287335046
-0.3042145967 -0.1438708603 0.4991579652 4285358684
-0.3037760258 -0.1431096345 0.4984383285 4282661171
-0.3038425744 -0.1425870657 0.4985475242 4282788131
-0.3034032285 -0.1418277770 0.4978266358 4283446061
-0.3034692407 -0.1413053870 0.4979349375 4284035375
-0.3035350144 -0.1407826543 0.4980429113 4283443238
-0.3030945957 -0.1400258243 0.4973202646 4283972667
-0.3031598628 -0.1395033002 0.4974273145 4285749078
-0.3027186692 -0.1387484074 0.4967034161 4286938490
-0.3027833700 -0.1382260770 0.4968096018 4287530627
-0.3023414314 -0.1374731362 0.4960844517 4287203459
-0.3024055958 -0.1369510144 0.4961897433 4286940287
-0.3024695516 -0.1364285499 0.4962946773 4287268477
-0.3015197814 -0.1354504675 0.4947362840 4287202684
-0.3015830815 -0.1349291056 0.4948401451 4287268738
-0.3011392057 -0.1341815144 0.4941118360 4287334531
-0.3012019694 -0.1336603761 0.4942148030 4287466117
-0.3012645245 -0.1331389099 0.4943174422 4287466117
-0.3008195460 -0.1323938519 0.4935873449 4287466117
-0.3008815646 -0.1318726242 0.4936890602 4287400324
-0.3009433448 -0.1313510686 0.4937904477 4287400322
-0.3010048866 -0.1308291852 0.4938914478 4287466115
-0.3005585372 -0.1300872415 0.4931590855 4287401092
-0.3006195724 -0.1295656115 0.4932591915 4287401092
-0.3006803691 -0.1290436536 0.4933589399 4287532676
-0.3002329171 -0.1283042878 0.4926247895 4287466883
-0.3002931774 -0.1277825832 0.4927236736 4287401090
-0.3003532290 -0.1272605658 0.4928221703 4287401090
-0.3004130125 -0.1267382503 0.4929203093 4287466883
-0.3004726171 -0.1262156069 0.4930180907 4287466883
-0.3005319834 -0.1256926507 0.4931154847 4287729285
-0.3005911112 -0.1251693964 0.4932125211 4287729285
-0.3006500304 -0.1246458292 0.4933091998 4287795080
-0.3007087409 -0.1241219565 0.4934055209 4287926666
-0.3007672131 -0.1235977709 0.4935014546 4287992459
-0.3008254468 -0.1230732873 0.4935970306 4287926666
-0.3008834720 -0.1225484982 0.4936922193 4287795080
-0.3014504611 -0.1222298741 0.4946225584 4287729287
-0.3015081286 -0.1217035875 0.4947171807 4287795080
-0.3015655875 -0.1211770028 0.4948114157 4287795080
-0.3016227782 -0.1206501126 0.4949052930 4287795082
-0.3016797602 -0.1201229319 0.4949987829 4287795082
-0.3017365336 -0.1195954457 0.4950919151 4287860875
-0.3017930388 -0.1190676615 0.4951846600 4287860875
-0.3018493354 -0.1185395867 0.4952770472 4287795082
-0.3013954461 -0.1178118736 0.4945322573 4287795082
-0.3014511764 -0.1172840968 0.4946237206 4287664264
-0.3015066981 -0.1167560294 0.4947147965 4287664264
-0.3020722270 -0.1164243370 0.4956427515 4287730057
-0.3021273911 -0.1158948019 0.4957332313 4287861643
-0.3021822870 -0.1153649688 0.4958233535 4287861643
-0.3022369742 -0.1148348525 0.4959130585 4287861643
-0.3022914231 -0.1143044457 0.4960024059 4287861643
-0.3023456335 -0.1137737483 0.4960913658 4287927436
-0.3023996353 -0.1132427752 0.4961799383 4287861643
-0.3024533689 -0.1127115116 0.4962681532 4287795850
-0.3030178845 -0.1123694628 0.4971943796 4287861643
-0.3030712605 -0.1118367389 0.4972819686 4287861643
-0.3031243980 -0.1113037392 0.4973691404 4287927436
-0.3031772971 -0.1107704490 0.4974559546 4287993229
-0.3037413061 -0.1104227901 0.4983814061 4287993229
-0.3037938476 -0.1098880470 0.4984675646 4287993229
-0.3038461208 -0.1093530282 0.4985533655 4288124045
-0.3038981557 -0.1088177338 0.4986387491 4288058252
-0.3039499819 -0.1082821712 0.4987237453 4288124045
-0.3045133352 -0.1079277173 0.4996481240 4288189838
-0.3045647442 -0.1073907018 0.4997324944 4288058252
-0.3046159148 -0.1068534181 0.4998164475 4287860873
-0.3046668470 -0.1063158587 0.4999000430 4287729285
-0.3052296937 -0.1059558168 0.5008234978 4287795078
-0.3052802384 -0.1054168195 0.5009064674 4287860871
-0.3058428168 -0.1050535217 0.5018295646 4287795078
-0.3058929741 -0.1045130864 0.5019118786 4287795078
-0.3059428632 -0.1039723828 0.5019937158 4287795078
-0.3059925437 -0.1034314185 0.5020751953 4287860871
-0.3065545857 -0.1030625328 0.5029973984 4287992457
-0.3066038191 -0.1025201380 0.5030782223 4288189836
-0.3066528440 -0.1019774824 0.5031586289 4288321422
-0.3072144985 -0.1016041860 0.5040801764 4288387215
-0.3072630763 -0.1010600999 0.5041599274 4288387215
-0.3078244925 -0.1006835625 0.5050811172 4288387215
-0.3078726828 -0.1001380607 0.5051601529 4288453008
-0.3084338009 -0.0997582823 0.5060808659 4288584594
-0.3084816039 -0.0992113575 0.5061593056 4288716180
-0.3095558286 -0.0989925042 0.5079219341 4288716950
-0.3101167083 -0.0986065120 0.5088421702 4288782743
-0.3101639748 -0.0980560929 0.5089197755 4288848536
-0.3107245862 -0.0976668522 0.5098395944 4288914329
-0.3107714355 -0.0971150249 0.5099164844 4288914842
-0.3108180165 -0.0965629444 0.5099928975 4288914842
-0.3113781810 -0.0961693153 0.5109120011 4289046428
-0.3114243448 -0.0956158265 0.5109877586 4289243807
-0.3114702404 -0.0950620919 0.5110630989 4289375650
-0.3115158975 -0.0945081189 0.5111380219 4289441443
-0.3115613163 -0.0939539000 0.5112125278 4289375141
-0.3116064370 -0.0933994353 0.5112865567 4289440934
-0.3116513491 -0.0928447321 0.5113602281 4289506727
-0.3122103214 -0.0924420878 0.5122774243 4289572520
-0.3122547865 -0.0918859914 0.5123503804 4289769899
-0.3122989833 -0.0913296640 0.5124229193 4289967278
-0.3123429418 -0.0907730907 0.5124949813 4289967536
-0.3129012585 -0.0903649181 0.5134111047 4289835950
-0.3134594858 -0.0899546742 0.5143270493 4289309608
-0.3140175939 -0.0895423666 0.5152427554 4289046436
-0.3146184981 -0.0885665864 0.5162287951 4289046436
-0.3151761889 -0.0881489888 0.5171438456 4288980645
-0.3146062195 -0.1634217650 0.5171511173 4287861389
-0.3151831627 -0.1631457955 0.5180994272 4284506196
-0.3152580857 -0.1626088172 0.5182226300 4283453508
-0.3153328300 -0.1620714366 0.5183454752 4285559137
-0.3144028783 -0.1610192508 0.5168168545 4284506449
-0.3129698634 -0.1597137451 0.5144612193 4282071590
-0.3140483499 -0.1596905291 0.5162340403 4282071590
-0.3126140833 -0.1583902687 0.5138763785 4284374598
-0.3116816282 -0.1573485732 0.5123436451 4283453496
-0.3107484877 -0.1563099474 0.5108097196 4284111426
-0.3098146617 -0.1552743912 0.5092747211 4283387703
-0.3083771169 -0.1539906859 0.5069116354 4286545514
-0.3079450130 -0.1532124877 0.5062013268 4288782476
-0.3075124621 -0.1524356455 0.5054903030 4288979603
-0.3070794642 -0.1516601592 0.5047785640 4287992708
-0.3066460192 -0.1508860439 0.5040661097 4286939769
-0.3062815964 -0.1495879441 0.5034670234 4287070846
-0.3063508272 -0.1490622461 0.5035808086 4287136639
-0.3059158325 -0.1482918710 0.5028657913 4287136640
-0.3049763441 -0.1472794563 0.5013214350 4287136640
-0.3045403957 -0.1465127170 0.5006048083 4287136386
-0.3046083152 -0.1459890604 0.5007164478 4287070593
-0.3046760261 -0.1454650462 0.5008277893 4287137150
-0.3042389750 -0.1447007209 0.5001093149 4287400322
-0.3038014770 -0.1439377964 0.4993902147 4285557087
-0.3033635616 -0.1431762576 0.4986703396 4282727988
-0.3034300804 -0.1426534653 0.4987796843 4282788131
-0.3029913902 -0.1418938488 0.4980585873 4283511854
-0.3030573726 -0.1413712502 0.4981670380 4284493870
-0.3031231463 -0.1408483088 0.4982751310 4284164905
-0.3026833832 -0.1400911510 0.4975522459 4283774515
-0.3027485907 -0.1395684034 0.4976594746 4285353547
-0.3018025458 -0.1385810673 0.4961043298 4286872438
-0.3018671274 -0.1380593926 0.4962104857 4287332989
-0.3014257252 -0.1373070031 0.4954849184 4286940541
-0.3014897704 -0.1367855370 0.4955901802 4287006334
-0.3015535772 -0.1362637281 0.4956950843 4287334781
-0.3011111021 -0.1355138570 0.4949677587 4287203195
-0.3006682098 -0.1347653866 0.4942397177 4287202945
-0.3012374640 -0.1344703585 0.4951754510 4287268738
-0.3007939160 -0.1337229908 0.4944463372 4287268736
-0.3008564413 -0.1332013160 0.4945490956 4287202943
-0.3004121184 -0.1324559301 0.4938187599 4287202943
-0.3004741073 -0.1319344789 0.4939206541 4287137150
-0.3005358577 -0.1314126998 0.4940221608 4287006334
-0.3005973995 -0.1308906078 0.4941233099 4287137920
-0.3001517057 -0.1301483363 0.4933906794 4287203713
-0.3002127111 -0.1296264827 0.4934909344 4287137920
-0.3002734780 -0.1291043013 0.4935908318 4287203711
-0.2998267114 -0.1283646226 0.4928564429 4287137918
-0.2998869419 -0.1278426945 0.4929554462 4287006332
-0.2999469340 -0.1273204535 0.4930540919 4287006332
-0.3000067174 -0.1267979145 0.4931523502 4287072125
-0.3000662923 -0.1262750477 0.4932502806 4287006332
-0.3001256287 -0.1257518679 0.4933478236 4287334527
-0.3001847565 -0.1252283901 0.4934450090 4287334527
-0.3002436459 -0.1247045994 0.4935418069 4287334527
-0.3003023267 -0.1241805032 0.4936382473 4287466113
-0.3003607690 -0.1236560941 0.4937343299 4287597699
-0.3004189730 -0.1231313869 0.4938300252 4287597699
-0.3004769683 -0.1226063669 0.4939253628 4287466113
-0.3005347550 -0.1220810488 0.4940203130 4287400320
-0.3011009097 -0.1217611060 0.4949509799 4287466113
-0.3011583090 -0.1212342903 0.4950453639 4287531906
-0.3012154996 -0.1207071766 0.4951393604 4287466113
-0.3012724817 -0.1201797649 0.4952329993 4287400320
-0.3013291955 -0.1196520552 0.4953262508 4287400320
-0.3013857007 -0.1191240400 0.4954191446 4287400320
-0.3014419675 -0.1185957342 0.4955116510 4287334529
-0.3009887338 -0.1178677008 0.4947665930 4287400322
-0.3010444641 -0.1173396930 0.4948582053 4287335299
-0.3010999560 -0.1168114021 0.4949494004 4287269506
-0.3016647696 -0.1164795682 0.4958778918 4287335299
-0.3017199039 -0.1159497947 0.4959684908 4287269506
-0.3017747998 -0.1154197380 0.4960587323 4287203713
-0.3018294573 -0.1148893833 0.4961485863 4287335299
-0.3018838763 -0.1143587455 0.4962380528 4287532678
-0.3019380867 -0.1138278246 0.4963271320 4287598471
-0.3019920290 -0.1132966131 0.4964158237 4287598471
-0.3020457625 -0.1127651185 0.4965041578 4287598471
-0.3020992577 -0.1122333407 0.4965921044 4287664264
-0.3026629090 -0.1118899658 0.4975186288 4287598471
-0.3027160466 -0.1113567278 0.4976059496 4287532424
-0.3027689159 -0.1108232066 0.4976928830 4287466631
-0.3028215766 -0.1102894098 0.4977793992 4287598471
-0.3033847213 -0.1099404171 0.4987051487 4287664264
-0.3034369946 -0.1094051674 0.4987910390 4287860873
-0.3034889996 -0.1088696346 0.4988765717 4287795080
-0.3035407960 -0.1083338261 0.4989616871 4287860873
-0.3041034341 -0.1079792306 0.4998865724 4287992459
-0.3041548431 -0.1074419767 0.4999710619 4287992457
-0.3042059839 -0.1069044471 0.5000551343 4287860871
-0.3042569160 -0.1063666493 0.5001388192 4287795078
-0.3043075800 -0.1058285832 0.5002221465 4287795078
-0.3048695624 -0.1054672077 0.5011458993 4287795078
-0.3049198389 -0.1049277037 0.5012285709 4287795078
-0.3054815829 -0.1045630798 0.5021519661 4287860871
-0.3055314422 -0.1040221304 0.5022339225 4287926664
-0.3055810928 -0.1034809276 0.5023155212 4287992457
-0.3056304753 -0.1029394567 0.5023967028 4288189836
-0.3061916530 -0.1025692448 0.5033192039 4288387215
-0.3062406480 -0.1020263359 0.5033997297 4288518801
-0.3062894046 -0.1014831737 0.5034798384 4288518801
-0.3068501651 -0.1011085510 0.5044016838 4288518801
-0.3063861728 -0.1003960744 0.5036389232 4288518801
-0.3074590266 -0.1001860946 0.5054025054 4288584594
-0.3080194592 -0.0998061523 0.5063237548 4288716180
-0.3080672324 -0.0992589816 0.5064022541 4288847766
-0.3086273968 -0.0988757983 0.5073230863 4288848536
-0.3097002506 -0.0986538753 0.5090866089 4288914329
-0.3097474873 -0.0981032029 0.5091642737 4288914842
-0.3103073835 -0.0977137983 0.5100846291 4288914842
-0.3103542030 -0.0971617103 0.5101615787 4288980635
-0.3104007840 -0.0966093838 0.5102381706 4289046428
-0.3104470968 -0.0960568041 0.5103142858 4289112221
-0.3110063970 -0.0956618339 0.5112336278 4289309600
-0.3105389774 -0.0949509069 0.5104653239 4289441443
-0.3105845451 -0.0943975896 0.5105402470 4289507236
-0.3106298447 -0.0938440338 0.5106146932 4289375141
-0.3111884296 -0.0934444293 0.5115329027 4289375141
-0.3112333119 -0.0928894728 0.5116066337 4289506727
-0.3112779260 -0.0923342779 0.5116800070 4289638313
-0.3118360341 -0.0919303000 0.5125974417 4289835692
-0.3118802011 -0.0913737118 0.5126700401 4289967278
-0.3119241297 -0.0908168852 0.5127422810 4289835950
-0.3119678199 -0.0902598277 0.5128140450 4289638571
-0.3125252426 -0.0898503140 0.5137303472 4288980643
-0.3136826456 -0.0884643495 0.5156328678 4288980643
-0.3114421964 -0.0832820013 0.5119500756 4288849575
-0.3109675348 -0.0825871229 0.5111697912 4288849575
-0.3104924858 -0.0818938762 0.5103889108 4288849575
-0.3147523701 -0.1632208079 0.5183376670 4285558884
-0.3148272634 -0.1626836061 0.5184610486 4283650887
-0.3149019778 -0.1621460319 0.5185840130 4283914564
-0.3139733672 -0.1610933840 0.5170547962 4284111943
-0.3135457337 -0.1603002697 0.5163505673 4283124529
-0.3131176531 -0.1595084965 0.5156455636 4281611290
-0.3121872246 -0.1584632993 0.5141133666 4285032777
-0.3112561107 -0.1574211568 0.5125799775 4284111675
-0.3103243113 -0.1563820839 0.5110454559 4283651125
-0.3093918264 -0.1553460807 0.5095098615 4284177469
-0.3084586859 -0.1543131471 0.5079731345 4284703048
-0.3080273271 -0.1535337567 0.5072628260 4286479459
-0.3075955510 -0.1527557224 0.5065517426 4288387205
-0.3071633279 -0.1519790590 0.5058399439 4287992447
-0.3067306578 -0.1512037516 0.5051274300 4287005302
-0.3062975705 -0.1504298002 0.5044142008 4287005302
-0.3058640063 -0.1496572345 0.5037001967 4287070844
-0.3054300249 -0.1488860399 0.5029855371 4287070844
-0.3049955964 -0.1481162161 0.5022701025 4287070847
-0.3045607507 -0.1473477632 0.5015539527 4287136640
-0.3041254282 -0.1465806961 0.5008370876 4287136386
-0.3041933179 -0.1460568309 0.5009489059 4287136386
-0.3037572801 -0.1452916563 0.5002307892 4287006334
-0.3033207655 -0.1445278823 0.4995119572 4287335299
-0.3033877909 -0.1440047026 0.4996223450 4286151021
-0.3029505312 -0.1432428360 0.4989022613 4282400820
-0.3030170202 -0.1427198350 0.4990117550 4282920230
-0.3025789857 -0.1419598907 0.4982904196 4283249195
-0.3026449382 -0.1414370835 0.4983990192 4284558893
-0.3027106822 -0.1409139335 0.4985072911 4284427307
-0.3017669618 -0.1399224550 0.4969531298 4283905074
-0.3018320501 -0.1394003779 0.4970603287 4285220934
-0.3008872271 -0.1384134740 0.4955043793 4286806645
-0.3014566004 -0.1381238103 0.4964420497 4287069817
-0.3010158837 -0.1373711079 0.4957162738 4286743162
-0.3010798991 -0.1368494183 0.4958216846 4286874748
-0.3011436760 -0.1363274008 0.4959267378 4287006332
-0.3007018864 -0.1355772018 0.4951991439 4287072125
-0.3002596498 -0.1348284185 0.4944708645 4287137150
-0.3008281589 -0.1345332712 0.4954071343 4287071357
-0.3003852665 -0.1337855905 0.4946777821 4287005564
-0.2999419570 -0.1330393404 0.4939477146 4287005564
-0.3005100489 -0.1327414513 0.4948832393 4287005564
-0.3000660837 -0.1319963038 0.4941521287 4287005564
-0.2996217012 -0.1312526017 0.4934203029 4287005562
-0.2996830940 -0.1307311654 0.4935214221 4287071355
-0.2997442782 -0.1302094012 0.4936221838 4287202941
-0.2998052537 -0.1296873242 0.4937225878 4287202941
-0.2998660207 -0.1291649342 0.4938226342 4287071355
-0.2994199097 -0.1284249276 0.4930879772 4287005562
-0.2994801104 -0.1279027760 0.4931871295 4286874746
-0.2995401025 -0.1273803264 0.4932859242 4286874746
-0.2990929186 -0.1266428977 0.4925495088 4286874746
-0.2991523445 -0.1261207014 0.4926473796 4286808953
-0.2992115617 -0.1255981922 0.4927448928 4287005562
-0.2992705703 -0.1250753701 0.4928420484 4287071355
-0.2993293405 -0.1245522425 0.4929388165 4287071355
-0.2998953164 -0.1242390275 0.4938708842 4287071355
-0.2999537289 -0.1237143949 0.4939671159 4287137148
-0.3000119328 -0.1231894642 0.4940629601 4287202941
-0.3000698984 -0.1226642206 0.4941584170 4287137148
-0.3001276553 -0.1221386716 0.4942535162 4287137148
-0.3001851737 -0.1216128245 0.4943482280 4287202941
-0.3002424538 -0.1210866794 0.4944425821 4287202941
-0.3002995253 -0.1205602288 0.4945365787 4287137148
-0.3003563881 -0.1200334802 0.4946301877 4287137148
-0.3004129827 -0.1195064262 0.4947234094 4287137148
-0.3004693687 -0.1189790815 0.4948162735 4287137148
-0.3005255163 -0.1184514388 0.4949087501 4287137148
-0.3005814552 -0.1179235056 0.4950008392 4287137148
-0.3006371558 -0.1173952669 0.4950925708 4287137148
-0.3006926179 -0.1168667451 0.4951839149 4287071355
-0.3007478714 -0.1163379252 0.4952748716 4287071357
-0.3002938926 -0.1156128645 0.4945272803 4287005564
-0.3008576334 -0.1152794212 0.4954556823 4287071357
-0.3009122014 -0.1147497371 0.4955455065 4287268736
-0.3009665012 -0.1142197624 0.4956349432 4287466113
-0.3010205925 -0.1136895046 0.4957240224 4287531906
-0.3010744452 -0.1131589562 0.4958126843 4287400322
-0.3011280596 -0.1126281321 0.4959009886 4287466115
-0.3011814356 -0.1120970175 0.4959889054 4287531908
-0.3017442822 -0.1117543951 0.4969158173 4287531908
-0.3017973006 -0.1112218201 0.4970031083 4287334531
-0.3018500805 -0.1106889695 0.4970900118 4287400324
-0.3024125695 -0.1103419065 0.4980163574 4287597701
-0.3024649620 -0.1098075956 0.4981026351 4287729287
-0.3025171161 -0.1092730090 0.4981885254 4287532678
-0.3025690317 -0.1087381393 0.4982740283 4287598471
-0.3031310439 -0.1083854660 0.4991995096 4287664264
-0.3031825721 -0.1078491509 0.4992843866 4287795850
-0.3037443459 -0.1074932218 0.5002095103 4287992457
-0.3037954867 -0.1069554538 0.5002937317 4287926664
-0.3033357263 -0.1062385663 0.4995366037 4287860871
-0.3038970530 -0.1058791131 0.5004609823 4287860871
-0.3039474487 -0.1053405404 0.5005440116 4287860871
-0.3045085669 -0.1049778387 0.5014680624 4287926664
-0.3045585752 -0.1044378206 0.5015504360 4288058504
-0.3051194549 -0.1040718630 0.5024740696 4288124297
-0.3051690757 -0.1035304144 0.5025557876 4288255883
-0.3052184284 -0.1029886976 0.5026370883 4288387469
-0.3057789207 -0.1026183292 0.5035600662 4288519055
-0.3058278859 -0.1020751819 0.5036407113 4288519055
-0.3058766127 -0.1015317738 0.5037209392 4288650387
-0.3064366579 -0.1011569872 0.5046432614 4288650387
-0.3059733212 -0.1004441828 0.5038802624 4288716180
-0.3065330684 -0.1000670642 0.5048019886 4288781973
-0.3070926964 -0.0996878594 0.5057236552 4288913559
-0.3076522648 -0.0993065834 0.5066451430 4289045145
-0.3082117438 -0.0989232361 0.5075664520 4289045915
-0.3087711036 -0.0985378027 0.5084876418 4289111708
-0.3093304038 -0.0981502980 0.5094087124 4289046428
-0.3098895848 -0.0977607146 0.5103296041 4288980635
-0.3099364042 -0.0972083881 0.5104066730 4289046428
-0.3104953170 -0.0968155637 0.5113270879 4289112221
-0.3105416894 -0.0962618217 0.5114035010 4289177760
-0.3105878234 -0.0957078263 0.5114794374 4289309346
-0.3106336892 -0.0951535925 0.5115549564 4289441445
-0.3101666570 -0.0944430009 0.5107858181 4289507238
-0.3102119267 -0.0938891917 0.5108604431 4289309348
-0.3107697964 -0.0934894085 0.5117791295 4289177762
-0.3108146489 -0.0929341987 0.5118529797 4289243553
-0.3108592629 -0.0923787504 0.5119264722 4289375139
-0.3114166558 -0.0919745862 0.5128443837 4289506727
-0.3114608228 -0.0914177448 0.5129171014 4289638313
-0.3115047216 -0.0908606648 0.5129894018 4289835693
-0.3115483820 -0.0903033465 0.5130612850 4289901486
-0.3121051192 -0.0898936540 0.5139781237 4289967538
-0.3126617372 -0.0894818828 0.5148947835 4290033331
-0.3127047718 -0.0889220387 0.5149656534 4290362296
-0.3132610619 -0.0885070488 0.5158817768 4290493882
-0.3133036494 -0.0879458189 0.5159518719 4290428089
-0.3133459687 -0.0873843580 0.5160216093 4290362296
-0.3128742874 -0.0866803452 0.5152447820 4290296505
-0.3124021888 -0.0859779418 0.5144673586 4290230712
-0.3114158213 -0.0851366743 0.5128430128 4289770161
-0.3114568293 -0.0845780075 0.5129105449 4289506989
-0.3109835684 -0.0838804692 0.5121311545 4289243817
-0.3105098903 -0.0831845626 0.5113511086 4288914852
-0.3100358248 -0.0824902803 0.5105704069 4288783012
-0.3095613718 -0.0817976370 0.5097890496 4288848805
-0.3096008301 -0.0812415779 0.5098540187 4288980391
-0.3137454987 -0.1635719240 0.5176262856 4287861643
-0.3143209815 -0.1632957906 0.5185757279 4286216814
-0.3143958747 -0.1627583802 0.5186992884 4283124543
-0.3144705296 -0.1622205824 0.5188224912 4283585599
-0.3135432601 -0.1611674875 0.5172926188 4283651392
-0.3126152754 -0.1601174474 0.5157616735 4283519285
-0.3131899536 -0.1598376930 0.5167097449 4282269218
-0.3117597699 -0.1585363001 0.5143501759 4284769342
-0.3108299673 -0.1574937105 0.5128161907 4284966721
-0.3098995388 -0.1564541906 0.5112811327 4283782451
-0.3089683950 -0.1554177403 0.5097448826 4284440381
-0.3080365956 -0.1543843746 0.5082075596 4283716407
-0.3076058924 -0.1536046565 0.5074970126 4283716407
-0.3071747720 -0.1528262943 0.5067857504 4287005807
-0.3067432046 -0.1520492882 0.5060737133 4287071600
-0.3058090508 -0.1510256678 0.5045325160 4287071349
-0.3058787584 -0.1504993886 0.5046474934 4287071349
-0.3049434721 -0.1494802386 0.5031045079 4287005305
-0.3055150211 -0.1492003649 0.5040474534 4286939512
-0.3045787811 -0.1481848210 0.5025027394 4287005054
-0.3041445613 -0.1474160552 0.5017864108 4287070847
-0.3037099242 -0.1466486603 0.5010693073 4287070595
-0.3037777841 -0.1461245716 0.5011812449 4287136388
-0.3033423722 -0.1453590840 0.5004629493 4287006332
-0.3029065430 -0.1445949823 0.4997438490 4287137918
-0.3029735386 -0.1440715939 0.4998543859 4286217586
-0.3030403256 -0.1435478479 0.4999645948 4281875248
-0.3026033938 -0.1427861899 0.4992437363 4283118125
-0.3021660149 -0.1420259178 0.4985221624 4282986539
-0.3022319376 -0.1415028870 0.4986309111 4284427307
-0.3012900054 -0.1405095905 0.4970768392 4284427307
-0.3013552725 -0.1399876177 0.4971845448 4283707695
-0.3014203310 -0.1394653171 0.4972918928 4284760383
-0.3009810150 -0.1387103200 0.4965671003 4286411887
-0.3005412817 -0.1379567534 0.4958415926 4286872438
-0.3006054759 -0.1374351829 0.4959475100 4286611833
-0.3006694317 -0.1369132847 0.4960530698 4286611833
-0.3007332087 -0.1363910586 0.4961582720 4286612087
-0.3002920747 -0.1356405169 0.4954304397 4286941052
-0.2998504937 -0.1348914206 0.4947019219 4286939769
-0.2999133766 -0.1343699545 0.4948056936 4286808183
-0.2999760807 -0.1338481456 0.4949091077 4286873976
-0.3000385463 -0.1333260238 0.4950121641 4286939769
-0.2995955646 -0.1325800121 0.4942813218 4287005562
-0.2996574938 -0.1320581138 0.4943835139 4287005562
-0.2992137671 -0.1313140839 0.4936514199 4286939769
-0.2997806668 -0.1310133636 0.4945867360 4286873976
-0.2993363142 -0.1302704513 0.4938535988 4287005562
-0.2993972600 -0.1297481507 0.4939541519 4287005562
-0.2994579673 -0.1292255372 0.4940543175 4287005562
-0.2990125418 -0.1284852028 0.4933194220 4286939769
-0.2990727127 -0.1279628426 0.4934187233 4287005562
-0.2991326749 -0.1274401546 0.4935176373 4286939769
-0.2986861467 -0.1267024130 0.4927809536 4286874230
-0.2987455726 -0.1261799932 0.4928789735 4286808437
-0.2988047600 -0.1256572604 0.4929766357 4286873976
-0.2988637388 -0.1251342148 0.4930739403 4287005562
-0.2989224792 -0.1246108711 0.4931708574 4287005562
-0.2989809811 -0.1240872070 0.4932673872 4286939769
-0.2990393043 -0.1235632449 0.4933635890 4286939769
-0.2996043265 -0.1232475117 0.4942957759 4286939769
-0.2996622622 -0.1227220446 0.4943913817 4286939769
-0.2997199893 -0.1221962720 0.4944866002 4287005562
-0.2997774780 -0.1216702014 0.4945814610 4287005562
-0.2998347580 -0.1211438254 0.4946759641 4287005562
-0.2998917997 -0.1206171513 0.4947700500 4287071355
-0.2999486029 -0.1200901717 0.4948638082 4287071355
-0.3000051975 -0.1195628941 0.4949571788 4287005562
-0.3000615537 -0.1190353185 0.4950501621 4287071355
-0.3001177013 -0.1185074523 0.4951427579 4287137148
-0.3001736104 -0.1179792807 0.4952349961 4287137148
-0.2997212708 -0.1172520891 0.4944887459 4287137402
-0.2997766137 -0.1167242303 0.4945800602 4287137402
-0.2998317480 -0.1161960810 0.4946709871 4287071355
-0.2998866439 -0.1156676337 0.4947615564 4287071355
-0.2999413013 -0.1151389033 0.4948517382 4287202941
-0.2999957204 -0.1146098822 0.4949415326 4287268734
-0.3000499308 -0.1140805781 0.4950309694 4287202941
-0.3001039028 -0.1135509834 0.4951200187 4287137148
-0.3006663918 -0.1132126600 0.4960480034 4287268734
-0.3007199764 -0.1126815975 0.4961364269 4287268734
-0.3007733524 -0.1121502519 0.4962244630 4287334529
-0.3008264601 -0.1116186231 0.4963121116 4287400322
-0.3013884723 -0.1112746820 0.4972393215 4287334529
-0.3014412224 -0.1107415929 0.4973263443 4287466115
-0.3020029962 -0.1103943884 0.4982531965 4287729287
-0.3020553887 -0.1098598391 0.4983395934 4287860873
-0.3021075130 -0.1093250141 0.4984256029 4287598471
-0.3021593988 -0.1087899059 0.4985112250 4287730057
-0.3027206957 -0.1084370837 0.4994372725 4287730057
-0.3027721941 -0.1079005301 0.4995222390 4287795850
-0.3028234839 -0.1073637009 0.4996068180 4287927434
-0.3028745055 -0.1068266034 0.4996910095 4287861641
-0.3029252887 -0.1062892303 0.4997748137 4287926664
-0.3034859002 -0.1059296206 0.5006997585 4287992457
-0.3035362959 -0.1053908095 0.5007829070 4288058250
-0.3040966988 -0.1050279513 0.5017074347 4288124043
-0.3041466773 -0.1044876948 0.5017899275 4288190090
-0.3041964471 -0.1039471701 0.5018720031 4288255883
-0.3047564328 -0.1035798863 0.5027958751 4288452749
-0.3048057854 -0.1030379310 0.5028773546 4288584335
-0.3053655624 -0.1026673913 0.5038008094 4288650128
-0.3054144979 -0.1021240056 0.5038815737 4288650128
-0.3054632246 -0.1015803516 0.5039619803 4288584848
-0.3055116832 -0.1010364369 0.5040419102 4288650641
-0.3060708642 -0.1006603166 0.5049644709 4288782227
-0.3061189353 -0.1001149863 0.5050437450 4288913813
-0.3066778481 -0.0997356176 0.5059658885 4289045399
-0.3072367013 -0.0993541703 0.5068879128 4289242778
-0.3077954650 -0.0989706516 0.5078097582 4289243294
-0.3078427613 -0.0984215587 0.5078877807 4289309087
-0.3084012568 -0.0980347991 0.5088092089 4289243807
-0.3089596629 -0.0976459533 0.5097305179 4289112221
-0.3095179796 -0.0972550362 0.5106516480 4289112221
-0.3100761771 -0.0968620405 0.5115725994 4289178014
-0.3101225495 -0.0963080451 0.5116490722 4289177760
-0.3101686537 -0.0957538038 0.5117251277 4289309346
-0.3102145195 -0.0951993093 0.5118007660 4289375652
-0.3102601171 -0.0946445763 0.5118760467 4289441445
-0.3097934127 -0.0939343274 0.5111060143 4289243296
-0.3103505671 -0.0935343727 0.5120252371 4289177503
-0.3103954196 -0.0929789096 0.5120992064 4289243553
-0.3104400039 -0.0924232006 0.5121727586 4289506725
-0.3109966815 -0.0920188576 0.5130912066 4289769897
-0.3110408187 -0.0914617553 0.5131640434 4290230448
-0.3110847175 -0.0909044221 0.5132364631 4290954174
-0.3111283481 -0.0903468505 0.5133084655 4291480518
-0.3116843700 -0.0899369717 0.5142258406 4291612104
-0.3122403026 -0.0895250142 0.5151429772 4291743690
-0.3122833073 -0.0889649093 0.5152139068 4292072912
-0.3118132055 -0.0882594064 0.5144383311 4292072912
-0.3123685420 -0.0878439993 0.5153545737 4292007121
-0.3124107718 -0.0872832090 0.5154242516 4292007121
-0.3114266396 -0.0864373818 0.5138005614 4291941330
-0.3114682138 -0.0858779773 0.5138691664 4292007123
-0.3104831278 -0.0850372314 0.5122439861 4291941330
-0.3105240762 -0.0844792277 0.5123115182 4291809744
-0.3100514114 -0.0837822855 0.5115316510 4291809744
-0.3100917339 -0.0832247660 0.5115982294 4291678158
-0.3096183538 -0.0825301632 0.5108172297 4291217607
-0.3091445863 -0.0818371922 0.5100355744 4290493884
-0.3086704314 -0.0811458528 0.5092533231 4289572528
-0.3127395213 -0.1639211029 0.5169137716 4287729804
-0.3133142292 -0.1636469662 0.5178637505 4287861390
-0.3138889968 -0.1633707285 0.5188137293 4287006591
-0.3139638603 -0.1628331095 0.5189374685 4283322183
-0.3140384853 -0.1622951031 0.5190607905 4284045896
-0.3136127293 -0.1614991426 0.5183570981 4284243275
-0.3121859431 -0.1601910740 0.5159987807 4282927918
-0.3127598763 -0.1599112153 0.5169474483 4282598953
-0.3113317192 -0.1586092710 0.5145868659 4284635966
-0.3099026084 -0.1573120952 0.5122247934 4286149205
-0.3089734018 -0.1562729925 0.5106889606 4283912754
-0.3080434799 -0.1552369595 0.5091519356 4284373305
-0.3076139092 -0.1544555575 0.5084419250 4283256105
-0.3071838915 -0.1536755115 0.5077311397 4283914035
-0.3067534268 -0.1528968215 0.5070196390 4284902219
