VERSION 0.7
FIELDS x y z rgba
SIZE 4 4 4 4
TYPE F F F U
COUNT 1 1 1 1
WIDTH 920
HEIGHT 1
VIEWPOINT 0.0 0.0 0.0 1.0 0.0 0.0 0.0
POINTS 920
DATA ascii
-0.2918150127 -0.1403247118 0.6002307534 4290889166
-0.2923015654 -0.1398906708 0.6012315750 4290889168
-0.2919319570 -0.1390466094 0.6004713178 4291941856
-0.2919900715 -0.1384069920 0.6005908251 4293126898
-0.2941376567 -0.1613041013 0.6063934565 4293193206
-0.2942040861 -0.1606666446 0.6065304279 4292930034
-0.2942703068 -0.1600287557 0.6066669226 4292863728
-0.2947610021 -0.1596204340 0.6076785922 4292666349
-0.2948268354 -0.1589807570 0.6078143120 4292732142
-0.2948924601 -0.1583406627 0.6079495549 4292863728
-0.2953828275 -0.1579273641 0.6089605093 4292732140
-0.2954480648 -0.1572854966 0.6090949774 4292600554
-0.2955130339 -0.1566431969 0.6092289686 4292533991
-0.2955777943 -0.1560004652 0.6093624830 4292270819
-0.2956423163 -0.1553573310 0.6094954610 4291745245
-0.2957065701 -0.1547137648 0.6096279621 4291547866
-0.2957706153 -0.1540697813 0.6097599864 4291218901
-0.2958344221 -0.1534253806 0.6098915339 4290955729
-0.2958979607 -0.1527805626 0.6100225449 4291153108
-0.2959612906 -0.1521353275 0.6101530790 4291679452
-0.2955984175 -0.1512717009 0.6094049811 4292074210
-0.2952351272 -0.1504095346 0.6086560488 4292205796
-0.2952975631 -0.1497649252 0.6087847352 4292270819
-0.2949334979 -0.1489047259 0.6080341935 4292073440
-0.2941427529 -0.1478317380 0.6064040065 4292073440
-0.2937777936 -0.1469753981 0.6056515574 4292073440
-0.2934124172 -0.1461205035 0.6048982739 4291744475
-0.2930465937 -0.1452670842 0.6041441560 4291481303
-0.2922537327 -0.1442046165 0.6025095582 4291349719
-0.2918869853 -0.1433550715 0.6017535329 4291283926
-0.2919466794 -0.1427156478 0.6018765569 4291810268
-0.2915791869 -0.1418681294 0.6011189818 4292205026
-0.2912113070 -0.1410220861 0.6003605127 4292336614
-0.2908429801 -0.1401775330 0.5996012092 4292073442
-0.2909014523 -0.1395393610 0.5997217298 4291349719
-0.2905323803 -0.1386968493 0.5989608765 4290560203
-0.2905902565 -0.1380588561 0.5990801454 4291087315
-0.2906478941 -0.1374204904 0.5991989970 4292600554
-0.2932277620 -0.1605009735 0.6059050560 4293258999
-0.2932938039 -0.1598637700 0.6060414910 4293193204
-0.2933596373 -0.1592261344 0.6061775088 4292798446
-0.2938492298 -0.1588172466 0.6071891785 4292863726
-0.2939146757 -0.1581778377 0.6073244214 4293061105
-0.2939798832 -0.1575379968 0.6074591279 4293324277
-0.2940448523 -0.1568977386 0.6075934172 4293587449
-0.2945339978 -0.1564825326 0.6086040735 4293719035
-0.2945985794 -0.1558404863 0.6087375879 4293521656
-0.2946629226 -0.1551980376 0.6088705659 4293258484
-0.2947270274 -0.1545551568 0.6090030074 4292468968
-0.2947909236 -0.1539118588 0.6091350317 4291613659
-0.2948545516 -0.1532681435 0.6092665195 4291087315
-0.2949179411 -0.1526240110 0.6093974710 4290758350
-0.2949811220 -0.1519794762 0.6095280051 4290626764
-0.2946188748 -0.1511164457 0.6087795496 4290889936
-0.2942562401 -0.1502548754 0.6080302000 4291350487
-0.2943184972 -0.1496109664 0.6081588268 4291941854
-0.2939551175 -0.1487513632 0.6074079275 4292205026
-0.2935912907 -0.1478932202 0.6066561937 4292270819
-0.2928014696 -0.1468231380 0.6050241590 4292073440
-0.2928624153 -0.1461813301 0.6051501036 4291876061
-0.2920715809 -0.1451160461 0.6035159826 4291810268
-0.2917059958 -0.1442646980 0.6027605534 4291612889
-0.2913400233 -0.1434148252 0.6020042896 4291152338
-0.2913996279 -0.1427751631 0.6021274924 4291086547
-0.2910328805 -0.1419273019 0.6013696790 4291678684
-0.2902395427 -0.1408740729 0.5997303724 4292270821
-0.2898718715 -0.1400301158 0.5989706516 4292468200
-0.2899301946 -0.1393926442 0.5990911126 4292139235
-0.2895617783 -0.1385507435 0.5983299017 4291349719
-0.2891929746 -0.1377103329 0.5975677967 4290626766
-0.2888237536 -0.1368714124 0.5968048573 4290692559
-0.2888808250 -0.1362352371 0.5969228148 4291942624
-0.2893644273 -0.1357989758 0.5979221463 4293390070
-0.2918294072 -0.1601030082 0.6044027209 4293193206
-0.2918952107 -0.1594674140 0.6045389175 4293061618
-0.2919607759 -0.1588314027 0.6046746969 4292732653
-0.2924492955 -0.1584242135 0.6056865454 4292797933
-0.2925145030 -0.1577864140 0.6058215499 4293126898
-0.2925794423 -0.1571481824 0.6059560180 4293521656
-0.2932606637 -0.1548147649 0.6073669195 4293653242
-0.2933245301 -0.1541735083 0.6074991822 4292863726
-0.2933881581 -0.1535318196 0.6076309681 4291942624
-0.2934515476 -0.1528897285 0.6077622175 4291416280
-0.2935146987 -0.1522472203 0.6078929901 4290955729
-0.2935775816 -0.1516042948 0.6080232859 4290429385
-0.2936402559 -0.1509609520 0.6081531048 4290363592
-0.2932782769 -0.1500999779 0.6074033976 4290824143
-0.2933403552 -0.1494567543 0.6075319648 4291218131
-0.2929776311 -0.1485977471 0.6067807078 4291810268
-0.2926144600 -0.1477402151 0.6060285568 4292270819
-0.2922508717 -0.1468841434 0.6052755117 4292139233
-0.2918868661 -0.1460295320 0.6045216322 4291810268
-0.2915224433 -0.1451763809 0.6037669182 4291810268
-0.2911576033 -0.1443247050 0.6030113101 4291810268
-0.2907923460 -0.1434745044 0.6022548079 4291547096
-0.2908518910 -0.1428345889 0.6023781896 4291086547
-0.2904858887 -0.1419864148 0.6016201377 4291152340
-0.2896941006 -0.1409327686 0.5999802351 4291547096
-0.2893271744 -0.1400884837 0.5992203355 4292007647
-0.2889598310 -0.1392457038 0.5984595418 4292270819
-0.2885921001 -0.1384043992 0.5976979136 4292270819
-0.2886496782 -0.1377678066 0.5978171825 4291613659
-0.2878553867 -0.1367263049 0.5961720943 4290955729
-0.2874864042 -0.1358895004 0.5954079628 4290363592
-0.2879689932 -0.1354549676 0.5964074135 4291547866
-0.2880254388 -0.1348187327 0.5965242982 4292995312
-0.2900114357 -0.1594724655 0.6020223498 4293258999
-0.2904991210 -0.1590706110 0.6030346751 4293193204
-0.2905644178 -0.1584362090 0.6031702161 4293127411
-0.2910518944 -0.1580307335 0.6041821837 4293390583
-0.2919245362 -0.1537914127 0.6059936285 4293719035
-0.2919878960 -0.1531513631 0.6061251760 4292995312
-0.2920510471 -0.1525108814 0.6062562466 4292271589
-0.2921139300 -0.1518699825 0.6063867807 4291745245
-0.2921766043 -0.1512286812 0.6065168977 4291021522
-0.2922390103 -0.1505869627 0.6066464782 4290495178
-0.2923012078 -0.1499448270 0.6067755222 4290495178
-0.2919394374 -0.1490859091 0.6060245633 4290823373
-0.2920010388 -0.1484438926 0.6061524749 4291086545
-0.2916385233 -0.1475869566 0.6053999066 4291678682
-0.2912755907 -0.1467314959 0.6046465039 4291941854
-0.2909122407 -0.1458774805 0.6038922668 4291876061
-0.2909726202 -0.1452366561 0.6040176153 4291744475
-0.2906085253 -0.1443846524 0.6032617688 4291678682
-0.2902440131 -0.1435341239 0.6025050879 4291481303
-0.2898790538 -0.1426850706 0.6017475128 4291349719
-0.2895137072 -0.1418374926 0.6009891033 4291086547
-0.2895725369 -0.1411984414 0.6011112332 4291218385
-0.2887817919 -0.1401467919 0.5994697213 4291349971
-0.2879904211 -0.1390985250 0.5978270173 4291547350
-0.2876233459 -0.1382578313 0.5970649719 4292205280
-0.2876807749 -0.1376219243 0.5971841812 4292271589
-0.2873129547 -0.1367833018 0.5964206457 4291679452
-0.2869447172 -0.1359461695 0.5956562757 4291087315
-0.2865760624 -0.1351105571 0.5948910117 4290495178
-0.2866322994 -0.1344759613 0.5950076580 4291021522
-0.2866882682 -0.1338409930 0.5951238871 4292666347
-0.2905901670 -0.1527704597 0.6046176553 4293653242
-0.2906530499 -0.1521316022 0.6047485471 4293192691
-0.2907156944 -0.1514923275 0.6048789024 4292534761
-0.2907781005 -0.1508526355 0.6050087214 4291876831
-0.2908402979 -0.1502125412 0.6051381230 4291284692
-0.2909022272 -0.1495720446 0.6052669883 4290758348
-0.2909639180 -0.1489311159 0.6053953171 4290560201
-0.2910253704 -0.1482897997 0.6055232286 4290560201
-0.2906635106 -0.1474334747 0.6047703028 4290691787
-0.2903012335 -0.1465785950 0.6040164828 4291086545
-0.2903617918 -0.1459379345 0.6041424870 4291481305
-0.2899987400 -0.1450850666 0.6033871174 4291415512
-0.2904821932 -0.1446554065 0.6043930054 4291152338
-0.2901184857 -0.1438036114 0.6036363244 4291020752
-0.2893307805 -0.1427442878 0.6019973159 4291284696
-0.2885424495 -0.1416883320 0.6003571153 4291284696
-0.2886011600 -0.1410499662 0.6004791856 4291021524
-0.2882357240 -0.1402050406 0.5997188687 4290692559
-0.2878698707 -0.1393615901 0.5989576578 4291087317
-0.2875036001 -0.1385196447 0.5981956124 4291745247
-0.2867127955 -0.1374758333 0.5965502262 4292140003
-0.2863456309 -0.1366378069 0.5957862735 4292205796
-0.2859780490 -0.1358013004 0.5950214863 4292007647
-0.2856100798 -0.1349662989 0.5942558050 4291481303
-0.2852416635 -0.1341328025 0.5934893489 4290691787
-0.2852974236 -0.1334994733 0.5936053395 4290757580
-0.2849282920 -0.1326680630 0.5928372741 4292336612
-0.2893199921 -0.1511142254 0.6033692360 4293455861
-0.2893821597 -0.1504761726 0.6034988761 4292797931
-0.2894440889 -0.1498377025 0.6036280394 4292074208
-0.2903498113 -0.1496337950 0.6055169106 4291416278
-0.2895672321 -0.1485595256 0.6038848162 4290824141
-0.2896284461 -0.1479198337 0.6040124893 4290429383
-0.2896894217 -0.1472797245 0.6041396260 4290231236
-0.2893277705 -0.1464254707 0.6033854485 4290362822
-0.2893881798 -0.1457854956 0.6035114527 4290757582
-0.2890258133 -0.1449332386 0.6027557254 4290889168
-0.2890856564 -0.1442933977 0.6028804779 4290757580
-0.2891452610 -0.1436531693 0.6030048132 4290691787
-0.2883589864 -0.1425943673 0.6013650894 4290692559
-0.2884179354 -0.1419552267 0.6014879942 4290955731
-0.2880536616 -0.1411084831 0.6007282734 4291153110
-0.2872658968 -0.1400569528 0.5990854502 4291218903
-0.2869006991 -0.1392141283 0.5983238220 4291021524
-0.2865350842 -0.1383727789 0.5975613594 4290955731
-0.2861690819 -0.1375329494 0.5967980623 4291482073
-0.2853792608 -0.1364921033 0.5951508880 4292205796
-0.2850123346 -0.1356562078 0.5943856835 4292468198
-0.2846449912 -0.1348218173 0.5936196446 4292139233
-0.2847009301 -0.1341886222 0.5937362909 4291547096
-0.2843328714 -0.1333563179 0.5929687023 4290625994
-0.2843882442 -0.1327233166 0.5930841565 4290362822
-0.2844433486 -0.1320899576 0.5931991339 4291744475
-0.2844982445 -0.1314562261 0.5933135748 4293455093
-0.2879887521 -0.1500992775 0.6019873023 4293653240
-0.2884715497 -0.1496809423 0.6029965281 4292995310
-0.2885330915 -0.1490427554 0.6031251550 4292468966
-0.2885943651 -0.1484041512 0.6032532454 4291876829
-0.2886554301 -0.1477651596 0.6033809185 4291153106
-0.2887162566 -0.1471257508 0.6035080552 4290232006
-0.2887768447 -0.1464859396 0.6036346555 4289903041
-0.2884155214 -0.1456328183 0.6028794050 4290034629
-0.2884755433 -0.1449931413 0.6030048728 4290232008
-0.2881134748 -0.1441420168 0.6022480130 4290428615
-0.2877510190 -0.1432923824 0.6014903784 4290560201
-0.2873881161 -0.1424442232 0.6007317901 4290560973
-0.2870248258 -0.1415975392 0.5999724269 4290560973
-0.2870832980 -0.1409596354 0.6000946164 4290758352
-0.2867192626 -0.1401149929 0.5993337035 4291153110
-0.2863548100 -0.1392718256 0.5985718369 4291153110
-0.2855675220 -0.1382256895 0.5969261527 4290824145
-0.2852021754 -0.1373864710 0.5961624384 4290824145
-0.2848364115 -0.1365487427 0.5953978896 4291153110
-0.2844702303 -0.1357125193 0.5946325064 4291612889
-0.2841036618 -0.1348778158 0.5938662291 4292073440
-0.2837366462 -0.1340446174 0.5930991173 4292402405
-0.2837921977 -0.1334117502 0.5932152271 4291941854
-0.2834244967 -0.1325806379 0.5924465656 4291020752
-0.2834794819 -0.1319479793 0.5925614834 4290428615
-0.2835341990 -0.1313149482 0.5926759243 4291218131
-0.2835887074 -0.1306815594 0.5927898288 4292797163
-0.2870796025 -0.1493053287 0.6014833450 4293719033
-0.2871409059 -0.1486687660 0.6016117334 4293390068
-0.2872019410 -0.1480318010 0.6017396450 4292797931
-0.2868421674 -0.1471786350 0.6009858847 4292074208
-0.2873233259 -0.1467566639 0.6019939780 4291153108
-0.2873836756 -0.1461184770 0.6021204591 4290297799
-0.2870229185 -0.1452668905 0.6013646126 4289837248
-0.2870827019 -0.1446288526 0.6014898419 4289639869
-0.2871422470 -0.1439904124 0.6016145945 4289705664
-0.2867804170 -0.1431413740 0.6008564830 4289837250
-0.2868393958 -0.1425030828 0.6009800434 4290100420
-0.2864768505 -0.1416560709 0.6002204418 4290100420
-0.2861138582 -0.1408105493 0.5994599462 4290166213
-0.2857504785 -0.1399665177 0.5986986160 4290429385
-0.2853867114 -0.1391239762 0.5979363918 4290889936
-0.2850224972 -0.1382829249 0.5971733332 4291218901
-0.2846578956 -0.1374433786 0.5964094400 4291152338
-0.2842928767 -0.1366053373 0.5956446528 4290823373
-0.2839274406 -0.1357687861 0.5948790312 4290757580
-0.2835616171 -0.1349337548 0.5941125154 4291612889
-0.2831953764 -0.1341002285 0.5933451653 4292270819
-0.2832508683 -0.1334671229 0.5934614539 4292336612
-0.2828838825 -0.1326356828 0.5926925540 4292073440
-0.2825165093 -0.1318057626 0.5919228792 4291283924
-0.2825711071 -0.1311734468 0.5920372605 4290691787
-0.2826254666 -0.1305407435 0.5921511054 4290954959
-0.2826795876 -0.1299076974 0.5922645330 4292074208
-0.2827334404 -0.1292742789 0.5923773646 4293455861
-0.2858120501 -0.1476590335 0.6002243757 4293587447
-0.2854528427 -0.1468073875 0.5994699597 4293126896
-0.2859329581 -0.1463871449 0.6004782915 4292403175
-0.2859930694 -0.1457505971 0.6006044745 4291547866
-0.2856328785 -0.1449005604 0.5998480320 4290626764
-0.2856923938 -0.1442641467 0.5999730825 4289903041
-0.2857517004 -0.1436273456 0.6000975966 4289508283
-0.2858107686 -0.1429901421 0.6002216339 4289376697
-0.2854492068 -0.1421432048 0.5994623303 4289573560
-0.2855076790 -0.1415061504 0.5995851755 4289836732
-0.2851453722 -0.1406612396 0.5988242626 4290034111
-0.2847826481 -0.1398178190 0.5980625749 4290034111
-0.2844195366 -0.1389758885 0.5972999334 4290428869
-0.2844768167 -0.1383401006 0.5974202752 4291021006
-0.2841129601 -0.1375002265 0.5966561437 4291349971
-0.2837486863 -0.1366618574 0.5958911180 4291284178
-0.2829629183 -0.1356231719 0.5942409635 4291021006
-0.2825977504 -0.1347887516 0.5934740901 4290757834
-0.2826534212 -0.1341557801 0.5935909748 4291218385
-0.2822875082 -0.1333234459 0.5928226113 4291876315
-0.2823426127 -0.1326906681 0.5929383039 4292205026
-0.2819759846 -0.1318604350 0.5921683908 4292336612
-0.2820305228 -0.1312278658 0.5922828913 4291678682
-0.2816631794 -0.1303997338 0.5915114284 4290560201
-0.2812954187 -0.1295731217 0.5907391310 4290100418
-0.2813490629 -0.1289413571 0.5908517838 4291547864
-0.2814024687 -0.1283092201 0.5909639597 4293061357
-0.2841260731 -0.1458021551 0.5980786681 4293455861
-0.2846049964 -0.1453823000 0.5990868211 4292732138
-0.2842453718 -0.1445338130 0.5983297825 4291876829
-0.2843046784 -0.1438990235 0.5984545946 4291021520
-0.2843637168 -0.1432638615 0.5985789299 4290166213
-0.2840030491 -0.1424179226 0.5978196859 4289574076
-0.2840615511 -0.1417829096 0.5979428291 4289310388
-0.2841198146 -0.1411474943 0.5980654955 4289376181
-0.2837580740 -0.1403041333 0.5973040462 4289639353
-0.2838157713 -0.1396688819 0.5974254608 4289770939
-0.2834532857 -0.1388275772 0.5966625214 4289968318
-0.2830904126 -0.1379877627 0.5958986282 4290363076
-0.2831472158 -0.1373532265 0.5960182548 4290823627
-0.2827836275 -0.1365154833 0.5952528715 4291086799
-0.2824195921 -0.1356792301 0.5944865942 4291152592
-0.2820551693 -0.1348444819 0.5937194824 4290626248
-0.2816903591 -0.1340112537 0.5929515362 4290626248
-0.2817456424 -0.1333786249 0.5930678844 4291086799
-0.2813800871 -0.1325474828 0.5922984481 4291876315
-0.2810141146 -0.1317178607 0.5915280581 4292468452
-0.2810685039 -0.1310859919 0.5916426182 4292205280
-0.2807018161 -0.1302584857 0.5908707380 4291613143
-0.2807556689 -0.1296268404 0.5909840465 4290692555
-0.2803882360 -0.1288014352 0.5902106762 4290232004
-0.2804415226 -0.1281700134 0.5903227925 4290889934
-0.2800734043 -0.1273467392 0.5895478725 4292534759
-0.2801260948 -0.1267155558 0.5896588564 4293785080
-0.2828011215 -0.1447993815 0.5966846943 4293324788
-0.2824420035 -0.1439533681 0.5959269404 4292797931
-0.2825009525 -0.1433211714 0.5960513949 4292140001
-0.2825596929 -0.1426885724 0.5961753130 4291284694
-0.2826181948 -0.1420555860 0.5962987542 4290560971
-0.2822576761 -0.1412126869 0.5955380797 4289836478
-0.2823156118 -0.1405798495 0.5956603289 4289441720
-0.2823733091 -0.1399466246 0.5957820415 4289310134
-0.2824307680 -0.1393130124 0.5959032774 4289507513
-0.2820688784 -0.1384732574 0.5951397419 4289705146
-0.2821257710 -0.1378398240 0.5952597857 4289968318
-0.2821824551 -0.1372060031 0.5953793526 4290165697
-0.2818194926 -0.1363688707 0.5946135521 4290363076
-0.2814561427 -0.1355332434 0.5938469172 4290626248
-0.2810924053 -0.1346991211 0.5930794477 4290955213
-0.2811478376 -0.1340666115 0.5931964517 4290626248
-0.2807833552 -0.1332345754 0.5924274325 4290034111
-0.2804184854 -0.1324040592 0.5916575193 4290494662
-0.2804730535 -0.1317723244 0.5917726755 4291481557
-0.2805273831 -0.1311402321 0.5918873549 4292073694
-0.2801614702 -0.1303123832 0.5911152363 4292336866
-0.2797951102 -0.1294860840 0.5903422832 4291876315
-0.2798485756 -0.1288547814 0.5904551148 4291021006
-0.2794815302 -0.1280305982 0.5896806121 4290494662
-0.2791140676 -0.1272079498 0.5889053345 4290823627
-0.2791666389 -0.1265774667 0.5890162587 4292007901
-0.2787984610 -0.1257569492 0.5882394314 4293521140
-0.2806428075 -0.1433723420 0.5935217142 4293456374
-0.2807014287 -0.1427427232 0.5936456919 4292995823
-0.2807598412 -0.1421127021 0.5937692523 4292337893
-0.2808180153 -0.1414822936 0.5938922763 4291614170
-0.2808759511 -0.1408514827 0.5940147638 4290889166
-0.2809336483 -0.1402202994 0.5941368341 4290297029
-0.2809911072 -0.1395887136 0.5942583680 4289704892
-0.2806301117 -0.1387499720 0.5934948921 4289375927
-0.2806870341 -0.1381185502 0.5936152339 4289310134
-0.2807436883 -0.1374867558 0.5937350988 4289507513
-0.2808001339 -0.1368545890 0.5938544273 4289770685
-0.2808563411 -0.1362220198 0.5939732790 4289902271
-0.2804936469 -0.1353870183 0.5932062864 4289770939
-0.2801305652 -0.1345535219 0.5924383998 4290165697
-0.2801858783 -0.1339217126 0.5925553441 4290692041
-0.2798220515 -0.1330903023 0.5917859077 4290428869
-0.2798767984 -0.1324587017 0.5919017196 4289902525
-0.2799313366 -0.1318267286 0.5920170546 4290297283
-0.2799856067 -0.1311943978 0.5921317935 4291152592
-0.2796204090 -0.1303662360 0.5913594961 4291744729
-0.2792548239 -0.1295396090 0.5905863643 4292139487
-0.2793082297 -0.1289080679 0.5906992555 4292073694
-0.2789419293 -0.1280835569 0.5899245739 4291612889
-0.2785752118 -0.1272605807 0.5891490579 4290494408
-0.2782081068 -0.1264391541 0.5883726478 4290231236
-0.2778406143 -0.1256192774 0.5875954628 4291415510
-0.2774727046 -0.1248009428 0.5868173838 4292863724
-0.2793811560 -0.1417478174 0.5922446251 4293390322
-0.2794390917 -0.1411190480 0.5923674703 4292666599
-0.2794967890 -0.1404898763 0.5924897790 4291942876
-0.2795542777 -0.1398603320 0.5926116109 4291087567
-0.2796114981 -0.1392304003 0.5927329063 4290232258
-0.2796684802 -0.1386000812 0.5928537250 4289574328
-0.2797252536 -0.1379693747 0.5929740667 4289179570
-0.2797817886 -0.1373382807 0.5930938721 4289113777
-0.2794204056 -0.1365027726 0.5923278332 4289179316
-0.2794763744 -0.1358718574 0.5924464464 4289047730
-0.2795321047 -0.1352405697 0.5925645828 4289310388
-0.2791696787 -0.1344076991 0.5917962790 4288455079
-0.2792248428 -0.1337766051 0.5919132829 4288849835
-0.2792797685 -0.1331451386 0.5920296907 4290099902
-0.2789162993 -0.1323149204 0.5912592411 4290297281
-0.2789706886 -0.1316836625 0.5913744569 4289968316
-0.2790248096 -0.1310520172 0.5914892554 4290297283
-0.2786602974 -0.1302244961 0.5907165408 4290757834
-0.2787138820 -0.1295930743 0.5908300877 4291876315
-0.2783486545 -0.1287676543 0.5900558829 4292336866
-0.2784016728 -0.1281364560 0.5901682377 4292271073
-0.2780357003 -0.1273131669 0.5893924832 4291810522
-0.2772505581 -0.1263006330 0.5877280831 4291087315
-0.2773025930 -0.1256712228 0.5878384113 4290429385
-0.2765164971 -0.1246636808 0.5861719847 4291021520
-0.2765679061 -0.1240354627 0.5862810016 4292600552
-0.2761999667 -0.1232199147 0.5855010152 4293653494
-0.2758821845 -0.1217785701 0.5848273039 4294443007
-0.2780627608 -0.1407553852 0.5908409357 4293587701
-0.2781202197 -0.1401278675 0.5909630656 4292929771
-0.2781774700 -0.1394999623 0.5910846591 4292206048
-0.2782344520 -0.1388716698 0.5912057757 4291350739
-0.2782912254 -0.1382430047 0.5913263559 4290495430
-0.2783477306 -0.1376139373 0.5914464593 4289705914
-0.2784040272 -0.1369844973 0.5915660858 4289245363
-0.2784600854 -0.1363546699 0.5916851759 4289047730
-0.2780989707 -0.1355212927 0.5909178853 4288718765
-0.2781544626 -0.1348916590 0.5910357833 4288981423
-0.2782097459 -0.1342616379 0.5911532640 4288520872
-0.2778475881 -0.1334309131 0.5903837085 4287928733
-0.2779022753 -0.1328011006 0.5904999375 4288520870
-0.2779567540 -0.1321709156 0.5906156898 4290034109
-0.2780109942 -0.1315403581 0.5907309055 4290428867
-0.2776474655 -0.1307128668 0.5899584889 4290034111
-0.2777011395 -0.1300825179 0.5900725722 4290231490
-0.2777545750 -0.1294518113 0.5901861191 4290297283
-0.2778077722 -0.1288207471 0.5902991295 4291547350
-0.2774429023 -0.1279965490 0.5895237923 4292205026
-0.2770776153 -0.1271738857 0.5887476802 4292336612
-0.2767119408 -0.1263527721 0.5879706740 4292402405
-0.2763458788 -0.1255331933 0.5871927738 4291349717
-0.2759793997 -0.1247151792 0.5864140987 4290494662
-0.2756125331 -0.1238987073 0.5856345892 4290889420
-0.2752452791 -0.1230837926 0.5848541856 4291547864
-0.2752960026 -0.1224565431 0.5849619508 4293126896
-0.2767462432 -0.1397654414 0.5894345641 4293719287
-0.2772188485 -0.1393481046 0.5904412270 4293258736
-0.2772757113 -0.1387205273 0.5905622840 4292600806
-0.2773323059 -0.1380925626 0.5906828642 4291745497
-0.2773886919 -0.1374642104 0.5908029079 4290758602
-0.2774448395 -0.1368354708 0.5909225345 4290034879
-0.2770847082 -0.1360021532 0.5901554823 4289376695
-0.2771402895 -0.1353735924 0.5902738571 4288784558
-0.2771956325 -0.1347446740 0.5903917551 4289178802
-0.2768344879 -0.1339139938 0.5896224976 4288915630
-0.2768892646 -0.1332852542 0.5897392631 4288849837
-0.2769438326 -0.1326561570 0.5898554325 4288323493
-0.2769981623 -0.1320266724 0.5899711847 4288257700
-0.2770522535 -0.1313968301 0.5900863409 4289376181
-0.2766894102 -0.1305699646 0.5893135667 4290165697
-0.2767429352 -0.1299403310 0.5894275904 4290297283
-0.2767962217 -0.1293103397 0.5895410776 4290099650
-0.2764323354 -0.1284861863 0.5887660384 4290560201
-0.2764850855 -0.1278564036 0.5888783932 4291152338
-0.2761204839 -0.1270343810 0.5881018043 4291876061
-0.2761726677 -0.1264048368 0.5882129669 4292336612
-0.2753900886 -0.1253949553 0.5865461826 4292336612
-0.2754416466 -0.1247666106 0.5866559744 4291678936
-0.2750755250 -0.1239498258 0.5858761668 4290955213
-0.2751265168 -0.1233217269 0.5859847665 4290297797
-0.2747596800 -0.1225071028 0.5852034688 4291153106
-0.2743924856 -0.1216940358 0.5844213367 4292600552
-0.2740746439 -0.1202559248 0.5837444663 4294508543
-0.2759030163 -0.1383610815 0.5890320539 4293587701
-0.2759594023 -0.1377347559 0.5891523957 4292863978
-0.2760155499 -0.1371080577 0.5892722607 4291942876
-0.2760714591 -0.1364809722 0.5893916488 4291087567
-0.2757118940 -0.1356492192 0.5886240005 4290100418
-0.2757672668 -0.1350223273 0.5887421966 4289310902
-0.2758223712 -0.1343950480 0.5888599157 4288981937
-0.2754617929 -0.1335659474 0.5880900621 4288652972
-0.2755163610 -0.1329388618 0.5882065892 4289113009
-0.2755707204 -0.1323114187 0.5883225799 4288849837
-0.2756248116 -0.1316836029 0.5884380937 4287928735
-0.2756786644 -0.1310553998 0.5885530710 4287797149
-0.2757323086 -0.1304268539 0.5886675715 4288718251
-0.2753697336 -0.1296021491 0.5878935456 4289968318
-0.2754228115 -0.1289738119 0.5880068541 4290493897
-0.2754756510 -0.1283451170 0.5881196260 4289835967
-0.2755282521 -0.1277160496 0.5882319212 4290165186
-0.2755806148 -0.1270866245 0.5883436799 4291086288
-0.2752163708 -0.1262658238 0.5875660777 4291678423
-0.2752681673 -0.1256366372 0.5876766443 4292204767
-0.2744866908 -0.1246288717 0.5860082507 4292205280
-0.2745378613 -0.1240008846 0.5861175060 4291744729
-0.2741720974 -0.1231853366 0.5853366852 4291152338
-0.2738059759 -0.1223713458 0.5845549703 4290560201
-0.2734394372 -0.1215589195 0.5837724805 4290758350
-0.2734894156 -0.1209324077 0.5838791728 4292205796
-0.2731221616 -0.1201221570 0.5830951333 4293455861
-0.2741748989 -0.1371693611 0.5867339373 4293653240
-0.2742307484 -0.1365452558 0.5868533850 4292929517
-0.2742863297 -0.1359207630 0.5869723558 4292337380
-0.2743417025 -0.1352958977 0.5870908499 4291416278
-0.2743968368 -0.1346706599 0.5872088075 4290429383
-0.2740371525 -0.1338425577 0.5864390731 4289574074
-0.2740917206 -0.1332174987 0.5865558982 4288784558
-0.2741460800 -0.1325920820 0.5866721869 4288652458
-0.2742001712 -0.1319662929 0.5867879987 4288849837
-0.2742540538 -0.1313401312 0.5869032741 4288849837
-0.2743076980 -0.1307135969 0.5870180726 4288191907
-0.2743611038 -0.1300867051 0.5871323943 4287599770
-0.2744142711 -0.1294594407 0.5872461796 4287994528
-0.2744672000 -0.1288318187 0.5873594284 4289507256
-0.2745198905 -0.1282038242 0.5874722004 4290099393
-0.2741569877 -0.1273824722 0.5866955519 4290296772
-0.2746245861 -0.1269467622 0.5876962543 4290296772
-0.2742610276 -0.1261266023 0.5869181752 4290823114
-0.2743126750 -0.1254981309 0.5870287418 4291546837
-0.2739484012 -0.1246801093 0.5862492323 4292139487
-0.2735837400 -0.1238636374 0.5854688287 4292468452
-0.2736345232 -0.1232360154 0.5855774879 4292007901
-0.2732691467 -0.1224217117 0.5847955942 4291349971
-0.2729033828 -0.1216089725 0.5840128660 4290692041
-0.2729533017 -0.1209822148 0.5841196775 4290494662
-0.2725868225 -0.1201716512 0.5833353996 4291218899
-0.2722199559 -0.1193626598 0.5825502872 4292797931
-0.2728635967 -0.1361882240 0.5853189230 4293719033
-0.2729189694 -0.1355653852 0.5854376554 4293390068
-0.2729741037 -0.1349421740 0.5855559111 4292732138
-0.2730289996 -0.1343185902 0.5856736898 4291811036
-0.2726698816 -0.1334920675 0.5849034190 4290955727
-0.2727242410 -0.1328686774 0.5850200057 4289903039
-0.2727783620 -0.1322449148 0.5851361156 4289310902
-0.2728322446 -0.1316207796 0.5852516890 4288718765
-0.2728859186 -0.1309962869 0.5853667855 4288520872
-0.2729393244 -0.1303714067 0.5854813457 4288784044
-0.2729924917 -0.1297461689 0.5855954289 4288389286
-0.2730454504 -0.1291205734 0.5857090354 4287336598
-0.2730981708 -0.1284946203 0.5858221054 4287533466
-0.2735651433 -0.1280623227 0.5868237615 4288849326
-0.2736174464 -0.1274346858 0.5869359970 4289836221
-0.2736695409 -0.1268066913 0.5870477557 4290033600
-0.2733066380 -0.1259871572 0.5862693191 4289967805
-0.2729433775 -0.1251691729 0.5854900479 4290428356
-0.2729945779 -0.1245420128 0.5855998993 4291349458
-0.2730455697 -0.1239145026 0.5857092142 4292138974
-0.2726812661 -0.1230992824 0.5849277973 4292139487
-0.2723165452 -0.1222856119 0.5841454864 4292205280
-0.2723666728 -0.1216589659 0.5842529535 4291744729
-0.2720012665 -0.1208474711 0.5834690928 4290823627
-0.2720507979 -0.1202210933 0.5835754275 4290428869
-0.2712692618 -0.1192291975 0.5818989277 4291021006
-0.2709026933 -0.1184224263 0.5811126232 4292534243
-0.2709513009 -0.1177978963 0.5812168717 4293915896
-0.2716090977 -0.1345880628 0.5840193033 4293521654
-0.2716637552 -0.1339661330 0.5841368437 4292863724
-0.2717182040 -0.1333438307 0.5842539072 4292140001
-0.2713593841 -0.1325194538 0.5834823847 4291218899
-0.2714132667 -0.1318973452 0.5835982561 4290429385
-0.2718801200 -0.1314746886 0.5846021175 4289574076
-0.2723469138 -0.1310497671 0.5856058002 4288652204
-0.2724002600 -0.1304246634 0.5857204795 4288389032
-0.2724533975 -0.1297991872 0.5858347416 4288652458
-0.2725062668 -0.1291733533 0.5859484673 4288652458
-0.2725589275 -0.1285471618 0.5860616565 4287401880
-0.2726113498 -0.1279205978 0.5861743689 4287467673
-0.2726635337 -0.1272936761 0.5862865448 4288651947
-0.2723016441 -0.1264741868 0.5855084062 4290099393
-0.2723532617 -0.1258475035 0.5856194496 4290296772
-0.2719906569 -0.1250301600 0.5848397613 4289967807
-0.2720417380 -0.1244037077 0.5849495530 4290362565
-0.2720925808 -0.1237769127 0.5850588679 4291086288
-0.2717289627 -0.1229623258 0.5842770338 4291678423
-0.2717792392 -0.1223357916 0.5843851566 4292204767
-0.2714149058 -0.1215233728 0.5836017728 4292336866
-0.2714646459 -0.1208970994 0.5837087035 4292073694
-0.2710995972 -0.1200868562 0.5829237700 4291284178
-0.2707341909 -0.1192781925 0.5821380615 4290494662
-0.2703683674 -0.1184711009 0.5813514590 4290823627
-0.2700021565 -0.1176655889 0.5805640817 4292073694
-0.2700504065 -0.1170414463 0.5806677938 4293258482
-0.2703553736 -0.1329926401 0.5827151537 4292995310
-0.2699971199 -0.1321698427 0.5819430351 4292337380
-0.2700507939 -0.1315494031 0.5820586681 4291679452
-0.2701042295 -0.1309285909 0.5821738839 4290889936
-0.2705698907 -0.1305063665 0.5831775069 4289770685
-0.2710354626 -0.1300818622 0.5841810107 4288783790
-0.2710883617 -0.1294580549 0.5842950344 4288652458
-0.2711410522 -0.1288338900 0.5844085813 4288718251
-0.2711934745 -0.1282093525 0.5845215917 4288322982
-0.2712456584 -0.1275844574 0.5846340656 4287928224
-0.2712976336 -0.1269592047 0.5847460628 4287335833
-0.2713493407 -0.1263335943 0.5848575234 4287927970
-0.2709877491 -0.1255162805 0.5840781927 4289507002
-0.2710389197 -0.1248909160 0.5841884613 4290230725
-0.2706766129 -0.1240757629 0.5834075809 4290230979
-0.2707272470 -0.1234506369 0.5835166574 4290362565
-0.2707776129 -0.1228251681 0.5836252570 4290625735
-0.2708277702 -0.1221993417 0.5837333798 4291481044
-0.2708776891 -0.1215731725 0.5838409662 4292007388
-0.2705137432 -0.1207620129 0.5830565095 4292270560
-0.2705630958 -0.1201361120 0.5831628442 4292402146
-0.2701984346 -0.1193271279 0.5823768973 4291744216
-0.2698333859 -0.1185197234 0.5815900564 4290823373
-0.2694679499 -0.1177138984 0.5808024406 4290691787
-0.2695161402 -0.1170895174 0.5809062719 4291021520
-0.2691499889 -0.1162859052 0.5801171064 4292600552
-0.2694064379 -0.1328438669 0.5820633173 4293719033
-0.2690488994 -0.1320216954 0.5812907815 4293324275
-0.2691024244 -0.1314019710 0.5814064145 4292666345
-0.2691557109 -0.1307818890 0.5815215707 4291811036
-0.2692087591 -0.1301614344 0.5816361904 4290889934
-0.2692615986 -0.1295406073 0.5817503333 4290034625
-0.2697259784 -0.1291165352 0.5827536583 4288981937
-0.2697784305 -0.1284940392 0.5828669667 4288060835
-0.2694186866 -0.1276759505 0.5820897222 4288257698
-0.2694705725 -0.1270536780 0.5822018385 4288586663
-0.2695222497 -0.1264310479 0.5823134780 4288191905
-0.2695736587 -0.1258080453 0.5824245811 4286941838
-0.2696248591 -0.1251846999 0.5825351477 4287402391
-0.2696758211 -0.1245610043 0.5826452971 4288652458
-0.2697265446 -0.1239369512 0.5827548504 4289770939
-0.2697770298 -0.1233125478 0.5828639269 4290099904
-0.2698272765 -0.1226877868 0.5829725266 4290757323
-0.2698772848 -0.1220626831 0.5830805898 4290888909
-0.2699270844 -0.1214372367 0.5831881166 4291678425
-0.2695637941 -0.1206267104 0.5824032426 4292204769
-0.2696130276 -0.1200015321 0.5825096369 4292993515
-0.2696620226 -0.1193760112 0.5826154351 4292730343
-0.2692977488 -0.1185682938 0.5818284154 4292006622
-0.2689330578 -0.1177621558 0.5810405016 4291611864
-0.2685680091 -0.1169575974 0.5802518129 4290888915
-0.2686158121 -0.1163336039 0.5803551078 4291020501
-0.2682500482 -0.1155312657 0.5795648694 4292007650
-0.2682973146 -0.1149075627 0.5796669722 4293389303
-0.2679775655 -0.1134840548 0.5789761543 4294639615
-0.2676104307 -0.1126861721 0.5781829357 4294574079
-0.2680702806 -0.1122362986 0.5791764259 4294574079
-0.2677443624 -0.1310533285 0.5798637867 4293653240
-0.2677974403 -0.1304349005 0.5799787045 4293126896
-0.2678502798 -0.1298161149 0.5800930858 4292403173
-0.2679028809 -0.1291969568 0.5802070498 4291482071
-0.2683662176 -0.1287746429 0.5812104940 4290232004
-0.2684184313 -0.1281538010 0.5813236237 4289179316
-0.2684704363 -0.1275326163 0.5814362168 4288324007
-0.2681109607 -0.1267167032 0.5806577206 4288060835
-0.2681623995 -0.1260957420 0.5807691216 4288257700
-0.2682136297 -0.1254744232 0.5808800459 4288191907
-0.2682645917 -0.1248527467 0.5809904337 4287731356
-0.2687268853 -0.1244212613 0.5819916129 4287139219
-0.2687774599 -0.1237979233 0.5821011662 4288125860
-0.2688277960 -0.1231742352 0.5822101831 4289968064
-0.2688779235 -0.1225502044 0.5823187232 4290954959
-0.2689278126 -0.1219258159 0.5824267864 4291020752
-0.2689774334 -0.1213010848 0.5825342536 4291217874
-0.2690268457 -0.1206760108 0.5826413035 4291481046
-0.2690760195 -0.1200505942 0.5827477574 4291941343
-0.2691249549 -0.1194248348 0.5828537345 4292467687
-0.2687614262 -0.1186168045 0.5820664167 4292533480
-0.2683975399 -0.1178103536 0.5812783241 4291612378
-0.2680332363 -0.1170054823 0.5804893374 4290033606
-0.2676685452 -0.1162022054 0.5796995759 4288191402
-0.2677159905 -0.1155785993 0.5798023343 4287599519
-0.2673506141 -0.1147775352 0.5790110230 4289046965
-0.2673975229 -0.1141542345 0.5791125894 4291613659
-0.2670314610 -0.1133553982 0.5783197880 4293916414
-0.2674905956 -0.1129066497 0.5793141127 4294574079
-0.2675367594 -0.1122823656 0.5794141293 4294508543
-0.2664943933 -0.1294704080 0.5785483122 4293455861
-0.2669568658 -0.1290511638 0.5795522928 4292797931
-0.2670090795 -0.1284323633 0.5796656609 4291745243
-0.2670610845 -0.1278131902 0.5797785521 4290824141
-0.2671128511 -0.1271936744 0.5798909068 4289968834
-0.2671643794 -0.1265737861 0.5800028443 4288652974
-0.2672156990 -0.1259535402 0.5801141858 4287929251
-0.2672667503 -0.1253329366 0.5802250504 4288192423
-0.2673175931 -0.1247119904 0.5803354383 4288191653
-0.2673681974 -0.1240906790 0.5804452896 4287862688
-0.2678293586 -0.1236586794 0.5814464688 4288060067
-0.2678795755 -0.1230357140 0.5815554261 4289046962
-0.2679295540 -0.1224124059 0.5816639662 4290560201
-0.2679792941 -0.1217887402 0.5817719698 4290823373
-0.2680287957 -0.1211647317 0.5818794370 4290889166
-0.2680780888 -0.1205403730 0.5819863677 4291086545
-0.2681271136 -0.1199156791 0.5820928216 4291020754
-0.2681759000 -0.1192906350 0.5821987987 4291678684
-0.2678130865 -0.1184832528 0.5814111233 4291349719
-0.2678613365 -0.1178584918 0.5815158486 4288849585
-0.2674978077 -0.1170533150 0.5807266831 4284967547
-0.2671338916 -0.1162497178 0.5799366236 4283191136
-0.2667695880 -0.1154477149 0.5791457295 4283256927
-0.2668166757 -0.1148245037 0.5792479515 4284770166
-0.2664516866 -0.1140247285 0.5784555674 4287073944
-0.2660863101 -0.1132265478 0.5776623487 4290495180
-0.2665444911 -0.1127785891 0.5786570907 4292995310
-0.2651411891 -0.1291243285 0.5770018101 4293719033
-0.2656025887 -0.1287068278 0.5780059099 4293455861
-0.2656545937 -0.1280896962 0.5781190991 4292732138
-0.2657063603 -0.1274722070 0.5782317519 4292008415
-0.2657579184 -0.1268543452 0.5783439279 4291153108
-0.2658092380 -0.1262361407 0.5784556270 4290429385
-0.2658603191 -0.1256175637 0.5785667896 4289375927
-0.2659111619 -0.1249986440 0.5786774755 4288520618
-0.2659617960 -0.1243793666 0.5787876248 4287928481
-0.2664220631 -0.1239504293 0.5797892809 4288191653
-0.2664722800 -0.1233294904 0.5798985958 4288323239
-0.2665222883 -0.1227082014 0.5800073743 4288717997
-0.2665720582 -0.1220865622 0.5801156759 4289441720
-0.2666215897 -0.1214645803 0.5802235007 4289968064
-0.2666708827 -0.1208422482 0.5803307295 4290494408
-0.2667199373 -0.1202195734 0.5804375410 4290954959
-0.2667687833 -0.1195965558 0.5805437565 4290823373
-0.2668173611 -0.1189731956 0.5806494951 4290954959
-0.2668657303 -0.1183495000 0.5807547569 4288717997
-0.2665032148 -0.1175443456 0.5799658298 4284704624
-0.2665510178 -0.1169209331 0.5800698996 4282598997
-0.2665985823 -0.1162971854 0.5801733732 4283256927
-0.2662350535 -0.1154948696 0.5793823004 4284047213
-0.2662820816 -0.1148714200 0.5794846416 4284902522
-0.2659178674 -0.1140713319 0.5786920190 4285889417
-0.2659643292 -0.1134481803 0.5787931085 4287139484
-0.2660105526 -0.1128247082 0.5788937211 4289574078
-0.2660565674 -0.1122009158 0.5789938569 4292337384
-0.2661023140 -0.1115767956 0.5790933967 4293324275
-0.2643027306 -0.1277466416 0.5765707493 4293521654
-0.2643542886 -0.1271308213 0.5766832232 4293126896
-0.2644056082 -0.1265146434 0.5767952204 4292797163
-0.2644567192 -0.1258981079 0.5769066811 4292073440
-0.2645075917 -0.1252812147 0.5770176649 4290889166
-0.2645582259 -0.1246639714 0.5771281123 4289968064
-0.2646086216 -0.1240463704 0.5772380829 4288915376
-0.2650678456 -0.1236191913 0.5782398582 4288652204
-0.2651178837 -0.1229999289 0.5783489943 4288389032
-0.2651676536 -0.1223803237 0.5784575939 4288652204
-0.2652172148 -0.1217603609 0.5785656571 4288783790
-0.2652665377 -0.1211400554 0.5786732435 4289178548
-0.2653156221 -0.1205194071 0.5787803531 4289770685
-0.2653644681 -0.1198984161 0.5788869262 4290362822
-0.2654131055 -0.1192770824 0.5789929628 4290560201
-0.2654614747 -0.1186554059 0.5790985227 4290625994
-0.2655096352 -0.1180333868 0.5792035460 4286678414
-0.2655575275 -0.1174110323 0.5793080926 4282336076
-0.2656052113 -0.1167883426 0.5794121027 4282599767
-0.2652426958 -0.1159860492 0.5786212683 4283784041
-0.2656998336 -0.1155419648 0.5796185136 4284178799
-0.2657468021 -0.1149182767 0.5797209740 4284573557
-0.2657935321 -0.1142942533 0.5798228979 4285692038
-0.2654297948 -0.1134944931 0.5790293813 4286876312
-0.2654759586 -0.1128707826 0.5791301131 4287928998
-0.2655219138 -0.1122467443 0.5792303681 4288455342
-0.2651571333 -0.1114498675 0.5784346461 4291087315
-0.2652025223 -0.1108261570 0.5785336494 4293324277
-0.2634638250 -0.1263701916 0.5761365891 4293719033
-0.2635147870 -0.1257543862 0.5762480497 4293126896
-0.2635655105 -0.1251382083 0.5763589740 4292403173
-0.2636159956 -0.1245216876 0.5764693618 4291547864
-0.2636662722 -0.1239048094 0.5765793324 4290429385
-0.2637163103 -0.1232875809 0.5766887069 4289442490
-0.2641744018 -0.1228598952 0.5776904821 4288915376
-0.2642240524 -0.1222410053 0.5777990818 4288849583
-0.2642734647 -0.1216217726 0.5779071450 4288586411
-0.2643226683 -0.1210021973 0.5780147314 4288652204
-0.2643716037 -0.1203822717 0.5781217217 4288915376
-0.2644203305 -0.1197619960 0.5782282948 4289441720
-0.2644688189 -0.1191413850 0.5783343315 4289902271
-0.2645170689 -0.1185204387 0.5784398317 4290297029
-0.2645650804 -0.1178991422 0.5785447955 4286086277
-0.2650218606 -0.1174587831 0.5795436502 4282467662
-0.2642513514 -0.1164752468 0.5778587461 4283257697
-0.2642985880 -0.1158539131 0.5779620409 4283784041
-0.2647547722 -0.1154106185 0.5789596438 4283915627
-0.2648016214 -0.1147876605 0.5790621042 4283915627
-0.2648482323 -0.1141643673 0.5791639686 4284310385
-0.2644851506 -0.1133652553 0.5783700347 4285955210
-0.2645312250 -0.1127422750 0.5784707665 4287797414
-0.2645770311 -0.1121189669 0.5785709620 4287797414
-0.2646225989 -0.1114953309 0.5786706209 4288719027
-0.2642582357 -0.1106997505 0.5778738260 4291811298
-0.2618100941 -0.1246073991 0.5739141703 4293587449
-0.2618602812 -0.1239935160 0.5740242004 4292732140
-0.2623175681 -0.1235711500 0.5750266314 4291811038
-0.2623673975 -0.1229556054 0.5751358867 4290955729
-0.2624169886 -0.1223397031 0.5752445459 4290034627
-0.2624663413 -0.1217234582 0.5753527880 4289245111
-0.2625154853 -0.1211068630 0.5754604936 4288652974
-0.2629720867 -0.1206770241 0.5764613748 4288455595
-0.2630208135 -0.1200587824 0.5765682459 4288389034
-0.2630693316 -0.1194401979 0.5766745806 4288717999
-0.2631176114 -0.1188212708 0.5767803788 4289046964
-0.2631656528 -0.1182020009 0.5768857002 4289836480
-0.2632134557 -0.1175824031 0.5769904852 4286349451
-0.2636691928 -0.1171437949 0.5779895186 4283586145
-0.2637166083 -0.1165225580 0.5780934691 4284178799
-0.2637637854 -0.1159009859 0.5781968832 4283718248
-0.2638107240 -0.1152790785 0.5782997608 4283323490
-0.2638574243 -0.1146568432 0.5784021616 4283126111
-0.2639039159 -0.1140342802 0.5785040259 4283389285
-0.2635415494 -0.1132358238 0.5777097344 4284113008
-0.2631787956 -0.1124389693 0.5769145489 4285692040
-0.2632244229 -0.1118173599 0.5770145655 4287731623
-0.2632698119 -0.1111954153 0.5771140456 4287929259
-0.2633149326 -0.1105731577 0.5772129893 4290297807
-0.2629508972 -0.1097798496 0.5764149427 4292798448
-0.2605153024 -0.1236577258 0.5724697113 4293587962
-0.2609715760 -0.1232371181 0.5734722614 4293127411
-0.2610211670 -0.1226232573 0.5735812783 4292272102
-0.2610705495 -0.1220090389 0.5736897588 4291613659
-0.2611196935 -0.1213944778 0.5737977624 4290626764
-0.2611685991 -0.1207795665 0.5739052892 4289376699
-0.2612172961 -0.1201643124 0.5740122795 4289047734
-0.2616727054 -0.1197349355 0.5750129819 4288324011
-0.2617209852 -0.1191180348 0.5751191378 4288324011
-0.2617690563 -0.1185007915 0.5752247572 4288257449
-0.2622240782 -0.1180665493 0.5762246251 4289112758
-0.2622717619 -0.1174476743 0.5763294101 4286415245
-0.2623192072 -0.1168284565 0.5764336586 4284112490
-0.2623664141 -0.1162089109 0.5765373707 4285034108
-0.2624133825 -0.1155890301 0.5766406059 4284507764
-0.2624601126 -0.1149688140 0.5767433047 4283784041
-0.2625066340 -0.1143482700 0.5768455267 4282862939
-0.2625528872 -0.1137273908 0.5769472122 4283257699
-0.2621911764 -0.1129305586 0.5761523247 4283915629
-0.2622368932 -0.1123099998 0.5762527585 4284178547
-0.2618744969 -0.1115154102 0.5754563808 4285560200
-0.2619196773 -0.1108951643 0.5755556822 4287731882
-0.2619646192 -0.1102746055 0.5756544471 4289047742
-0.2616012096 -0.1094829217 0.5748558640 4291548126
-0.2616456151 -0.1088626906 0.5749534369 4293456123
-0.2596282065 -0.1229027212 0.5719161630 4293587449
-0.2596775889 -0.1222905368 0.5720249414 4293324277
-0.2597267628 -0.1216780096 0.5721332431 4292666347
-0.2597756982 -0.1210651323 0.5722410679 4291876831
-0.2598243952 -0.1204519123 0.5723483562 4290758350
-0.2602789104 -0.1200255901 0.5733495951 4289968834
-0.2603272498 -0.1194107234 0.5734559894 4289046964
-0.2607815266 -0.1189808398 0.5744567513 4288191655
-0.2608294785 -0.1183643341 0.5745623112 4288191655
-0.2608771622 -0.1177474782 0.5746673942 4287928483
-0.2609246373 -0.1171302944 0.5747720003 4287599518
-0.2609718740 -0.1165127680 0.5748760104 4283388766
-0.2610188723 -0.1158949137 0.5749796033 4284968826
-0.2610656619 -0.1152767241 0.5750826001 4285297791
-0.2611121833 -0.1146581993 0.5751851201 4284113519
-0.2611584961 -0.1140393466 0.5752871037 4283784554
-0.2612045705 -0.1134201661 0.5753886104 4284113265
-0.2612504065 -0.1128006577 0.5754895806 4283915886
-0.2608889937 -0.1120060906 0.5746934414 4283652714
-0.2609342933 -0.1113868952 0.5747932196 4283981679
-0.2609793544 -0.1107673869 0.5748924613 4285692551
-0.2610241771 -0.1101475507 0.5749912262 4287666341
-0.2606614828 -0.1093565300 0.5741922855 4289245371
-0.2607057393 -0.1087370291 0.5742897987 4291679712
-0.2607497871 -0.1081172153 0.5743868351 4293587962
-0.2587906420 -0.1215368062 0.5714693069 4293455863
-0.2588394582 -0.1209246591 0.5715770721 4292863726
-0.2588880062 -0.1203121692 0.5716843605 4292337382
-0.2593415678 -0.1198866591 0.5726858974 4291284694
-0.2593897581 -0.1192725152 0.5727922916 4290166213
-0.2598430812 -0.1188434362 0.5737933517 4289113525
-0.2598908842 -0.1182276607 0.5738989115 4288389804
-0.2599384487 -0.1176115423 0.5740039349 4287666081
-0.2599858046 -0.1169950813 0.5741084814 4287600288
-0.2600328922 -0.1163782850 0.5742124915 4285494912
-0.2600797713 -0.1157611609 0.5743160248 4283981931
-0.2601264119 -0.1151437014 0.5744190216 4284903033
-0.2601728141 -0.1145259067 0.5745214820 4285034621
-0.2602189779 -0.1139077842 0.5746234655 4283389796
-0.2602649331 -0.1132893339 0.5747249126 4285297539
-0.2603106499 -0.1126705557 0.5748258233 4284771195
-0.2599499524 -0.1118766442 0.5740293264 4284179058
-0.2599951029 -0.1112581864 0.5741290450 4283718507
-0.2600400448 -0.1106394082 0.5742282867 4283784300
-0.2596783638 -0.1098483950 0.5734295845 4285494918
-0.2597227395 -0.1092299446 0.5735276341 4287929511
-0.2597669065 -0.1086111814 0.5736250877 4290100680
-0.2598108053 -0.1079920977 0.5737221241 4291811551
-0.2594478428 -0.1072046682 0.5729205608 4293258997
-0.2570957541 -0.1204053462 0.5691224337 4293522166
-0.2571440339 -0.1197955012 0.5692293048 4292995825
-0.2580008507 -0.1195601076 0.5711260438 4292008930
-0.2580488324 -0.1189476624 0.5712321997 4291285207
-0.2580965757 -0.1183348745 0.5713379383 4290100933
-0.2581440806 -0.1177217439 0.5714430809 4288916146
-0.2581913769 -0.1171082780 0.5715478063 4287600286
-0.2582384348 -0.1164944768 0.5716519356 4286679184
-0.2582852542 -0.1158803403 0.5717555881 4285758082
-0.2583318651 -0.1152658686 0.5718587637 4284508275
-0.2583782077 -0.1146510690 0.5719614029 4283850345
-0.2584243417 -0.1140359342 0.5720635056 4285100414
-0.2584702671 -0.1134204715 0.5721651316 4283389796
-0.2589211166 -0.1129814908 0.5731632113 4283586921
-0.2589666247 -0.1123644114 0.5732639432 4286021262
-0.2590118945 -0.1117470115 0.5733641386 4286087057
-0.2586515248 -0.1109553725 0.5725663900 4285231748
-0.2586962581 -0.1103382856 0.5726654530 4284047472
-0.2587407827 -0.1097208858 0.5727639198 4283915886
-0.2587850392 -0.1091031656 0.5728619695 4286679446
-0.2584233880 -0.1083150953 0.5720613599 4289837510
-0.2584671080 -0.1076977104 0.5721581578 4291811553
-0.2585105896 -0.1070800200 0.5722544193 4292074725
-0.2581479549 -0.1062948853 0.5714516640 4292732653
-0.2566628158 -0.1192332059 0.5695644021 4293390581
-0.2567105889 -0.1186224520 0.5696704388 4292798446
-0.2567581236 -0.1180113554 0.5697759390 4291811551
-0.2568054199 -0.1173999161 0.5698809028 4290627277
-0.2568525076 -0.1167881489 0.5699853897 4289245624
-0.2568993568 -0.1161760390 0.5700893402 4287140248
-0.2569459677 -0.1155635938 0.5701928139 4285561216
-0.2569923699 -0.1149508208 0.5702957511 4284968826
-0.2570385337 -0.1143377200 0.5703981519 4283784552
-0.2570844591 -0.1137242839 0.5705000758 4284376691
-0.2571301758 -0.1131105199 0.5706015229 4285495172
-0.2571756244 -0.1124964282 0.5707024336 4283455335
-0.2576253116 -0.1120579317 0.5717002749 4285494918
-0.2576703727 -0.1114422232 0.5718002915 4287402917
-0.2577152252 -0.1108261943 0.5718998313 4287402917
-0.2577598393 -0.1102098525 0.5719988346 4286613399
-0.2578042150 -0.1095931828 0.5720973015 4285823883
-0.2574435771 -0.1088051200 0.5712969899 4287074204
-0.2574874163 -0.1081887856 0.5713942647 4289771717
-0.2575310171 -0.1075721458 0.5714910626 4292337897
-0.2575743794 -0.1069551855 0.5715872645 4291745760
-0.2572124600 -0.1061707139 0.5707841516 4292140516
-0.2557778358 -0.1184834614 0.5690029860 4293587449
-0.2558252215 -0.1178731024 0.5691084266 4292929519
-0.2558723986 -0.1172624007 0.5692133307 4292205796
-0.2555163205 -0.1164676547 0.5684212446 4291350487
-0.2555629611 -0.1158572510 0.5685250163 4289508283
-0.2556093931 -0.1152465045 0.5686282516 4287666079
-0.2556555867 -0.1146354303 0.5687310100 4286679444
-0.2557015419 -0.1140240207 0.5688332319 4285626756
-0.2557472587 -0.1134122834 0.5689349771 4285166207
-0.2557927668 -0.1128002182 0.5690361857 4285955723
-0.2558380365 -0.1121878326 0.5691368580 4285494918
-0.2562866807 -0.1117511019 0.5701349378 4285626504
-0.2563315630 -0.1111370996 0.5702347755 4287073952
-0.2563762069 -0.1105227768 0.5703340769 4288324019
-0.2564206123 -0.1099081337 0.5704329014 4289047740
-0.2560608983 -0.1091210544 0.5696327090 4289047740
-0.2561047971 -0.1085067391 0.5697302818 4289376959
-0.2561484277 -0.1078921109 0.5698273778 4290824405
-0.2561918497 -0.1072771698 0.5699239969 4293061620
-0.2562350333 -0.1066619232 0.5700200200 4292403690
-0.2562779784 -0.1060463563 0.5701155663 4292535274
-0.2548933625 -0.1177346408 0.5684399009 4293784828
-0.2549404204 -0.1171246767 0.5685448050 4293192691
-0.2545850277 -0.1163305938 0.5677523017 4292666347
-0.2546315491 -0.1157209203 0.5678560138 4291942624
-0.2546778321 -0.1151109114 0.5679592490 4290824143
-0.2547239065 -0.1145005673 0.5680619478 4290298059
-0.2547697127 -0.1138898954 0.5681641102 4288982199
-0.2544127703 -0.1130999401 0.5673680902 4288126890
-0.2544580698 -0.1124895811 0.5674691200 4286613651
-0.2549058199 -0.1120559201 0.5684676766 4286547860
-0.2549507320 -0.1114439368 0.5685678124 4286811032
