VERSION 0.7
FIELDS x y z rgba
SIZE 4 4 4 4
TYPE F F F U
COUNT 1 1 1 1
WIDTH 920
HEIGHT 1
VIEWPOINT 0.0 0.0 0.0 1.0 0.0 0.0 0.0
POINTS 920
DATA ascii
-0.3082640469 -0.1348068863 0.6240844131 4287007128
-0.3087561131 -0.1343275607 0.6250805855 4289179065
-0.3092480600 -0.1338459849 0.6260765791 4290758097
-0.3093048930 -0.1331748366 0.6261916161 4292140005
-0.3102316558 -0.1328760386 0.6280679107 4293521658
-0.3058253527 -0.1457627714 0.6205425858 4293127413
-0.3050214052 -0.1446919292 0.6189113259 4291943139
-0.3046495914 -0.1438287497 0.6181568503 4290824658
-0.3042773604 -0.1429670304 0.6174015999 4290100935
-0.3043376207 -0.1423092335 0.6175238490 4290429900
-0.3039646149 -0.1414495409 0.6167669892 4291416795
-0.3040242791 -0.1407918930 0.6168880463 4292534763
-0.3040836751 -0.1401338726 0.6170086265 4293521658
-0.3041428328 -0.1394754499 0.6171286106 4294113791
-0.3046350479 -0.1390143931 0.6181274056 4293784830
-0.3046937883 -0.1383542717 0.6182465553 4293258486
-0.3051857352 -0.1378896385 0.6192448139 4292929521
-0.3052440286 -0.1372278184 0.6193630695 4292731372
-0.3057357371 -0.1367596090 0.6203607321 4292468200
-0.3062273562 -0.1362891346 0.6213582754 4292205029
-0.3067188561 -0.1358164102 0.6223555803 4292336615
-0.3067763448 -0.1351502538 0.6224722266 4291152341
-0.3072675765 -0.1346739531 0.6234689951 4288454828
-0.3081927896 -0.1343846619 0.6253463030 4289902788
-0.3082497418 -0.1337145567 0.6254618168 4292139750
-0.3083064258 -0.1330440938 0.6255768538 4293653242
-0.3038465679 -0.1465198547 0.6179200411 4293127413
-0.3034764230 -0.1456556469 0.6171672940 4292074725
-0.3035376370 -0.1449991763 0.6172918081 4290890451
-0.3027348518 -0.1439316422 0.6156592369 4290298314
-0.3027953804 -0.1432762444 0.6157823205 4290561486
-0.3024236262 -0.1424169987 0.6150262952 4291351002
-0.3024835885 -0.1417617500 0.6151481867 4292403177
-0.3025432527 -0.1411061138 0.6152695417 4293192693
-0.3026026785 -0.1404500902 0.6153904200 4293784830
-0.3026618659 -0.1397936791 0.6155107617 4293784830
-0.3031532466 -0.1393356621 0.6165100932 4293718267
-0.3032120168 -0.1386775374 0.6166295409 4293126130
-0.3037031293 -0.1382159293 0.6176283360 4292665579
-0.3041941524 -0.1377520710 0.6186269522 4292731372
-0.3042522967 -0.1370909214 0.6187452078 4292928751
-0.3047430813 -0.1366234720 0.6197432280 4292994544
-0.3052337468 -0.1361537725 0.6207410693 4293257716
-0.3052912951 -0.1354896128 0.6208581328 4292073442
-0.3057816923 -0.1350163370 0.6218554378 4290362824
-0.3058387935 -0.1343504936 0.6219715476 4289046964
-0.3063288927 -0.1338736266 0.6229682565 4290363592
-0.3068189025 -0.1333945096 0.6239647865 4292995312
-0.3014415205 -0.1470544934 0.6144167781 4293193204
-0.3015031517 -0.1464017630 0.6145424247 4292337895
-0.3015645444 -0.1457486302 0.6146675348 4290955989
-0.3016256690 -0.1450950950 0.6147921085 4290429645
-0.3012555838 -0.1442348212 0.6140378118 4290495180
-0.3004539907 -0.1431706101 0.6124039292 4291284696
-0.3005141020 -0.1425186992 0.6125264764 4292403177
-0.3005739748 -0.1418664008 0.6126485467 4293390072
-0.3006336093 -0.1412137151 0.6127700210 4293719037
-0.3006929755 -0.1405606270 0.6128910780 4293455865
-0.3011835814 -0.1401078999 0.6138910651 4293520888
-0.3016740978 -0.1396528929 0.6148908734 4292797165
-0.3021645546 -0.1391956359 0.6158905625 4292599786
-0.3022231758 -0.1385382116 0.6160100102 4292797165
-0.3027133644 -0.1380773634 0.6170091033 4292731372
-0.3027715385 -0.1374182254 0.6171277165 4292665579
-0.3032614589 -0.1369538009 0.6181263328 4292796652
-0.3033192158 -0.1362929791 0.6182440519 4292796652
-0.3038088679 -0.1358249784 0.6192420721 4291810268
-0.3042984307 -0.1353547126 0.6202399135 4291020752
-0.3043555617 -0.1346908659 0.6203563809 4289836478
-0.3052772582 -0.1344074160 0.6222350597 4291152338
-0.3053340316 -0.1337409317 0.6223507524 4292534759
-0.2994724214 -0.1477848589 0.6117882729 4293522167
-0.2991044819 -0.1469243765 0.6110365987 4292272100
-0.2991659641 -0.1462755352 0.6111621857 4291021522
-0.2987972498 -0.1454170495 0.6104089618 4290560971
-0.2988581359 -0.1447683275 0.6105333567 4290757583
-0.2989187837 -0.1441192180 0.6106572151 4291612892
-0.2989791632 -0.1434697211 0.6107805967 4292862446
-0.2986090183 -0.1426143199 0.6100244522 4293651962
-0.2986688316 -0.1419649720 0.6101465821 4293915647
-0.2987283766 -0.1413152218 0.6102682948 4293981439
-0.2992182076 -0.1408677846 0.6112689376 4293652474
-0.2992773652 -0.1402163208 0.6113897562 4292994544
-0.2997669578 -0.1397652924 0.6123899221 4292205798
-0.3002564609 -0.1393119991 0.6133899689 4292074212
-0.3007458746 -0.1388564557 0.6143897772 4292073440
-0.3012352288 -0.1383986473 0.6153894663 4292270819
-0.3012934327 -0.1377415210 0.6155083776 4292797163
-0.3017825186 -0.1372801214 0.6165074706 4292797163
-0.3018403053 -0.1366212964 0.6166255474 4291942624
-0.3023290932 -0.1361563206 0.6176241040 4291350487
-0.3028178215 -0.1356890798 0.6186225414 4290889166
-0.3033064604 -0.1352195889 0.6196207404 4291349717
-0.3033634424 -0.1345564276 0.6197372079 4292336612
-0.3038518131 -0.1340833604 0.6207348108 4293323507
-0.2986056507 -0.1510888040 0.6114047766 4294114303
-0.2986686230 -0.1504411995 0.6115337014 4294113791
-0.2979364395 -0.1487168223 0.6100345850 4293456376
-0.2975697219 -0.1478568166 0.6092836857 4292403688
-0.2972025871 -0.1469982564 0.6085319519 4291284694
-0.2968350053 -0.1461411715 0.6077793241 4290495178
-0.2964670062 -0.1452855468 0.6070258617 4290758350
-0.2960986197 -0.1444313973 0.6062715650 4291482073
-0.2961589992 -0.1437871009 0.6063951850 4292797166
-0.2962191403 -0.1431424171 0.6065183282 4293520889
-0.2962790132 -0.1424973309 0.6066409349 4294113023
-0.2967681587 -0.1420574486 0.6076424718 4293981439
-0.2968276441 -0.1414106488 0.6077642441 4293520888
-0.2968868613 -0.1407634765 0.6078855395 4293060337
-0.2973755896 -0.1403186768 0.6088862419 4292599786
-0.2978642285 -0.1398716122 0.6098867059 4292205028
-0.2983528078 -0.1394222975 0.6108871102 4291679452
-0.2988412976 -0.1389707178 0.6118872762 4291745245
-0.2993296981 -0.1385168731 0.6128872633 4291810268
-0.2998180091 -0.1380607784 0.6138871312 4291810268
-0.3003062308 -0.1376024187 0.6148867607 4291876061
-0.3003640473 -0.1369455904 0.6150051355 4291810268
-0.3008520007 -0.1364836395 0.6160042882 4291745245
-0.3013398945 -0.1360194385 0.6170032024 4292074210
-0.3013971150 -0.1353596002 0.6171203852 4293127150
-0.3018847108 -0.1348918080 0.6181187630 4293521908
-0.2971326709 -0.1513636857 0.6097755432 4294113791
-0.2967680097 -0.1505012512 0.6090272069 4293982207
-0.2968306541 -0.1498561949 0.6091557145 4293587451
-0.2960374355 -0.1487807333 0.6075279117 4292600556
-0.2960993946 -0.1481367350 0.6076550484 4291482075
-0.2953051627 -0.1470660418 0.6060250998 4290758352
-0.2949383855 -0.1462108791 0.6052724123 4290626766
-0.2945712209 -0.1453571916 0.6045188904 4291284696
-0.2946318388 -0.1447153091 0.6046433449 4292599786
-0.2946922481 -0.1440730393 0.6047672629 4293455095
-0.2947523892 -0.1434303671 0.6048907042 4293916159
-0.2948122919 -0.1427873075 0.6050136089 4293718782
-0.2948719561 -0.1421438456 0.6051360965 4293520889
-0.2953600287 -0.1417056769 0.6061377525 4293126131
-0.2954193056 -0.1410605013 0.6062593460 4292599786
-0.2959071398 -0.1406187415 0.6072605252 4292073442
-0.2963949442 -0.1401747167 0.6082615256 4291811040
-0.2968826294 -0.1397284269 0.6092624068 4291942626
-0.2973702550 -0.1392798871 0.6102631092 4291810268
-0.2978577912 -0.1388290823 0.6112636328 4291152338
-0.2983452678 -0.1383760124 0.6122639775 4290494662
-0.2988326252 -0.1379206777 0.6132642031 4290560455
-0.2988904715 -0.1372658610 0.6133828759 4291349971
-0.2993775904 -0.1368069500 0.6143825650 4292205280
-0.2994350195 -0.1361504346 0.6145004034 4293192175
-0.2955992520 -0.1522776335 0.6080144644 4294114303
-0.2952986658 -0.1507730782 0.6073962450 4293390070
-0.2949344814 -0.1499131024 0.6066471338 4292863726
-0.2945698500 -0.1490545720 0.6058971286 4291350489
-0.2942048013 -0.1481974870 0.6051462889 4290758352
-0.2938393652 -0.1473418772 0.6043945551 4290626766
-0.2934734821 -0.1464877278 0.6036419868 4291350489
-0.2931071818 -0.1456350386 0.6028885841 4292534763
-0.2927404642 -0.1447838098 0.6021342874 4293390072
-0.2928007543 -0.1441444904 0.6022583246 4293784060
-0.2928608358 -0.1435047686 0.6023818851 4293718267
-0.2929206491 -0.1428646594 0.6025049090 4293192693
-0.2929802239 -0.1422241479 0.6026274562 4293126900
-0.2934673727 -0.1417899430 0.6036294699 4292534763
-0.2939544320 -0.1413534880 0.6046313047 4291811040
-0.2944414020 -0.1409147531 0.6056329608 4291679454
-0.2949283421 -0.1404737681 0.6066344976 4291876833
-0.2954151630 -0.1400305331 0.6076358557 4291547866
-0.2959019244 -0.1395850182 0.6086370349 4290955729
-0.2959603071 -0.1389361769 0.6087571383 4290560455
-0.2964468002 -0.1384870857 0.6097578406 4290363076
-0.2969332337 -0.1380357295 0.6107583642 4290494662
-0.2974195778 -0.1375821084 0.6117587090 4291547350
-0.2979058623 -0.1371262372 0.6127589345 4293126380
-0.2983920276 -0.1366680861 0.6137589216 4294047482
-0.2937692106 -0.1516814232 0.6056338549 4293456376
-0.2934062183 -0.1508219242 0.6048855782 4292535274
-0.2930428088 -0.1499638855 0.6041363478 4291482073
-0.2931050062 -0.1493243277 0.6042646170 4290692557
-0.2927408516 -0.1484682709 0.6035138369 4290955729
-0.2919500768 -0.1473984718 0.6018835902 4291745245
-0.2915849984 -0.1465462446 0.6011309028 4292797935
-0.2916458845 -0.1459088027 0.6012564301 4293653244
-0.2912800610 -0.1450585872 0.6005022526 4293916415
-0.2909137905 -0.1442098320 0.5997471809 4293719037
-0.2909737825 -0.1435730606 0.5998708606 4293258486
-0.2914602757 -0.1431454867 0.6008737683 4292995314
-0.2915198505 -0.1425070018 0.6009966135 4292403177
-0.2920061052 -0.1420758516 0.6019991040 4291942626
-0.2924923003 -0.1416424215 0.6030014157 4291745245
-0.2925513089 -0.1410008967 0.6031230688 4291811038
-0.2930372655 -0.1405638903 0.6041249633 4291482073
-0.2939504087 -0.1403285861 0.6060074568 4290692557
-0.2944363058 -0.1398861110 0.6070091724 4290100418
-0.2944946885 -0.1392392814 0.6071295738 4289903039
-0.2949803472 -0.1387932301 0.6081307530 4290363076
-0.2954659164 -0.1383449137 0.6091318130 4291284178
-0.2959513962 -0.1378943324 0.6101326942 4292336864
-0.2964368165 -0.1374414861 0.6111333966 4293389552
-0.2922422886 -0.1525812149 0.6038687229 4293456376
-0.2923053801 -0.1519430578 0.6039990783 4292535274
-0.2919432819 -0.1510845870 0.6032508612 4291416280
-0.2915807366 -0.1502275467 0.6025017500 4290560971
-0.2912178040 -0.1493719667 0.6017518044 4290627277
-0.2908544540 -0.1485178322 0.6010009646 4291285207
-0.2909159660 -0.1478813589 0.6011281013 4292732140
-0.2897010446 -0.1465986669 0.5986176729 4293324277
-0.2897618413 -0.1459641904 0.5987433195 4293916415
-0.2898223996 -0.1453292966 0.5988684297 4293982207
-0.2894570231 -0.1444815397 0.5981134772 4293849853
-0.2895170152 -0.1438467950 0.5982373953 4293191923
-0.2900026143 -0.1434222758 0.5992407799 4292337382
-0.2900622189 -0.1427858025 0.5993639231 4291876831
-0.2905475795 -0.1423576921 0.6003668904 4291876831
-0.2906067669 -0.1417195052 0.6004891992 4291613659
-0.2915181220 -0.1414946616 0.6023723483 4291416280
-0.2915770113 -0.1408538222 0.6024940014 4290889936
-0.2920620143 -0.1404175907 0.6034961939 4290100418
-0.2925469577 -0.1399790943 0.6044982672 4289574074
-0.2930318117 -0.1395383477 0.6055001020 4289771453
-0.2939432263 -0.1392975003 0.6073833704 4290297797
-0.2944280207 -0.1388512850 0.6083851457 4291942106
-0.2944859266 -0.1382025033 0.6085048318 4293126380
-0.2949704826 -0.1377526969 0.6095060110 4293916665
-0.2911417186 -0.1536961645 0.6029784083 4293390583
-0.2907812595 -0.1528367400 0.6022318602 4292272102
-0.2904203534 -0.1519787610 0.6014844179 4291218903
-0.2904830873 -0.1513431519 0.6016143560 4290824145
-0.2901214659 -0.1504871398 0.6008653641 4291021524
-0.2893351316 -0.1494134814 0.5992368460 4291613661
-0.2889725864 -0.1485612839 0.5984859467 4292534761
-0.2886095941 -0.1477105469 0.5977341533 4293324277
-0.2886706889 -0.1470775604 0.5978606939 4293850621
-0.2883069515 -0.1462288052 0.5971074104 4293982207
-0.2883675098 -0.1455959529 0.5972327590 4293981439
-0.2884278297 -0.1449626833 0.5973576903 4293323509
-0.2884878814 -0.1443290412 0.5974820852 4292599786
-0.2885477245 -0.1436949819 0.5976060033 4292336614
-0.2890323699 -0.1432712376 0.5986097455 4292270819
-0.2895169556 -0.1428452283 0.5996133685 4292139233
-0.2895762324 -0.1422081292 0.5997361541 4291810522
-0.2900605798 -0.1417785287 0.6007393003 4291349971
-0.2901194990 -0.1411397159 0.6008612514 4290824141
-0.2906036079 -0.1407065243 0.6018639207 4290495176
-0.2910876870 -0.1402710676 0.6028664708 4290100672
-0.2915716767 -0.1398333609 0.6038688421 4290100672
-0.2920555770 -0.1393933743 0.6048710942 4291349969
-0.2925394177 -0.1389511377 0.6058731675 4292731622
-0.2930231690 -0.1385066360 0.6068750620 4293652724
-0.2887733877 -0.1541294456 0.5994523168 4293258995
-0.2888368070 -0.1534971148 0.5995839834 4292469479
-0.2889000177 -0.1528643668 0.5997151732 4291284696
-0.2889629602 -0.1522312164 0.5998458862 4290560973
-0.2886025310 -0.1513756961 0.5990976095 4290692559
-0.2878184021 -0.1503005773 0.5974699259 4291811040
-0.2883037627 -0.1498890668 0.5984774232 4292994544
-0.2870952487 -0.1485986114 0.5959687829 4293586681
-0.2871566117 -0.1479680538 0.5960960984 4293719037
-0.2867940664 -0.1471197903 0.5953435302 4293653244
-0.2868548632 -0.1464893520 0.5954697132 4293718267
-0.2869153917 -0.1458585262 0.5955953598 4293257716
-0.2869757116 -0.1452272832 0.5957205296 4292797165
-0.2870357633 -0.1445956528 0.5958452225 4292468200
-0.2870956063 -0.1439636350 0.5959694386 4292401894
-0.2875793576 -0.1435429305 0.5969736576 4292401894
-0.2880630493 -0.1431199610 0.5979776978 4291876061
-0.2885466516 -0.1426947415 0.5989816785 4290889166
-0.2886058092 -0.1420583427 0.5991044044 4290363074
-0.2890892029 -0.1416295171 0.6001079082 4290626246
-0.2895725369 -0.1411984414 0.6011112332 4290429637
-0.2900558114 -0.1407650858 0.6021144390 4290363844
-0.2901142538 -0.1401243210 0.6022357345 4290955981
-0.2905972898 -0.1396873891 0.6032384634 4292074462
-0.2910802662 -0.1392481923 0.6042410135 4293323759
-0.2911381125 -0.1386043876 0.6043611765 4293981689
-0.2868334055 -0.1547739655 0.5968011618 4292995825
-0.2868969440 -0.1541450173 0.5969333649 4292008930
-0.2869602740 -0.1535156518 0.5970650911 4291087826
-0.2870233655 -0.1528858691 0.5971963406 4290561482
-0.2866640091 -0.1520317793 0.5964487195 4291087062
-0.2867265344 -0.1514021009 0.5965788364 4291810785
-0.2863664627 -0.1505499482 0.5958296061 4293060338
-0.2864284515 -0.1499203891 0.5959585905 4293784061
-0.2856450677 -0.1488500237 0.5943286419 4294047231
-0.2848611176 -0.1477829665 0.5926975012 4294178815
-0.2849220335 -0.1471558958 0.5928242207 4293916415
-0.2849827111 -0.1465284228 0.5929504633 4293455865
-0.2854660451 -0.1461170167 0.5939561725 4292797933
-0.2855263650 -0.1454878151 0.5940816402 4292403175
-0.2860095203 -0.1450728178 0.5950869322 4292271073
-0.2860694230 -0.1444418877 0.5952115655 4292468452
-0.2861291170 -0.1438105553 0.5953357816 4292534243
-0.2866119146 -0.1433906406 0.5963402987 4292271071
-0.2870946527 -0.1429684609 0.5973446965 4291416532
-0.2875773013 -0.1425440162 0.5983489752 4290166465
-0.2876363099 -0.1419083029 0.5984717011 4289836729
-0.2881187499 -0.1414802670 0.5994755030 4290494659
-0.2886011600 -0.1410499662 0.6004791856 4291284175
-0.2890834510 -0.1406174004 0.6014827490 4292073691
-0.2891417444 -0.1399773359 0.6016040444 4292863977
-0.2896238267 -0.1395411789 0.6026070714 4293785079
-0.2845113277 -0.1591505408 0.5933408737 4294114303
-0.2847056985 -0.1572801769 0.5937462449 4294114303
-0.2847700417 -0.1566558778 0.5938804150 4294179583
-0.2853188515 -0.1556355655 0.5950249434 4292995312
-0.2853826284 -0.1550090760 0.5951579213 4291811038
-0.2850251198 -0.1541544646 0.5944123864 4290692557
-0.2850883305 -0.1535280645 0.5945441723 4290363592
-0.2851513028 -0.1529012471 0.5946754813 4291021520
-0.2847927511 -0.1520490944 0.5939277411 4291876829
-0.2848551571 -0.1514223665 0.5940579176 4293192438
-0.2844958603 -0.1505721658 0.5933086276 4293587196
-0.2845577300 -0.1499455571 0.5934376121 4294113023
-0.2841976881 -0.1490973234 0.5926868320 4294178815
-0.2838372588 -0.1482505500 0.5919350982 4294047231
-0.2834764123 -0.1474052221 0.5911825895 4293652474
-0.2835370600 -0.1467797905 0.5913090706 4292929519
-0.2840195298 -0.1463714391 0.5923151970 4292403175
-0.2840797901 -0.1457442641 0.5924409628 4292468968
-0.2845620513 -0.1453323066 0.5934466720 4292534761
-0.2850442529 -0.1449180990 0.5944522619 4292468452
-0.2851040065 -0.1442878693 0.5945768952 4292402659
-0.2855859995 -0.1438700706 0.5955821276 4292402659
-0.2860679328 -0.1434499919 0.5965871811 4292205280
-0.2865498066 -0.1430276632 0.5975920558 4291284946
-0.2870316207 -0.1426030695 0.5985968709 4290232258
-0.2870905399 -0.1419671178 0.5987197757 4290561222
-0.2871492207 -0.1413307935 0.5988421440 4291613910
-0.2876306772 -0.1409012675 0.5998461843 4292798184
-0.2881120443 -0.1404694915 0.6008500457 4293587700
-0.2827746868 -0.1578895748 0.5910882950 4294114303
-0.2828391194 -0.1572686732 0.5912229419 4294245887
-0.2829033434 -0.1566473246 0.5913571715 4293982719
-0.2829673290 -0.1560255736 0.5914909244 4293258484
-0.2830310762 -0.1554033905 0.5916242003 4292140003
-0.2830946147 -0.1547807902 0.5917569995 4291021522
-0.2835780382 -0.1543864906 0.5927674770 4290692557
-0.2836411893 -0.1537621319 0.5928995609 4290955729
-0.2832838297 -0.1529104710 0.5921525359 4291811038
-0.2829260528 -0.1520602703 0.5914046764 4292863726
-0.2829883695 -0.1514365077 0.5915349126 4293521656
-0.2826298475 -0.1505882591 0.5907855034 4294047999
-0.2826915979 -0.1499646157 0.5909146070 4294113791
-0.2823323607 -0.1491183192 0.5901636481 4293850623
-0.2823935449 -0.1484947950 0.5902916193 4293455865
-0.2820335925 -0.1476504803 0.5895391107 4292995314
-0.2820942402 -0.1470270604 0.5896658897 4292732142
-0.2821546495 -0.1464032531 0.5897921920 4292666347
-0.2826360464 -0.1459966153 0.5907984972 4292797933
-0.2831174135 -0.1455877274 0.5918046832 4292271589
-0.2831772864 -0.1449608505 0.5919298530 4292468968
-0.2836584449 -0.1445483714 0.5929356217 4292797417
-0.2841395438 -0.1441336125 0.5939412713 4292731624
-0.2850422263 -0.1439295113 0.5958281755 4292205280
-0.2855232954 -0.1435092986 0.5968337655 4291415764
-0.2860043049 -0.1430868059 0.5978391767 4291152590
-0.2860633135 -0.1424519569 0.5979625583 4291547348
-0.2861220837 -0.1418167055 0.5980854034 4292666598
-0.2861806452 -0.1411810666 0.5982077718 4293521907
-0.2814601064 -0.1568660736 0.5897094607 4293324279
-0.2815240324 -0.1562463492 0.5898434520 4292271591
-0.2815877795 -0.1556262076 0.5899769664 4291153108
-0.2816512585 -0.1550056487 0.5901100039 4291021522
-0.2821337581 -0.1546144038 0.5911208987 4291218901
-0.2817775905 -0.1537632793 0.5903746486 4291942624
-0.2818404138 -0.1531414539 0.5905063152 4292929519
-0.2814835012 -0.1522922665 0.5897585154 4293719035
-0.2815457880 -0.1516705453 0.5898889899 4294113791
-0.2811881304 -0.1508233100 0.5891396999 4294179583
-0.2812498808 -0.1502017081 0.5892689824 4293784830
-0.2808915079 -0.1493564248 0.5885181427 4293521658
-0.2809526920 -0.1487349272 0.5886463523 4293061107
-0.2810136378 -0.1481130272 0.5887740254 4292797935
-0.2810743451 -0.1474907249 0.5889012814 4292732140
-0.2811348438 -0.1468680054 0.5890280008 4292666347
-0.2816154361 -0.1464634985 0.5900349021 4292600554
-0.2820959687 -0.1460567266 0.5910416842 4292600554
-0.2825764418 -0.1456476897 0.5920484066 4292929003
-0.2830568552 -0.1452363878 0.5930549502 4292863210
-0.2835372388 -0.1448228210 0.5940614343 4292534245
-0.2835967839 -0.1441930532 0.5941861868 4291744729
-0.2836560905 -0.1435628831 0.5943104625 4291152590
-0.2841361165 -0.1431443989 0.5953161716 4291349969
-0.2846160531 -0.1427236348 0.5963217616 4292336864
-0.2850959599 -0.1423006058 0.5973272324 4293718517
-0.2795004547 -0.1620067358 0.5869696140 4293324792
-0.2791488767 -0.1611516029 0.5862312317 4293193206
-0.2792142332 -0.1605378389 0.5863685012 4293193206
-0.2788619101 -0.1596845835 0.5856286287 4292995827
-0.2785091996 -0.1588327438 0.5848878622 4293127413
-0.2785736918 -0.1582195312 0.5850232840 4292930034
-0.2786379755 -0.1576059014 0.5851583481 4293127413
-0.2791838348 -0.1566117853 0.5863046646 4292666862
-0.2792475522 -0.1559959650 0.5864384770 4291350489
-0.2793110609 -0.1553797126 0.5865718126 4291021524
-0.2793743312 -0.1547630429 0.5867046714 4291547866
-0.2798556983 -0.1543767005 0.5877156258 4292337382
-0.2799186110 -0.1537582725 0.5878477097 4293258484
-0.2799813151 -0.1531394273 0.5879793763 4293784828
-0.2796251774 -0.1522921771 0.5872315168 4294244607
-0.2796873450 -0.1516734362 0.5873620510 4294244607
-0.2793304920 -0.1508281380 0.5866125822 4293981437
-0.2793920934 -0.1502094865 0.5867419839 4293784058
-0.2794534564 -0.1495904326 0.5868709087 4293258484
-0.2790955603 -0.1487476379 0.5861192942 4292929519
-0.2795755565 -0.1483511031 0.5871272683 4292732140
-0.2800554931 -0.1479523182 0.5881351829 4292666347
-0.2801160812 -0.1473307163 0.5882623792 4292732140
-0.2801764011 -0.1467087120 0.5883890986 4292797933
-0.2806560099 -0.1463049948 0.5893963575 4292863724
-0.2811355889 -0.1458990127 0.5904034972 4292863724
-0.2816151083 -0.1454907656 0.5914105177 4292797417
-0.2820945680 -0.1450802535 0.5924174190 4291810522
-0.2825739980 -0.1446674764 0.5934242010 4291284176
-0.2826333642 -0.1440383941 0.5935488939 4291547348
-0.2826925218 -0.1434089392 0.5936731696 4292468450
-0.2831715941 -0.1429912299 0.5946791768 4293586931
-0.2789792418 -0.1659975052 0.5872447491 4293193206
-0.2786304057 -0.1651382744 0.5865104198 4292995827
-0.2786970735 -0.1645259857 0.5866507888 4292798448
-0.2787635624 -0.1639132500 0.5867906809 4292666862
-0.2784136534 -0.1630563587 0.5860541463 4292601069
-0.2780633271 -0.1622008681 0.5853167176 4292600556
-0.2777125835 -0.1613467634 0.5845784545 4292600556
-0.2773614228 -0.1604940593 0.5838392973 4292600556
-0.2770098746 -0.1596427709 0.5830992460 4292534763
-0.2766578794 -0.1587928832 0.5823583603 4292206311
-0.2763054967 -0.1579443961 0.5816165805 4292337897
-0.2763695419 -0.1573346406 0.5817514062 4292074212
-0.2764333785 -0.1567244679 0.5818857551 4292008419
-0.2764970064 -0.1561138630 0.5820196271 4292600556
-0.2769775093 -0.1557373852 0.5830311775 4292468970
-0.2770407796 -0.1551250219 0.5831643343 4292205798
-0.2771038413 -0.1545122415 0.5832970142 4292534763
-0.2771666646 -0.1538990438 0.5834292769 4293587451
-0.2772292495 -0.1532854289 0.5835610628 4294047999
-0.2772916555 -0.1526713967 0.5836923718 4294376959
-0.2773537934 -0.1520569474 0.5838232040 4294311167
-0.2774157524 -0.1514420807 0.5839536190 4294245375
-0.2770595551 -0.1505996734 0.5832038522 4293916414
-0.2771209478 -0.1499849111 0.5833330750 4293390070
-0.2771821320 -0.1493697613 0.5834618807 4292929519
-0.2776612341 -0.1489785612 0.5844703913 4292929519
-0.2781403065 -0.1485850960 0.5854787827 4292600554
-0.2786193490 -0.1481893659 0.5864871740 4292534761
-0.2786798775 -0.1475697905 0.5866146088 4292797933
-0.2791587412 -0.1471704692 0.5876225233 4292995312
-0.2792189121 -0.1465491652 0.5877492428 4292863726
-0.2796975672 -0.1461462379 0.5887567997 4292600038
-0.2805949748 -0.1459588856 0.5906457901 4292139487
-0.2810736299 -0.1455505043 0.5916533470 4291218383
-0.2811332345 -0.1449238658 0.5917788148 4291349969
-0.2816116810 -0.1445118785 0.5927859545 4292402657
-0.2816709280 -0.1438835114 0.5929106474 4293718517
-0.2775425613 -0.1661802828 0.5855896473 4293324792
-0.2771945596 -0.1653220952 0.5848553777 4292864241
-0.2772611976 -0.1647118479 0.5849959254 4292534763
-0.2769124210 -0.1638555229 0.5842601061 4292403177
-0.2769785225 -0.1632453203 0.5843995810 4292271591
-0.2766290605 -0.1623908579 0.5836622119 4292140005
-0.2758637071 -0.1612948775 0.5820474029 4292074212
-0.2759288847 -0.1606861204 0.5821848512 4292205798
-0.2751625180 -0.1595947891 0.5805678964 4292271591
-0.2743955255 -0.1585066766 0.5789496899 4292205798
-0.2736279666 -0.1574218273 0.5773301721 4292205543
-0.2741076052 -0.1570551991 0.5783421993 4292271336
-0.2737551630 -0.1562115103 0.5775985718 4292140005
-0.2738184333 -0.1556057185 0.5777320266 4291811040
-0.2738814950 -0.1549994946 0.5778651237 4291876833
-0.2739443481 -0.1543928683 0.5779976845 4292534763
-0.2740069628 -0.1537858248 0.5781298280 4293390072
-0.2744858861 -0.1534111500 0.5791403055 4293916415
-0.2745481730 -0.1528023481 0.5792717338 4294179583
-0.2750269473 -0.1524240822 0.5802819133 4294245375
-0.2755056918 -0.1520435363 0.5812919736 4294179583
-0.2751505971 -0.1512025595 0.5805428028 4293850623
-0.2752120793 -0.1505911797 0.5806725621 4293390072
-0.2752733529 -0.1499793977 0.5808018446 4293061107
-0.2757515907 -0.1495935172 0.5818108320 4292929521
-0.2758125067 -0.1489799917 0.5819393396 4292929521
-0.2762905657 -0.1485905051 0.5829480290 4292862956
-0.2767685652 -0.1481987685 0.5839565992 4293060335
-0.2772465348 -0.1478047669 0.5849650502 4293192691
-0.2777244747 -0.1474085003 0.5859734416 4293061105
-0.2782023549 -0.1470099688 0.5869817138 4292468966
-0.2786801755 -0.1466091722 0.5879898667 4291679450
-0.2791579664 -0.1462060958 0.5889979601 4291349971
-0.2792177200 -0.1455828398 0.5891240239 4291284178
-0.2796953022 -0.1451761723 0.5901317000 4292139485
-0.2801728249 -0.1447672397 0.5911392570 4293257966
-0.2757616341 -0.1655017734 0.5831986666 4293324279
-0.2758281827 -0.1648935825 0.5833394527 4292863728
-0.2754803002 -0.1640382856 0.5826036930 4292797935
-0.2755463123 -0.1634301394 0.5827433467 4292929521
-0.2751976848 -0.1625767201 0.5820060372 4293191923
-0.2748486698 -0.1617246866 0.5812678933 4293257716
-0.2740845680 -0.1606310457 0.5796518922 4293126130
-0.2733198404 -0.1595406383 0.5780346394 4293126130
-0.2721396983 -0.1582122892 0.5755387545 4293126130
-0.2717886269 -0.1573695540 0.5747962594 4292928751
-0.2714371383 -0.1565282345 0.5740529299 4292402922
-0.2706701159 -0.1554498971 0.5724307895 4292600301
-0.2707329392 -0.1548498422 0.5725637078 4292600556
-0.2707955837 -0.1542493552 0.5726961493 4292534763
-0.2708579898 -0.1536484510 0.5728281736 4292337384
-0.2709201872 -0.1530471295 0.5729597211 4291876833
-0.2713977993 -0.1526792198 0.5739697814 4292139750
-0.2714596689 -0.1520761549 0.5741006136 4293258231
-0.2719371021 -0.1517046392 0.5751103163 4293981951
-0.2724145353 -0.1513308734 0.5761200190 4293718782
-0.2728919387 -0.1509548426 0.5771296620 4293521658
-0.2733692825 -0.1505765468 0.5781391859 4293324279
-0.2734304368 -0.1499677300 0.5782685280 4292929521
-0.2734913528 -0.1493584961 0.5783973932 4292732142
-0.2739684284 -0.1489752680 0.5794063210 4292929266
-0.2744454741 -0.1485897899 0.5804151893 4293192438
-0.2749224603 -0.1482020319 0.5814239383 4293257714
-0.2753994167 -0.1478120238 0.5824326277 4293323507
-0.2758763134 -0.1474197358 0.5834412575 4292732140
-0.2763531804 -0.1470251977 0.5844497681 4291811038
-0.2768300176 -0.1466283947 0.5854581594 4291087313
-0.2773067951 -0.1462293267 0.5864664912 4290889934
-0.2777835131 -0.1458279788 0.5874747038 4291810522
-0.2782602012 -0.1454243809 0.5884827971 4292929003
-0.2787368298 -0.1450185031 0.5894908309 4294047482
-0.2744643986 -0.1644646078 0.5818218589 4293390585
-0.2741170228 -0.1636108309 0.5810855031 4293455865
-0.2741827965 -0.1630042940 0.5812249184 4293521658
-0.2734210491 -0.1619074494 0.5796101093 4293587451
-0.2730724514 -0.1610578597 0.5788711309 4293324279
-0.2718957365 -0.1597234458 0.5763767362 4293257716
-0.2711321712 -0.1586362869 0.5747581124 4293520888
-0.2699539959 -0.1573111117 0.5722604990 4293455095
-0.2691891193 -0.1562313884 0.5706390738 4292994544
-0.2688378990 -0.1553943455 0.5698945522 4292862707
-0.2684862614 -0.1545587331 0.5691491365 4292994293
-0.2681342065 -0.1537245363 0.5684028864 4293520889
-0.2681962848 -0.1531284451 0.5685344338 4293784061
-0.2686727643 -0.1527676880 0.5695445538 4293520888
-0.2687345147 -0.1521698534 0.5696754456 4293126130
-0.2692108750 -0.1518055052 0.5706852078 4292862959
-0.2696871758 -0.1514389068 0.5716949105 4292665580
-0.2701634765 -0.1510700434 0.5727045536 4292731373
-0.2706397474 -0.1506989151 0.5737141967 4293191924
-0.2711159885 -0.1503255367 0.5747237206 4293586682
-0.2715921700 -0.1499498934 0.5757331848 4293389303
-0.2724837065 -0.1498003453 0.5776231289 4293257716
-0.2725444734 -0.1491918266 0.5777519345 4293389302
-0.2730205953 -0.1488094032 0.5787612200 4293455095
-0.2734966576 -0.1484247148 0.5797703862 4293455095
-0.2743884027 -0.1482623965 0.5816608071 4292534763
-0.2748644948 -0.1478722543 0.5826699734 4291613661
-0.2753405273 -0.1474798471 0.5836790800 4291020752
-0.2754004896 -0.1468633264 0.5838062167 4291020752
-0.2758763433 -0.1464673132 0.5848149657 4291678936
-0.2763521671 -0.1460690349 0.5858236551 4292731624
-0.2768279314 -0.1456684917 0.5868321657 4293785080
-0.2734496295 -0.1648888141 0.5810387135 4293193204
-0.2731031775 -0.1640351564 0.5803025961 4293061618
-0.2727563381 -0.1631828994 0.5795656443 4293126900
-0.2728218436 -0.1625779867 0.5797047615 4293192693
-0.2720614374 -0.1614825577 0.5780890584 4293390072
-0.2708874941 -0.1601462215 0.5755946040 4293587451
-0.2701258063 -0.1590581834 0.5739760995 4293652474
-0.2689503431 -0.1577310860 0.5714784265 4293389302
-0.2677741051 -0.1564090848 0.5689790845 4293126130
-0.2670103908 -0.1553326249 0.5673563480 4293060337
-0.2666595280 -0.1544989496 0.5666107535 4293258231
-0.2663082182 -0.1536667049 0.5658643842 4293521403
-0.2659565508 -0.1528358907 0.5651170611 4294047999
-0.2660181820 -0.1522432715 0.5652480125 4294245375
-0.2664933801 -0.1518860906 0.5662577748 4293850623
-0.2669686079 -0.1515266597 0.5672675371 4293455865
-0.2674437761 -0.1511649638 0.5682771802 4293324279
-0.2679189146 -0.1508010179 0.5692868233 4293192693
-0.2683940530 -0.1504348069 0.5702964067 4292665580
-0.2688691616 -0.1500663310 0.5713059306 4292862959
-0.2697586119 -0.1499259174 0.5731958747 4293126130
-0.2702337503 -0.1495520025 0.5742054582 4293389302
-0.2711234093 -0.1494042724 0.5760958791 4293849853
-0.2715985775 -0.1490249038 0.5771055222 4294047231
-0.2720737159 -0.1486432850 0.5781151056 4293257716
-0.2725487947 -0.1482593864 0.5791246295 4292139235
-0.2734387815 -0.1480979770 0.5810157061 4291021522
-0.2739138901 -0.1477086246 0.5820252299 4290824143
-0.2743889391 -0.1473170072 0.5830346346 4291284178
-0.2748639584 -0.1469231248 0.5840439796 4292336866
-0.2749236524 -0.1463059783 0.5841708183 4293586933
-0.2720244229 -0.1650611758 0.5793777108 4293126898
-0.2720904648 -0.1644573659 0.5795183778 4292008417
-0.2717445791 -0.1636052281 0.5787816644 4291942624
-0.2718100846 -0.1630014628 0.5789212584 4291942626
-0.2714634836 -0.1621511877 0.5781829953 4292074212
-0.2702924013 -0.1608120501 0.5756887197 4292533993
-0.2695326507 -0.1597221941 0.5740705132 4293191923
-0.2683600485 -0.1583922654 0.5715730786 4293718267
-0.2663620114 -0.1565826535 0.5673174858 4293849853
-0.2672497630 -0.1564720869 0.5692082644 4293849853
-0.2656625509 -0.1549141109 0.5658277273 4293981439
-0.2653122246 -0.1540819854 0.5650815368 4293719035
-0.2649614811 -0.1532512754 0.5643345118 4293850621
-0.2650231421 -0.1526597738 0.5644658804 4294047999
-0.2650845945 -0.1520678699 0.5645967722 4294047999
-0.2651458383 -0.1514755487 0.5647272468 4293587451
-0.2652068734 -0.1508828253 0.5648572445 4293324279
-0.2656809092 -0.1505237818 0.5658668280 4293455865
-0.2665681839 -0.1503956616 0.5677565932 4293455865
-0.2670422196 -0.1500311792 0.5687662959 4292929521
-0.2679297328 -0.1498957723 0.5706565380 4292666349
-0.2684038281 -0.1495258361 0.5716663599 4292600556
-0.2692915797 -0.1493831277 0.5735570788 4292666349
-0.2701794505 -0.1492362916 0.5754481554 4293389302
-0.2710675001 -0.1490853429 0.5773395896 4293718267
-0.2715417445 -0.1487035900 0.5783496499 4292665580
-0.2720159590 -0.1483195722 0.5793596506 4291218134
-0.2724901140 -0.1479332894 0.5803695917 4291284946
-0.2729642689 -0.1475447416 0.5813794732 4292206048
-0.2734383643 -0.1471539289 0.5823892355 4293324529
-0.2706021369 -0.1652293801 0.5777150989 4293653242
-0.2706681192 -0.1646276414 0.5778559446 4292205796
-0.2707338929 -0.1640254408 0.5779963732 4291087315
-0.2703885436 -0.1631748229 0.5772590637 4291284694
-0.2704537809 -0.1625726819 0.5773983598 4291153108
-0.2701077163 -0.1617239416 0.5766595006 4291350487
-0.2689387798 -0.1603861153 0.5741639137 4291612889
-0.2677690685 -0.1590533704 0.5716666579 4292007647
-0.2665985227 -0.1577256918 0.5691676736 4293060335
-0.2658387125 -0.1566455960 0.5675455332 4294113023
-0.2650783062 -0.1555687338 0.5659221411 4294573567
-0.2643173039 -0.1544951499 0.5642974377 4294573567
-0.2639675140 -0.1536645442 0.5635506511 4294377471
-0.2636173368 -0.1528353691 0.5628030300 4293982718
-0.2636787295 -0.1522455215 0.5629341006 4293653755
-0.2637399435 -0.1516552418 0.5630647540 4293258997
-0.2638009191 -0.1510645598 0.5631949902 4292995314
-0.2638616860 -0.1504734755 0.5633247495 4293061107
-0.2643346488 -0.1501161605 0.5643343925 4293455865
-0.2652200162 -0.1499898583 0.5662246943 4293653244
-0.2656930089 -0.1496271193 0.5672344565 4293521658
-0.2665786445 -0.1494935304 0.5691252351 4293258486
-0.2674644291 -0.1493558139 0.5710163116 4293126128
-0.2683503628 -0.1492139995 0.5729077458 4292862956
-0.2692364752 -0.1490680575 0.5747994781 4293060337
-0.2701227069 -0.1489180028 0.5766915679 4293389302
-0.2705959976 -0.1485370547 0.5777019262 4293060338
-0.2714824378 -0.1483796835 0.5795944929 4292533994
-0.2719557583 -0.1479932666 0.5806049109 4293258735
-0.2724289894 -0.1476045847 0.5816152692 4293916665
-0.2692487538 -0.1647937596 0.5761919022 4292929519
-0.2693144381 -0.1641936153 0.5763325095 4291482073
-0.2693799436 -0.1635930538 0.5764726996 4290889936
-0.2694452107 -0.1629920453 0.5766124129 4291284694
-0.2691000998 -0.1621434242 0.5758737922 4291153108
-0.2687545419 -0.1612962037 0.5751343369 4291218901
-0.2675877810 -0.1599597186 0.5726374984 4291349717
-0.2664202154 -0.1586282998 0.5701388717 4291349717
-0.2652518451 -0.1573019624 0.5676385760 4292073440
-0.2644934058 -0.1562232822 0.5660154819 4293389300
-0.2637343407 -0.1551478803 0.5643911362 4294310399
-0.2629746795 -0.1540757269 0.5627654791 4294507775
-0.2626254559 -0.1532466561 0.5620180964 4294508543
-0.2622758150 -0.1524190158 0.5612698793 4293784826
-0.2623369396 -0.1518307924 0.5614007115 4293126898
-0.2623978853 -0.1512421668 0.5615310669 4292732140
-0.2624585927 -0.1506531239 0.5616610646 4292600556
-0.2629306018 -0.1502988786 0.5626710653 4292929521
-0.2634025514 -0.1499423683 0.5636811256 4293455865
-0.2638745010 -0.1495836228 0.5646910667 4293719037
-0.2647581697 -0.1494550407 0.5665821433 4293652474
-0.2656420171 -0.1493223459 0.5684735179 4293586681
-0.2661140561 -0.1489549577 0.5694837570 4293520888
-0.2674101591 -0.1490446180 0.5722573996 4293389302
-0.2682944834 -0.1488995850 0.5741497874 4293323510
-0.2691789269 -0.1487504244 0.5760425329 4293455096
-0.2700635493 -0.1485971361 0.5779356360 4293784061
-0.2705359161 -0.1482137889 0.5789464712 4294178815
-0.2682411969 -0.1652075499 0.5754034519 4293455861
-0.2683069408 -0.1646085680 0.5755444169 4292140001
-0.2683724761 -0.1640091389 0.5756850243 4291021520
-0.2684377730 -0.1634092778 0.5758250952 4290889936
-0.2680935860 -0.1625607908 0.5750867724 4291087315
-0.2677489817 -0.1617137045 0.5743476152 4291087315
-0.2674039900 -0.1608680040 0.5736075044 4291087315
-0.2662393749 -0.1595328450 0.5711093545 4291283924
-0.2650739849 -0.1582027525 0.5686094165 4291349717
-0.2643175721 -0.1571213603 0.5669868588 4291481303
-0.2631506920 -0.1558005214 0.5644837618 4292270819
-0.2623929977 -0.1547265500 0.5628584623 4293455093
-0.2620447874 -0.1538966745 0.5621114969 4294310399
-0.2616961896 -0.1530682296 0.5613636971 4293850621
-0.2613471746 -0.1522412151 0.5606150627 4293258484
-0.2614081502 -0.1516537070 0.5607458949 4292863728
-0.2614689171 -0.1510657817 0.5608762503 4292666349
-0.2615294755 -0.1504774541 0.5610061288 4292534763
-0.2620004714 -0.1501240134 0.5620164871 4292666349
-0.2624714673 -0.1497683227 0.5630267859 4292929521
-0.2629424334 -0.1494103819 0.5640370846 4293126900
-0.2634133697 -0.1490501761 0.5650472641 4292929519
-0.2647063732 -0.1491509080 0.5678208470 4292929519
-0.2651774585 -0.1487843245 0.5688313842 4293191923
-0.2664709389 -0.1488749832 0.5716060400 4293323509
-0.2673534751 -0.1487308443 0.5734991431 4293520888
-0.2682361305 -0.1485825777 0.5753925443 4293652474
-0.2691189647 -0.1484301835 0.5772863030 4293915646
-0.2671688497 -0.1662166268 0.5744717717 4293324275
-0.2672348022 -0.1656192243 0.5746136308 4293455861
-0.2668924630 -0.1647694409 0.5738775730 4292995310
-0.2669579387 -0.1641720831 0.5740182996 4291613657
-0.2670231760 -0.1635742784 0.5741586089 4290824141
-0.2670882344 -0.1629760265 0.5742984414 4291086799
-0.2671530545 -0.1623773575 0.5744378567 4291086799
-0.2668091059 -0.1615308672 0.5736982822 4291218131
-0.2660560310 -0.1604393423 0.5720790029 4291152338
-0.2648935914 -0.1591055095 0.5695794821 4291283667
-0.2637303472 -0.1577767581 0.5670782924 4291349460
-0.2629753053 -0.1566967815 0.5654547811 4291349460
-0.2622196674 -0.1556200683 0.5638299584 4291546839
-0.2614634335 -0.1545466185 0.5622038841 4292599527
-0.2611158788 -0.1537173688 0.5614565611 4293783801
-0.2607679069 -0.1528895348 0.5607084036 4293455865
-0.2604195476 -0.1520631313 0.5599593520 4292929521
-0.2604803741 -0.1514763385 0.5600900650 4292732142
-0.2605409622 -0.1508891433 0.5602203608 4292732142
-0.2606013417 -0.1503015310 0.5603502393 4292468968
-0.2610713840 -0.1499488950 0.5613608956 4292337382
-0.2615413964 -0.1495940238 0.5623715520 4292534761
-0.2620113790 -0.1492368877 0.5633820891 4292732140
-0.2624813318 -0.1488774866 0.5643926263 4293061105
-0.2637717128 -0.1489792168 0.5671672225 4292995312
-0.2646521330 -0.1488442123 0.5690603256 4293192693
-0.2655327022 -0.1487050802 0.5709537268 4293455865
-0.2664134502 -0.1485618353 0.5728474855 4293784828
-0.2662295699 -0.1660287678 0.5738224983 4293587447
-0.2658881545 -0.1651791185 0.5730866790 4293653240
-0.2655463517 -0.1643308550 0.5723499656 4292995310
-0.2656115294 -0.1637351215 0.5724904537 4291482071
-0.2656764984 -0.1631389260 0.5726304650 4290824141
-0.2657412887 -0.1625423133 0.5727700591 4291086799
-0.2658058405 -0.1619452536 0.5729092360 4291021006
-0.2654623985 -0.1611002982 0.5721690059 4291152079
-0.2651185989 -0.1602567434 0.5714279413 4291086286
-0.2635504305 -0.1586776972 0.5680480003 4290954702
-0.2627974451 -0.1575950086 0.5664250255 4291086288
-0.2620438337 -0.1565155536 0.5648007393 4291283667
-0.2612896562 -0.1554393619 0.5631752014 4291481046
-0.2605348825 -0.1543664187 0.5615484118 4292335585
-0.2601879537 -0.1535377800 0.5608006716 4293322480
-0.2602491975 -0.1529506892 0.5609326363 4292797935
-0.2599015832 -0.1521239877 0.5601834059 4292271591
-0.2599623203 -0.1515369862 0.5603142977 4292008419
-0.2596140206 -0.1507122368 0.5595635772 4292074212
-0.2600831687 -0.1503617465 0.5605747700 4291942624
-0.2605523169 -0.1500090212 0.5615859628 4292140003
-0.2610214353 -0.1496540159 0.5625970960 4292732138
-0.2614905238 -0.1492967606 0.5636081696 4293192689
-0.2627782226 -0.1494026780 0.5663836598 4293653242
-0.2620192766 -0.1483436972 0.5647477508 4293719035
-0.2641377747 -0.1644854695 0.5706800818 4293915646
-0.2642028630 -0.1638917923 0.5708207488 4293126130
-0.2642677724 -0.1632976681 0.5709609389 4291941854
-0.2643324733 -0.1627031118 0.5711007118 4291152338
-0.2643969655 -0.1621081233 0.5712400675 4291086288
-0.2644612491 -0.1615126878 0.5713789463 4291020495
-0.2645253241 -0.1609168202 0.5715174079 4290954700
-0.2637750506 -0.1598272324 0.5698964596 4290954700
-0.2626170516 -0.1584951580 0.5673945546 4291021004
-0.2618655264 -0.1574129760 0.5657708049 4291086797
-0.2615207434 -0.1565779299 0.5650258660 4291217870
-0.2607681155 -0.1555013359 0.5633997917 4291349456
-0.2600148916 -0.1544280052 0.5617724061 4291875800
-0.2596687078 -0.1535990685 0.5610244870 4292796902
-0.2597298622 -0.1530117691 0.5611566305 4291811036
-0.2593829930 -0.1521847695 0.5604072213 4291021520
-0.2590357363 -0.1513592005 0.5596569180 4291218901
-0.2590960860 -0.1507724971 0.5597873330 4291811038
-0.2591562569 -0.1501854062 0.5599173307 4292140003
-0.2596243918 -0.1498334706 0.5609287620 4292732140
-0.2600925565 -0.1494792849 0.5619401932 4293455861
-0.2635430694 -0.1651440561 0.5707648396 4293521658
-0.2636082768 -0.1645506173 0.5709061027 4293192693
-0.2636733055 -0.1639567316 0.5710468888 4292666349
-0.2637381256 -0.1633623987 0.5711873174 4291745245
-0.2638027370 -0.1627676487 0.5713272095 4290955729
-0.2634612024 -0.1619229466 0.5705875754 4290823373
-0.2635253072 -0.1613282263 0.5707263947 4290823373
-0.2631830573 -0.1604854167 0.5699851513 4290823373
-0.2628404200 -0.1596440077 0.5692430735 4290757580
-0.2608720064 -0.1578206867 0.5649800301 4290889420
-0.2617474794 -0.1577204913 0.5668761134 4291086799
-0.2605904639 -0.1563962549 0.5643702745 4291284178
-0.2602459192 -0.1555632502 0.5636240840 4291415764
-0.2594942451 -0.1544895172 0.5619961619 4291875802
-0.2591488361 -0.1536602825 0.5612480640 4292665318
-0.2592099309 -0.1530727744 0.5613803864 4291350487
-0.2588637769 -0.1522454768 0.5606307387 4290824143
-0.2589243650 -0.1516580582 0.5607619882 4290955729
-0.2589847445 -0.1510702372 0.5608927608 4291482073
-0.2590449452 -0.1504819989 0.5610230565 4291811038
-0.2591049075 -0.1498933583 0.5611529350 4292468968
-0.2599796355 -0.1497738063 0.5630474091 4293390068
-0.2622037530 -0.1647009850 0.5692334771 4293390070
-0.2622686923 -0.1641091704 0.5693745017 4293061618
-0.2623334527 -0.1635169089 0.5695150495 4292798446
-0.2623979747 -0.1629242003 0.5696551800 4292271589
-0.2624623179 -0.1623310745 0.5697948337 4291350487
-0.2625264525 -0.1617375016 0.5699340701 4290889166
-0.2625903785 -0.1611434966 0.5700728297 4290823373
-0.2618434429 -0.1600535363 0.5684512854 4290823627
-0.2615013421 -0.1592136621 0.5677086115 4290757834
-0.2607533336 -0.1581292599 0.5660846829 4290889420
-0.2604103088 -0.1572931260 0.5653400421 4291152592
-0.2600669265 -0.1564583927 0.5645945072 4291349971
-0.2593173087 -0.1553819180 0.5629671216 4291415764
-0.2589730024 -0.1545509547 0.5622196794 4291875802
-0.2586283386 -0.1537214220 0.5614714026 4292731111
-0.2582832277 -0.1528933048 0.5607222319 4292139487
-0.2583439648 -0.1523061097 0.5608540177 4291810522
-0.2584044635 -0.1517184824 0.5609853864 4292073440
-0.2584647834 -0.1511304528 0.5611163378 4292336612
-0.2585248947 -0.1505420059 0.5612468123 4292468452
-0.2589913607 -0.1501889378 0.5622594953 4292929003
-0.2594578266 -0.1498335898 0.5632721782 4293390322
-0.2609962225 -0.1630765945 0.5679814816 4293456376
-0.2610604763 -0.1624855250 0.5681213737 4292863724
-0.2611245513 -0.1618940234 0.5682607889 4291811036
-0.2611883879 -0.1613020748 0.5683997273 4290824141
-0.2612520456 -0.1607097089 0.5685382485 4290363590
-0.2613154948 -0.1601168960 0.5686763525 4290823627
-0.2609741390 -0.1592767239 0.5679334402 4290823627
-0.2602276802 -0.1581919193 0.5663089752 4291021006
-0.2602902055 -0.1576005816 0.5664451122 4291152592
-0.2599476576 -0.1567646414 0.5656996369 4291283665
-0.2591997087 -0.1556868553 0.5640718937 4291415251
-0.2584511638 -0.1546123177 0.5624428988 4292073181
-0.2581072152 -0.1537824869 0.5616944432 4293125869
-0.2577628493 -0.1529540718 0.5609450340 4293192689
-0.2578234971 -0.1523666680 0.5610770583 4293126896
-0.2578839362 -0.1517788321 0.5612085462 4293455861
-0.2579441965 -0.1511905938 0.5613396764 4293587447
-0.2580042183 -0.1506019533 0.5614702702 4293521908
-0.2584697902 -0.1502487659 0.5624834895 4293653494
-0.2589353621 -0.1498933136 0.5634966493 4293785080
-0.2597256303 -0.1620463729 0.5665858984 4293126898
-0.2597894073 -0.1614564955 0.5667250156 4292468968
-0.2598529756 -0.1608661860 0.5668637156 4291547866
-0.2599163651 -0.1602754444 0.5670019984 4290758350
-0.2599795461 -0.1596842706 0.5671398044 4290692041
-0.2600425184 -0.1590926647 0.5672771931 4290626248
-0.2592975199 -0.1580083966 0.5656519532 4290955213
-0.2597638667 -0.1576629728 0.5666693449 4291152592
-0.2594220638 -0.1568267196 0.5659236312 4291283665
-0.2586756647 -0.1557485312 0.5642954111 4291744216
-0.2583329380 -0.1549160480 0.5635477901 4292731111
-0.2579898238 -0.1540849805 0.5627993345 4293783799
-0.2580507994 -0.1534959376 0.5629323125 4293784826
-0.2573024333 -0.1524271518 0.5612997413 4293719033
-0.2580728829 -0.1645414382 0.5643478632 4293324790
-0.2581374049 -0.1639553756 0.5644888878 4293061365
-0.2582016885 -0.1633688807 0.5646294951 4292995572
-0.2582657933 -0.1627819389 0.5647696853 4292863728
-0.2583297193 -0.1621945649 0.5649094582 4292600556
-0.2583934069 -0.1616067588 0.5650487542 4292534763
-0.2588595152 -0.1612693071 0.5660679936 4292403177
-0.2589229047 -0.1606797129 0.5662066340 4291745247
-0.2589861155 -0.1600896865 0.5663448572 4291021524
-0.2590491176 -0.1594992280 0.5664826035 4290691789
-0.2591119111 -0.1589083374 0.5666199327 4290494410
-0.2587714195 -0.1580708027 0.5658754110 4290889166
-0.2584305704 -0.1572346836 0.5651299953 4291481303
-0.2584925592 -0.1566443592 0.5652655363 4292007390
-0.2581509948 -0.1558101475 0.5645186305 4292731113
-0.2578090131 -0.1549773514 0.5637708306 4293520886
-0.2575882375 -0.1529670805 0.5632880330 4293850621
-0.2567447424 -0.1640931815 0.5628104210 4293456376
-0.2568089664 -0.1635087579 0.5629512072 4293521916
-0.2568729818 -0.1629238874 0.5630915165 4293324537
-0.2569368184 -0.1623385698 0.5632314682 4292995059
-0.2570004463 -0.1617528349 0.5633709431 4292534508
-0.2574655116 -0.1614184678 0.5643904805 4292337384
-0.2575288415 -0.1608309448 0.5645292997 4292140005
-0.2575919926 -0.1602429748 0.5646676421 4291679454
-0.2576549053 -0.1596545875 0.5648055673 4291284696
-0.2577176392 -0.1590657681 0.5649430752 4290955729
-0.2577801645 -0.1584765166 0.5650801659 4290824143
-0.2578424811 -0.1578868330 0.5652167797 4291481303
-0.2579045892 -0.1572967172 0.5653529763 4292336612
-0.2575640678 -0.1564617157 0.5646064878 4293126128
-0.2576256990 -0.1558716744 0.5647415519 4293915644
-0.2553551197 -0.1642268151 0.5611304045 4293456887
-0.2554192543 -0.1636444479 0.5612713099 4293391094
-0.2554831803 -0.1630616486 0.5614118576 4292995827
-0.2555469275 -0.1624784023 0.5615519285 4292930034
-0.2560111284 -0.1621484756 0.5625719428 4292601069
-0.2560745478 -0.1615634561 0.5627113581 4292206311
-0.2565386593 -0.1612299085 0.5637311935 4292074210
-0.2566018105 -0.1606431007 0.5638699532 4291745245
-0.2562637031 -0.1598057747 0.5631269813 4291482586
-0.2567274868 -0.1594681889 0.5641461611 4291482586
-0.2567900419 -0.1588800699 0.5642836094 4291416791
-0.2568523884 -0.1582915485 0.5644206405 4291416791
-0.2569145560 -0.1577025801 0.5645571947 4292140001
-0.2569764853 -0.1571131945 0.5646933317 4293126896
-0.2570382357 -0.1565233767 0.5648289919 4294048252
-0.2543678284 -0.1646146774 0.5603284836 4293521654
-0.2544319928 -0.1640334725 0.5604698062 4293258482
-0.2544959486 -0.1634518206 0.5606106520 4293061103
-0.2545596957 -0.1628697366 0.5607510805 4292666347
-0.2546232641 -0.1622872204 0.5608911514 4292205796
-0.2546866238 -0.1617042571 0.5610306859 4291811040
-0.2551497221 -0.1613738090 0.5620508194 4291811040
-0.2552127838 -0.1607890576 0.5621897578 4291942624
-0.2552756667 -0.1602038890 0.5623282194 4292074210
-0.2553383410 -0.1596182734 0.5624663234 4292140001
-0.2554008067 -0.1590322405 0.5626039505 4292140001
-0.2554630935 -0.1584457755 0.5627411008 4292140001
-0.2555251420 -0.1578588784 0.5628778338 4292205794
-0.2559876442 -0.1575180590 0.5638965964 4292403173
-0.2560493946 -0.1569293886 0.5640326738 4292929517
-0.2561109662 -0.1563402861 0.5641683340 4293719287
-0.2534459233 -0.1644203365 0.5596669912 4293455863
-0.2535099089 -0.1638398468 0.5598081946 4293258484
-0.2535736561 -0.1632589251 0.5599490404 4293061105
-0.2536372542 -0.1626775563 0.5600894094 4292666860
-0.2537006140 -0.1620957553 0.5602293611 4292337895
