VERSION 0.7
FIELDS x y z rgba
SIZE 4 4 4 4
TYPE F F F U
COUNT 1 1 1 1
WIDTH 920
HEIGHT 1
VIEWPOINT 0.0 0.0 0.0 1.0 0.0 0.0 0.0
POINTS 920
DATA ascii
-0.2787220776 -0.1843177676 0.5853348970 4287336347
-0.2787955105 -0.1837158203 0.5854891539 4287138968
-0.2784550190 -0.1828417033 0.5847740769 4287731105
-0.2785279453 -0.1822397113 0.5849272609 4286546831
-0.2786006629 -0.1816372275 0.5850799680 4283520353
-0.2786732018 -0.1810342818 0.5852323174 4282533458
-0.2783313394 -0.1801627576 0.5845143795 4283520869
-0.2784033716 -0.1795597672 0.5846655965 4283718248
-0.2784751654 -0.1789563000 0.5848163962 4282533974
-0.2785467803 -0.1783523858 0.5849667788 4281612872
-0.2794473767 -0.1782770008 0.5868581533 4282467665
-0.2791040838 -0.1774067432 0.5861371756 4283388767
-0.2795899808 -0.1770632267 0.5871576071 4286546830
-0.2792460620 -0.1761938483 0.5864353180 4291612891
-0.2784866691 -0.1750648916 0.5848405361 4292599786
-0.2789720595 -0.1747190952 0.5858598948 4292533993
-0.2777964771 -0.1733346581 0.5833911300 4292599784
-0.2774507701 -0.1724715531 0.5826650858 4292731370
-0.2771046460 -0.1716098189 0.5819382071 4292665320
-0.2767581046 -0.1707494408 0.5812104344 4292796906
-0.2764111459 -0.1698904186 0.5804818273 4292928490
-0.2764795125 -0.1692873389 0.5806254148 4292796904
-0.2765477002 -0.1686837971 0.5807685852 4292665831
-0.2761996984 -0.1678270698 0.5800377727 4292665831
-0.2762673497 -0.1672235578 0.5801798105 4292600038
-0.2759186327 -0.1663686633 0.5794475079 4292534245
-0.2759857476 -0.1657651812 0.5795884728 4292599784
-0.2756362855 -0.1649121344 0.5788545609 4292599784
-0.2757028937 -0.1643086821 0.5789944530 4292533991
-0.2757692933 -0.1637047827 0.5791338682 4292797163
-0.2758354545 -0.1631004512 0.5792728662 4292797163
-0.2759014368 -0.1624957025 0.5794113874 4292665577
-0.2759671807 -0.1618905067 0.5795494914 4292731370
-0.2760327160 -0.1612848788 0.5796871185 4292731370
-0.2765150964 -0.1609215289 0.5807001591 4292731113
-0.2765803039 -0.1603141278 0.5808370709 4292796906
-0.2766453028 -0.1597062945 0.5809735656 4292796906
-0.2767100632 -0.1590980291 0.5811095834 4292599527
-0.2767746150 -0.1584893465 0.5812451839 4292600038
-0.2768389583 -0.1578802317 0.5813802481 4292731624
-0.2769030929 -0.1572706848 0.5815149546 4292797417
-0.2769669890 -0.1566607356 0.5816491246 4292797417
-0.2770306766 -0.1560503542 0.5817828774 4292731370
-0.2775120735 -0.1556739956 0.5827938318 4292731370
-0.2775754035 -0.1550618559 0.5829268694 4292731624
-0.2776385248 -0.1544492841 0.5830594301 4292731624
-0.2777014375 -0.1538363099 0.5831915140 4292797163
-0.2773457766 -0.1529921591 0.5824446082 4292862956
-0.2774081230 -0.1523792744 0.5825755596 4292797163
-0.2774702609 -0.1517659724 0.5827060342 4292731370
-0.2775321901 -0.1511522681 0.5828360915 4292665577
-0.2775938809 -0.1505381465 0.5829656124 4292731370
-0.2772365510 -0.1496974975 0.5822151899 4292862956
-0.2772977054 -0.1490834802 0.5823436379 4292665577
-0.2773586214 -0.1484690756 0.5824715495 4292666347
-0.2778383791 -0.1480775923 0.5834791064 4292666347
-0.2778989375 -0.1474614441 0.5836063027 4292732140
-0.2779592872 -0.1468448937 0.5837330222 4292863726
-0.2780193985 -0.1462279409 0.5838592649 4292928749
-0.2780792713 -0.1456105858 0.5839849710 4292862956
-0.2781389356 -0.1449928433 0.5841102600 4292862956
-0.2781983614 -0.1443746835 0.5842350721 4292928749
-0.2782575488 -0.1437561512 0.5843594074 4292862956
-0.2783165276 -0.1431372017 0.5844832063 4292797163
-0.2783752680 -0.1425178796 0.5846065879 4292862956
-0.2784337699 -0.1418981552 0.5847294927 4292862956
-0.2784920633 -0.1412780434 0.5848518610 4292797163
-0.2785500884 -0.1406575441 0.5849737525 4292797163
-0.2786079049 -0.1400366575 0.5850951672 4292862956
-0.2786654830 -0.1394153833 0.5852161050 4292731370
-0.2787228525 -0.1387937218 0.5853365660 4292862956
-0.2787799537 -0.1381716877 0.5854564905 4292862956
-0.2788368464 -0.1375492662 0.5855759382 4292862956
-0.2788935006 -0.1369264573 0.5856949091 4292797163
-0.2789499164 -0.1363032758 0.5858134031 4292862956
-0.2790060937 -0.1356797218 0.5859314203 4292994542
-0.2790620625 -0.1350557804 0.5860489011 4293060335
-0.2791177630 -0.1344314665 0.5861659050 4292994542
-0.2791732252 -0.1338067949 0.5862823725 4293126128
-0.2792284787 -0.1331817359 0.5863984227 4293323507
-0.2797047198 -0.1327562481 0.5873985291 4293126128
-0.2797595561 -0.1321295053 0.5875137448 4292928749
-0.2798141837 -0.1315024048 0.5876284242 4292402405
-0.2798685431 -0.1308749318 0.5877425671 4290625994
-0.2803442478 -0.1304432452 0.5887416005 4290099650
-0.2803982198 -0.1298141032 0.5888549089 4291744475
-0.2804519534 -0.1291845888 0.5889678001 4292731370
-0.2805054486 -0.1285547167 0.5890800953 4293060335
-0.2805587053 -0.1279244870 0.5891919136 4293191921
-0.2806116939 -0.1272938997 0.5893032551 4293060335
-0.2806644738 -0.1266629547 0.5894140601 4292994542
-0.2807169855 -0.1260316521 0.5895243883 4293060335
-0.2807692587 -0.1254000068 0.5896341801 4293126128
-0.2812435925 -0.1249556169 0.5906302929 4293060335
-0.2808730900 -0.1241356432 0.5898522139 4293191921
-0.2809246480 -0.1235029325 0.5899604559 4293126128
-0.2813984752 -0.1230546460 0.5909555554 4293126128
-0.2814496160 -0.1224202961 0.5910629034 4293126128
-0.2815004885 -0.1217855960 0.5911697745 4293126128
-0.2815511525 -0.1211505607 0.5912761688 4293126128
-0.2816015482 -0.1205151752 0.5913819671 4292995312
-0.2820746005 -0.1200594530 0.5923754573 4293126898
-0.2821245790 -0.1194224358 0.5924803615 4292797163
-0.2821742892 -0.1187850833 0.5925848484 4291876061
-0.2822237909 -0.1181473956 0.5926887393 4291612889
-0.2822729945 -0.1175093651 0.5927920938 4292599784
-0.2823219895 -0.1168710068 0.5928949714 4292928749
-0.2823707163 -0.1162323207 0.5929973125 4293718265
-0.2834055424 -0.1080616862 0.5951705575 4293521907
-0.2830264866 -0.1072567552 0.5943744779 4292206047
-0.2830713987 -0.1066132858 0.5944688320 4291811289
-0.2835405469 -0.1061283872 0.5954540372 4292732391
-0.2771768570 -0.1889105141 0.5834507942 4292402922
-0.2772517204 -0.1883130819 0.5836083293 4291876578
-0.2769142985 -0.1874362677 0.5828980207 4288455342
-0.2769886255 -0.1868387610 0.5830545425 4283915625
-0.2770627737 -0.1862407923 0.5832105875 4282862423
-0.2775491178 -0.1859185845 0.5842343569 4282336079
-0.2776229680 -0.1853187531 0.5843898058 4282270286
-0.2772839963 -0.1844439805 0.5836762786 4282336079
-0.2773573399 -0.1838440895 0.5838306546 4282007114
-0.2770176530 -0.1829710454 0.5831156373 4281743942
-0.2766775191 -0.1820993125 0.5823996663 4283059802
-0.2767500579 -0.1814997792 0.5825523734 4284309869
-0.2768223882 -0.1808997840 0.5827046037 4282796630
-0.2768945098 -0.1802993268 0.5828564167 4281743942
-0.2769664228 -0.1796983927 0.5830078125 4282730837
-0.2770381272 -0.1790969968 0.5831587315 4282730837
-0.2771096528 -0.1784951240 0.5833092928 4282007114
-0.2771809697 -0.1778927892 0.5834593773 4281480770
-0.2776658833 -0.1775546074 0.5844801068 4281678149
-0.2777368724 -0.1769504547 0.5846295953 4282401872
-0.2778076828 -0.1763458252 0.5847786069 4285757314
-0.2778782845 -0.1757407337 0.5849272013 4290691789
-0.2775344253 -0.1748741865 0.5842034221 4291678684
-0.2767758369 -0.1737488806 0.5826066136 4291415512
-0.2760166228 -0.1726267338 0.5810084939 4291678425
-0.2756713033 -0.1717660278 0.5802816153 4291941597
-0.2757402360 -0.1711640954 0.5804266930 4291678425
-0.2753942311 -0.1703052074 0.5796983242 4290954702
-0.2754626274 -0.1697032750 0.5798423290 4291415251
-0.2755308449 -0.1691008806 0.5799859166 4291217872
-0.2751837671 -0.1682442874 0.5792553425 4291218385
-0.2752514482 -0.1676419079 0.5793977976 4291415764
-0.2753189206 -0.1670390964 0.5795398355 4291481557
-0.2749708295 -0.1661847979 0.5788071156 4291547350
-0.2750377655 -0.1655820161 0.5789480209 4291612630
-0.2751045227 -0.1649787873 0.5790885091 4291349458
-0.2747553885 -0.1641268134 0.5783535838 4291217872
-0.2748215795 -0.1635236293 0.5784929991 4291481044
-0.2748875916 -0.1629199982 0.5786319375 4291481046
-0.2749533951 -0.1623159349 0.5787703991 4291481046
-0.2750189602 -0.1617114395 0.5789084435 4291612632
-0.2750843167 -0.1611065120 0.5790460110 4291678425
-0.2755657434 -0.1607439667 0.5800594091 4291612632
-0.2756307721 -0.1601372659 0.5801962614 4291283667
-0.2756955922 -0.1595301330 0.5803327560 4291217874
-0.2757602036 -0.1589225680 0.5804687142 4291349460
-0.2758245766 -0.1583145857 0.5806042552 4291546837
-0.2758887410 -0.1577061713 0.5807393193 4291678423
-0.2759526968 -0.1570973396 0.5808739662 4291810009
-0.2760164440 -0.1564880759 0.5810080767 4291744216
-0.2760799527 -0.1558783948 0.5811417699 4291481046
-0.2765603960 -0.1555028409 0.5821530819 4291283667
-0.2766235471 -0.1548914015 0.5822860599 4291283665
-0.2766865194 -0.1542795449 0.5824185610 4291415251
-0.2767492533 -0.1536672711 0.5825506449 4291613143
-0.2763942480 -0.1528237164 0.5818033218 4291810522
-0.2764564157 -0.1522115320 0.5819342732 4291810268
-0.2765184045 -0.1515989453 0.5820646882 4291876061
-0.2765801549 -0.1509859413 0.5821946859 4291744475
-0.2766416669 -0.1503725201 0.5823242068 4291481303
-0.2767029703 -0.1497586966 0.5824532509 4291481303
-0.2767640650 -0.1491444707 0.5825818181 4291678682
-0.2768249214 -0.1485298276 0.5827099085 4291547866
-0.2768855393 -0.1479147822 0.5828375220 4291745245
-0.2773643136 -0.1475218385 0.5838453174 4292008417
-0.2774245739 -0.1469050646 0.5839721560 4292140003
-0.2770660818 -0.1460672319 0.5832175612 4291810268
-0.2771258056 -0.1454505920 0.5833433270 4291678682
-0.2776040137 -0.1450523287 0.5843499303 4291810268
-0.2776633799 -0.1444339454 0.5844748616 4292205026
-0.2777225077 -0.1438151747 0.5845993757 4292073440
-0.2773624361 -0.1429800242 0.5838413835 4292073440
-0.2774210274 -0.1423614025 0.5839647055 4292205280
-0.2774793804 -0.1417423785 0.5840875506 4292336866
-0.2775375247 -0.1411229819 0.5842099190 4292139487
-0.2775954008 -0.1405031830 0.5843318105 4291810522
-0.2776530683 -0.1398829967 0.5844531655 4291810522
-0.2781300247 -0.1394727975 0.5854570866 4292139487
-0.2781873047 -0.1388509125 0.5855777264 4292204769
-0.2782443464 -0.1382286400 0.5856978297 4292270562
-0.2778814137 -0.1373984218 0.5849338174 4292402148
-0.2779379189 -0.1367763281 0.5850527883 4292336355
-0.2779941857 -0.1361538619 0.5851712227 4292138976
-0.2780502141 -0.1355310082 0.5852891803 4292007390
-0.2785261273 -0.1351115555 0.5862909555 4292138976
-0.2785817683 -0.1344870180 0.5864080787 4292270562
-0.2786372006 -0.1338620931 0.5865247250 4292336355
-0.2786923647 -0.1332368106 0.5866408944 4292731113
-0.2787473202 -0.1326111406 0.5867565274 4292665320
-0.2792225480 -0.1321841776 0.5877568722 4292599527
-0.2792770863 -0.1315568388 0.5878716707 4291875804
-0.2793313861 -0.1309291273 0.5879859924 4289770428
-0.2793854773 -0.1303010583 0.5880998373 4289178291
-0.2794393003 -0.1296726167 0.5882131457 4290888909
-0.2794928849 -0.1290438026 0.5883259177 4292336612
-0.2795462310 -0.1284146458 0.5884382725 4292599784
-0.2795993686 -0.1277851164 0.5885500312 4292731370
-0.2796522379 -0.1271552444 0.5886613727 4292665577
-0.2801260948 -0.1267155558 0.5896588564 4292797163
-0.2801785767 -0.1260840148 0.5897692442 4292928749
-0.2802307904 -0.1254521161 0.5898792148 4292928749
-0.2802827656 -0.1248198673 0.5899886489 4292928749
-0.2803345025 -0.1241872609 0.5900975466 4292928749
-0.2803860009 -0.1235543117 0.5902059078 4292928749
-0.2808589637 -0.1231058612 0.5912014842 4292928749
-0.2809100449 -0.1224712655 0.5913090110 4292994542
-0.2809608579 -0.1218363196 0.5914160013 4292994542
-0.2810114622 -0.1212010309 0.5915225148 4293060335
-0.2814838290 -0.1207464337 0.5925167799 4293126128
-0.2811118960 -0.1199294329 0.5917339325 4293126128
-0.2811617553 -0.1192931235 0.5918388367 4292862958
-0.2816335857 -0.1188346446 0.5928320885 4292139235
-0.2816830277 -0.1181967035 0.5929360986 4292007649
-0.2813098133 -0.1173821837 0.5921505094 4292862958
-0.2813586593 -0.1167445332 0.5922533274 4293060337
-0.2818298042 -0.1162808836 0.5932450891 4293455095
-0.2818782330 -0.1156416163 0.5933470130 4293849851
-0.2819263935 -0.1150020137 0.5934484601 4293784058
-0.2819743156 -0.1143620908 0.5935493112 4293586679
-0.2820219994 -0.1137218401 0.5936496854 4293520886
-0.2820694149 -0.1130812615 0.5937495232 4293389554
-0.2821165919 -0.1124403626 0.5938487649 4293323761
-0.2821635306 -0.1117991433 0.5939475298 4293323761
-0.2822101712 -0.1111576110 0.5940457582 4293257968
-0.2822566032 -0.1105157584 0.5941435099 4293323761
-0.2823027670 -0.1098735854 0.5942406654 4293323761
-0.2823486626 -0.1092310995 0.5943372846 4292995564
-0.2823943198 -0.1085883006 0.5944333673 4292929771
-0.2824397087 -0.1079451963 0.5945289135 4292469220
-0.2824848592 -0.1073017791 0.5946239233 4291021774
-0.2829533219 -0.1068179607 0.5956100821 4290758601
-0.2825743556 -0.1060140207 0.5948123932 4292074461
-0.2758163512 -0.1884237528 0.5819474459 4292797680
-0.2758908868 -0.1878279150 0.5821046829 4292271336
-0.2755539417 -0.1869525611 0.5813938379 4289310651
-0.2760393620 -0.1866347939 0.5824180245 4285297278
-0.2757018209 -0.1857602447 0.5817058086 4283915111
-0.2761870623 -0.1854397357 0.5827296376 4283388767
-0.2762606144 -0.1848414987 0.5828847885 4283191388
-0.2759221196 -0.1839682013 0.5821706653 4282730837
-0.2759951651 -0.1833698899 0.5823248029 4282138700
-0.2752439380 -0.1822255254 0.5807397366 4282270286
-0.2753163576 -0.1816280633 0.5808925629 4282599251
-0.2753885984 -0.1810301393 0.5810449123 4283586146
-0.2754606307 -0.1804317236 0.5811969042 4282401872
-0.2755324543 -0.1798328608 0.5813484192 4281612356
-0.2756040692 -0.1792335212 0.5814995766 4283125595
-0.2756754756 -0.1786337048 0.5816502571 4282730837
-0.2757467031 -0.1780334413 0.5818005204 4281875528
-0.2754048109 -0.1771670878 0.5810791850 4281349184
-0.2758885324 -0.1768314987 0.5820997953 4281546563
-0.2759591341 -0.1762298346 0.5822487473 4281809735
-0.2760295570 -0.1756277084 0.5823972821 4284375148
-0.2760997415 -0.1750251204 0.5825453997 4288849072
-0.2757562995 -0.1741609722 0.5818207860 4290362311
-0.2749989331 -0.1730379462 0.5802227855 4290230725
-0.2746545374 -0.1721774042 0.5794962049 4290493897
-0.2743097544 -0.1713182032 0.5787687302 4290625483
-0.2743784189 -0.1707178652 0.5789135695 4290165186
-0.2740328908 -0.1698604822 0.5781845450 4288717740
-0.2741010189 -0.1692601591 0.5783283114 4289112498
-0.2741689384 -0.1686593741 0.5784716010 4288586154
-0.2742366791 -0.1680581421 0.5786144733 4290165184
-0.2738898098 -0.1672035158 0.5778826475 4290559942
-0.2739570141 -0.1666023135 0.5780244470 4290625735
-0.2740239799 -0.1660006642 0.5781657696 4290625735
-0.2740907669 -0.1653985679 0.5783066154 4290165186
-0.2741573155 -0.1647960395 0.5784471035 4289046705
-0.2738088071 -0.1639446765 0.5777117610 4288586154
-0.2738748491 -0.1633421779 0.5778511167 4288783533
-0.2743557394 -0.1629858315 0.5788657069 4290099393
-0.2744214833 -0.1623815596 0.5790044069 4290362565
-0.2744869590 -0.1617768407 0.5791426301 4290362565
-0.2745522559 -0.1611717045 0.5792803764 4290362565
-0.2746173441 -0.1605661362 0.5794176459 4290098623
-0.2746821940 -0.1599601358 0.5795544982 4288782763
-0.2747468650 -0.1593537033 0.5796909332 4288322212
-0.2748112977 -0.1587468386 0.5798268914 4289243314
-0.2748754919 -0.1581395566 0.5799623728 4290428356
-0.2749395072 -0.1575318575 0.5800973773 4290494149
-0.2750032842 -0.1569237113 0.5802319646 4290559942
-0.2754829824 -0.1565516442 0.5812441111 4290296770
-0.2755464315 -0.1559417397 0.5813779831 4289507256
-0.2756096423 -0.1553314328 0.5815113783 4288586154
-0.2756726742 -0.1547206938 0.5816442966 4288454566
-0.2757354379 -0.1541095376 0.5817767978 4288980910
-0.2757980227 -0.1534979492 0.5819087625 4290099391
-0.2758603692 -0.1528859735 0.5820403099 4290494149
-0.2755056918 -0.1520435363 0.5812919736 4290428615
-0.2755675018 -0.1514316499 0.5814223886 4290362822
-0.2756290734 -0.1508193463 0.5815523267 4289836478
-0.2756904364 -0.1502066404 0.5816818476 4288520618
-0.2757515907 -0.1495935172 0.5818108320 4288191653
-0.2758125067 -0.1489799917 0.5819393396 4289046962
-0.2758732140 -0.1483660489 0.5820674300 4290033857
-0.2763511240 -0.1479752511 0.5830758214 4290428615
-0.2764114738 -0.1473595798 0.5832030773 4290691787
-0.2764715850 -0.1467435062 0.5833299160 4290691787
-0.2765314579 -0.1461270303 0.5834562778 4289836478
-0.2765911222 -0.1455101520 0.5835821629 4289375927
-0.2766505480 -0.1448928714 0.5837075710 4289441720
-0.2767097652 -0.1442752033 0.5838325024 4290099650
-0.2767687440 -0.1436571330 0.5839568973 4290494662
-0.2768274844 -0.1430386752 0.5840808749 4290626248
-0.2764677703 -0.1422046870 0.5833218694 4290691528
-0.2765259743 -0.1415863782 0.5834446549 4290559942
-0.2765839398 -0.1409676671 0.5835670233 4289902012
-0.2766416669 -0.1403485835 0.5836888552 4288454566
-0.2771177888 -0.1399405003 0.5846934319 4288125601
-0.2771751583 -0.1393197030 0.5848144293 4289178289
-0.2772323191 -0.1386985183 0.5849350095 4290691530
-0.2772892118 -0.1380769461 0.5850550532 4290823116
-0.2773458958 -0.1374550015 0.5851746798 4291020495
-0.2774023414 -0.1368326694 0.5852937698 4290888909
-0.2774585485 -0.1362099499 0.5854123235 4290033600
-0.2775145173 -0.1355868727 0.5855304599 4289046705
-0.2775702477 -0.1349634081 0.5856480598 4289046705
-0.2776257694 -0.1343395710 0.5857651830 4289638842
-0.2776810229 -0.1337153614 0.5858817697 4290625737
-0.2777360678 -0.1330907643 0.5859978795 4291020495
-0.2782104909 -0.1326659173 0.5869988799 4291020495
-0.2782651186 -0.1320396513 0.5871141553 4291020495
-0.2783195376 -0.1314130127 0.5872289538 4290165186
-0.2783737183 -0.1307860017 0.5873432755 4288322982
-0.2784276307 -0.1301586330 0.5874570608 4288125603
-0.2784813344 -0.1295309067 0.5875703096 4289375670
-0.2789548934 -0.1290972382 0.5885695219 4291086545
-0.2790081799 -0.1284678280 0.5886819363 4291283924
-0.2790612280 -0.1278380603 0.5887938738 4291283924
-0.2791140676 -0.1272079498 0.5889053345 4291218131
-0.2791666389 -0.1265774667 0.5890162587 4291283924
-0.2796394825 -0.1261363029 0.5900139213 4291415510
-0.2796916366 -0.1255041659 0.5901239514 4291415510
-0.2797435522 -0.1248716787 0.5902335048 4291349717
-0.2797952294 -0.1242388338 0.5903425813 4291415510
-0.2798466682 -0.1236056387 0.5904510617 4291415510
-0.2798978686 -0.1229720935 0.5905591249 4291349717
-0.2807907760 -0.1227061450 0.5924430490 4291349717
-0.2808416188 -0.1220699996 0.5925503373 4291481046
-0.2808922231 -0.1214335114 0.5926570892 4291612632
-0.2809425890 -0.1207966805 0.5927633643 4291744218
-0.2809927166 -0.1201595142 0.5928691030 4291744218
-0.2806212306 -0.1193428040 0.5920853019 4291612891
-0.2810921967 -0.1188841462 0.5930790305 4291283926
-0.2811415792 -0.1182459593 0.5931832194 4291678684
-0.2807691097 -0.1174311191 0.5923973322 4292797165
-0.2808179259 -0.1167932153 0.5925003290 4292994542
-0.2812882066 -0.1163293943 0.5934925675 4292731370
-0.2813365757 -0.1156898737 0.5935946107 4292336612
-0.2813847065 -0.1150500253 0.5936961770 4292270819
-0.2814325690 -0.1144098490 0.5937972069 4292139233
-0.2814801931 -0.1137693450 0.5938976407 4292073440
-0.2815275788 -0.1131285205 0.5939975977 4292007901
-0.2815746963 -0.1124873683 0.5940970182 4291942108
-0.2816215456 -0.1118458956 0.5941959023 4291942108
-0.2816681564 -0.1112041101 0.5942942500 4291876315
-0.2817145288 -0.1105619967 0.5943921208 4291876315
-0.2817606330 -0.1099195778 0.5944893956 4291876315
-0.2818064988 -0.1092768386 0.5945861340 4291678934
-0.2818520963 -0.1086337864 0.5946823359 4291547348
-0.2818974555 -0.1079904214 0.5947780013 4291547348
-0.2819425464 -0.1073467508 0.5948731899 4290626246
-0.2824101448 -0.1068627387 0.5958597660 4290823624
-0.2820319533 -0.1060584784 0.5950618386 4292205277
-0.2740481198 -0.1876555532 0.5795748830 4292534508
-0.2741222382 -0.1870621890 0.5797315836 4292139750
-0.2741961777 -0.1864683330 0.5798879266 4291152855
-0.2742698789 -0.1858740002 0.5800438523 4289771202
-0.2743434310 -0.1852791905 0.5801993608 4289244858
-0.2744167447 -0.1846839041 0.5803544521 4288981686
-0.2744898796 -0.1840881407 0.5805091262 4288454828
-0.2745628357 -0.1834919006 0.5806633830 4287928484
-0.2742244303 -0.1826213896 0.5799477696 4287073175
-0.2738856375 -0.1817521900 0.5792312026 4286152073
-0.2735464275 -0.1808843017 0.5785138011 4284112490
-0.2736182213 -0.1802888662 0.5786656737 4283980904
-0.2736898661 -0.1796929389 0.5788171887 4282928216
-0.2737612724 -0.1790965647 0.5789682269 4282467665
-0.2738325000 -0.1784997135 0.5791188478 4283520353
-0.2739035189 -0.1779024005 0.5792690516 4283520353
-0.2739743292 -0.1773046106 0.5794187784 4282467665
-0.2736328542 -0.1764406562 0.5786966085 4282007114
-0.2741153538 -0.1761076748 0.5797170401 4282401872
-0.2741855681 -0.1755084991 0.5798655152 4282072907
-0.2742555737 -0.1749088764 0.5800135732 4284046184
-0.2743253708 -0.1743087918 0.5801612139 4288783280
-0.2739823461 -0.1734470427 0.5794357657 4290625483
-0.2736389041 -0.1725866348 0.5787094235 4290888655
-0.2732950449 -0.1717275828 0.5779822469 4291283413
-0.2733637393 -0.1711283922 0.5781274438 4291151827
-0.2734321952 -0.1705287546 0.5782722235 4290625483
-0.2730872929 -0.1696719676 0.5775428414 4288980658
-0.2731552422 -0.1690723300 0.5776865482 4289243830
-0.2732229829 -0.1684722453 0.5778298378 4288125349
-0.2732905149 -0.1678717285 0.5779726505 4290428358
-0.2733578682 -0.1672707498 0.5781150460 4291152081
-0.2734249830 -0.1666693389 0.5782569647 4291349460
-0.2730781138 -0.1658162326 0.5775234103 4291349460
-0.2731447220 -0.1652148515 0.5776642561 4290625737
-0.2732111216 -0.1646130234 0.5778046846 4289046705
-0.2732772827 -0.1640107632 0.5779446363 4288586154
-0.2733432651 -0.1634080559 0.5780841112 4288980912
-0.2734090090 -0.1628049165 0.5782232285 4290625737
-0.2738889158 -0.1624471098 0.5792381167 4291217874
-0.2739543319 -0.1618421823 0.5793765187 4291414483
-0.2740195394 -0.1612368375 0.5795144439 4291348690
-0.2740845680 -0.1606310457 0.5796518922 4290690760
-0.2741493583 -0.1600248218 0.5797889233 4288453798
-0.2742139101 -0.1594181806 0.5799254775 4287598489
-0.2742782831 -0.1588111073 0.5800616145 4289309107
-0.2743424177 -0.1582036018 0.5801972747 4290954700
-0.2744063437 -0.1575956792 0.5803324580 4291020493
-0.2744700611 -0.1569873393 0.5804671645 4291152079
-0.2745335698 -0.1563785523 0.5806014538 4290888907
-0.2750122547 -0.1560050249 0.5816138387 4289836221
-0.2750754058 -0.1553944796 0.5817474127 4288322982
-0.2751383483 -0.1547835320 0.5818805099 4288191394
-0.2752010524 -0.1541721523 0.5820131898 4289178289
-0.2752635479 -0.1535603553 0.5821453333 4290494149
-0.2749099433 -0.1527170986 0.5813974738 4291086286
-0.2749719024 -0.1521054059 0.5815284848 4291152081
-0.2750336230 -0.1514932960 0.5816590786 4290954702
-0.2750951648 -0.1508807689 0.5817891955 4289836478
-0.2751564384 -0.1502678394 0.5819188356 4287599516
-0.2752175331 -0.1496544927 0.5820479989 4287073426
-0.2752783895 -0.1490407437 0.5821766853 4288520872
-0.2753390074 -0.1484265774 0.5823048949 4290231236
-0.2753994167 -0.1478120238 0.5824326277 4290757580
-0.2758763134 -0.1474197358 0.5834412575 4291020752
-0.2759363651 -0.1468034387 0.5835682154 4290889166
-0.2759961784 -0.1461867392 0.5836947560 4289704635
-0.2760557830 -0.1455696374 0.5838207603 4288915119
-0.2761151493 -0.1449521333 0.5839463472 4288783533
-0.2761742771 -0.1443342417 0.5840713978 4289507256
-0.2762331963 -0.1437159479 0.5841959715 4290888907
-0.2758745253 -0.1428810954 0.5834374428 4291152079
-0.2759328783 -0.1422629505 0.5835608840 4291020493
-0.2759910226 -0.1416444033 0.5836838484 4290823114
-0.2760489285 -0.1410254836 0.5838062763 4289836219
-0.2761066258 -0.1404061615 0.5839282870 4287533464
-0.2761640549 -0.1397864521 0.5840497613 4286941327
-0.2766391635 -0.1393768936 0.5850545764 4288651945
-0.2766962349 -0.1387554854 0.5851752758 4290560201
-0.2767530978 -0.1381336898 0.5852954984 4290823373
-0.2768096924 -0.1375115067 0.5854152441 4291152338
-0.2768660784 -0.1368889362 0.5855344534 4291086545
-0.2769222260 -0.1362659931 0.5856531858 4289902271
-0.2769781351 -0.1356426775 0.5857714415 4288323239
-0.2770338058 -0.1350189745 0.5858891606 4288257446
-0.2770892680 -0.1343948990 0.5860064626 4289375927
-0.2771444619 -0.1337704509 0.5861232281 4290823373
-0.2771994472 -0.1331456304 0.5862394571 4291020752
-0.2772541940 -0.1325204521 0.5863552094 4290889166
-0.2773086727 -0.1318948865 0.5864704847 4290757580
-0.2777819335 -0.1314672530 0.5874713063 4289770685
-0.2778360248 -0.1308400035 0.5875857472 4288586411
-0.2778899074 -0.1302123964 0.5876997113 4288915376
-0.2779435217 -0.1295844316 0.5878131390 4289902271
-0.2779969275 -0.1289560944 0.5879260302 4291283924
-0.2784694731 -0.1285209507 0.5889254212 4291547096
-0.2785224617 -0.1278909445 0.5890374780 4291547096
-0.2785752118 -0.1272605807 0.5891490579 4291481303
-0.2786277235 -0.1266298741 0.5892601013 4291481303
-0.2790997028 -0.1261885464 0.5902582407 4291612889
-0.2791517973 -0.1255561709 0.5903684497 4291612889
-0.2792036831 -0.1249234304 0.5904781222 4291678682
-0.2792553008 -0.1242903471 0.5905873179 4291678425
-0.2793066800 -0.1236569062 0.5906959772 4291678425
-0.2793578207 -0.1230231225 0.5908041596 4291744218
-0.2798288763 -0.1225730330 0.5918003321 4291744218
-0.2802998424 -0.1221206859 0.5927963853 4291744218
-0.2803503871 -0.1214839518 0.5929033160 4291810011
-0.2804006934 -0.1208468750 0.5930097103 4291810011
-0.2804507613 -0.1202094555 0.5931155682 4291810011
-0.2805005610 -0.1195717007 0.5932208896 4291481557
-0.2805501223 -0.1189336032 0.5933257341 4291218385
-0.2805994451 -0.1182951629 0.5934300423 4291613143
-0.2806485295 -0.1176563948 0.5935338140 4292863210
-0.2806973457 -0.1170172840 0.5936370492 4293257968
-0.2807459235 -0.1163778454 0.5937398076 4292797417
-0.2807942331 -0.1157380790 0.5938419700 4292271073
-0.2812633514 -0.1152705401 0.5948340893 4292534245
-0.2813112736 -0.1146291494 0.5949354172 4292205280
-0.2813588977 -0.1139874384 0.5950361490 4292139487
-0.2814062834 -0.1133453995 0.5951364040 4292007899
-0.2814534307 -0.1127030328 0.5952360630 4291942106
-0.2815003097 -0.1120603532 0.5953352451 4291876313
-0.2815469503 -0.1114173457 0.5954338908 4291810520
-0.2815933228 -0.1107740253 0.5955319405 4291810520
-0.2812178433 -0.1099655181 0.5947378278 4291810520
-0.2812636495 -0.1093225256 0.5948347449 4291481557
-0.2813092172 -0.1086792201 0.5949310660 4291086799
-0.2821981311 -0.1083595455 0.5968110561 4290955211
-0.2822433114 -0.1077136844 0.5969066024 4290165695
-0.2822882533 -0.1070675179 0.5970016122 4290560453
-0.2819108963 -0.1062619686 0.5962035060 4291876313
-0.2726195455 -0.1877589524 0.5779110193 4292995059
-0.2731029987 -0.1874486655 0.5789358616 4292402922
-0.2727673352 -0.1865758449 0.5782243609 4291876578
-0.2728409469 -0.1859835833 0.5783804059 4291679199
-0.2729143798 -0.1853908300 0.5785360932 4291547613
-0.2729876041 -0.1847975999 0.5786913037 4291284441
-0.2730606198 -0.1842039078 0.5788460970 4290955476
-0.2731334567 -0.1836097240 0.5790004730 4290626511
-0.2732061148 -0.1830150783 0.5791544914 4290165960
-0.2724578977 -0.1818721443 0.5775683522 4289310651
-0.2729403377 -0.1815513372 0.5785911083 4287665826
-0.2721911967 -0.1804119349 0.5770030022 4285823622
-0.2722627223 -0.1798180789 0.5771546364 4285626243
-0.2723340392 -0.1792237461 0.5773058534 4283586660
-0.2724051476 -0.1786289662 0.5774565935 4283257695
-0.2724760771 -0.1780337095 0.5776069164 4284113006
-0.2725467980 -0.1774379909 0.5777568817 4283849834
-0.2726173401 -0.1768418103 0.5779063702 4282928732
-0.2726876438 -0.1762451679 0.5780554414 4282139216
-0.2727577686 -0.1756480634 0.5782040954 4282862169
-0.2724161744 -0.1747864634 0.5774799585 4282598997
-0.2728973925 -0.1744524688 0.5785000920 4284375662
-0.2729669213 -0.1738539785 0.5786474347 4288323242
-0.2726244032 -0.1729937196 0.5779213905 4290428617
-0.2722814679 -0.1721348166 0.5771943927 4290625996
-0.2723501623 -0.1715367734 0.5773400068 4290954961
-0.2724186480 -0.1709382832 0.5774852037 4290889168
-0.2724869549 -0.1703393459 0.5776299834 4290823116
-0.2721426785 -0.1694831550 0.5769001842 4289244084
-0.2722104490 -0.1688842326 0.5770438313 4288980912
-0.2722780108 -0.1682848483 0.5771870613 4288849326
-0.2723453641 -0.1676850170 0.5773298144 4290494151
-0.2724125087 -0.1670847535 0.5774721503 4290954702
-0.2724794447 -0.1664840281 0.5776140690 4290823373
-0.2725461721 -0.1658828855 0.5777555108 4290954959
-0.2726126909 -0.1652812809 0.5778965354 4290625994
-0.2726790011 -0.1646792442 0.5780371428 4289639099
-0.2727451026 -0.1640767753 0.5781772137 4289507256
-0.2728109956 -0.1634738594 0.5783169270 4289836221
-0.2728766799 -0.1628705114 0.5784561634 4290757323
-0.2729421556 -0.1622667164 0.5785949230 4291349460
-0.2730073929 -0.1616625041 0.5787332654 4291217874
-0.2730724514 -0.1610578597 0.5788711309 4291283667
-0.2735511363 -0.1606958807 0.5798858404 4291349460
-0.2736158371 -0.1600894481 0.5800230503 4289704635
-0.2736803293 -0.1594825834 0.5801597834 4288717740
-0.2737446129 -0.1588753015 0.5802960396 4289836221
-0.2738086879 -0.1582675874 0.5804318786 4290954700
-0.2738725543 -0.1576594412 0.5805672407 4291415251
-0.2739361823 -0.1570508778 0.5807021260 4291349460
-0.2739996016 -0.1564418823 0.5808365941 4291415253
-0.2744774222 -0.1560682207 0.5818495154 4290823116
-0.2745405138 -0.1554574668 0.5819832087 4289441463
-0.2746033967 -0.1548462957 0.5821164846 4289046703
-0.2746660411 -0.1542346925 0.5822492838 4289178289
-0.2743134499 -0.1533906311 0.5815019011 4290955213
-0.2743755579 -0.1527791172 0.5816335678 4291284178
-0.2744374573 -0.1521672010 0.5817647576 4291283924
-0.2744991183 -0.1515548676 0.5818954706 4291349717
-0.2745605707 -0.1509421170 0.5820257664 4290823373
-0.2746218145 -0.1503289640 0.5821555257 4289112755
-0.2746828198 -0.1497153938 0.5822848678 4288586665
-0.2747435868 -0.1491014212 0.5824137330 4289902525
-0.2748041451 -0.1484870464 0.5825420618 4291086545
-0.2748644948 -0.1478722543 0.5826699734 4291612889
-0.2749246061 -0.1472570598 0.5827974081 4291679450
-0.2754004896 -0.1468633264 0.5838062167 4291482071
-0.2754602432 -0.1462463886 0.5839329362 4290363590
-0.2755197883 -0.1456290632 0.5840591192 4289968832
-0.2755790651 -0.1450113356 0.5841848254 4289968064
-0.2756381333 -0.1443932056 0.5843100548 4290297029
-0.2756969929 -0.1437746882 0.5844347477 4291678425
-0.2753390670 -0.1429395229 0.5836760402 4291810011
-0.2753973603 -0.1423211545 0.5837996006 4291678936
-0.2754554451 -0.1417023838 0.5839227438 4291678936
-0.2755132914 -0.1410832256 0.5840453506 4291218385
-0.2755708992 -0.1404636800 0.5841674805 4289902525
-0.2756282985 -0.1398437321 0.5842891335 4289244084
-0.2761025131 -0.1394340396 0.5852944255 4289704635
-0.2761595249 -0.1388123930 0.5854152441 4291612632
-0.2762162983 -0.1381903589 0.5855356455 4291810011
-0.2762728631 -0.1375679523 0.5856555104 4291941854
-0.2763291597 -0.1369451433 0.5857748985 4291810268
-0.2763852477 -0.1363219768 0.5858937502 4290954959
-0.2764410973 -0.1356984228 0.5860121846 4289836478
-0.2764967084 -0.1350744814 0.5861300826 4289836221
-0.2765521109 -0.1344501823 0.5862474442 4290691530
-0.2766072452 -0.1338254958 0.5863643885 4291875804
-0.2766621709 -0.1332004368 0.5864807963 4292073183
-0.2767168283 -0.1325750202 0.5865966678 4291941854
-0.2767712772 -0.1319492161 0.5867120624 4291678682
-0.2772436440 -0.1315214336 0.5877134204 4291218131
-0.2772977054 -0.1308939457 0.5878279805 4290494408
-0.2773514986 -0.1302661002 0.5879420638 4290559944
-0.2774050832 -0.1296378970 0.5880556703 4291217874
-0.2774583995 -0.1290093213 0.5881686807 4292271073
-0.2779300809 -0.1285740137 0.5891685486 4292402659
-0.2779830098 -0.1279437840 0.5892807841 4292402405
-0.2780357003 -0.1273131669 0.5893924832 4292402405
-0.2785069644 -0.1268730015 0.5903915167 4292533991
-0.2785592675 -0.1262407303 0.5905023217 4292533991
-0.2786113024 -0.1256081015 0.5906127095 4292467941
-0.2786631286 -0.1249751300 0.5907225013 4292599527
-0.2787146866 -0.1243418008 0.5908318162 4292599527
-0.2787660062 -0.1237081140 0.5909405947 4292533734
-0.2792363763 -0.1232591644 0.5919377208 4292599273
-0.2792872787 -0.1226238310 0.5920456052 4292599273
-0.2797573805 -0.1221713200 0.5930421352 4292599273
-0.2798078656 -0.1215343401 0.5931491852 4292533480
-0.2798581123 -0.1208970174 0.5932556987 4292533480
-0.2799081206 -0.1202593520 0.5933617353 4292336101
-0.2799578905 -0.1196213439 0.5934671760 4292007647
-0.2800073922 -0.1189830005 0.5935721397 4291547096
-0.2800566554 -0.1183443144 0.5936765671 4292007390
-0.2801056802 -0.1177052930 0.5937805176 4292994285
-0.2801544368 -0.1170659363 0.5938838720 4293323250
-0.2802029550 -0.1164262518 0.5939867496 4293257457
-0.2806713879 -0.1159598231 0.5949797630 4293257968
-0.2807194889 -0.1153185144 0.5950816870 4293192175
-0.2807673216 -0.1146768779 0.5951830745 4293060589
-0.2808149159 -0.1140349135 0.5952839851 4292994796
-0.2808622718 -0.1133926213 0.5953843594 4292994283
-0.2809093595 -0.1127500087 0.5954841375 4292862697
-0.2809561789 -0.1121070683 0.5955834389 4292731111
-0.2810027599 -0.1114638150 0.5956822038 4292665318
-0.2810491025 -0.1108202338 0.5957803726 4292534243
-0.2810951769 -0.1101763397 0.5958780646 4292600036
-0.2811409831 -0.1095321327 0.5959752202 4292139485
-0.2816075087 -0.1090506092 0.5969641209 4291942106
-0.2816528976 -0.1084048077 0.5970603228 4291481555
-0.2816980183 -0.1077586934 0.5971559882 4291152590
-0.2817428708 -0.1071122736 0.5972511172 4291349969
-0.2813662887 -0.1063063964 0.5964528322 4292139485
-0.2710455954 -0.1890351921 0.5759305358 4292864498
-0.2711198628 -0.1884469092 0.5760883689 4292469740
-0.2711939514 -0.1878581494 0.5762457252 4292008164
-0.2712678313 -0.1872689128 0.5764027238 4291942371
-0.2717501819 -0.1869603246 0.5774276257 4291679199
-0.2714150250 -0.1860889792 0.5767155290 4291416027
-0.2714883387 -0.1854982972 0.5768712759 4291350234
-0.2715614438 -0.1849071383 0.5770266056 4291350234
-0.2716343701 -0.1843155026 0.5771815777 4291152855
-0.2717070878 -0.1837233901 0.5773361325 4290889683
-0.2717796266 -0.1831308007 0.5774902105 4290626511
-0.2718519568 -0.1825377345 0.5776439309 4290165960
-0.2715145648 -0.1816701740 0.5769270062 4289639616
-0.2711767554 -0.1808039546 0.5762092471 4288850100
-0.2712482810 -0.1802112609 0.5763612390 4287797412
-0.2713196278 -0.1796181053 0.5765128136 4287271068
-0.2713907659 -0.1790244728 0.5766639113 4284507762
-0.2714616954 -0.1784303933 0.5768146515 4283126109
-0.2715324163 -0.1778358370 0.5769649744 4284705143
-0.2711926699 -0.1769730747 0.5762430429 4284705143
-0.2712629139 -0.1763784885 0.5763922930 4283784039
-0.2713329196 -0.1757834405 0.5765410662 4282665558
-0.2718133628 -0.1754529774 0.5775619149 4282862937
-0.2714723945 -0.1745919734 0.5768374205 4282533972
-0.2715418041 -0.1739955544 0.5769849420 4283455329
-0.2716110349 -0.1733986735 0.5771319866 4285758084
-0.2712690532 -0.1725399196 0.5764052868 4288586413
-0.2713377476 -0.1719430238 0.5765513182 4289244343
-0.2714062631 -0.1713456959 0.5766968727 4289507513
-0.2714745700 -0.1707478911 0.5768420100 4289310134
-0.2715426683 -0.1701496542 0.5769867301 4288849583
-0.2716105580 -0.1695509702 0.5771309733 4287204758
-0.2716782391 -0.1689518243 0.5772747993 4286612621
-0.2717457414 -0.1683522463 0.5774182081 4286810000
-0.2718130052 -0.1677522063 0.5775611401 4289507256
-0.2718800604 -0.1671517342 0.5777036548 4289704635
-0.2719469368 -0.1665508002 0.5778457522 4289573306
-0.2720135748 -0.1659494489 0.5779873729 4289639099
-0.2720800340 -0.1653476357 0.5781285763 4288849583
-0.2721462548 -0.1647453904 0.5782693028 4287073172
-0.2722122967 -0.1641426980 0.5784095526 4286414985
-0.2722781003 -0.1635395736 0.5785494447 4287072915
-0.2723437250 -0.1629360169 0.5786888003 4289178291
-0.2724091113 -0.1623320282 0.5788277984 4289836221
-0.2724742889 -0.1617275923 0.5789662600 4290033600
-0.2725392580 -0.1611227244 0.5791043043 4289836221
-0.2726040184 -0.1605174392 0.5792419314 4288980912
-0.2730816901 -0.1601539999 0.5802569389 4286875536
-0.2731461227 -0.1595469266 0.5803937912 4286151813
-0.2732103169 -0.1589394212 0.5805302262 4287533466
-0.2732743323 -0.1583314836 0.5806662440 4289770428
-0.2733381093 -0.1577231288 0.5808017850 4289967807
-0.2734016776 -0.1571143419 0.5809368491 4290033600
-0.2734650373 -0.1565051377 0.5810714364 4289770428
-0.2735281587 -0.1558955163 0.5812056065 4288717740
-0.2740049660 -0.1555203795 0.5822187662 4287007122
-0.2740677595 -0.1549089849 0.5823521614 4286415242
-0.2741303444 -0.1542971730 0.5824851394 4287467930
-0.2737784982 -0.1534527838 0.5817375183 4289836478
-0.2738405466 -0.1528410614 0.5818693638 4290033857
-0.2739023566 -0.1522289217 0.5820007324 4289902271
-0.2739639580 -0.1516163647 0.5821316242 4289639099
-0.2740253508 -0.1510034055 0.5822620392 4288981169
-0.2740865052 -0.1503900290 0.5823919773 4287533723
-0.2741474509 -0.1497762352 0.5825214982 4287205012
-0.2742081583 -0.1491620392 0.5826504827 4288455079
-0.2742686272 -0.1485474408 0.5827789903 4289902271
-0.2747439146 -0.1481562257 0.5837889314 4290099650
-0.2748040557 -0.1475398839 0.5839167237 4290165697
-0.2748639584 -0.1469231248 0.5840439796 4290099904
-0.2749236524 -0.1463059783 0.5841708183 4288915630
-0.2749831080 -0.1456884295 0.5842971802 4287928735
-0.2750423551 -0.1450704634 0.5844230056 4287796638
-0.2751013637 -0.1444521099 0.5845484138 4288651947
-0.2751601338 -0.1438333690 0.5846732855 4290428358
-0.2752186954 -0.1432142258 0.5847976804 4290757323
-0.2752770185 -0.1425946802 0.5849216580 4290823114
-0.2753351033 -0.1419747472 0.5850450993 4290494149
-0.2753929794 -0.1413544267 0.5851680636 4289573047
-0.2754506171 -0.1407337040 0.5852904916 4288322980
-0.2755080163 -0.1401126087 0.5854125023 4288059040
-0.2755652070 -0.1394911110 0.5855339766 4288848556
-0.2756221294 -0.1388692409 0.5856549740 4290494149
-0.2756788433 -0.1382469684 0.5857754946 4290691528
-0.2757353485 -0.1376243234 0.5858955383 4290757834
-0.2757915854 -0.1370012909 0.5860150456 4290494662
-0.2758476138 -0.1363778859 0.5861340761 4289639353
-0.2759034038 -0.1357540935 0.5862526298 4288652458
-0.2759589553 -0.1351299286 0.5863706470 4288717738
-0.2764312029 -0.1347085685 0.5873741508 4289441461
-0.2764863670 -0.1340827197 0.5874913931 4291020495
-0.2765413225 -0.1334564835 0.5876080990 4291217874
-0.2765960097 -0.1328298748 0.5877243280 4291020752
-0.2766504586 -0.1322028935 0.5878400207 4290823373
-0.2767046988 -0.1315755397 0.5879552364 4290428615
-0.2767587006 -0.1309478283 0.5880699754 4289902271
-0.2772299647 -0.1305163056 0.5890713334 4289967807
-0.2772835493 -0.1298869103 0.5891852379 4290757323
-0.2773368955 -0.1292571574 0.5892986059 4291744729
-0.2773900032 -0.1286270320 0.5894114375 4291810522
-0.2774429023 -0.1279965490 0.5895237923 4291876315
-0.2779134512 -0.1275575161 0.5905236602 4292007901
-0.2779659331 -0.1269253641 0.5906351805 4292205280
-0.2784362137 -0.1264827698 0.5916345119 4292271073
-0.2784883082 -0.1258489490 0.5917451382 4292336355
-0.2789583504 -0.1254027933 0.5927439332 4292402148
-0.2790100276 -0.1247673109 0.5928537250 4292402148
-0.2790614367 -0.1241314784 0.5929629803 4292402148
-0.2791126072 -0.1234952956 0.5930716991 4292467941
-0.2791635394 -0.1228587702 0.5931799412 4292467941
-0.2792142332 -0.1222218871 0.5932876468 4292402148
-0.2792646885 -0.1215846688 0.5933948159 4292336355
-0.2793148756 -0.1209471002 0.5935014486 4292336355
-0.2793648243 -0.1203091890 0.5936076045 4292270562
-0.2794145346 -0.1196709350 0.5937132239 4291876313
-0.2794639766 -0.1190323383 0.5938183069 4291810520
-0.2799322605 -0.1185709089 0.5948132873 4292073694
-0.2799812853 -0.1179306805 0.5949174762 4292665831
-0.2800300717 -0.1172901243 0.5950211883 4293257968
-0.2800786197 -0.1166492254 0.5951243043 4293784312
-0.2801268995 -0.1160079986 0.5952268839 4294244861
-0.2805943489 -0.1155391410 0.5962201953 4294179068
-0.2806422114 -0.1148962900 0.5963218808 4294047482
-0.2806898355 -0.1142531186 0.5964230299 4294113275
-0.2807371914 -0.1136096120 0.5965236425 4294113275
-0.2807842791 -0.1129657850 0.5966237783 4294113275
-0.2808311284 -0.1123216301 0.5967233181 4293981689
-0.2808777392 -0.1116771549 0.5968223214 4293850103
-0.2813439965 -0.1111983284 0.5978130698 4293784309
-0.2813901603 -0.1105522513 0.5979111791 4293784309
-0.2814360857 -0.1099058613 0.5980087519 4293652724
-0.2814817429 -0.1092591509 0.5981057286 4293455345
-0.2815271318 -0.1086121276 0.5982022285 4293257966
-0.2815722823 -0.1079647914 0.5982981324 4293192173
-0.2811968327 -0.1071569771 0.5975003839 4292797415
-0.2812414169 -0.1065099835 0.5975950956 4292600036
-0.2700305581 -0.1894117892 0.5751309991 4293193206
-0.2701047957 -0.1888246834 0.5752891898 4292601069
-0.2697713673 -0.1879531890 0.5745790005 4292008932
-0.2698451281 -0.1873660088 0.5747361183 4291416540
-0.2699187100 -0.1867783517 0.5748928189 4291350747
-0.2699920833 -0.1861902028 0.5750491023 4291087575
-0.2704732418 -0.1858819574 0.5760738850 4290692817
-0.2701382935 -0.1850124896 0.5753604770 4290429645
-0.2702111006 -0.1844229102 0.5755155683 4290232266
-0.2702836990 -0.1838328689 0.5756702423 4289837508
-0.2703561187 -0.1832423359 0.5758244395 4289442750
-0.2704283595 -0.1826513410 0.5759782791 4289311164
-0.2705003917 -0.1820598692 0.5761317015 4288653234
-0.2705722153 -0.1814679205 0.5762847066 4287929511
-0.2698262036 -0.1803290546 0.5746957660 4287008409
-0.2698974311 -0.1797379553 0.5748475194 4286284688
-0.2699684501 -0.1791463941 0.5749987960 4286021516
-0.2700392902 -0.1785543710 0.5751496553 4284574070
-0.2701099217 -0.1779618710 0.5753000975 4283850347
-0.2701803744 -0.1773689240 0.5754501224 4284376689
-0.2702506185 -0.1767755002 0.5755997300 4284179310
-0.2699110806 -0.1759146750 0.5748765469 4283192415
-0.2699808180 -0.1753212214 0.5750250816 4282139727
-0.2704601288 -0.1749924570 0.5760459900 4282534227
-0.2705295682 -0.1743972003 0.5761938691 4282994778
-0.2705987990 -0.1738014817 0.5763413310 4284179052
-0.2706678510 -0.1732053012 0.5764883757 4285758084
-0.2703264654 -0.1723471284 0.5757613182 4287337114
-0.2703950107 -0.1717509478 0.5759072304 4288060837
-0.2704633176 -0.1711543053 0.5760527849 4288389802
-0.2705314457 -0.1705572307 0.5761978626 4288324009
-0.2705993652 -0.1699596792 0.5763425231 4288257700
-0.2706670761 -0.1693616956 0.5764867067 4287336598
-0.2707345784 -0.1687632650 0.5766305327 4286876047
-0.2708018720 -0.1681643724 0.5767738819 4287402391
-0.2708689868 -0.1675650477 0.5769167542 4288520872
-0.2709358633 -0.1669652760 0.5770592093 4288586665
-0.2710025609 -0.1663650572 0.5772012472 4288586665
-0.2710690200 -0.1657643914 0.5773428082 4288849837
-0.2711353004 -0.1651632935 0.5774839520 4288455079
-0.2716128826 -0.1648114622 0.5785011649 4287139219
-0.2712672055 -0.1639597565 0.5777649283 4286612621
-0.2717445791 -0.1636052281 0.5787816644 4287533723
-0.2718100846 -0.1630014628 0.5789212584 4288257189
-0.2718754113 -0.1623972505 0.5790603757 4288388775
-0.2719405293 -0.1617926061 0.5791990161 4288257446
-0.2715932727 -0.1609433144 0.5784594417 4288586411
-0.2720701098 -0.1605820209 0.5794749856 4288652204
-0.2721345723 -0.1599760801 0.5796123147 4287731102
-0.2721988261 -0.1593697071 0.5797491670 4287270294
-0.2722628713 -0.1587629169 0.5798855424 4287928224
-0.2723266780 -0.1581556946 0.5800215006 4288981169
-0.2723903060 -0.1575480402 0.5801569819 4288717997
-0.2724536955 -0.1569399536 0.5802920461 4288981169
-0.2729297876 -0.1565683186 0.5813060403 4288915376
-0.2729928493 -0.1559584737 0.5814403296 4288652204
-0.2730556726 -0.1553482115 0.5815742016 4287731102
-0.2731183171 -0.1547375172 0.5817075372 4287073426
-0.2735939920 -0.1543595791 0.5827206969 4288257700
-0.2736562788 -0.1537471265 0.5828533769 4289310388
-0.2733048797 -0.1529029310 0.5821049213 4289376181
-0.2733666301 -0.1522905678 0.5822364092 4289376181
-0.2734281421 -0.1516778022 0.5823674798 4289244595
-0.2734894753 -0.1510646045 0.5824980736 4288849837
-0.2735505402 -0.1504510194 0.5826281905 4288191907
-0.2736114264 -0.1498370022 0.5827578306 4288257700
-0.2736720443 -0.1492225826 0.5828869939 4289113009
-0.2737324834 -0.1486077607 0.5830156803 4289770685
-0.2742068768 -0.1482164115 0.5840260983 4289770685
-0.2742669582 -0.1475998461 0.5841540098 4289902271
-0.2743268013 -0.1469828635 0.5842815042 4290165443
-0.2743864059 -0.1463654935 0.5844084620 4289573306
-0.2744458020 -0.1457477212 0.5845349431 4288717997
-0.2745049596 -0.1451295316 0.5846609473 4288651947
-0.2745639086 -0.1445109546 0.5847864747 4289507256
-0.2746226192 -0.1438919753 0.5849115252 4290362565
-0.2746810913 -0.1432726085 0.5850360990 4290559944
-0.2747393548 -0.1426528394 0.5851601958 4290625737
-0.2747973800 -0.1420326829 0.5852838159 4290559944
-0.2748551965 -0.1414121240 0.5854068995 4290362565
-0.2749127746 -0.1407911777 0.5855295062 4289770428
-0.2749701142 -0.1401698440 0.5856516361 4289638842
-0.2750272155 -0.1395481229 0.5857732892 4290165186
-0.2750841081 -0.1389260143 0.5858944654 4290757321
-0.2751407623 -0.1383035183 0.5860151052 4290888907
-0.2751971781 -0.1376806349 0.5861352682 4291020493
-0.2752533555 -0.1370573789 0.5862549543 4290888907
-0.2753093243 -0.1364337355 0.5863741040 4290428356
-0.2753650248 -0.1358097196 0.5864928365 4289836219
-0.2754205167 -0.1351853162 0.5866109729 4289770426
-0.2758919001 -0.1347638071 0.5876150131 4290230977
-0.2759470046 -0.1341377050 0.5877323747 4291020493
-0.2760019004 -0.1335112453 0.5878491998 4291217872
-0.2760565281 -0.1328843981 0.5879656076 4291152079
-0.2761109173 -0.1322571784 0.5880814791 4291086286
-0.2761650980 -0.1316296011 0.5881968141 4290954700
-0.2762190104 -0.1310016513 0.5883116722 4290559942
-0.2766894102 -0.1305699646 0.5893135667 4290559942
-0.2767429352 -0.1299403310 0.5894275904 4291152079
-0.2767962217 -0.1293103397 0.5895410776 4291875802
-0.2768492997 -0.1286799759 0.5896540880 4291941595
-0.2769021094 -0.1280492544 0.5897665620 4292007388
-0.2773717940 -0.1276100576 0.5907669067 4292138974
-0.2774242163 -0.1269776672 0.5908785462 4292270560
-0.2778936327 -0.1265349090 0.5918784142 4292336353
-0.2779456377 -0.1259008497 0.5919891596 4292271073
-0.2784148455 -0.1254545301 0.5929884911 4292271073
-0.2784664333 -0.1248188019 0.5930984020 4292402659
-0.2785178125 -0.1241827309 0.5932077765 4292402659
-0.2785689235 -0.1235463023 0.5933166742 4292468452
-0.2786197960 -0.1229095310 0.5934250355 4292468452
-0.2786704302 -0.1222724095 0.5935328603 4292402659
-0.2787207961 -0.1216349378 0.5936401486 4292336866
-0.2787709534 -0.1209971234 0.5937469602 4292336866
-0.2788208425 -0.1203589663 0.5938532352 4292205280
-0.2788704932 -0.1197204664 0.5939589739 4291811290
-0.2789198756 -0.1190816239 0.5940641761 4291811290
-0.2793872952 -0.1186200231 0.5950596929 4291942106
-0.2794362605 -0.1179795489 0.5951640010 4292600036
-0.2794849873 -0.1173387393 0.5952678323 4293389552
-0.2795334756 -0.1166975945 0.5953710675 4294113275
-0.2795817256 -0.1160561144 0.5954738259 4294574079
-0.2800483108 -0.1155870855 0.5964675546 4294574079
-0.2800961137 -0.1149439812 0.5965694189 4294508543
-0.2801436782 -0.1143005565 0.5966706872 4294574079
-0.2801909745 -0.1136567965 0.5967714190 4294705151
-0.2802380323 -0.1130127162 0.5968716741 4294705151
-0.2802848220 -0.1123683155 0.5969713330 4294705151
-0.2807503939 -0.1118905917 0.5979629755 4294573823
-0.2807967663 -0.1112445816 0.5980617404 4294245630
-0.2808428705 -0.1105982512 0.5981599092 4294114044
-0.2808887362 -0.1099516004 0.5982576013 4294112764
-0.2809343338 -0.1093046367 0.5983547568 4293915385
-0.2809796929 -0.1086573601 0.5984513164 4294112764
-0.2810247838 -0.1080097705 0.5985473990 4294441727
-0.2806501389 -0.1072016284 0.5977493525 4293718004
-0.2806946337 -0.1065543815 0.5978441834 4292994281
-0.2807829082 -0.1052589789 0.5980321765 4294705151
-0.2687583864 -0.1883289516 0.5737788081 4292930034
-0.2688321471 -0.1877429485 0.5739362836 4292535276
-0.2689057291 -0.1871564686 0.5740933418 4292337897
-0.2689791024 -0.1865694970 0.5742499828 4292403690
-0.2686452568 -0.1857006997 0.5735372305 4292337897
