VERSION 0.7
FIELDS x y z rgba
SIZE 4 4 4 4
TYPE F F F U
COUNT 1 1 1 1
WIDTH 920
HEIGHT 1
VIEWPOINT 0.0 0.0 0.0 1.0 0.0 0.0 0.0
POINTS 920
DATA ascii
-0.2795888484 -0.1454111338 0.5535835028 4281683479
-0.2787723541 -0.1443732083 0.5519667864 4281618454
-0.2788334489 -0.1437914371 0.5520877838 4281618454
-0.2788943350 -0.1432092935 0.5522083640 4281618454
-0.2785156965 -0.1424021572 0.5514586568 4281618454
-0.2785760462 -0.1418201774 0.5515781045 4281552660
-0.2781966925 -0.1410150379 0.5508269668 4281552660
-0.2782564759 -0.1404332072 0.5509454012 4281421074
-0.2778764069 -0.1396300793 0.5501928329 4281421074
-0.2779356837 -0.1390484273 0.5503101945 4281355282
-0.2775548398 -0.1382473111 0.5495561957 4281355282
-0.2776135802 -0.1376658380 0.5496724844 4281421075
-0.2772320509 -0.1368667483 0.5489169955 4281421075
-0.2768501043 -0.1360691339 0.5481607318 4281618454
-0.2769079804 -0.1354884207 0.5482753515 4281750040
-0.2765252888 -0.1346928477 0.5475176573 4281684247
-0.2765826285 -0.1341123134 0.5476312041 4281684247
-0.2766397595 -0.1335314363 0.5477442741 4281684247
-0.2766966522 -0.1329501867 0.5478569269 4281618454
-0.2767533064 -0.1323685795 0.5479691029 4281684247
-0.2768097520 -0.1317866147 0.5480808616 4281815833
-0.2768659592 -0.1312042922 0.5481922030 4281881626
-0.2769219577 -0.1306216270 0.5483030677 4281881626
-0.2774187624 -0.1302456707 0.5492867231 4282012442
-0.2774743736 -0.1296613663 0.5493968725 4282078235
-0.2775297761 -0.1290767044 0.5495065451 4282079005
-0.2775849402 -0.1284916997 0.5496157408 4282079005
-0.2776398957 -0.1279063523 0.5497245193 4281947419
-0.2776945829 -0.1273206472 0.5498328805 4281881626
-0.2781906426 -0.1269360930 0.5508150458 4282078235
-0.2782449722 -0.1263487637 0.5509226322 4282078235
-0.2787408233 -0.1259607226 0.5519043803 4281881626
-0.2787947953 -0.1253717840 0.5520111918 4281881626
-0.2792904377 -0.1249802485 0.5529925823 4282013211
-0.2793439925 -0.1243896931 0.5530986786 4282144797
-0.2798394263 -0.1239946857 0.5540795922 4282276383
-0.2798926234 -0.1234025136 0.5541849136 4282276383
-0.2799455822 -0.1228100061 0.5542898178 4282276383
-0.2799983025 -0.1222171634 0.5543941855 4282276383
-0.2804931998 -0.1218161285 0.5553740859 4282276892
-0.2805455625 -0.1212216839 0.5554777384 4282145306
-0.2810402215 -0.1208171695 0.5564571619 4282276896
-0.2810921669 -0.1202211156 0.5565600395 4282342689
-0.2815866172 -0.1198131293 0.5575390458 4282342436
-0.2816381752 -0.1192154810 0.5576410890 4282474022
-0.2821323872 -0.1188040152 0.5586196780 4282540068
-0.2821835279 -0.1182047725 0.5587209463 4282474275
-0.2826775312 -0.1177898347 0.5596989989 4282671650
-0.2831714153 -0.1173726842 0.5606769323 4282540064
-0.2836652398 -0.1169533283 0.5616546869 4282540066
-0.2837156653 -0.1163499653 0.5617545247 4282408480
-0.2842092216 -0.1159271374 0.5627317429 4282473763
-0.2847026885 -0.1155021042 0.5637088418 4282736935
-0.2851960659 -0.1150748581 0.5646857023 4283066159
-0.2856893837 -0.1146454141 0.5656624436 4283658296
-0.2861825824 -0.1142137572 0.5666390061 4283786822
-0.2871194482 -0.1139560193 0.5684940219 4284444752
-0.2880564034 -0.1136941910 0.5703491569 4286286202
-0.2894373238 -0.1136024892 0.5730833411 4291549642
-0.3171446025 -0.1785923243 0.6293274760 4283520845
-0.3172194064 -0.1779350638 0.6294759512 4283191880
-0.3168575466 -0.1770334840 0.6287578344 4282139954
-0.3164952099 -0.1761332601 0.6280388832 4282732091
-0.3156958222 -0.1749923527 0.6264525652 4282536504
-0.3144589961 -0.1736134738 0.6239982843 4281549609
-0.3106002510 -0.1707982421 0.6163411736 4281550626
-0.2997482419 -0.1641698778 0.5948069096 4281419040
-0.2893279791 -0.1578248888 0.5741294622 4281616921
-0.2850228250 -0.1548480690 0.5655865073 4281551128
-0.2824644446 -0.1528353691 0.5605097413 4281748507
-0.2812167108 -0.1515402347 0.5580338240 4281814300
-0.2799681723 -0.1502501667 0.5555562377 4281814554
-0.2791563570 -0.1491990089 0.5539453030 4281748761
-0.2796568573 -0.1488499492 0.5549384952 4281683225
-0.2792818546 -0.1480346024 0.5541943908 4281749018
-0.2789064646 -0.1472206861 0.5534493923 4281749272
-0.2794065177 -0.1468686163 0.5544416904 4281683479
-0.2785924375 -0.1458264738 0.5528262854 4281749272
-0.2786540091 -0.1452443451 0.5529484749 4281749272
-0.2782771289 -0.1444343626 0.5522006154 4281618454
-0.2783381939 -0.1438523829 0.5523217916 4281618454
-0.2783990204 -0.1432700157 0.5524424911 4281684247
-0.2784596086 -0.1426872760 0.5525627136 4281684247
-0.2780813873 -0.1418803632 0.5518121719 4281684247
-0.2777027488 -0.1410748959 0.5510608554 4281618454
-0.2777625024 -0.1404928565 0.5511794090 4281421074
-0.2773831487 -0.1396894157 0.5504266024 4281421074
-0.2774423659 -0.1391075402 0.5505441427 4281355282
-0.2770622671 -0.1383061111 0.5497899055 4281355282
-0.2766817510 -0.1375061423 0.5490348339 4281355282
-0.2767401338 -0.1369250119 0.5491506457 4281421075
-0.2763589025 -0.1361270845 0.5483942032 4281618454
-0.2764167190 -0.1355461329 0.5485089421 4281815833
-0.2764743268 -0.1349648237 0.5486232042 4281684247
-0.2760920823 -0.1341695040 0.5478646755 4281618454
-0.2761491239 -0.1335883886 0.5479779243 4281618454
-0.2762059569 -0.1330069155 0.5480906963 4281618454
-0.2762625813 -0.1324250847 0.5482030511 4281684247
-0.2763189673 -0.1318428963 0.5483149290 4281750040
-0.2763751447 -0.1312603503 0.5484263897 4281750040
-0.2764310837 -0.1306774467 0.5485373735 4281815833
-0.2769270539 -0.1303013563 0.5495215654 4281815833
-0.2769826055 -0.1297168285 0.5496318340 4281947419
-0.2770379484 -0.1291319430 0.5497416854 4282079004
-0.2770930827 -0.1285467148 0.5498510599 4282079004
-0.2771479785 -0.1279611290 0.5499599576 4281947418
-0.2776433229 -0.1275777072 0.5509429574 4281947418
-0.2781386375 -0.1271920651 0.5519257784 4281881625
-0.2781929970 -0.1266035736 0.5520336628 4281815832
-0.2782471478 -0.1260147542 0.5521411300 4281881625
-0.2783010602 -0.1254255772 0.5522480607 4281947418
-0.2787958682 -0.1250339001 0.5532299876 4282079002
-0.2788493931 -0.1244431138 0.5533362031 4282144795
-0.2789026797 -0.1238519847 0.5534419417 4282144795
-0.2793971300 -0.1234555468 0.5544230938 4282013209
-0.2794500291 -0.1228628084 0.5545281172 4282013209
-0.2795027196 -0.1222697273 0.5546326041 4282079002
-0.2799967825 -0.1218685433 0.5556130409 4282145560
-0.2800490856 -0.1212738603 0.5557168126 4282145560
-0.2801011205 -0.1206788421 0.5558201075 4282408480
-0.2805948257 -0.1202729046 0.5567997694 4282408480
-0.2806464732 -0.1196762845 0.5569022894 4282474275
-0.2815819979 -0.1194543913 0.5587586761 4282605861
-0.2816333473 -0.1188552380 0.5588605404 4282408478
-0.2821266353 -0.1184414029 0.5598394275 4282342685
-0.2826198637 -0.1180253625 0.5608181953 4282277146
-0.2831130326 -0.1176071092 0.5617967248 4282277146
-0.2831636369 -0.1170038283 0.5618972182 4282474525
-0.2836565375 -0.1165821031 0.5628752708 4282474525
-0.2837067544 -0.1159772351 0.5629749298 4282671654
-0.2837567329 -0.1153720468 0.5630740523 4282934826
-0.2846919596 -0.1151246205 0.5649299026 4283329331
-0.2851844132 -0.1146950051 0.5659071207 4283789882
-0.2856768072 -0.1142631769 0.5668842196 4283786570
-0.2861690819 -0.1138291433 0.5678610802 4284576086
-0.2871043384 -0.1135681644 0.5697169304 4286154618
-0.2880396247 -0.1133030728 0.5715728998 4291549644
-0.3157073557 -0.1781756878 0.6278592944 4283652429
-0.3157819211 -0.1775199920 0.6280075312 4283586636
-0.3154205382 -0.1766198725 0.6272888780 4282863929
-0.3150587380 -0.1757211089 0.6265693307 4283653445
-0.3142606020 -0.1745815724 0.6249820590 4283194174
-0.3125898838 -0.1729627252 0.6216594577 4281812521
-0.3087377846 -0.1701490730 0.6139985919 4281879076
-0.2983410358 -0.1637600958 0.5933222175 4281615904
-0.2883755267 -0.1576527953 0.5735033751 4281485337
-0.2845143676 -0.1549132466 0.5658245683 4281485337
-0.2819606066 -0.1528997421 0.5607458353 4281748507
-0.2807151675 -0.1516040862 0.5582689047 4281814300
-0.2799055576 -0.1505483687 0.5566588640 4281814300
-0.2790953517 -0.1494958848 0.5550475121 4281748507
-0.2787213922 -0.1486797035 0.5543038249 4281748507
-0.2787839770 -0.1480970830 0.5544283390 4281814300
-0.2784092724 -0.1472828686 0.5536831617 4281749018
-0.2784713507 -0.1467003673 0.5538065434 4281749018
-0.2780959308 -0.1458881050 0.5530599356 4281749018
-0.2781574428 -0.1453057677 0.5531823039 4281749018
-0.2777813077 -0.1444954723 0.5524342656 4281749272
-0.2778422832 -0.1439132690 0.5525555611 4281749272
-0.2779030502 -0.1433306783 0.5526763797 4281683993
-0.2779636085 -0.1427477151 0.5527968407 4281815579
-0.2775861025 -0.1419404894 0.5520460606 4281815579
-0.2772081792 -0.1411347091 0.5512945056 4281749786
-0.2772678733 -0.1405524462 0.5514132380 4281552661
-0.2768892348 -0.1397486925 0.5506601930 4281486868
-0.2765102088 -0.1389463991 0.5499063730 4281486868
-0.2770073414 -0.1385841221 0.5508950353 4281421075
-0.2761892676 -0.1375645697 0.5492681265 4281355282
-0.2762475908 -0.1369832158 0.5493841171 4281421075
-0.2758670747 -0.1361849755 0.5486273766 4281618454
-0.2759248614 -0.1356038004 0.5487422943 4281815833
-0.2759824097 -0.1350222677 0.5488567352 4281618454
-0.2756008804 -0.1342266202 0.5480979681 4281552661
-0.2756578922 -0.1336452961 0.5482113361 4281618454
-0.2757146657 -0.1330635995 0.5483242869 4281750040
-0.2757712305 -0.1324815303 0.5484367609 4281815833
-0.2758275568 -0.1318991184 0.5485488176 4281750040
-0.2758836746 -0.1313163489 0.5486603975 4281749786
-0.2759395540 -0.1307332367 0.5487715006 4281815579
-0.2759952247 -0.1301497519 0.5488821864 4281947418
-0.2764902115 -0.1297722310 0.5498666167 4282013211
-0.2769851685 -0.1293925047 0.5508509874 4282079004
-0.2770403326 -0.1288061142 0.5509606600 4281947418
-0.2770952582 -0.1282193810 0.5510698557 4281947418
-0.2771499455 -0.1276322901 0.5511786342 4281947418
-0.2776444256 -0.1272465140 0.5521620512 4281947416
-0.2776987255 -0.1266577840 0.5522700548 4282013209
-0.2777528167 -0.1260687262 0.5523776412 4281882136
-0.2778066695 -0.1254793257 0.5524847507 4281882136
-0.2783006430 -0.1250874996 0.5534671545 4282079515
-0.2783541381 -0.1244964823 0.5535734892 4282276894
-0.2788479030 -0.1241011694 0.5545554757 4282145308
-0.2789010108 -0.1235085353 0.5546610355 4281882136
-0.2789538503 -0.1229155585 0.5547661781 4281947927
-0.2794472575 -0.1225154847 0.5557473898 4282145306
-0.2794997394 -0.1219209060 0.5558517575 4282342428
-0.2799929082 -0.1215173528 0.5568325520 4282408221
-0.2800450027 -0.1209211573 0.5569361448 4282539553
-0.2800968289 -0.1203246340 0.5570392609 4282342174
-0.2801484466 -0.1197277829 0.5571419001 4282407967
-0.2806410789 -0.1193182096 0.5581216216 4282539553
-0.2806923091 -0.1187197566 0.5582234859 4282342428
-0.2811847031 -0.1183067039 0.5592027307 4282342428
-0.2816770077 -0.1178914383 0.5601817966 4282408219
-0.2821692526 -0.1174739674 0.5611607432 4282342426
-0.2826614082 -0.1170542836 0.5621395111 4282539807
-0.2827117443 -0.1164504439 0.5622395873 4282737186
-0.2832036316 -0.1160272807 0.5632178783 4282999853
-0.2836954594 -0.1156019196 0.5641959906 4283328818
-0.2846291661 -0.1153534576 0.5660528541 4283591741
-0.2851208746 -0.1149227321 0.5670307279 4283920706
-0.2851703763 -0.1143125594 0.5671291947 4284049491
-0.2856618166 -0.1138783544 0.5681065321 4284641628
-0.2865954638 -0.1136172712 0.5699632764 4286022779
-0.2879714966 -0.1135264784 0.5726999044 4291286219
-0.3142725527 -0.1777585447 0.6263893843 4283849806
-0.3139120340 -0.1768594682 0.6256707907 4284112978
-0.3139859438 -0.1762057841 0.6258181334 4284048454
-0.3131896555 -0.1750653386 0.6242310405 4284509005
-0.3123927116 -0.1739280820 0.6226426363 4283720257
-0.3107247353 -0.1723113060 0.6193181276 4281878053
-0.3068792820 -0.1694992334 0.6116535664 4281681184
-0.2978070974 -0.1638288796 0.5935714245 4281746977
-0.2882949710 -0.1579576433 0.5746123791 4281485337
-0.2844408751 -0.1552160829 0.5669306517 4281551130
-0.2814561427 -0.1529640555 0.5609816909 4281616923
-0.2802129686 -0.1516678780 0.5585038662 4281682716
-0.2794048786 -0.1506117433 0.5568931699 4281748507
-0.2785961628 -0.1495588571 0.5552812815 4281814300
-0.2786589861 -0.1489754915 0.5554065704 4281880093
-0.2782854438 -0.1481595188 0.5546620488 4281880093
-0.2779114842 -0.1473449767 0.5539166331 4281814554
-0.2779734731 -0.1467622668 0.5540402532 4281814554
-0.2775987685 -0.1459496915 0.5532934070 4281749018
-0.2776602507 -0.1453671306 0.5534159541 4281749018
-0.2777214944 -0.1447841674 0.5535380244 4281749272
-0.2773457468 -0.1439740956 0.5527890921 4281749272
-0.2769696116 -0.1431654841 0.5520393848 4281880858
-0.2770300210 -0.1425832063 0.5521597862 4281946651
-0.2770901918 -0.1420005560 0.5522797108 4282012444
-0.2767129838 -0.1411944777 0.5515279174 4281946651
-0.2767726481 -0.1406119913 0.5516467690 4281749270
-0.2763947248 -0.1398079097 0.5508935452 4281749270
-0.2764538229 -0.1392255872 0.5510113835 4281749270
-0.2760751843 -0.1384235322 0.5502566695 4281683477
-0.2756961584 -0.1376229525 0.5495011806 4281551891
-0.2757543921 -0.1370413601 0.5496172905 4281551891
-0.2753746212 -0.1362428069 0.5488603711 4281683477
-0.2754323483 -0.1356614083 0.5489754081 4281815063
-0.2754898369 -0.1350796521 0.5490900278 4281552661
-0.2751090527 -0.1342837065 0.5483310223 4281552661
-0.2751660049 -0.1337021440 0.5484445095 4281684247
-0.2752227187 -0.1331202239 0.5485576391 4281815833
-0.2752792537 -0.1325379461 0.5486702323 4281750040
-0.2753355205 -0.1319552958 0.5487824082 4281618454
-0.2753915787 -0.1313723028 0.5488941669 4281618200
-0.2754474282 -0.1307889521 0.5490054488 4281749786
-0.2755030096 -0.1302052587 0.5491162539 4281750552
-0.2759971917 -0.1298276037 0.5501012206 4281947931
-0.2764913142 -0.1294477284 0.5510860682 4282079004
-0.2765464187 -0.1288611144 0.5511958599 4282013211
-0.2766012847 -0.1282741427 0.5513052344 4281947418
-0.2766559124 -0.1276868135 0.5514141321 4281947418
-0.2767103314 -0.1270991564 0.5515226126 4281882136
-0.2767645121 -0.1265111417 0.5516306162 4281947929
-0.2772578597 -0.1261226535 0.5526139140 4282013722
-0.2773116827 -0.1255330294 0.5527211428 4281882136
-0.2778048217 -0.1251410544 0.5537040830 4281947929
-0.2778582573 -0.1245497987 0.5538105369 4282145308
-0.2783511877 -0.1241543368 0.5547930598 4282145308
-0.2784042358 -0.1235614717 0.5548987985 4282013722
-0.2784570456 -0.1229682565 0.5550040603 4282013722
-0.2789495885 -0.1225680411 0.5559858084 4282276894
-0.2790020406 -0.1219732165 0.5560902953 4282210590
-0.2790542245 -0.1213780642 0.5561943054 4282473762
-0.2791061699 -0.1207825765 0.5562978387 4282473762
-0.2795982063 -0.1203763261 0.5572785735 4282276383
-0.2796497643 -0.1197792366 0.5573813319 4282342176
-0.2801415622 -0.1193694994 0.5583615303 4282342176
-0.2806333005 -0.1189575568 0.5593416095 4282276383
-0.2806842923 -0.1183575988 0.5594432950 4282407969
-0.2811757922 -0.1179421768 0.5604228973 4282736932
-0.2816672027 -0.1175245419 0.5614023209 4282539553
-0.2821585238 -0.1171046942 0.5623816252 4282671141
-0.2822088003 -0.1165006086 0.5624818206 4282934313
-0.2826998830 -0.1160772890 0.5634605885 4283196982
-0.2831908464 -0.1156517565 0.5644391775 4283460154
-0.2832405567 -0.1150448099 0.5645383000 4283788101
-0.2837312818 -0.1146158054 0.5655163527 4283919687
-0.2846632600 -0.1143618897 0.5673739314 4284246617
-0.2860367298 -0.1142802313 0.5701113939 4284838754
-0.2874103785 -0.1141925752 0.5728493333 4286219906
-0.2883426845 -0.1139244512 0.5747075081 4290825416
-0.3128401339 -0.1773409396 0.6249178052 4284310612
-0.3129141331 -0.1766883880 0.6250655651 4284639577
-0.3125537634 -0.1757912040 0.6243457198 4284903502
-0.3121929765 -0.1748953909 0.6236250401 4285035088
-0.3109630942 -0.1735162437 0.6211683154 4284246082
-0.3092980087 -0.1719006598 0.6178421378 4282338085
-0.3054592907 -0.1690892428 0.6101741195 4281417753
-0.2959686518 -0.1631787419 0.5912159085 4281746718
-0.2877774537 -0.1580239236 0.5748535395 4281681946
-0.2839303613 -0.1552812457 0.5671686530 4281616153
-0.2813859284 -0.1532651931 0.5620860457 4281551130
-0.2801451385 -0.1519675851 0.5596075058 4281616923
-0.2793386579 -0.1509101242 0.5579964519 4281814300
-0.2785315514 -0.1498559117 0.5563842058 4281945886
-0.2781591117 -0.1490381807 0.5556402802 4282011679
-0.2782216966 -0.1484542191 0.5557652712 4281880093
-0.2774130404 -0.1474070400 0.5541499257 4281814554
-0.2774749994 -0.1468241066 0.5542736650 4281748761
-0.2771010101 -0.1460112184 0.5535266399 4281880347
-0.2771624327 -0.1454284340 0.5536493063 4281814554
-0.2772236168 -0.1448452622 0.5537715554 4281880345
-0.2772845924 -0.1442617029 0.5538933277 4281880345
-0.2769092619 -0.1434518397 0.5531436205 4281815065
-0.2765335143 -0.1426434517 0.5523930192 4281880858
-0.2765936255 -0.1420605779 0.5525131226 4281880858
-0.2762171626 -0.1412541717 0.5517610908 4281946651
-0.2762767673 -0.1406714618 0.5518801212 4281749270
-0.2758995593 -0.1398670822 0.5511266589 4281749270
-0.2755219638 -0.1390641481 0.5503724217 4281749270
-0.2755807042 -0.1384821683 0.5504897237 4281683477
-0.2752023935 -0.1376812607 0.5497340560 4281551891
-0.2752605975 -0.1370994598 0.5498502851 4281617684
-0.2748815715 -0.1363005787 0.5490931273 4281749272
-0.2749392092 -0.1357189715 0.5492083430 4281749272
-0.2749966681 -0.1351369917 0.5493230820 4281486614
-0.2746165991 -0.1343407184 0.5485638380 4281618200
-0.2746734917 -0.1337589324 0.5486775041 4281750040
-0.2747301757 -0.1331767887 0.5487907529 4281815833
-0.2747866213 -0.1325942874 0.5489035249 4281750040
-0.2748428583 -0.1320114285 0.5490158200 4281552661
-0.2753365934 -0.1316374838 0.5500020981 4281552407
-0.2753924727 -0.1310529858 0.5501137376 4281683993
-0.2754481137 -0.1304681152 0.5502248406 4281881625
-0.2759415209 -0.1300894022 0.5512105227 4282013211
-0.2759968042 -0.1295029074 0.5513209105 4282275613
-0.2760518491 -0.1289160550 0.5514308810 4282209820
-0.2761066854 -0.1283288449 0.5515403748 4282013211
-0.2761612833 -0.1277413070 0.5516494513 4281881625
-0.2762156427 -0.1271534115 0.5517580509 4281815832
-0.2762697637 -0.1265651584 0.5518661737 4281815832
-0.2767622769 -0.1261765361 0.5528500080 4282079004
-0.2768160403 -0.1255866736 0.5529573560 4281947418
-0.2773083448 -0.1251945496 0.5539407730 4282013211
-0.2773617208 -0.1246030703 0.5540474057 4282079004
-0.2778538167 -0.1242074594 0.5550304055 4281947418
-0.2779068053 -0.1236143559 0.5551362634 4282013211
-0.2779595852 -0.1230209097 0.5552417040 4282079517
-0.2784512937 -0.1226205379 0.5562239289 4282145310
-0.2785036862 -0.1220254824 0.5563285947 4281882138
-0.2789951861 -0.1216216236 0.5573104024 4282211103
-0.2790471911 -0.1210249588 0.5574142337 4282342687
-0.2790989280 -0.1204279661 0.5575175881 4282342687
-0.2791504562 -0.1198306382 0.5576205254 4282408478
-0.2796414196 -0.1194207445 0.5586012602 4282408478
-0.2801322937 -0.1190086454 0.5595818162 4282539807
-0.2806231081 -0.1185943335 0.5605622530 4282605600
-0.2806739211 -0.1179928631 0.5606637597 4282934565
-0.2811644971 -0.1175750718 0.5616436601 4282671393
-0.2812148929 -0.1169720069 0.5617443919 4282605861
-0.2817052007 -0.1165507287 0.5627238154 4282869033
-0.2821954489 -0.1161272451 0.5637031198 4283196982
-0.2826856077 -0.1157015488 0.5646821856 4283460154
-0.2831756771 -0.1152736396 0.5656611323 4283657031
-0.2836656272 -0.1148435175 0.5666399002 4283985996
-0.2845960855 -0.1145885661 0.5684984922 4284838245
-0.2855265737 -0.1143295020 0.5703572035 4285759347
-0.2860164046 -0.1138908491 0.5713357329 4287008911
-0.2869469225 -0.1136245206 0.5731945038 4290561733
-0.3114101589 -0.1769228429 0.6234444976 4284771163
-0.3110506237 -0.1760266870 0.6227247119 4285034335
-0.3111239970 -0.1753761619 0.6228716373 4285035085
-0.3103303015 -0.1742384583 0.6212825775 4285100878
-0.3095359206 -0.1731039435 0.6196922660 4284640581
-0.3074400425 -0.1712479889 0.6154963374 4282864170
-0.3036080301 -0.1684381664 0.6078246236 4281351958
-0.2954356968 -0.1632470936 0.5914635658 4281812509
-0.2872593105 -0.1580901444 0.5750944018 4281747739
-0.2834191918 -0.1553463489 0.5674064755 4281550360
-0.2808794081 -0.1533294767 0.5623218417 4281551128
-0.2796409130 -0.1520313621 0.5598423481 4281616921
-0.2788359225 -0.1509734839 0.5582306981 4281814300
-0.2780303061 -0.1499188542 0.5566179156 4281945886
-0.2772240937 -0.1488674730 0.5550038815 4282011679
-0.2777211368 -0.1485166252 0.5559989214 4281945886
-0.2769140005 -0.1474690288 0.5543830395 4281814554
-0.2766026258 -0.1460726857 0.5537596345 4281880347
-0.2766639590 -0.1454896778 0.5538824797 4281880347
-0.2767251134 -0.1449062824 0.5540048480 4281946138
-0.2763508260 -0.1440955848 0.5532555580 4281946138
-0.2764114141 -0.1435123384 0.5533768535 4281880345
-0.2760364115 -0.1427036226 0.5526260734 4281814552
-0.2760964632 -0.1421205401 0.5527462959 4281814552
-0.2757207155 -0.1413138211 0.5519940853 4281880345
-0.2757802606 -0.1407308877 0.5521132946 4281683477
-0.2754037976 -0.1399261802 0.5513595939 4281683477
-0.2750269175 -0.1391229481 0.5506051183 4281749270
-0.2750855982 -0.1385407448 0.5507225990 4281683477
-0.2747080326 -0.1377395242 0.5499666333 4281551891
-0.2747661769 -0.1371574998 0.5500830412 4281683477
-0.2748240829 -0.1365751028 0.5501990318 4281815065
-0.2748817801 -0.1359923333 0.5503145456 4281749272
-0.2749392688 -0.1354092062 0.5504295826 4281552407
-0.2749965191 -0.1348257065 0.5505442023 4281683993
-0.2750535309 -0.1342418492 0.5506584048 4281750040
-0.2751103640 -0.1336576194 0.5507721305 4281750040
-0.2751669288 -0.1330730319 0.5508853793 4281750040
-0.2752232850 -0.1324880868 0.5509982109 4281618454
-0.2752794325 -0.1319027841 0.5511106253 4281552407
-0.2753353119 -0.1313171238 0.5512225032 4281749786
-0.2753910124 -0.1307311207 0.5513339639 4282012441
-0.2754464447 -0.1301447451 0.5514450073 4282012441
-0.2755016685 -0.1295580119 0.5515555739 4282078235
-0.2755566835 -0.1289709359 0.5516656637 4282144028
-0.2756114304 -0.1283835173 0.5517753363 4282078235
-0.2761035562 -0.1279985905 0.5527605414 4282078235
-0.2761579454 -0.1274095327 0.5528694391 4282013211
-0.2762121260 -0.1268201172 0.5529778600 4282013211
-0.2762660682 -0.1262303740 0.5530858636 4282013211
-0.2767576575 -0.1258393824 0.5540700555 4282013211
-0.2768112421 -0.1252480000 0.5541772842 4282275614
-0.2768645585 -0.1246562898 0.5542840362 4282144028
-0.2773558199 -0.1242605299 0.5552675724 4281880856
-0.2774087787 -0.1236671954 0.5553735495 4282012442
-0.2778998017 -0.1232679412 0.5563566089 4282079004
-0.2779523730 -0.1226729900 0.5564618707 4281947418
-0.2784431875 -0.1222702563 0.5574445128 4281883415
-0.2784953713 -0.1216736883 0.5575489402 4282146587
-0.2785473168 -0.1210767850 0.5576529503 4282146842
-0.2785990238 -0.1204795539 0.5577564836 4282212635
-0.2790893018 -0.1200707778 0.5587379932 4282278428
-0.2791406214 -0.1194719449 0.5588407516 4282212635
-0.2796306610 -0.1190596819 0.5598218441 4282409244
-0.2801206410 -0.1186452135 0.5608027577 4282409244
-0.2801713943 -0.1180435047 0.5609043837 4282738209
-0.2806611359 -0.1176255494 0.5618848205 4282540830
-0.2807115018 -0.1170222461 0.5619856119 4282474784
-0.2812009752 -0.1166008040 0.5629655719 4282606370
-0.2816903889 -0.1161771566 0.5639454126 4282934834
-0.2821797132 -0.1157512963 0.5649250150 4283263799
-0.2826689184 -0.1153232157 0.5659044385 4283723335
-0.2831580639 -0.1148929298 0.5668836832 4284315472
-0.2836471200 -0.1144604236 0.5678627491 4285364591
-0.2850157619 -0.1143787280 0.5706027746 4286680451
-0.2855047584 -0.1139399037 0.5715817809 4287798429
-0.2864336669 -0.1136734784 0.5734414458 4290232770
-0.3099825978 -0.1765042543 0.6219694614 4285757027
-0.3096235693 -0.1756095886 0.6212491393 4285296476
-0.3092641234 -0.1747162640 0.6205279231 4284901959
-0.3089042604 -0.1738243103 0.6198058128 4285428303
-0.3076784313 -0.1724486053 0.6173462868 4285099849
-0.3060189486 -0.1708362848 0.6140165925 4284112954
-0.3017607629 -0.1677864045 0.6054726839 4281878300
-0.2949020863 -0.1633153707 0.5917109847 4282009886
-0.2871736586 -0.1583952159 0.5762041807 4281880858
-0.2829073668 -0.1554113775 0.5676440001 4281749272
-0.2803722620 -0.1533937007 0.5625573397 4281749018
-0.2791360319 -0.1520950645 0.5600769520 4281814811
-0.2783325315 -0.1510367692 0.5584647655 4281880604
-0.2775284350 -0.1499817371 0.5568513870 4281946397
-0.2775911987 -0.1493968070 0.5569772720 4281946397
-0.2772199214 -0.1485789716 0.5562323332 4281946397
-0.2768482268 -0.1477625668 0.5554865003 4282077726
-0.2769101560 -0.1471782923 0.5556107759 4282077726
-0.2765377164 -0.1463638544 0.5548635125 4282077726
-0.2765991092 -0.1457797140 0.5549866557 4282011933
-0.2766602635 -0.1451951861 0.5551093817 4282011933
-0.2762868106 -0.1443832517 0.5543600321 4281946140
-0.2763474286 -0.1437988728 0.5544817448 4281880345
-0.2759732604 -0.1429889202 0.5537309051 4281814552
-0.2760333419 -0.1424046904 0.5538514853 4281880345
-0.2756584287 -0.1415967494 0.5530992746 4281814552
-0.2757180035 -0.1410126835 0.5532187819 4281486614
-0.2753423750 -0.1402067393 0.5524650812 4281552407
-0.2745312452 -0.1391816884 0.5508375764 4281486614
-0.2745898664 -0.1385992616 0.5509552360 4281420821
-0.2742130160 -0.1377977282 0.5501990914 4281486614
-0.2742711008 -0.1372154802 0.5503156185 4281552407
-0.2743289769 -0.1366328597 0.5504317284 4281552407
-0.2748221457 -0.1362658292 0.5514212847 4281552407
-0.2744440436 -0.1354665160 0.5506625772 4281486868
-0.2745012343 -0.1348827928 0.5507773757 4281552661
-0.2745582163 -0.1342987120 0.5508916974 4281750040
-0.2746149600 -0.1337142736 0.5510055423 4281815833
-0.2746714950 -0.1331294626 0.5511189699 4281815833
-0.2747277915 -0.1325442940 0.5512319207 4281815833
-0.2747838795 -0.1319587678 0.5513444543 4281881626
-0.2748397291 -0.1313728690 0.5514565110 4281815833
-0.2748953402 -0.1307866275 0.5515681505 4282079002
-0.2749507427 -0.1302000284 0.5516793132 4281947416
-0.2750059068 -0.1296130866 0.5517899990 4281882134
-0.2750608623 -0.1290257722 0.5519002080 4281947927
-0.2751155794 -0.1284381151 0.5520099998 4281882134
-0.2756068408 -0.1280530542 0.5529957414 4281750548
-0.2756612003 -0.1274637580 0.5531047583 4281816341
-0.2757153213 -0.1268741339 0.5532133579 4281947927
-0.2762062252 -0.1264842749 0.5541983843 4281948440
-0.2762599587 -0.1258930117 0.5543062091 4281816854
-0.2763134837 -0.1253014058 0.5544135571 4282014231
-0.2763667703 -0.1247094572 0.5545204878 4281948438
-0.2768571973 -0.1243135482 0.5555045009 4281816852
-0.2769100666 -0.1237199828 0.5556106567 4281948438
-0.2774002850 -0.1233205795 0.5565941930 4281883415
-0.2774527967 -0.1227253973 0.5566995740 4281686036
-0.2779427767 -0.1223224998 0.5576826930 4282277403
-0.2779949009 -0.1217257008 0.5577872992 4282145817
-0.2780468166 -0.1211285666 0.5578914285 4281949720
-0.2785364091 -0.1207209080 0.5588738322 4281949720
-0.2790259421 -0.1203110367 0.5598560572 4281818905
-0.2786391675 -0.1195230931 0.5590800047 4281950491
-0.2791284025 -0.1191106737 0.5600615740 4282016533
-0.2796175182 -0.1186960414 0.5610430241 4281950740
-0.2796682417 -0.1180940941 0.5611447692 4282146842
-0.2801571488 -0.1176759824 0.5621257424 4282410014
-0.2802074552 -0.1170724407 0.5622266531 4282868778
-0.2806960940 -0.1166508347 0.5632071495 4282671399
-0.2811846733 -0.1162270233 0.5641874075 4283394613
-0.2816731334 -0.1158009917 0.5651675463 4283394613
-0.2821615338 -0.1153727472 0.5661475062 4283853391
-0.2826498449 -0.1149422899 0.5671272874 4285037665
-0.2835770249 -0.1146871522 0.5689876080 4286284173
-0.2853823602 -0.1147810817 0.5726100206 4287600033
-0.2854315639 -0.1141645461 0.5727087259 4288784562
-0.2863589227 -0.1138970777 0.5745694041 4289376699
-0.2872863412 -0.1136254892 0.5764302015 4292140001
-0.3085574508 -0.1760851890 0.6204928160 4286086505
-0.3081989586 -0.1751919985 0.6197718382 4285823333
-0.3078400195 -0.1743001640 0.6190500855 4285954649
-0.3074806333 -0.1734096706 0.6183273792 4285428305
-0.3062569201 -0.1720352471 0.6158665419 4284705091
-0.3046002984 -0.1704241037 0.6125351191 4284310333
-0.3007818460 -0.1676156372 0.6048564315 4281878555
-0.2943677902 -0.1633835882 0.5919581056 4281746969
-0.2870858014 -0.1587004066 0.5773144364 4282209823
-0.2823949456 -0.1554763615 0.5678813457 4282209823
-0.2798644602 -0.1534578651 0.5627926588 4282077983
-0.2786305249 -0.1521587223 0.5603113174 4282077983
-0.2778285444 -0.1511000097 0.5586985946 4282077983
-0.2774588168 -0.1502790004 0.5579550266 4282077983
-0.2770886719 -0.1494594067 0.5572106838 4282077983
-0.2775841951 -0.1491064876 0.5582072139 4282077983
-0.2767802775 -0.1480562389 0.5565905571 4282077983
-0.2764089704 -0.1472400576 0.5558438897 4282012190
-0.2760372758 -0.1464253068 0.5550964475 4281946651
-0.2765320539 -0.1460698843 0.5560913682 4281880858
-0.2761597037 -0.1452561915 0.5553426147 4281815065
-0.2757869661 -0.1444439441 0.5545930862 4281749272
-0.2758475542 -0.1438593417 0.5547149181 4281749272
-0.2754741013 -0.1430490911 0.5539638996 4281683479
-0.2755341232 -0.1424646378 0.5540845990 4281683479
-0.2751599550 -0.1416563690 0.5533321500 4281683479
-0.2752194405 -0.1410720795 0.5534518361 4281486614
-0.2752787471 -0.1404874176 0.5535710454 4281486614
-0.2749035060 -0.1396816969 0.5528165102 4281552407
-0.2745278776 -0.1388774663 0.5520611405 4281618200
-0.2745863199 -0.1382935196 0.5521786213 4281618454
-0.2746445537 -0.1377092004 0.5522956848 4281618454
-0.2747025490 -0.1371245086 0.5524123311 4281618454
-0.2743255496 -0.1363233924 0.5516542792 4281618454
-0.2743830085 -0.1357388943 0.5517697930 4281618454
-0.2744402587 -0.1351540238 0.5518848896 4281684247
-0.2744972706 -0.1345687956 0.5519995689 4281815833
-0.2745540440 -0.1339831948 0.5521137118 4281881626
-0.2746106088 -0.1333972365 0.5522274971 4281947418
-0.2746669650 -0.1328109056 0.5523407459 4281947418
-0.2747230530 -0.1322242320 0.5524536371 4281947418
-0.2747789621 -0.1316371858 0.5525659919 4282013211
-0.2748346031 -0.1310497820 0.5526779294 4281882138
-0.2748900354 -0.1304620355 0.5527893901 4281816345
-0.2749452591 -0.1298739165 0.5529004335 4281816343
-0.2750002444 -0.1292854548 0.5530110002 4281816343
-0.2750549912 -0.1286966354 0.5531210899 4281816343
-0.2751094997 -0.1281074733 0.5532307029 4281947929
-0.2751637995 -0.1275179535 0.5533398986 4282013722
-0.2756540179 -0.1271292418 0.5543256998 4282013722
-0.2757079601 -0.1265380979 0.5544341803 4282079515
-0.2761979699 -0.1261458844 0.5554195642 4282079515
-0.2762515247 -0.1255531013 0.5555272698 4282145819
-0.2763048410 -0.1249599829 0.5556344390 4282211612
-0.2763579190 -0.1243665218 0.5557411909 4282277405
-0.2764107585 -0.1237727180 0.5558474660 4282408991
-0.2769001126 -0.1233731657 0.5568315387 4282408991
-0.2769525945 -0.1227777451 0.5569370389 4282474784
-0.2774417400 -0.1223747060 0.5579206944 4282408478
-0.2774938047 -0.1217776686 0.5580254197 4282145306
-0.2775456607 -0.1211802959 0.5581296682 4282014231
-0.2775972486 -0.1205825955 0.5582334399 4282145817
-0.2780858576 -0.1201735064 0.5592160225 4282080798
-0.2785744071 -0.1197622046 0.5601984859 4282015005
-0.2786254585 -0.1191616207 0.5603011250 4281949720
-0.2791137695 -0.1187468320 0.5612830520 4282015513
-0.2796019912 -0.1183298230 0.5622648597 4282212384
-0.2796524763 -0.1177263632 0.5623664260 4282607142
-0.2797027528 -0.1171225831 0.5624675155 4283000364
-0.2801905572 -0.1167008206 0.5634484887 4282671399
-0.2806783020 -0.1162768379 0.5644292831 4283196466
-0.2811659276 -0.1158506423 0.5654098988 4283985982
-0.2816534936 -0.1154222339 0.5663903356 4284050008
-0.2825790644 -0.1151701733 0.5682516098 4285300075
-0.2835046947 -0.1149139926 0.5701130033 4287007898
-0.2839921415 -0.1144770384 0.5710932016 4288323758
-0.2853561342 -0.1143893003 0.5738361478 4289113272
-0.2862819433 -0.1141207814 0.5756978989 4289113272
-0.2876462936 -0.1140219569 0.5784415603 4291679452
-0.3067039847 -0.1754192710 0.6181461811 4286020460
-0.3067767620 -0.1747739315 0.6182928681 4285954667
-0.3064183295 -0.1738835722 0.6175704598 4287270254
-0.3060594797 -0.1729945540 0.6168472171 4286480738
-0.3048378229 -0.1716214269 0.6143850684 4284836677
-0.3031840622 -0.1700114459 0.6110519767 4283981368
-0.2998037934 -0.1674445868 0.6042391658 4281944348
-0.2938328385 -0.1634517461 0.5922050476 4281615383
-0.2869957089 -0.1590057462 0.5784251690 4282012444
-0.2823135257 -0.1557794660 0.5689884424 4282144030
-0.2793560028 -0.1535219550 0.5630277395 4282209569
-0.2781243920 -0.1522223055 0.5605454445 4282275362
-0.2773239017 -0.1511631757 0.5589321256 4282275362
-0.2769548893 -0.1503418535 0.5581884384 4282209569
-0.2765854597 -0.1495219469 0.5574438572 4282275362
-0.2762156427 -0.1487034857 0.5566985011 4282209569
-0.2762777507 -0.1481182575 0.5568236709 4282143776
-0.2767721117 -0.1477635056 0.5578200221 4282209569
-0.2759687603 -0.1467166394 0.5562009215 4282078237
-0.2760301232 -0.1461311579 0.5563246012 4282078237
-0.2756585181 -0.1453171372 0.5555756688 4281946651
-0.2757193446 -0.1447317898 0.5556982756 4281880858
-0.2753470242 -0.1439197659 0.5549478531 4281880858
-0.2749742866 -0.1431091875 0.5541965961 4281815065
-0.2750342786 -0.1425245106 0.5543175340 4281618200
-0.2746608257 -0.1417159438 0.5535648465 4281683993
-0.2747202814 -0.1411314309 0.5536846519 4281552661
-0.2747794986 -0.1405465454 0.5538040400 4281552661
-0.2744050026 -0.1397405118 0.5530492663 4281750040
-0.2744637132 -0.1391557902 0.5531675220 4281815833
-0.2740885019 -0.1383517981 0.5524113178 4281815833
-0.2741466463 -0.1377672553 0.5525285602 4281815833
-0.2742045820 -0.1371823400 0.5526453257 4281815833
-0.2738283575 -0.1363809258 0.5518870354 4281750040
-0.2738857567 -0.1357961893 0.5520027280 4281684247
-0.2739429176 -0.1352110952 0.5521179438 4281684247
-0.2739998698 -0.1346256435 0.5522327423 4281750039
-0.2740566134 -0.1340398192 0.5523470640 4281815832
-0.2741131186 -0.1334536374 0.5524609685 4281947418
-0.2741694152 -0.1328670830 0.5525743961 4282013211
-0.2742254734 -0.1322801858 0.5526874065 4281947418
-0.2742812932 -0.1316929162 0.5527999401 4282013211
-0.2743369043 -0.1311052889 0.5529119968 4282013724
-0.2743922770 -0.1305173039 0.5530235767 4281947931
-0.2744474411 -0.1299289614 0.5531347394 4281947931
-0.2745023668 -0.1293402761 0.5532454848 4281882138
-0.2745570540 -0.1287512332 0.5533556938 4281882138
-0.2746115327 -0.1281618327 0.5534654856 4282079517
-0.2751010656 -0.1277742535 0.5544521213 4282079517
-0.2747198045 -0.1269819885 0.5536836982 4281816345
-0.2752090394 -0.1265918463 0.5546697378 4281750552
-0.2756982148 -0.1261994988 0.5556556582 4281816345
-0.2757517099 -0.1256064922 0.5557634234 4282013722
-0.2758049667 -0.1250131279 0.5558707714 4282145308
-0.2758579850 -0.1244194433 0.5559776425 4282277407
-0.2759107947 -0.1238254011 0.5560840964 4282277407
-0.2763993144 -0.1234257072 0.5570687056 4282211614
-0.2764517367 -0.1228300482 0.5571743250 4282408993
-0.2769400477 -0.1224268526 0.5581584573 4282539555
-0.2769920528 -0.1218295842 0.5582633018 4282210590
-0.2770438492 -0.1212319806 0.5583677292 4282013974
-0.2775317729 -0.1208240092 0.5593510866 4282211353
-0.2775831819 -0.1202247962 0.5594546795 4282342689
-0.2780708969 -0.1198133379 0.5604376197 4282276896
-0.2781218886 -0.1192125157 0.5605404377 4282145821
-0.2786093652 -0.1187975630 0.5615229011 4282211614
-0.2790967524 -0.1183803976 0.5625051856 4282211361
-0.2791471779 -0.1177766994 0.5626068711 4282671912
-0.2791973948 -0.1171726808 0.5627080798 4283000106
-0.2796843648 -0.1167507544 0.5636895299 4282868520
-0.2801712751 -0.1163266078 0.5646708608 4283195953
-0.2806580663 -0.1159002483 0.5656520128 4284380227
-0.2815820277 -0.1156512573 0.5675141811 4284509540
-0.2825060487 -0.1153981537 0.5693764687 4285891193
-0.2829927504 -0.1149632484 0.5703573823 4287533474
-0.2834793329 -0.1145261303 0.5713381171 4288915127
-0.2844033837 -0.1142625734 0.5732004642 4289441469
-0.2853274941 -0.1139949113 0.5750629306 4289178297
-0.2862516344 -0.1137231216 0.5769255161 4291679454
-0.3052845299 -0.1749991477 0.6166657805 4285757035
-0.3053570390 -0.1743553877 0.6168121696 4285691242
-0.3049991131 -0.1734665036 0.6160892248 4285888603
-0.3046407700 -0.1725789756 0.6153653264 4285691224
-0.3038515747 -0.1714499593 0.6137712598 4285231435
-0.3022007942 -0.1698402613 0.6104366779 4284705091
-0.2992572188 -0.1675142944 0.6044907570 4282668071
-0.2937278748 -0.1637599468 0.5933216810 4281944348
-0.2873341739 -0.1595504135 0.5804065466 4281617686
-0.2822298706 -0.1560827047 0.5700960159 4281749272
-0.2797088921 -0.1540607512 0.5650037527 4282011931
-0.2780486941 -0.1525222957 0.5616501570 4282143517
-0.2772498131 -0.1514618397 0.5600364804 4282340896
-0.2768816352 -0.1506392807 0.5592927337 4282406689
-0.2765130401 -0.1498181671 0.5585481524 4282407202
-0.2765755057 -0.1492312700 0.5586743355 4282407202
-0.2762061656 -0.1484120935 0.5579283237 4282275616
-0.2758364379 -0.1475943625 0.5571814775 4282275616
-0.2754662931 -0.1467780620 0.5564337373 4282341409
-0.2759594321 -0.1464214921 0.5574299097 4282275616
-0.2755886614 -0.1456062496 0.5566809773 4282144030
-0.2752174735 -0.1447924525 0.5559312105 4282012444
-0.2748458683 -0.1439801157 0.5551805496 4281815579
-0.2749061286 -0.1433946937 0.5553022623 4281749786
-0.2745338082 -0.1425843388 0.5545501709 4281749786
-0.2745935023 -0.1419990659 0.5546707511 4281815579
-0.2742204666 -0.1411907226 0.5539172292 4281750040
-0.2742796242 -0.1406056136 0.5540367961 4281750040
-0.2739058733 -0.1397992671 0.5532817841 4281881626
-0.2739645243 -0.1392143369 0.5534002185 4282013212
-0.2735900283 -0.1384100169 0.5526437759 4282013212
-0.2736481428 -0.1378252506 0.5527611375 4281947419
-0.2737060189 -0.1372401118 0.5528780818 4281881626
-0.2733305097 -0.1364383847 0.5521195531 4281881626
-0.2733878493 -0.1358534396 0.5522353649 4281750040
-0.2734449804 -0.1352681220 0.5523507595 4281684247
-0.2735018730 -0.1346824318 0.5524657369 4281684246
-0.2735585570 -0.1340963989 0.5525801778 4281815832
-0.2736150026 -0.1335099787 0.5526942611 4281947418
-0.2736712396 -0.1329232156 0.5528078079 4281947418
-0.2741610408 -0.1325457990 0.5537971854 4281947418
-0.2742168903 -0.1319573820 0.5539100766 4281947418
-0.2738385499 -0.1311607361 0.5531458259 4281881626
-0.2738938928 -0.1305725276 0.5532575846 4281947419
-0.2739489973 -0.1299839616 0.5533688664 4282079004
-0.2744381130 -0.1296001077 0.5543568730 4282079004
-0.2744928300 -0.1290099025 0.5544674397 4282079517
-0.2745473385 -0.1284193397 0.5545775294 4282211103
-0.2746016085 -0.1278284341 0.5546871424 4282211103
-0.2746556699 -0.1272371709 0.5547963381 4282079517
-0.2747094631 -0.1266455650 0.5549050570 4282079517
-0.2751978040 -0.1262530535 0.5558914542 4282079517
-0.2752512693 -0.1256598234 0.5559993982 4282145310
-0.2753044665 -0.1250662357 0.5561069250 4282211103
-0.2757924497 -0.1246689484 0.5570926070 4282276896
-0.2758452892 -0.1240737438 0.5571992993 4282276896
-0.2758978605 -0.1234781891 0.5573055744 4282211103
-0.2759502530 -0.1228823066 0.5574113727 4282342689
-0.2764376998 -0.1224789545 0.5583959818 4282407969
-0.2764896750 -0.1218814552 0.5585010052 4282276383
-0.2769769132 -0.1214746088 0.5594851971 4282210839
-0.2770285010 -0.1208754927 0.5595894456 4282276632
-0.2775155306 -0.1204651520 0.5605731606 4282407967
-0.2775667310 -0.1198644191 0.5606765747 4282407967
-0.2780534923 -0.1194505915 0.5616598725 4282342434
-0.2781043053 -0.1188482568 0.5617625117 4282408227
-0.2785908282 -0.1184309274 0.5627452731 4282276641
-0.2790772915 -0.1180113852 0.5637279153 4282671399
-0.2791275382 -0.1174061745 0.5638294220 4282934311
-0.2791775465 -0.1168006361 0.5639303923 4283065897
-0.2796635926 -0.1163763329 0.5649122000 4283524918
-0.2801495790 -0.1159498096 0.5658938885 4283985469
-0.2810719013 -0.1157007292 0.5677569509 4285232754
-0.2819942832 -0.1154475361 0.5696201324 4287009165
-0.2824801207 -0.1150124595 0.5706015229 4287862441
-0.2834025621 -0.1147519797 0.5724648237 4289507266
-0.2838883102 -0.1143115163 0.5734459758 4289704643
-0.2848107815 -0.1140437573 0.5753093362 4289902022
-0.2857332826 -0.1137718707 0.5771728158 4292468715
-0.3038675189 -0.1745785475 0.6151835918 4286414969
-0.3039397299 -0.1739363521 0.6153298020 4285757039
-0.3031529486 -0.1728041917 0.6137369275 4284309319
-0.3036539853 -0.1724067628 0.6147512794 4284177733
-0.3024366200 -0.1710352749 0.6122867465 4285363023
-0.3007887006 -0.1694267541 0.6089504957 4285297230
-0.2982801795 -0.1673428118 0.6038719416 4282931500
-0.2936207056 -0.1640682667 0.5944387913 4282273570
-0.2872388363 -0.1598561257 0.5815185905 4281880858
-0.2825741172 -0.1566244662 0.5720748305 4281749272
-0.2796278000 -0.1543624103 0.5661100149 4281814552
-0.2784010768 -0.1530589908 0.5636264682 4281880345
-0.2771735191 -0.1517606378 0.5611413121 4282077724
-0.2763756812 -0.1507021189 0.5595260262 4282340896
-0.2764383852 -0.1501145065 0.5596529841 4282472482
-0.2760702074 -0.1492935717 0.5589075685 4282538275
-0.2761323750 -0.1487060785 0.5590334535 4282472482
-0.2757634521 -0.1478871107 0.5582866073 4282406689
-0.2753941417 -0.1470695734 0.5575388670 4282407202
-0.2754554749 -0.1464827359 0.5576630831 4282275616
-0.2750854194 -0.1456671804 0.5569139123 4282144030
-0.2751462162 -0.1450804621 0.5570369959 4282012444
-0.2747754455 -0.1442668885 0.5562863350 4281880858
-0.2744042873 -0.1434547603 0.5555348992 4281815065
-0.2740326822 -0.1426441073 0.5547826290 4281880858
-0.2740923464 -0.1420586109 0.5549033880 4281946651
-0.2741517723 -0.1414727420 0.5550236702 4282144030
-0.2737791240 -0.1406646222 0.5542693138 4282078237
-0.2738380432 -0.1400789171 0.5543885231 4282144028
-0.2734646797 -0.1392728090 0.5536326766 4282209821
-0.2730909288 -0.1384681761 0.5528760552 4282209821
-0.2731489837 -0.1378831863 0.5529935360 4282144028
-0.2732068002 -0.1372978389 0.5531105995 4282012442
-0.2732644081 -0.1367121041 0.5532272458 4282012442
-0.2728893161 -0.1359106153 0.5524678230 4282078235
-0.2729463875 -0.1353250891 0.5525833964 4281946649
-0.2730032206 -0.1347391754 0.5526984334 4281880855
-0.2730598450 -0.1341529042 0.5528131127 4282012441
-0.2731162608 -0.1335662752 0.5529272556 4282078234
-0.2736053467 -0.1331900209 0.5539174676 4282144027
-0.2736613750 -0.1326017380 0.5540308952 4282144027
-0.2737171948 -0.1320130825 0.5541439056 4282078234
-0.2737727761 -0.1314240694 0.5542564392 4281881625
-0.2738281488 -0.1308346987 0.5543684959 4282013211
-0.2738832831 -0.1302449852 0.5544801354 4282144797
-0.2739381790 -0.1296548992 0.5545912981 4282210590
-0.2739928663 -0.1290644705 0.5547019839 4282144797
-0.2740473151 -0.1284736842 0.5548121929 4282079004
-0.2741015255 -0.1278825402 0.5549219847 4282144797
-0.2741555274 -0.1272910535 0.5550312996 4282342176
-0.2746431530 -0.1268996894 0.5560185313 4282736934
-0.2746967971 -0.1263065636 0.5561270714 4282539555
-0.2747501731 -0.1257130951 0.5562351942 4282473762
-0.2748033404 -0.1251192838 0.5563427806 4282342176
-0.2748562694 -0.1245251298 0.5564499497 4282210590
-0.2753432393 -0.1241264120 0.5574358702 4282276383
-0.2753957808 -0.1235306263 0.5575422049 4282211103
-0.2758825719 -0.1231284067 0.5585277081 4282211103
-0.2759347260 -0.1225310043 0.5586333275 4282210588
-0.2759866416 -0.1219332665 0.5587384701 4282342174
-0.2764730453 -0.1215262711 0.5597231388 4282408218
-0.2765246034 -0.1209269166 0.5598275065 4282276632
-0.2770107687 -0.1205164194 0.5608117580 4282276381
-0.2774968445 -0.1201037094 0.5617958903 4282473760
-0.2775478363 -0.1195014641 0.5618990660 4282539813
-0.2780337036 -0.1190852523 0.5628827214 4282474020
-0.2780843079 -0.1184814051 0.5629851222 4282671401
-0.2785699069 -0.1180617064 0.5639683008 4282802987
-0.2786201239 -0.1174562573 0.5640699267 4283263278
-0.2791054845 -0.1170330569 0.5650525689 4283526450
-0.2795907855 -0.1166076437 0.5660350323 4283853885
-0.2805115581 -0.1163606867 0.5678991675 4282735404
-0.2809967399 -0.1159298867 0.5688814521 4285824639
-0.2814818621 -0.1154968664 0.5698635578 4288127394
-0.2824026644 -0.1152394563 0.5717277527 4288323506
-0.2828876674 -0.1148010492 0.5727096200 4290034124
-0.2838084996 -0.1145363525 0.5745738745 4290231757
-0.2847294211 -0.1142675430 0.5764382482 4291218652
-0.3025248945 -0.1735168546 0.6138457060 4285362796
-0.3021680117 -0.1726309210 0.6131215692 4286678127
-0.3018106818 -0.1717463583 0.6123965383 4286151783
-0.3010241091 -0.1706201136 0.6108005047 4285889626
-0.2993790805 -0.1690127850 0.6074626446 4284113215
-0.2968750000 -0.1669298410 0.6023816466 4282470949
-0.2926530540 -0.1638960987 0.5938150287 4283063086
-0.2871412635 -0.1601619571 0.5826311707 4282276130
-0.2820559442 -0.1566895843 0.5723127127 4281749786
-0.2791150808 -0.1544266194 0.5663454533 4282077724
-0.2783201635 -0.1533593386 0.5647324920 4282011931
-0.2770950198 -0.1520595700 0.5622466207 4282011931
-0.2767284811 -0.1512345523 0.5615028739 4282143517
-0.2759317160 -0.1501770467 0.5598861575 4282275103
-0.2759941518 -0.1495888233 0.5600128770 4282472482
-0.2760563791 -0.1490001827 0.5601391196 4282538275
-0.2756882906 -0.1481799781 0.5593922138 4282472482
-0.2748895884 -0.1471309662 0.5577716231 4282407202
-0.2749508619 -0.1465439051 0.5578959584 4282275616
-0.2745815516 -0.1457280368 0.5571465492 4282209821
-0.2746422887 -0.1451411098 0.5572698116 4282078235
-0.2742722631 -0.1443272233 0.5565189719 4281946649
-0.2739017904 -0.1435147822 0.5557672977 4281946649
-0.2735309601 -0.1427038014 0.5550147891 4282012442
-0.2735905349 -0.1421180964 0.5551357269 4282012442
-0.2736499012 -0.1415320039 0.5552561879 4282209823
-0.2732779980 -0.1407235712 0.5545015931 4282275616
-0.2729057074 -0.1399165988 0.5537461638 4282209821
-0.2729642391 -0.1393312216 0.5538648963 4282209821
-0.2725912035 -0.1385262758 0.5531080365 4282209821
-0.2726491988 -0.1379410774 0.5532256961 4282144028
-0.2727069855 -0.1373555064 0.5533428788 4282078235
-0.2727645040 -0.1367695481 0.5534596443 4282078235
-0.2728218436 -0.1361832321 0.5535759926 4282078235
-0.2728789449 -0.1355965436 0.5536918640 4281946649
-0.2729358077 -0.1350094825 0.5538072586 4281946648
-0.2729924619 -0.1344220638 0.5539222360 4282012441
-0.2730489075 -0.1338342726 0.5540367365 4282144027
-0.2731051147 -0.1332461238 0.5541507602 4282209820
-0.2735933065 -0.1328675151 0.5551413298 4282144027
-0.2736491561 -0.1322776973 0.5552546978 4281946648
-0.2737047672 -0.1316875368 0.5553675294 4282012441
-0.2737601697 -0.1310970038 0.5554799438 4282275613
-0.2738153338 -0.1305061281 0.5555918813 4282472992
-0.2738702595 -0.1299148798 0.5557033420 4282538785
-0.2739249766 -0.1293232888 0.5558143258 4282210590
-0.2739794552 -0.1287313402 0.5559248924 4281947418
-0.2740337253 -0.1281390339 0.5560349822 4282013209
-0.2740877569 -0.1275463849 0.5561445951 4282342174
-0.2741415501 -0.1269533783 0.5562537909 4282736932
-0.2746282816 -0.1265596449 0.5572413802 4282671139
-0.2746816874 -0.1259650141 0.5573498011 4282605346
-0.2747348845 -0.1253700256 0.5574576855 4282144795
-0.2747878432 -0.1247747019 0.5575651526 4281881623
-0.2748405635 -0.1241790280 0.5576721430 4282013209
-0.2748930752 -0.1235830113 0.5577786565 4282079002
-0.2753790021 -0.1231806427 0.5587646365 4282013209
-0.2758648694 -0.1227760538 0.5597504973 4282210590
-0.2759168148 -0.1221771389 0.5598559380 4282539555
-0.2759685516 -0.1215778813 0.5599609017 4282606110
-0.2760200202 -0.1209782958 0.5600653291 4282408731
-0.2765053511 -0.1205676422 0.5610501170 4282276896
-0.2769906223 -0.1201547757 0.5620347261 4282474275
-0.2774757743 -0.1197396815 0.5630191565 4282540328
-0.2775265574 -0.1191359237 0.5631222129 4282474535
-0.2780115008 -0.1187173352 0.5641061664 4282803248
-0.2780618966 -0.1181119755 0.5642084479 4283000627
-0.2785465717 -0.1176898852 0.5651919246 4283526199
-0.2790311873 -0.1172655821 0.5661752224 4283723578
-0.2795157135 -0.1168390512 0.5671583414 4283393083
-0.2800001502 -0.1164103076 0.5681413412 4281616672
-0.2809193730 -0.1161591485 0.5700064898 4286153862
-0.2814036906 -0.1157250106 0.5709891915 4288719789
-0.2818879485 -0.1152886525 0.5719717741 4288784311
-0.2823720872 -0.1148500666 0.5729541779 4290429136
-0.2832913101 -0.1145852804 0.5748193264 4291021271
-0.2842105925 -0.1143163666 0.5766845942 4292731889
-0.3006848097 -0.1728509814 0.6114901304 4285033833
