VERSION 0.7
FIELDS x y z rgba
SIZE 4 4 4 4
TYPE F F F U
COUNT 1 1 1 1
WIDTH 920
HEIGHT 1
VIEWPOINT 0.0 0.0 0.0 1.0 0.0 0.0 0.0
POINTS 920
DATA ascii
-0.3063212037 -0.1343599856 0.5666380525 4285236825
-0.3063809276 -0.1337564886 0.5667485595 4285499997
-0.3064404130 -0.1331526339 0.5668585896 4286223469
-0.3069654703 -0.1327498704 0.5678297877 4285762918
-0.3070245385 -0.1321443915 0.5679391026 4286157428
-0.3066173792 -0.1313389689 0.5671859384 4288131218
-0.3066758811 -0.1307337135 0.5672941208 4287143559
-0.3067341149 -0.1301281154 0.5674018264 4288064661
-0.3067921102 -0.1295221746 0.5675091147 4289117096
-0.3068498373 -0.1289158911 0.5676159263 4289051303
-0.3069073558 -0.1283092797 0.5677223206 4288787617
-0.3069646060 -0.1277023107 0.5678281784 4289248168
-0.3070215881 -0.1270949990 0.5679336190 4289708716
-0.3070783317 -0.1264873594 0.5680385828 4289313958
-0.3071348369 -0.1258793920 0.5681430697 4288656282
-0.3076579273 -0.1254614592 0.5691107512 4287603594
-0.3077139854 -0.1248518825 0.5692144632 4286749817
-0.3082368374 -0.1244305149 0.5701816082 4286947196
-0.3082925081 -0.1238193512 0.5702846050 4287473279
-0.3083479106 -0.1232078597 0.5703870654 4287736451
-0.3088703156 -0.1227817908 0.5713534355 4287143797
-0.3089253008 -0.1221687198 0.5714551210 4285827937
-0.3094474375 -0.1217392087 0.5724210143 4285695840
-0.3095020056 -0.1211245582 0.5725219250 4286551149
-0.3095562756 -0.1205095798 0.5726223588 4286944632
-0.3096103072 -0.1198942736 0.5727223158 4284905049
-0.3101318479 -0.1194588318 0.5736870170 4286878080
-0.3106532991 -0.1190212071 0.5746515989 4291088832
-0.3111746311 -0.1185813993 0.5756160021 4293325031
-0.3776146770 -0.1869699657 0.6999559999 4292798185
-0.3767721951 -0.1857768595 0.6983943582 4289312429
-0.3759290278 -0.1845868826 0.6968314052 4284641126
-0.3750851750 -0.1834000498 0.6952672601 4282800192
-0.3742406368 -0.1822163612 0.6937017441 4282273848
-0.3715446293 -0.1801384836 0.6887043715 4282669873
-0.3647595048 -0.1753463596 0.6761273146 4282210339
-0.3152967393 -0.1509193629 0.5844419003 4282539304
-0.3089449108 -0.1466064602 0.5726679564 4282407967
-0.3072204590 -0.1445226967 0.5694714785 4282407969
-0.3068207800 -0.1437027752 0.5687306523 4282276633
-0.3064206541 -0.1428842992 0.5679889917 4282276633
-0.3060201108 -0.1420672685 0.5672464967 4282277145
-0.3060828745 -0.1414660364 0.5673628449 4282145559
-0.3061454296 -0.1408644319 0.5674787760 4282145306
-0.3057437837 -0.1400499344 0.5667343140 4282408478
-0.3058057427 -0.1394485086 0.5668491721 4282672163
-0.3058674634 -0.1388467252 0.5669635534 4282606370
-0.3054647148 -0.1380347908 0.5662170053 4283132712
-0.3055258691 -0.1374331862 0.5663303733 4283001126
-0.3055867553 -0.1368312240 0.5664432645 4283066923
-0.3056474328 -0.1362289041 0.5665556788 4283330095
-0.3057078421 -0.1356262118 0.5666676760 4284250946
-0.3053033054 -0.1348179728 0.5659178495 4285303634
-0.3053631485 -0.1342155039 0.5660287738 4285105493
-0.3054227531 -0.1336126775 0.5661392212 4285302872
-0.3054820895 -0.1330094934 0.5662491918 4285171034
-0.3060062528 -0.1326074898 0.5672208071 4284184139
-0.3060651720 -0.1320026815 0.5673300624 4285104992
-0.3061238825 -0.1313975453 0.5674388409 4287868298
-0.3057170212 -0.1305932701 0.5666846633 4285893746
-0.3057751060 -0.1299883425 0.5667923689 4286617469
-0.3058329821 -0.1293830723 0.5668996572 4288788384
-0.3058905900 -0.1287774742 0.5670064688 4289248935
-0.3059479594 -0.1281715184 0.5671128035 4290235830
-0.3060050905 -0.1275652200 0.5672186613 4291091139
-0.3060619533 -0.1269585937 0.5673240423 4290564277
-0.3061185777 -0.1263516247 0.5674290061 4289577382
-0.3061749339 -0.1257443279 0.5675334930 4289380002
-0.3066971600 -0.1253271550 0.5685014725 4288985244
-0.3067530990 -0.1247182488 0.5686051846 4287539842
-0.3072750866 -0.1242976338 0.5695727468 4286355568
-0.3073306084 -0.1236871481 0.5696756840 4286355310
-0.3073858917 -0.1230763271 0.5697781444 4287210619
-0.3074409068 -0.1224651858 0.5698801279 4287078518
-0.3079622984 -0.1220386177 0.5708465576 4286223209
-0.3080168664 -0.1214258894 0.5709477663 4285762144
-0.3085379899 -0.1209958792 0.5719137192 4285367386
-0.3090590239 -0.1205636933 0.5728794932 4286681712
-0.3086460829 -0.1197669432 0.5721140504 4285563231
-0.3091667295 -0.1193322539 0.5730791688 4284443990
-0.3092202246 -0.1187160537 0.5731782913 4287207296
-0.3102077842 -0.1184563264 0.5750088692 4291417286
-0.3097936511 -0.1176601574 0.5742412210 4293391076
-0.3746138513 -0.1866399199 0.6958261132 4292469219
-0.3742342591 -0.1856784672 0.6951210499 4288719018
-0.3729310632 -0.1842622459 0.6927003860 4283720277
-0.3725502789 -0.1833052486 0.6919931173 4282272831
-0.3703220189 -0.1814446300 0.6878542304 4283063615
-0.3583936691 -0.1748605222 0.6656979322 4282997822
-0.3681713939 -0.1788712591 0.6838595867 4282735662
-0.3654777408 -0.1768083274 0.6788562536 4282406697
-0.3567747772 -0.1718617678 0.6626909375 4282342177
-0.3087772727 -0.1481036842 0.5735380650 4282210591
-0.3106918335 -0.1483808011 0.5770941973 4281947416
-0.3075201213 -0.1462313980 0.5712029338 4282210588
-0.3075845242 -0.1456272453 0.5713225603 4282210588
-0.3067234457 -0.1445865631 0.5697231293 4282342174
-0.3063244522 -0.1437662989 0.5689820647 4282276632
-0.3054622114 -0.1427312344 0.5673804879 4282145046
-0.3055252135 -0.1421301216 0.5674974918 4282145557
-0.3055879474 -0.1415286511 0.5676140189 4282145557
-0.3051873147 -0.1407132745 0.5668699145 4282277146
-0.3047862947 -0.1398993731 0.5661249757 4282540318
-0.3048481047 -0.1392986178 0.5662398338 4282869283
-0.3049097061 -0.1386974901 0.5663542151 4282474525
-0.3049710393 -0.1380960047 0.5664681196 4282935588
-0.3050321341 -0.1374941617 0.5665816069 4282869795
-0.3050929904 -0.1368919611 0.5666946769 4283330091
-0.3051536083 -0.1362893879 0.5668072701 4283724849
-0.3047501445 -0.1354802549 0.5660578012 4284053565
-0.3048101664 -0.1348778903 0.5661693215 4283987772
-0.3048699498 -0.1342751682 0.5662804246 4284974419
-0.3049294949 -0.1336721033 0.5663909912 4285369177
-0.3049888015 -0.1330686659 0.5665011406 4285632096
-0.3050478697 -0.1324648857 0.5666108727 4285105752
-0.3055710793 -0.1320614666 0.5675826669 4284183888
-0.3051652312 -0.1312562823 0.5668288469 4286749815
-0.3052235544 -0.1306514591 0.5669372082 4286289015
-0.3052816391 -0.1300462931 0.5670450330 4284775776
-0.3053394556 -0.1294407696 0.5671524405 4287670414
-0.3053970337 -0.1288349181 0.5672593713 4289973169
-0.3054543436 -0.1282287240 0.5673658848 4289578154
-0.3055114150 -0.1276221722 0.5674718618 4289578154
-0.3055682480 -0.1270152926 0.5675774217 4289907116
-0.3056248426 -0.1264080703 0.5676825047 4289446565
-0.3056811690 -0.1258005202 0.5677871704 4290038956
-0.3057372272 -0.1251926273 0.5678912997 4290302128
-0.3062584996 -0.1247740313 0.5688595176 4289250459
-0.3063141704 -0.1241645515 0.5689629316 4287145083
-0.3068351746 -0.1237425134 0.5699306726 4286157929
-0.3068903983 -0.1231314391 0.5700332522 4286881652
-0.3069453835 -0.1225200370 0.5701354146 4286947186
-0.3070001006 -0.1219083071 0.5702370405 4285631326
-0.3075205386 -0.1214803159 0.5712037086 4285104214
-0.3075748384 -0.1208670065 0.5713045597 4285367386
-0.3080949783 -0.1204355732 0.5722706914 4287209079
-0.3081488609 -0.1198206842 0.5723707676 4287077493
-0.3086687326 -0.1193858162 0.5733364224 4285891687
-0.3087221682 -0.1187693551 0.5734356642 4284181069
-0.3087753356 -0.1181525812 0.5735344291 4286417269
-0.3092947602 -0.1177130267 0.5744992495 4291614916
-0.3721627295 -0.1858020425 0.6927023530 4288653988
-0.3717834055 -0.1848438084 0.6919962764 4283390548
-0.3709428012 -0.1836587489 0.6904316545 4282207034
-0.3705624044 -0.1827040762 0.6897236705 4283128136
-0.3669545352 -0.1801663637 0.6830083728 4282800441
-0.3674946725 -0.1796715707 0.6840137243 4282800441
-0.3643451631 -0.1773782670 0.6781515479 4282406950
-0.3109128177 -0.1507222205 0.5786985755 4282406950
-0.3165157437 -0.1527838111 0.5891272426 4282144795
-0.3115064800 -0.1497216076 0.5798035264 4281750037
-0.3088027835 -0.1477835029 0.5747711658 4281816084
-0.3074827194 -0.1465158761 0.5723141432 4282079256
-0.3061618209 -0.1452533156 0.5698555708 4281947416
-0.3057639003 -0.1444322020 0.5691149235 4282144795
-0.3053655028 -0.1436125189 0.5683734417 4282145300
-0.3045046329 -0.1425779313 0.5667710900 4281947921
-0.3045674860 -0.1419774890 0.5668880343 4282013712
-0.3046300709 -0.1413766891 0.5670045614 4282211091
-0.3042300642 -0.1405618936 0.5662600398 4282342938
-0.3042920828 -0.1399612725 0.5663754940 4282540317
-0.3038913310 -0.1391484737 0.5656295419 4282606110
-0.3044154048 -0.1387589127 0.5666049719 4282408731
-0.3040139675 -0.1379472166 0.5658578277 4282804254
-0.3045377731 -0.1375550926 0.5668327212 4282672668
-0.3041356504 -0.1367445141 0.5660843253 4283396139
-0.3041961491 -0.1361426264 0.5661968589 4284317241
-0.3042563796 -0.1355403662 0.5663089752 4284316990
-0.3043163717 -0.1349377632 0.5664206743 4283527474
-0.3039128184 -0.1341303289 0.5656695366 4284316487
-0.3039722443 -0.1335279346 0.5657801628 4285106003
-0.3044948876 -0.1331278086 0.5667529106 4285961059
-0.3045538962 -0.1325237900 0.5668627620 4286224231
-0.3041490018 -0.1317186207 0.5661091805 4284908122
-0.3042074442 -0.1311148107 0.5662178993 4285302880
-0.3042656183 -0.1305106580 0.5663262010 4285565291
-0.3043235838 -0.1299061626 0.5664340854 4285960049
-0.3043812513 -0.1293013245 0.5665414333 4285302120
-0.3044387102 -0.1286961436 0.5666483641 4288197012
-0.3044959009 -0.1280906200 0.5667548180 4289380773
-0.3045528531 -0.1274847537 0.5668608546 4289380773
-0.3046095669 -0.1268785447 0.5669663548 4289249440
-0.3051304221 -0.1264644861 0.5679358840 4288986268
-0.3051867187 -0.1258566827 0.5680406094 4289709989
-0.3052427471 -0.1252485365 0.5681449175 4290236333
-0.3057632148 -0.1248297766 0.5691136718 4289777055
-0.3058188558 -0.1242200434 0.5692172050 4288000644
-0.3063390553 -0.1237978339 0.5701854825 4286816368
-0.3063942492 -0.1231865063 0.5702881813 4286684782
-0.3064492047 -0.1225748509 0.5703904629 4286421353
-0.3069689870 -0.1221479401 0.5713579655 4285368665
-0.3070234954 -0.1215347052 0.5714594126 4285038417
-0.3075430393 -0.1211043522 0.5724264383 4285301589
-0.3075971305 -0.1204895303 0.5725271106 4286354020
-0.3076509535 -0.1198743880 0.5726273060 4287275122
-0.3081700504 -0.1194393411 0.5735934377 4286352998
-0.3082234561 -0.1188226268 0.5736928582 4285234517
-0.3082765937 -0.1182055846 0.5737917423 4284049483
-0.3083294630 -0.1175882295 0.5738902092 4286746996
-0.3097795844 -0.1175006330 0.5765892863 4291680968
-0.3102981150 -0.1170556024 0.5775544047 4293325793
-0.3700953424 -0.1859196126 0.6902813315 4290298561
-0.3692569435 -0.1847332269 0.6887176037 4284378207
-0.3688777983 -0.1837791204 0.6880104542 4282338624
-0.3684982061 -0.1828263402 0.6873024106 4282799422
-0.3671977818 -0.1814202219 0.6848769784 4282338871
-0.3626747727 -0.1784339845 0.6764408946 4282735413
-0.3627529740 -0.1777207106 0.6765867472 4282603827
-0.3154050112 -0.1538702846 0.5882759690 4282275362
-0.3122487068 -0.1516833901 0.5823889375 4282209569
-0.3086301088 -0.1492859870 0.5756397843 4281947670
-0.3054704666 -0.1471246183 0.5697465539 4281816084
-0.3073784113 -0.1474065632 0.5733051896 4281816595
-0.3051384985 -0.1457000524 0.5691273808 4281553423
-0.3042804599 -0.1446597874 0.5675270557 4282013463
-0.3043440580 -0.1440593302 0.5676456690 4282013463
-0.3039461970 -0.1432411373 0.5669035912 4281947921
-0.3035478890 -0.1424243897 0.5661607385 4281947921
-0.3036105931 -0.1418246180 0.5662776828 4282079503
-0.3036730587 -0.1412244886 0.5663941503 4282145296
-0.3037352562 -0.1406239867 0.5665102005 4282145557
-0.3033355474 -0.1398103237 0.5657646656 4282277143
-0.3038589656 -0.1394218802 0.5667409301 4282277143
-0.3034585714 -0.1386093199 0.5659941435 4282342936
-0.3035197258 -0.1380082667 0.5661081672 4282935838
-0.3035806417 -0.1374068409 0.5662218332 4282870045
-0.3036413193 -0.1368050724 0.5663349628 4283330598
-0.3037017584 -0.1362029314 0.5664476752 4284251700
-0.3037619591 -0.1356004477 0.5665599704 4284580160
-0.3038218915 -0.1349975914 0.5666717887 4284119609
-0.3034190834 -0.1341898292 0.5659204721 4284777290
-0.3034784496 -0.1335871816 0.5660311580 4284579911
-0.3035375774 -0.1329841763 0.5661414862 4285434968
-0.3035964370 -0.1323808283 0.5662512779 4285698140
-0.3036550879 -0.1317771375 0.5663606524 4284974168
-0.3037134707 -0.1311730891 0.5664695501 4285039961
-0.3037716150 -0.1305686831 0.5665779710 4285104992
-0.3033663630 -0.1297658235 0.5658221245 4285104992
-0.3034239113 -0.1291616559 0.5659294724 4286814845
-0.3034812510 -0.1285571456 0.5660364032 4285959536
-0.3035382926 -0.1279523075 0.5661428571 4287341443
-0.3035951257 -0.1273471117 0.5662488341 4288065166
-0.3041152954 -0.1269350797 0.5672189593 4287275132
-0.3041716814 -0.1263282895 0.5673242211 4287867269
-0.3046916127 -0.1259128004 0.5682939291 4288985748
-0.3047476113 -0.1253044158 0.5683983564 4288919955
-0.3048033416 -0.1246956810 0.5685023069 4287408505
-0.3048588336 -0.1240866259 0.5686058402 4286290024
-0.3053781986 -0.1236651763 0.5695744753 4286487658
-0.3058974445 -0.1232415363 0.5705429912 4286619244
-0.3059523404 -0.1226296276 0.5706453919 4285763422
-0.3064713478 -0.1222025454 0.5716133714 4285631836
-0.3065258265 -0.1215890497 0.5717149973 4285631323
-0.3065800369 -0.1209752336 0.5718160868 4284841807
-0.3076170683 -0.1201094836 0.5737503171 4286420064
-0.3076706827 -0.1194928288 0.5738503337 4287735156
-0.3081888855 -0.1190554276 0.5748168230 4286748261
-0.3082420826 -0.1184372008 0.5749160647 4284247624
-0.3092249930 -0.1181740612 0.5767493248 4284181831
-0.3097428977 -0.1177300960 0.5777152777 4287273087
-0.3107258677 -0.1174597889 0.5795486569 4292470734
-0.3680321276 -0.1860311925 0.6878581047 4292075737
-0.3676543534 -0.1850767583 0.6871520281 4286351746
-0.3672760725 -0.1841236502 0.6864449978 4282535999
-0.3664381504 -0.1829426289 0.6848788857 4282733378
-0.3660587966 -0.1819930822 0.6841698885 4282405687
-0.3643008173 -0.1803625524 0.6808841825 4282339894
-0.3611632586 -0.1780591756 0.6750200391 4282275115
-0.3129837811 -0.1536559761 0.5849717855 4282209322
-0.3204061389 -0.1566345543 0.5988443494 4282012958
-0.3085201681 -0.1501832753 0.5766292214 4282012958
-0.3045116663 -0.1469672918 0.5691372752 4281618703
-0.3059563935 -0.1470292062 0.5718374848 4281553422
-0.3041801751 -0.1455439627 0.5685176849 4281553422
-0.3042440414 -0.1449427307 0.5686371326 4281881877
-0.3038473129 -0.1441227645 0.5678955913 4281750291
-0.3034501672 -0.1433042288 0.5671533346 4281750542
-0.3030525744 -0.1424871534 0.5664102435 4282079507
-0.3031152189 -0.1418871433 0.5665273070 4282408468
-0.3031776249 -0.1412867755 0.5666439533 4282342675
-0.3027789593 -0.1404722333 0.5658988357 4282145811
-0.3028407693 -0.1398720443 0.5660143495 4282211604
-0.3029023707 -0.1392714679 0.5661295056 4282277397
-0.3029637337 -0.1386705488 0.5662441850 4282211604
-0.3025636077 -0.1378591061 0.5654963255 4282803738
-0.3026244044 -0.1372583658 0.5656099319 4283001117
-0.3031463325 -0.1368655860 0.5665854812 4283001631
-0.3032067418 -0.1362632066 0.5666983724 4283396389
-0.3028052747 -0.1354539841 0.5659480095 4283593263
-0.3028650880 -0.1348517984 0.5660598278 4283659056
-0.3029246628 -0.1342492700 0.5661711693 4284843080
-0.3025221229 -0.1334426552 0.5654187799 4285040459
-0.3025811017 -0.1328403354 0.5655290484 4285632599
-0.3031018972 -0.1324395388 0.5665024519 4285829978
-0.3031604886 -0.1318355948 0.5666119456 4284776785
-0.3027566075 -0.1310312599 0.5658570528 4283987269
-0.3028146327 -0.1304275393 0.5659655333 4284907609
-0.3028723896 -0.1298234761 0.5660734773 4284512851
-0.3029299080 -0.1292190552 0.5661810040 4286486130
-0.3029871881 -0.1286143064 0.5662879944 4285828200
-0.3030442297 -0.1280092001 0.5663946271 4285367903
-0.3031010032 -0.1274037659 0.5665007234 4285170524
-0.3031575382 -0.1267979890 0.5666064024 4285103960
-0.3032138050 -0.1261918694 0.5667115450 4286354027
-0.3037328422 -0.1257771552 0.5676816702 4287867520
-0.3037887216 -0.1251694262 0.5677860975 4287670141
-0.3038443327 -0.1245613843 0.5678900480 4286355817
-0.3043629527 -0.1241419539 0.5688593388 4286026852
-0.3044181466 -0.1235323101 0.5689625144 4286290279
-0.3049365282 -0.1231094301 0.5699313879 4286158693
-0.3049913049 -0.1224981993 0.5700337887 4285631836
-0.3050458431 -0.1218866333 0.5701356530 4285039699
-0.3055637777 -0.1214590520 0.5711037517 4284907854
-0.3060816526 -0.1210292876 0.5720716119 4285434198
-0.3065994084 -0.1205973327 0.5730393529 4285104715
-0.3061892390 -0.1198001578 0.5722727180 4285828438
-0.3067066669 -0.1193656996 0.5732398033 4286880613
-0.3067598939 -0.1187493950 0.5733392835 4286617441
-0.3077412248 -0.1184902117 0.5751733780 4285234515
-0.3077940941 -0.1178714037 0.5752722025 4284313413
-0.3083110452 -0.1174291298 0.5762383938 4284839256
-0.3088279068 -0.1169846728 0.5772044063 4288655250
-0.3098091185 -0.1167130098 0.5790383220 4292995817
-0.3659730852 -0.1861367822 0.6854325533 4292469992
-0.3660542071 -0.1854163110 0.6855844855 4288193437
-0.3656768203 -0.1844642013 0.6848776937 4283258962
-0.3648405969 -0.1832831651 0.6833115220 4282996801
-0.3640036881 -0.1821052581 0.6817440987 4282996801
-0.3631661236 -0.1809305102 0.6801753640 4282340395
-0.3577414155 -0.1774834841 0.6700154543 4282471981
-0.3088666797 -0.1513074338 0.5784776807 4282078486
-0.3066376746 -0.1495774090 0.5743030310 4282012693
-0.3067031503 -0.1489711106 0.5744256377 4282012695
-0.3053906560 -0.1476981193 0.5719674826 4281946902
-0.3045367002 -0.1466513872 0.5703681111 4281750040
-0.3046009839 -0.1460484862 0.5704884529 4281881626
-0.3032864332 -0.1447870731 0.5680264235 4281881360
-0.3028903008 -0.1439676881 0.5672845244 4281881360
-0.3024937510 -0.1431497335 0.5665418506 4282012944
-0.3025566041 -0.1425498724 0.5666595697 4282210323
-0.3021592796 -0.1417338997 0.5659154058 4282408470
-0.3022215664 -0.1411342025 0.5660320520 4282474263
-0.3022835851 -0.1405341327 0.5661482215 4282408468
-0.3023453653 -0.1399337053 0.5662639141 4282408468
-0.3019466400 -0.1391208321 0.5655171275 4282211602
-0.3020078540 -0.1385205686 0.5656318069 4282277395
-0.3020688295 -0.1379199624 0.5657459497 4283001117
-0.3016690016 -0.1371096522 0.5649971366 4283001117
-0.3021900356 -0.1367176324 0.5659730434 4282606875
-0.3022502959 -0.1361159384 0.5660858750 4282935840
-0.3018494546 -0.1353072971 0.5653351545 4283132967
-0.3019091487 -0.1347057968 0.5654469132 4283001381
-0.3019685745 -0.1341039389 0.5655582547 4283855673
-0.3020277619 -0.1335017234 0.5656690598 4283921466
-0.3016255200 -0.1326962560 0.5649157166 4283921729
-0.3021454215 -0.1322962344 0.5658894181 4285632347
-0.3022038639 -0.1316929758 0.5659989119 4285237338
-0.3022620976 -0.1310893446 0.5661079288 4284974166
-0.3018584847 -0.1302861720 0.5653520823 4285236827
-0.3019161224 -0.1296827793 0.5654600263 4284513104
-0.3019735217 -0.1290790439 0.5655674934 4285565794
-0.3020306528 -0.1284749657 0.5656745434 4286618482
-0.3020875752 -0.1278705448 0.5657810569 4287078780
-0.3021441996 -0.1272657812 0.5658871531 4285960299
-0.3026627004 -0.1268543452 0.5668582320 4286026090
-0.3022567630 -0.1260552406 0.5660979748 4286881399
-0.3027749360 -0.1256412864 0.5670684576 4286420588
-0.3032929897 -0.1252251416 0.5680387616 4285696865
-0.3033485711 -0.1246168315 0.5681428313 4285894755
-0.3038664162 -0.1241972372 0.5691127181 4285302618
-0.3039215803 -0.1235873401 0.5692160130 4285433944
-0.3044391572 -0.1231642962 0.5701853633 4285762909
-0.3044938743 -0.1225528121 0.5702878833 4285433426
-0.3045483828 -0.1219409928 0.5703899264 4284907082
-0.3050655127 -0.1215132400 0.5713585019 4284973129
-0.3051195741 -0.1208998412 0.5714597702 4285104715
-0.3056364655 -0.1204686463 0.5724278688 4285038922
-0.3056901097 -0.1198536679 0.5725283027 4285367887
-0.3062067330 -0.1194190234 0.5734958649 4285959770
-0.3062599301 -0.1188024655 0.5735955238 4285104461
-0.3072396815 -0.1185431853 0.5754305124 4285103950
-0.3072925210 -0.1179241166 0.5755295157 4284117055
-0.3078086972 -0.1174816638 0.5764961839 4284248127
-0.3078610897 -0.1168610305 0.5765943527 4285235022
-0.3088406920 -0.1165902019 0.5784290433 4289903793
-0.3093565404 -0.1161411852 0.5793951750 4293325029
-0.3635419905 -0.1852857172 0.6822986603 4289443765
-0.3631652594 -0.1843364239 0.6815915704 4283982936
-0.3623305559 -0.1831571907 0.6800249815 4282732869
-0.3614951670 -0.1819810867 0.6784571409 4282997052
-0.3602014184 -0.1805786788 0.6760290265 4282733880
-0.3456309140 -0.1725533605 0.6486830115 4282274854
-0.3571534157 -0.1775611043 0.6703085303 4282143268
-0.3526510298 -0.1745873392 0.6618583798 4282209820
-0.3073765934 -0.1515323222 0.5768869519 4282144027
-0.3092755377 -0.1518235505 0.5804508924 4282012691
-0.3056755960 -0.1494189203 0.5736945271 4281946898
-0.3075744510 -0.1497057378 0.5772582889 4281946900
-0.3044305742 -0.1475406885 0.5713578463 4281946900
-0.3031193912 -0.1462731510 0.5688970089 4281750037
-0.3027247488 -0.1454514414 0.5681563020 4281750037
-0.3023296595 -0.1446311772 0.5674148202 4281881105
-0.3019341528 -0.1438123584 0.5666725636 4281881105
-0.3019971848 -0.1432126313 0.5667908192 4281816335
-0.3016009033 -0.1423957944 0.5660471320 4282013714
-0.3016633689 -0.1417962313 0.5661643147 4282276884
-0.3012663424 -0.1409813911 0.5654191971 4282408470
-0.3013282120 -0.1403820068 0.5655353069 4282474263
-0.3013898730 -0.1397822499 0.5656509995 4282474263
-0.3014512658 -0.1391821206 0.5657662749 4282408981
-0.3015124500 -0.1385816187 0.5658810735 4282343188
-0.3011136651 -0.1377704293 0.5651326180 4283066911
-0.3011742532 -0.1371701211 0.5652463436 4283132704
-0.3012346029 -0.1365694553 0.5653595924 4282540828
-0.3012947142 -0.1359684318 0.5654724240 4282869793
-0.3013545871 -0.1353670508 0.5655847788 4283330091
-0.3014142215 -0.1347652972 0.5656967163 4283132712
-0.3014736176 -0.1341632009 0.5658081770 4283790133
-0.3010723889 -0.1333568394 0.5650551915 4282737445
-0.3011312187 -0.1327549517 0.5651655793 4283198004
-0.3016503155 -0.1323547810 0.5661398172 4284579657
-0.3017087281 -0.1317512691 0.5662494302 4284513102
-0.3013061881 -0.1309471726 0.5654939413 4284907860
-0.3013640344 -0.1303438842 0.5656024814 4285565794
-0.3014216125 -0.1297402531 0.5657106042 4284842071
-0.3014789522 -0.1291362643 0.5658182502 4284841816
-0.3015360534 -0.1285319477 0.5659253597 4286157676
-0.3015929163 -0.1279272735 0.5660321116 4286618229
-0.3021107614 -0.1275169402 0.5670039654 4286355057
-0.3017058671 -0.1267169118 0.5662441254 4286750068
-0.3022233844 -0.1263040602 0.5672153831 4286881654
-0.3022793531 -0.1256971061 0.5673204064 4285631324
-0.3023350537 -0.1250898242 0.5674249530 4284907601
-0.3028521538 -0.1246722415 0.5683954358 4285368664
-0.3033691943 -0.1242524832 0.5693658590 4284710734
-0.3034242988 -0.1236423329 0.5694692731 4284842059
-0.3039411008 -0.1232191175 0.5704391599 4285631575
-0.3039957881 -0.1226073802 0.5705418587 4285631827
-0.3040502369 -0.1219953150 0.5706440210 4285171276
-0.3045665920 -0.1215673909 0.5716131330 4285236298
-0.3050828576 -0.1211372763 0.5725820661 4285302091
-0.3046743870 -0.1203397587 0.5718154311 4284775747
-0.3051902950 -0.1199071258 0.5727837086 4284973126
-0.3052436411 -0.1192915663 0.5728837848 4285170505
-0.3057592809 -0.1188554987 0.5738515854 4284512575
-0.3058121800 -0.1182383671 0.5739508867 4284577856
-0.3067902923 -0.1179767996 0.5757865906 4284183098
-0.3073056638 -0.1175341606 0.5767537951 4284248377
-0.3087466955 -0.1174414903 0.5794583559 4284708928
-0.3078731000 -0.1164671928 0.5778188109 4287140741
-0.3079250157 -0.1158447340 0.5779162645 4291680458
-0.3614920974 -0.1853812039 0.6798685789 4290825670
-0.3615726531 -0.1846669614 0.6800200939 4285233265
-0.3607396781 -0.1834877282 0.6784535050 4282602047
-0.3599060178 -0.1823116243 0.6768856049 4282931012
-0.3591505587 -0.1804279536 0.6754647493 4282470960
-0.3569439650 -0.1785735339 0.6713147759 4282472230
-0.3533646762 -0.1760444939 0.6645831466 4282143265
-0.3164055347 -0.1569704562 0.5950729847 4282210074
-0.3096139729 -0.1529541612 0.5822999477 4282078488
-0.3083084226 -0.1516649425 0.5798445344 4282012691
-0.3042568564 -0.1490360796 0.5722246170 4281946898
-0.3034066856 -0.1479856372 0.5706256628 4281750291
-0.3030135930 -0.1471607238 0.5698863864 4281750291
-0.3026200831 -0.1463372409 0.5691462755 4281815830
-0.3017682135 -0.1452947259 0.5675441623 4281750037
-0.3018317521 -0.1446946114 0.5676636696 4281816082
-0.3014369607 -0.1438754648 0.5669211745 4281750289
-0.3010417223 -0.1430577487 0.5661778450 4281816335
-0.3011043668 -0.1424583346 0.5662956834 4281947921
-0.3002499938 -0.1414266974 0.5646888018 4282145298
-0.3007704616 -0.1410433501 0.5656676888 4282342677
-0.3008323014 -0.1404437274 0.5657839775 4282474263
-0.3008939028 -0.1398437321 0.5658997893 4282342677
-0.3004964888 -0.1390310973 0.5651524067 4282277397
-0.3005575240 -0.1384312809 0.5652671456 4282540569
-0.3001593351 -0.1376206726 0.5645183325 4282671901
-0.3006788492 -0.1372305602 0.5654953718 4282671901
-0.3007391691 -0.1366296560 0.5656087995 4282803489
-0.3007992208 -0.1360283792 0.5657217503 4282935075
-0.3003997207 -0.1352199912 0.5649703741 4283066662
-0.3004592359 -0.1346189231 0.5650823116 4283264041
-0.3005184829 -0.1340175122 0.5651937127 4283790131
-0.3005774915 -0.1334157288 0.5653046966 4283395373
-0.3006362617 -0.1328135878 0.5654152632 4283789882
-0.3006947637 -0.1322111040 0.5655252934 4283724089
-0.3007530570 -0.1316082776 0.5656349063 4283657793
-0.3008110821 -0.1310050935 0.5657440424 4284907860
-0.3008688986 -0.1304015517 0.5658527613 4286223469
-0.3009264469 -0.1297976673 0.5659610033 4286157676
-0.3009837270 -0.1291934401 0.5660687685 4286486643
-0.3010407984 -0.1285888702 0.5661760569 4287144573
-0.3010976017 -0.1279839575 0.5662829280 4287276157
-0.3011541665 -0.1273787022 0.5663893223 4287012985
-0.3012104928 -0.1267731041 0.5664952397 4286289513
-0.3012665510 -0.1261671782 0.5666006804 4285960548
-0.3017831147 -0.1257528961 0.5675721765 4285499991
-0.3018387556 -0.1251453459 0.5676768422 4285171026
-0.3018941879 -0.1245374754 0.5677810311 4285236817
-0.3019493222 -0.1239292696 0.5678848028 4284776266
-0.3024653196 -0.1235090122 0.5688552260 4285039436
-0.3025200665 -0.1228992119 0.5689581633 4285960538
-0.3030357957 -0.1224754974 0.5699281096 4286223963
-0.3035514355 -0.1220495924 0.5708979368 4285960791
-0.3036055863 -0.1214369386 0.5709997416 4285894480
-0.3041209579 -0.1210075915 0.5719690323 4285697101
-0.3046362698 -0.1205760464 0.5729382038 4285696842
-0.3051514626 -0.1201423109 0.5739071369 4285302084
-0.3052048385 -0.1195255667 0.5740075111 4285302084
-0.3057197928 -0.1190883815 0.5749759674 4285236291
-0.3057727218 -0.1184700578 0.5750755668 4284709693
-0.3062873781 -0.1180294305 0.5760434866 4283985970
-0.3068019450 -0.1175866202 0.5770112276 4284117558
-0.3077785373 -0.1173177734 0.5788479447 4284972867
-0.3069063425 -0.1163439974 0.5772075653 4285035875
-0.3088072836 -0.1164193302 0.5807827711 4289312420
-0.3599019945 -0.1857057363 0.6782948971 4291482588
-0.3599825501 -0.1849935055 0.6784467101 4286483329
-0.3596070707 -0.1840475202 0.6777390838 4282733128
-0.3592311144 -0.1831028759 0.6770305037 4283128387
-0.3583987057 -0.1819281131 0.6754617095 4282733629
-0.3575656116 -0.1807564795 0.6738916039 4282537006
-0.3562756777 -0.1793583483 0.6714605093 4282471213
-0.3527034819 -0.1768214405 0.6647281051 4282143517
-0.3117063642 -0.1556155831 0.5874622464 4282275103
-0.3054495752 -0.1512127370 0.5756703019 4282078488
-0.3032972515 -0.1488770097 0.5716138482 4282012693
-0.3042759001 -0.1487202495 0.5734583139 4281816084
-0.3025129139 -0.1472250968 0.5701357126 4281750291
-0.3016630411 -0.1461798102 0.5685339570 4281815830
-0.3012697101 -0.1453583539 0.5677926540 4281881623
-0.3013332188 -0.1447579861 0.5679123402 4281816082
-0.3009391129 -0.1439385116 0.5671696067 4281881875
-0.3005445898 -0.1431204677 0.5664260387 4281882128
-0.3006072044 -0.1425208002 0.5665440559 4281947921
-0.3002119064 -0.1417047530 0.5657990575 4282079505
-0.3002739549 -0.1411052644 0.5659159422 4282211091
-0.2998779118 -0.1402912140 0.5651695728 4282276882
-0.2999393642 -0.1396918893 0.5652853847 4282211089
-0.3000005782 -0.1390922070 0.5654007792 4282211091
-0.2996034622 -0.1382807046 0.5646523237 4282605849
-0.2996641099 -0.1376812011 0.5647665858 4282277143
-0.2997245193 -0.1370813400 0.5648804307 4282342936
-0.2997846901 -0.1364811063 0.5649938583 4282935075
-0.2998445928 -0.1358805150 0.5651068091 4283000868
-0.2994457185 -0.1350727081 0.5643550754 4282803490
-0.2995050848 -0.1344723254 0.5644668937 4283132455
-0.2995642126 -0.1338715851 0.5645783544 4284053305
-0.2996230721 -0.1332704872 0.5646892786 4285040200
-0.2996816933 -0.1326690316 0.5647997856 4283592503
-0.2997401059 -0.1320672184 0.5649098158 4283658296
-0.2997982502 -0.1314650625 0.5650194287 4285039700
-0.2998561561 -0.1308625638 0.5651285648 4286158181
-0.2999137938 -0.1302597076 0.5652372241 4286157931
-0.2999712229 -0.1296565086 0.5653454065 4286289517
-0.3000283837 -0.1290529519 0.5654531717 4287144571
-0.3000853062 -0.1284490675 0.5655604601 4287539329
-0.3001419902 -0.1278448254 0.5656672716 4287473789
-0.3006581664 -0.1274351031 0.5666400790 4287276410
-0.3007144332 -0.1268292665 0.5667461157 4286026594
-0.3007704616 -0.1262230724 0.5668517351 4285500250
-0.3008262217 -0.1256165504 0.5669568181 4285303123
-0.3008817732 -0.1250097007 0.5670614839 4285237330
-0.3009370565 -0.1244025007 0.5671656728 4284973645
-0.3014523089 -0.1239842623 0.5681368113 4284842059
-0.3015071750 -0.1233754754 0.5682401657 4285105229
-0.3020221889 -0.1229537874 0.5692108274 4285631573
-0.3020766377 -0.1223433986 0.5693134665 4285763413
-0.3025914133 -0.1219182611 0.5702835917 4285763413
-0.3031060696 -0.1214909256 0.5712535977 4285762894
-0.3031599224 -0.1208776981 0.5713551044 4285236550
-0.3036743402 -0.1204469129 0.5723245740 4285236290
-0.3037277758 -0.1198320985 0.5724253058 4284644153
-0.3042419255 -0.1193978637 0.5733942986 4284774969
-0.3052170277 -0.1191414148 0.5752320290 4285235520
-0.3052699268 -0.1185228303 0.5753317475 4284380982
-0.3053225875 -0.1179039255 0.5754309297 4283788845
-0.3058362603 -0.1174618751 0.5763990879 4284314935
-0.3058884740 -0.1168413907 0.5764974952 4285433416
-0.3068633080 -0.1165711880 0.5783347487 4284773206
-0.3069151640 -0.1159482077 0.5784324408 4286746996
-0.3078899682 -0.1156717464 0.5802696347 4291680466
-0.3583143950 -0.1860262454 0.6767193079 4292601065
-0.3579401374 -0.1850808561 0.6760125160 4288258727
-0.3580203354 -0.1843710542 0.6761639714 4283720275
-0.3576452434 -0.1834274232 0.6754555702 4282601794
-0.3568145633 -0.1822526455 0.6738867164 4282799676
-0.3564384282 -0.1813125759 0.6731763482 4282602297
-0.3551511765 -0.1799125224 0.6707451940 4281814051
-0.3534076214 -0.1782876849 0.6674522758 4282274602
-0.3484743237 -0.1750677079 0.6581351757 4281946136
-0.3180237710 -0.1591025144 0.6006257534 4281814550
-0.3080671132 -0.1534748971 0.5818213820 4281946900
-0.3058547676 -0.1517309397 0.5776430964 4282012693
-0.3040971458 -0.1502208859 0.5743235946 4281881877
-0.3023384809 -0.1487177014 0.5710021853 4281816084
-0.3028593659 -0.1483384073 0.5719859600 4281815830
-0.3015553951 -0.1470669359 0.5695232153 4281815830
-0.3007068932 -0.1460221261 0.5679206848 4281881623
-0.3007705510 -0.1454219222 0.5680409670 4281947416
-0.3003775179 -0.1446015686 0.5672986507 4281881875
-0.2999840379 -0.1437826604 0.5665555000 4281947668
-0.3000468016 -0.1431831419 0.5666740537 4281947921
-0.3001093566 -0.1425832361 0.5667921901 4281882128
-0.2997147739 -0.1417668611 0.5660470128 4281947919
-0.2993197739 -0.1409519315 0.5653010011 4282079505
-0.2993814349 -0.1403527409 0.5654174089 4282145296
-0.2994428277 -0.1397531778 0.5655333996 4282211089
-0.2990467548 -0.1389408112 0.5647853613 4282342677
-0.2995649576 -0.1385529637 0.5657640100 4282342677
-0.2991681993 -0.1377416849 0.5650147200 4282342425
-0.2992285490 -0.1371415854 0.5651286840 4282539804
-0.2992886901 -0.1365411133 0.5652422309 4282671904
-0.2988908589 -0.1357324123 0.5644909143 4282869283
-0.2989504039 -0.1351321489 0.5646033883 4283132455
-0.2990097106 -0.1345315129 0.5647153854 4283264041
-0.2990687788 -0.1339305341 0.5648269653 4283855675
-0.2991276085 -0.1333291978 0.5649380684 4286290016
-0.2991861999 -0.1327274889 0.5650486946 4283789884
-0.2987862825 -0.1319231093 0.5642933846 4284645193
-0.2988442779 -0.1313216388 0.5644029975 4286026595
-0.2989020646 -0.1307198107 0.5645120740 4286552939
-0.2989595830 -0.1301176250 0.5646207333 4286157929
-0.2994754910 -0.1297137588 0.5655950904 4287210617
-0.2995326221 -0.1291099638 0.5657029748 4288197512
-0.2995894849 -0.1285058260 0.5658103824 4288592270
-0.2996461391 -0.1279013455 0.5659173727 4287671166
-0.2997025251 -0.1272965223 0.5660238266 4287013236
-0.2997586727 -0.1266913563 0.5661298633 4286421352
-0.3002736866 -0.1262789369 0.5671025515 4285631836
-0.3003294468 -0.1256721616 0.5672078133 4284973904
-0.3003849089 -0.1250650585 0.5673126578 4284973904
-0.3004401624 -0.1244576201 0.5674169660 4285170254
-0.3009546101 -0.1240392178 0.5683885813 4284841289
-0.3010094464 -0.1234301776 0.5684921145 4284907850
-0.3015236557 -0.1230083182 0.5694633126 4285368401
-0.3015780747 -0.1223976836 0.5695660114 4285237068
-0.3020920455 -0.1219723746 0.5705367327 4285171275
-0.3021460176 -0.1213601530 0.5706386566 4285236550
-0.3026597202 -0.1209313869 0.5716088414 4284644413
-0.3027132750 -0.1203175783 0.5717100501 4284446774
-0.3032267094 -0.1198853627 0.5726796985 4284183602
-0.3032798469 -0.1192699671 0.5727800727 4284248625
-0.3042533100 -0.1190143600 0.5746185780 4284643383
-0.3043060899 -0.1183964536 0.5747182369 4284314419
-0.3048190773 -0.1179564074 0.5756870508 4284774970
-0.3053319752 -0.1175141707 0.5766556859 4285170244
-0.3053841293 -0.1168934330 0.5767542720 4285696588
-0.3058967292 -0.1164477542 0.5777223706 4285102931
-0.3064092398 -0.1159998849 0.5786902308 4284576587
-0.3069216311 -0.1155498251 0.5796579719 4289838772
-0.3563559353 -0.1853983700 0.6744352579 4290298564
-0.3564361334 -0.1846905798 0.6745870113 4284706159
-0.3560619056 -0.1837479472 0.6738787889 4283325770
-0.3556872010 -0.1828066409 0.6731696129 4282865219
-0.3548576534 -0.1816340983 0.6715996265 4282668089
-0.3540274501 -0.1804647148 0.6700283885 4282470710
-0.3518328667 -0.1786061972 0.6658749580 4282011428
-0.3496370018 -0.1767562628 0.6617190838 4281945635
-0.3087849319 -0.1554545015 0.5844029188 4282012184
-0.3074878156 -0.1541548967 0.5819480419 4281683219
-0.3057349324 -0.1526332051 0.5786305070 4281881105
-0.3044360578 -0.1513445973 0.5761722922 4281946898
-0.3031363487 -0.1500610411 0.5737124681 4281750289
-0.3018358350 -0.1487825513 0.5712511539 4281750289
-0.3009898663 -0.1477326155 0.5696500540 4281816084
-0.3005987108 -0.1469085217 0.5689097643 4281881877
-0.3002071083 -0.1460858732 0.5681686401 4281881877
-0.2998151183 -0.1452646703 0.5674267411 4281947670
-0.2994226515 -0.1444448978 0.5666840076 4281946898
-0.2994856238 -0.1438455135 0.5668031573 4282078484
-0.2990924418 -0.1430277228 0.5660589933 4282078739
-0.2991548479 -0.1424285024 0.5661770701 4282012946
-0.2992169857 -0.1418289095 0.5662947297 4281947919
-0.2988227010 -0.1410136521 0.5655485392 4281947919
-0.2988843024 -0.1404142231 0.5656651258 4282079503
-0.2989456654 -0.1398144215 0.5657812357 4282276882
-0.2985503078 -0.1390017122 0.5650329590 4282342677
-0.2986110747 -0.1384021044 0.5651479959 4282408470
-0.2986716330 -0.1378021240 0.5652626157 4282277143
-0.2982751727 -0.1369919926 0.5645122528 4282277143
-0.2983351648 -0.1363921911 0.5646257997 4282408731
-0.2983949184 -0.1357920468 0.5647388697 4282606110
-0.2979973555 -0.1349845082 0.5639864802 4283066662
-0.2985136807 -0.1345906705 0.5649636388 4283658799
-0.2981154621 -0.1337842494 0.5642099977 4284053313
-0.2981741726 -0.1331835836 0.5643211007 4286685033
-0.2982326150 -0.1325825751 0.5644317269 4284579400
-0.2982908189 -0.1319812089 0.5645418763 4285303123
-0.2983487844 -0.1313794851 0.5646516085 4285631836
-0.2984065115 -0.1307774186 0.5647608638 4286355559
-0.2984640002 -0.1301749945 0.5648696423 4286486892
-0.2985212505 -0.1295722276 0.5649779439 4287013236
-0.2985782325 -0.1289691180 0.5650858283 4288987026
-0.2990930080 -0.1285625398 0.5660601258 4288987026
-0.2991496027 -0.1279578060 0.5661672354 4288000384
-0.2992059588 -0.1273527443 0.5662738681 4286552938
-0.2992620468 -0.1267473251 0.5663800240 4285828954
-0.2993178964 -0.1261415780 0.5664857626 4285236817
-0.2993735075 -0.1255354881 0.5665909648 4284908365
-0.2998874187 -0.1251203865 0.5675635934 4285039951
-0.3004012406 -0.1247030795 0.5685360432 4284973643
-0.3004562855 -0.1240941212 0.5686401725 4284513092
-0.3009698689 -0.1236733645 0.5696122050 4284776517
-0.3010244668 -0.1230628118 0.5697155595 4285500240
-0.3015378118 -0.1226385906 0.5706870556 4285434445
-0.3015919924 -0.1220264435 0.5707896352 4285171273
-0.3021050692 -0.1215987727 0.5717606544 4284973376
-0.3021588326 -0.1209850311 0.5718624592 4284249653
-0.3026716411 -0.1205539033 0.5728330016 4284183600
-0.3027249873 -0.1199385822 0.5729339719 4284117807
-0.3036969900 -0.1196850687 0.5747735500 4284052014
-0.3032904565 -0.1188870966 0.5740041137 4284380979
-0.3042623401 -0.1186282635 0.5758435130 4284380211
-0.3047746122 -0.1181871071 0.5768129826 4284577590
-0.3048270047 -0.1175664291 0.5769121647 4284906556
-0.3053389788 -0.1171218231 0.5778810978 4285893451
-0.3044710755 -0.1161486730 0.5762385130 4285629778
-0.3063626289 -0.1162260398 0.5798184872 4283919160
-0.3064141870 -0.1156012788 0.5799161196 4288325785
-0.3069256842 -0.1151488423 0.5808840990 4292865502
-0.3547742367 -0.1857118756 0.6728560925 4291680217
-0.3544012308 -0.1847698092 0.6721487045 4286811534
-0.3540277779 -0.1838290840 0.6714404225 4282995540
-0.3536538184 -0.1828896850 0.6707311869 4282931010
-0.3528259099 -0.1817180514 0.6691609621 4282602045
-0.3515437245 -0.1803168952 0.6667292118 4282537273
-0.3488995433 -0.1782253981 0.6617143154 4281879343
-0.3376315534 -0.1717580110 0.6403437257 4282406186
-0.3440606594 -0.1743035614 0.6525369883 4281616670
-0.3119018078 -0.1573544145 0.5915452838 4281749012
-0.3042502403 -0.1528530717 0.5770335793 4281880598
-0.3029539287 -0.1515634209 0.5745750070 4281881360
-0.3021110892 -0.1505051553 0.5729765296 4281881360
-0.3013325334 -0.1488473415 0.5714999437 4281750288
-0.3004880250 -0.1477969736 0.5698982477 4281750802
-0.3000975847 -0.1469725668 0.5691577196 4281816595
-0.2997066975 -0.1461495757 0.5684164166 4281947670
-0.2993153930 -0.1453280300 0.5676742792 4281881877
-0.2989236712 -0.1445079297 0.5669313073 4281946898
-0.2989865839 -0.1439083219 0.5670506358 4282012691
-0.2985940874 -0.1430902034 0.5663062334 4282078484
-0.2986564338 -0.1424907446 0.5664244890 4282012691
-0.2987185717 -0.1418909132 0.5665423274 4282012946
-0.2983249724 -0.1410753131 0.5657958388 4282012946
-0.2983865440 -0.1404756606 0.5659126043 4282079505
-0.2979921997 -0.1396620721 0.5651646852 4282276884
-0.2980531752 -0.1390625834 0.5652803779 4282342677
-0.2976580858 -0.1382510066 0.5645310283 4282408470
-0.2977185249 -0.1376517117 0.5646456480 4282145557
-0.2977786958 -0.1370520443 0.5647597909 4282079764
-0.2978386283 -0.1364520192 0.5648734570 4282540318
-0.2978983223 -0.1358516216 0.5649866462 4282737697
-0.2975014746 -0.1350437552 0.5642340183 4282869283
-0.2975606024 -0.1344435662 0.5643461943 4283658799
-0.2976194918 -0.1338430196 0.5644578338 4284448325
-0.2976781428 -0.1332421154 0.5645691156 4285566806
-0.2972798944 -0.1324374229 0.5638138056 4285171537
-0.2973379791 -0.1318367273 0.5639239550 4285632088
-0.2973958254 -0.1312356889 0.5640336275 4285434457
-0.2974534035 -0.1306343079 0.5641428232 4286816110
-0.2979677618 -0.1302323043 0.5651183724 4287736961
-0.2980249524 -0.1296292990 0.5652268529 4288065926
-0.2980819046 -0.1290259510 0.5653348565 4287210615
-0.2981386185 -0.1284222454 0.5654423833 4286947443
-0.2981950641 -0.1278181970 0.5655494928 4286881901
-0.2987087369 -0.1274089217 0.5665236712 4285697627
-0.2987647951 -0.1268032640 0.5666300058 4284973643
-0.2988205850 -0.1261972636 0.5667358041 4284710471
-0.2988761663 -0.1255909353 0.5668411851 4284842568
-0.2989314795 -0.1249842644 0.5669461489 4284776775
-0.2989865541 -0.1243772507 0.5670505762 4285105483
-0.2994993329 -0.1239594519 0.5680230856 4284908104
-0.2995539606 -0.1233508438 0.5681267381 4285237066
-0.3000665009 -0.1229295805 0.5690987706 4285829203
-0.3005789518 -0.1225061268 0.5700706840 4286157650
-0.3006330132 -0.1218946576 0.5701732039 4286289236
-0.3011451960 -0.1214677468 0.5711445808 4285763147
-0.3011988401 -0.1208546907 0.5712463260 4284578873
-0.3017107844 -0.1204243228 0.5722172856 4284446772
-0.3017640114 -0.1198096797 0.5723181963 4284315186
-0.3027343452 -0.1195570081 0.5741585493 4284117809
-0.3032459915 -0.1191200614 0.5751289129 4284512567
-0.3032986820 -0.1185016483 0.5752288699 4284906555
-0.3038100600 -0.1180612445 0.5761987567 4284182832
-0.3047803640 -0.1177960560 0.5780389309 4283985454
-0.3052915931 -0.1173503324 0.5790085793 4285827658
-0.3044252694 -0.1163758263 0.5773655176 4285893201
-0.3063654304 -0.1158263460 0.5810451508 4286549627
-0.3068761826 -0.1153727919 0.5820138454 4291813067
-0.3528229296 -0.1850803047 0.6705678701 4289903806
-0.3529027700 -0.1843769550 0.6707196236 4284114019
-0.3525297940 -0.1834376603 0.6700107455 4282995538
-0.3521563411 -0.1824997067 0.6693009734 4282799424
-0.3513296843 -0.1813293993 0.6677297950 4282536252
-0.3505023420 -0.1801622510 0.6661574244 4282076722
-0.3487684429 -0.1785345078 0.6628620028 4282208308
-0.3452212811 -0.1759897321 0.6561203003 4281879844
-0.3085925877 -0.1566652060 0.5865045786 4281814051
-0.3027682006 -0.1530689448 0.5754348636 4281880343
-0.3051012158 -0.1536041647 0.5798689723 4281551378
-0.3015401959 -0.1511746049 0.5731009841 4281947153
-0.3016057312 -0.1505705565 0.5732254982 4281881360
-0.3007637262 -0.1495150924 0.5716252327 4281750288
-0.2999211252 -0.1484628767 0.5700237751 4281750288
-0.3004393876 -0.1480849832 0.5710088015 4281684755
-0.2995958030 -0.1470365375 0.5694054961 4281750548
-0.2992056310 -0.1462132335 0.5686639547 4281947416
-0.2988150418 -0.1453913599 0.5679215789 4281881623
-0.2984240055 -0.1445709169 0.5671784282 4282144020
-0.2980325520 -0.1437519342 0.5664344430 4282078227
-0.2980951071 -0.1431526244 0.5665532947 4282012693
-0.2981573939 -0.1425529271 0.5666717291 4281946900
-0.2982194722 -0.1419528574 0.5667896867 4281881105
-0.2978266180 -0.1411369443 0.5660430193 4281946898
-0.2978881001 -0.1405370384 0.5661599040 4282079507
-0.2974945009 -0.1397231221 0.5654118061 4282276886
-0.2971004546 -0.1389106810 0.5646628737 4282605849
-0.2971610427 -0.1383115053 0.5647780299 4282079505
-0.2972214222 -0.1377119571 0.5648927689 4282211350
-0.2972815335 -0.1371120512 0.5650070310 4282474522
-0.2973414361 -0.1365117878 0.5651208758 4282737697
-0.2974010706 -0.1359111667 0.5652342439 4283132455
-0.2970049679 -0.1351029575 0.5644813776 4283132201
-0.2970640361 -0.1345025301 0.5645936728 4283197994
-0.2971228957 -0.1339017451 0.5647054911 4284250944
-0.2967256904 -0.1330961436 0.5639505982 4283658807
-0.2967839539 -0.1324955672 0.5640613437 4285171535
-0.2968419790 -0.1318946481 0.5641716123 4286158430
-0.2968997657 -0.1312933564 0.5642814636 4285500250
-0.2969573140 -0.1306917369 0.5643908381 4285697629
-0.2970146239 -0.1300897598 0.5644997358 4286618482
-0.2975279987 -0.1296863258 0.5654755235 4287539584
-0.2975849211 -0.1290827245 0.5655836463 4286881652
-0.2976415753 -0.1284787804 0.5656913519 4286223722
-0.2976979911 -0.1278744936 0.5657985806 4285960542
-0.2977541685 -0.1272698641 0.5659053326 4284710475
-0.2982668579 -0.1268591583 0.5668797493 4284908103
-0.2983226180 -0.1262529194 0.5669857264 4284776517
-0.2983781397 -0.1256463379 0.5670912266 4284579649
-0.2984334230 -0.1250394136 0.5671963096 4284513856
-0.2984884381 -0.1244321540 0.5673008561 4284842311
-0.2985432148 -0.1238245666 0.5674049854 4285039690
-0.2990550101 -0.1234053299 0.5683777332 4285302345
-0.2995667458 -0.1229839027 0.5693502426 4285368138
-0.2996209264 -0.1223734543 0.5694532990 4285828428
-0.3001323938 -0.1219485626 0.5704253316 4286617944
-0.3001861870 -0.1213365197 0.5705275536 4286288976
-0.3006973863 -0.1209081784 0.5714991689 4284709944
-0.3007507622 -0.1202945411 0.5716005564 4284578360
-0.3017195463 -0.1200449020 0.5734418631 4284578360
-0.3017725646 -0.1194287464 0.5735425949 4283920430
-0.3022833169 -0.1189925596 0.5745133162 4283854637
-0.3023358881 -0.1183748245 0.5746132731 4285103935
-0.3028464019 -0.1179351807 0.5755835176 4284511798
-0.3028985262 -0.1173158661 0.5756825805 4283590183
-0.3034087420 -0.1168727726 0.5766522884 4284971836
-0.3043772578 -0.1166030988 0.5784930587 4285629768
-0.3044288754 -0.1159800142 0.5785911083 4283984943
-0.3049387932 -0.1155303419 0.5795602202 4284904541
-0.3054485917 -0.1150784791 0.5805291533 4290760118
-0.3507956862 -0.1851484776 0.6681253314 4292469730
-0.3504238427 -0.1842106730 0.6674170494 4287403669
-0.3505032063 -0.1835106611 0.6675682068 4282864457
-0.3505823016 -0.1828101873 0.6677188873 4282864457
-0.3497573733 -0.1816398948 0.6661477089 4282537020
-0.3489317596 -0.1804727316 0.6645752192 4282273848
-0.3476533890 -0.1790758669 0.6621404290 4282076972
-0.3463741541 -0.1776839495 0.6597040296 4282274351
-0.3414757550 -0.1744485348 0.6503745317 4282143267
-0.3157651424 -0.1606456488 0.6014061570 4281880095
-0.3063324094 -0.1551984996 0.5834405422 4281880856
-0.3018736839 -0.1523007452 0.5749484897 4281749270
-0.3037503362 -0.1526047587 0.5785226822 4281880855
-0.3010996878 -0.1506359130 0.5734743476 4281880855
-0.3002591729 -0.1495800167 0.5718734264 4281881109
-0.2994180322 -0.1485273689 0.5702713728 4281881109
-0.2999354601 -0.1481493413 0.5712569356 4281946900
-0.2990933657 -0.1471004784 0.5696530342 4281946900
-0.2982506454 -0.1460548639 0.5680480003 4281816082
-0.2983140349 -0.1454546154 0.5681686997 4281881875
-0.2979237139 -0.1446338594 0.5674253106 4281881109
-0.2975329757 -0.1438145489 0.5666811466 4281946902
-0.2975954711 -0.1432149857 0.5668001771 4282012693
-0.2972039580 -0.1423976570 0.5660545230 4281946900
-0.2972658873 -0.1417982727 0.5661724210 4281881107
-0.2968736291 -0.1409829408 0.5654253960 4281881107
-0.2969349921 -0.1403837204 0.5655422211 4281947668
-0.2965419888 -0.1395703852 0.5647937059 4282079254
-0.2966027856 -0.1389713436 0.5649095178 4282277146
-0.2966633439 -0.1383719444 0.5650248528 4282079767
-0.2967236638 -0.1377721578 0.5651397109 4282342425
-0.2967837453 -0.1371720135 0.5652541518 4282408218
-0.2963889837 -0.1363623738 0.5645022988 4282408729
-0.2959938347 -0.1355541945 0.5637496710 4283000866
-0.2965077758 -0.1351621151 0.5647285581 4283264551
-0.2965668142 -0.1345614493 0.5648409724 4282738207
-0.2961706519 -0.1337549537 0.5640864968 4284118334
-0.2962291241 -0.1331544966 0.5641978383 4284710471
-0.2962873578 -0.1325536817 0.5643087029 4284775750
-0.2963453233 -0.1319525093 0.5644191504 4285762645
-0.2964030802 -0.1313509941 0.5645291209 4284578371
-0.2964605689 -0.1307491213 0.5646386743 4284841543
-0.2969733179 -0.1303468049 0.5656151772 4284447299
-0.2970304191 -0.1297433078 0.5657239556 4285105229
-0.2970872819 -0.1291394681 0.5658322573 4285434448
-0.2971438766 -0.1285352856 0.5659400821 4285697620
-0.2972002625 -0.1279307455 0.5660474896 4284973126
-0.2977122962 -0.1275211573 0.5670226812 4284446782
-0.2977682650 -0.1269150078 0.5671293139 4284578368
-0.2978239954 -0.1263085157 0.5672354102 4284446782
-0.2978794873 -0.1257016957 0.5673410892 4284184381
-0.2979347110 -0.1250945181 0.5674462914 4284381760
-0.2979896963 -0.1244870201 0.5675510168 4284775488
-0.2985008359 -0.1240688860 0.5685245395 4284841281
-0.2985554039 -0.1234597787 0.5686284900 4285565004
-0.2990663350 -0.1230381876 0.5696015358 4285038660
-0.2995771468 -0.1226143986 0.5705744624 4286354518
-0.2996311486 -0.1220024303 0.5706772804 4287736171
-0.3001417220 -0.1215751767 0.5716497302 4287407206
