VERSION 0.7
FIELDS x y z rgba
SIZE 4 4 4 4
TYPE F F F U
COUNT 1 1 1 1
WIDTH 920
HEIGHT 1
VIEWPOINT 0.0 0.0 0.0 1.0 0.0 0.0 0.0
POINTS 920
DATA ascii
-0.2629147768 -0.0086952774 0.5834382772 4294963960
-0.2637398839 -0.0080722896 0.5852692723 4294964217
-0.2645647526 -0.0074452260 0.5870997310 4294966269
-0.2670326233 -0.0068562808 0.5925762057 4294768376
-0.2653920352 -0.0061598080 0.5889355540 4293389039
-0.2658053041 -0.0055140313 0.5898526311 4292665316
-0.2682724297 -0.0049037598 0.5953274965 4292664039
-0.2678635120 -0.0042358418 0.5944200754 4292532453
-0.2690976560 -0.0035918716 0.5971587300 4292861660
-0.2699206769 -0.0029373420 0.5989851356 4293322211
-0.2703326046 -0.0022752937 0.5998992324 4293848553
-0.2707442343 -0.0016112124 0.6008127332 4293980139
-0.2707447708 -0.0009436684 0.6008139253 4293256415
-0.2711558640 -0.0002765403 0.6017261744 4291940555
-0.2719775438 0.0003932084 0.6035495400 4291479488
-0.2719772458 0.0010637940 0.6035488844 4291676867
-0.2719766498 0.0017343763 0.6035475731 4291742658
-0.2723866403 0.0024085860 0.6044573784 4291413693
-0.2723854780 0.0030801685 0.6044548154 4291940037
-0.2732057273 0.0037630589 0.6062750816 4293387483
-0.2416816056 -0.2642808855 0.5376445055 4290888909
-0.2417729795 -0.2637832165 0.5378477573 4290230979
-0.2418642491 -0.2632849813 0.5380508304 4289836221
-0.2415808737 -0.2623794079 0.5374204516 4289112755
-0.2416718006 -0.2618808150 0.5376226902 4288257446
-0.2413877994 -0.2609764338 0.5369908810 4287467673
-0.2411033958 -0.2600730360 0.5363582373 4286283399
-0.2415688336 -0.2599779963 0.5373936296 4285164916
-0.2409086972 -0.2586720884 0.5359251499 4285033330
-0.2413740605 -0.2585751712 0.5369603634 4285493881
-0.2410885543 -0.2576734126 0.5363252163 4286020225
-0.2408026457 -0.2567726374 0.5356891751 4286940559
-0.2405163497 -0.2558728755 0.5350522995 4287861661
-0.2406056076 -0.2553731501 0.5352508426 4288716970
-0.2403186858 -0.2544746101 0.5346125960 4288848556
-0.2404075861 -0.2539745569 0.5348103642 4288782504
-0.2397436649 -0.2526805997 0.5333333611 4289243055
-0.2390790731 -0.2513892055 0.5318549275 4289637559
-0.2391670942 -0.2508906126 0.5320507288 4289505973
-0.2388782352 -0.2499971539 0.5314081311 4289834681
-0.2389658988 -0.2494982481 0.5316031575 4290032060
-0.2386763990 -0.2486060560 0.5309591293 4289505716
-0.2380093187 -0.2473229468 0.5294751525 4289703095
-0.2380962372 -0.2468247563 0.5296685100 4290163646
-0.2378055751 -0.2459356636 0.5290219188 4290295232
-0.2375145108 -0.2450475991 0.5283744335 4290098110
-0.2364675850 -0.2433829904 0.5260454416 4290229696
-0.2373091280 -0.2436625957 0.5279175043 4290229696
-0.2366390377 -0.2423896641 0.5264268517 4289966524
-0.2363464385 -0.2415057719 0.5257759094 4290032060
-0.2360534519 -0.2406229377 0.5251241326 4290229439
-0.2357600778 -0.2397411615 0.5244715214 4290360255
-0.2358448803 -0.2392444611 0.5246601701 4290031290
-0.2359295636 -0.2387472242 0.5248485208 4289768888
-0.2356353104 -0.2378670275 0.5241939425 4289703095
-0.2345827222 -0.2362246513 0.5218523145 4289177521
-0.2346665114 -0.2357290089 0.5220387578 4288651177
-0.2347501963 -0.2352328449 0.5222249031 4288979370
-0.2344543785 -0.2343569249 0.5215668678 4289242542
-0.2345376909 -0.2338604927 0.5217521787 4289440432
-0.2334819436 -0.2322307080 0.5194035769 4289177260
-0.2331848443 -0.2313588411 0.5187426209 4288649888
-0.2332672626 -0.2308640480 0.5189259648 4287531407
-0.2333495617 -0.2303687334 0.5191090703 4287327609
-0.2326713800 -0.2291241288 0.5176004171 4286340714
-0.2331334949 -0.2290029526 0.5186284184 4286204502
-0.2328348607 -0.2281341106 0.5179640651 4286138709
-0.2325358242 -0.2272663713 0.5172988176 4287970635
-0.2326171249 -0.2267708778 0.5174797177 4288102221
-0.2323174626 -0.2259045243 0.5168130398 4289476926
-0.2323983908 -0.2254087925 0.5169931054 4289345340
-0.2317169756 -0.2241751403 0.5154771805 4290457903
-0.2317973971 -0.2236800045 0.5156561136 4290721075
-0.2318776846 -0.2231843621 0.5158347487 4291508019
-0.2311948389 -0.2219556868 0.5143156648 4291771191
-0.2316562682 -0.2218260914 0.5153421760 4291902266
-0.2317360640 -0.2213297188 0.5155196786 4291836473
-0.2306700200 -0.2197414041 0.5131481886 4291967291
-0.2303671390 -0.2188834846 0.5124744177 4292098877
-0.2300638855 -0.2180266827 0.5117997527 4291836476
-0.2305248231 -0.2178937197 0.5128251314 4291639097
-0.2302210480 -0.2170375586 0.5121493936 4291770940
-0.2299168706 -0.2161825299 0.5114727020 4291770940
-0.2299950123 -0.2156875134 0.5116465688 4291902268
-0.2293073982 -0.2144758999 0.5101168752 4291836475
-0.2293850183 -0.2139815241 0.5102895498 4291967034
-0.2294625193 -0.2134866565 0.5104619265 4291967034
-0.2295398861 -0.2129912972 0.5106340647 4292163131
-0.2296171337 -0.2124954313 0.5108059049 4292031545
-0.2296942472 -0.2119990587 0.5109774470 4291900986
-0.2293876410 -0.2111490965 0.5102953911 4291966779
-0.2298480868 -0.2110048234 0.5113196969 4292032572
-0.2299248129 -0.2105069607 0.5114903450 4292032572
-0.2296174318 -0.2096579969 0.5108065605 4291966779
-0.2300778776 -0.2095097303 0.5118308663 4291966779
-0.2297699749 -0.2086614370 0.5111459494 4291966779
-0.2294616997 -0.2078143209 0.5104601383 4291900986
-0.2295375168 -0.2073156387 0.5106287599 4291966779
-0.2296131998 -0.2068164647 0.5107971430 4291900986
-0.2289192677 -0.2056256235 0.5092534423 4291835193
-0.2297641635 -0.2058166414 0.5111330152 4291900986
-0.2298394442 -0.2053159773 0.5113005042 4291900986
-0.2291443646 -0.2041286826 0.5097541809 4291900986
-0.2299896181 -0.2043132037 0.5116345286 4291900986
-0.2300644964 -0.2038110793 0.5118011236 4291900986
-0.2289827615 -0.2022868097 0.5093947053 4291900986
-0.2298282236 -0.2024656385 0.5112755299 4291835193
-0.2299025804 -0.2019628882 0.5114409328 4291835193
-0.2299767882 -0.2014596462 0.5116059780 4291835193
-0.2300508618 -0.2009559274 0.5117707849 4291835193
-0.2301247865 -0.2004517019 0.5119352341 4291900986
-0.2294261009 -0.1992760450 0.5103809834 4291900986
-0.2294995189 -0.1987725496 0.5105442405 4291900986
-0.2303457558 -0.1989361495 0.5124267936 4291966521
-0.2304191291 -0.1984300017 0.5125900507 4291966521
-0.2304923683 -0.1979233623 0.5127529502 4292032314
-0.2301786095 -0.1970850080 0.5120549798 4292032314
-0.2302514464 -0.1965782642 0.5122169852 4291966521
-0.2303241342 -0.1960710287 0.5123786926 4291966521
-0.2303966880 -0.1955633312 0.5125401020 4292032314
-0.2308564335 -0.1953829527 0.5135628581 4292032314
-0.2305413485 -0.1945464611 0.5128619075 4292098107
-0.2310010493 -0.1943634301 0.5138846040 4292032314
-0.2310731560 -0.1938529611 0.5140449405 4292032314
-0.2311450988 -0.1933420002 0.5142050385 4292032314
-0.2312169075 -0.1928305626 0.5143647790 4292032314
-0.2312885672 -0.1923186481 0.5145241618 4292032314
-0.2313600779 -0.1918062717 0.5146832466 4292032314
-0.2314314395 -0.1912934035 0.5148420334 4291966521
-0.2315026671 -0.1907800734 0.5150004625 4292032312
-0.2311851978 -0.1899470240 0.5142942071 4291966519
-0.2316446602 -0.1897519827 0.5153163671 4291835446
-0.2313266546 -0.1889197230 0.5146089196 4291835446
-0.2313971519 -0.1884053499 0.5147657394 4291967032
-0.2318565398 -0.1882063150 0.5157876611 4292098618
-0.2315377146 -0.1873752326 0.5150784254 4292098618
-0.2319970280 -0.1871735007 0.5161002278 4291967032
-0.2320670635 -0.1866564006 0.5162560344 4292163900
-0.2321369350 -0.1861388385 0.5164114237 4292098107
-0.2322066426 -0.1856207997 0.5165665150 4292098107
-0.2318864912 -0.1847917140 0.5158542991 4292163900
-0.2319557816 -0.1842736155 0.5160084963 4292163900
-0.2324148864 -0.1840638816 0.5170298219 4292098107
-0.2320939153 -0.1832360327 0.5163157582 4292098107
-0.2321627587 -0.1827165335 0.5164688826 4292098107
-0.2322314382 -0.1821965873 0.5166217089 4292032312
-0.2322999537 -0.1816761792 0.5167741179 4292032312
-0.2323683351 -0.1811553091 0.5169262290 4292032312
-0.2324365377 -0.1806339771 0.5170779824 4292098105
-0.2325045913 -0.1801121831 0.5172293782 4292098105
-0.2329633683 -0.1798917651 0.5182499290 4292032312
-0.2326402366 -0.1790672243 0.5175310969 4292098105
-0.2327078283 -0.1785440743 0.5176814795 4292163898
-0.2327752411 -0.1780204475 0.5178314447 4292163900
-0.2328425050 -0.1774963737 0.5179810524 4292098107
-0.2329096198 -0.1769718528 0.5181303620 4292032314
-0.2329765558 -0.1764468700 0.5182793140 4292098107
-0.2334350199 -0.1762171090 0.5192991495 4292032314
-0.2335017473 -0.1756903380 0.5194476247 4292032314
-0.2335683256 -0.1751631349 0.5195957422 4292032314
-0.2336347401 -0.1746354550 0.5197434425 4292032314
-0.2337009758 -0.1741073430 0.5198908448 4291967034
-0.2333748341 -0.1732875407 0.5191652775 4291901241
-0.2334406525 -0.1727594137 0.5193117261 4291901241
-0.2335062921 -0.1722308397 0.5194577575 4291967034
-0.2335717827 -0.1717018187 0.5196034312 4292032827
-0.2336370945 -0.1711723506 0.5197487473 4292032827
-0.2337022424 -0.1706424505 0.5198936462 4292032827
-0.2337672412 -0.1701121032 0.5200382471 4292032827
-0.2334390581 -0.1692962945 0.5193081498 4292098105
-0.2335036099 -0.1687659621 0.5194517374 4292098105
-0.2335679829 -0.1682351828 0.5195949674 4292032312
-0.2336321920 -0.1677039713 0.5197377801 4292032312
-0.2336962372 -0.1671723127 0.5198802948 4292032312
-0.2337601036 -0.1666402221 0.5200223327 4292098105
-0.2338238060 -0.1661076993 0.5201640725 4292098105
-0.2338873446 -0.1655747294 0.5203053951 4292098105
-0.2339507043 -0.1650413424 0.5204463601 4292098105
-0.2340139002 -0.1645075083 0.5205869675 4292098105
-0.2344709933 -0.1642493010 0.5216038227 4292032312
-0.2345339507 -0.1637137085 0.5217438340 4292032312
-0.2345967293 -0.1631776839 0.5218835473 4292098105
-0.2346593440 -0.1626412272 0.5220228434 4292098105
-0.2347217947 -0.1621043384 0.5221617222 4292032312
-0.2347840518 -0.1615670323 0.5223002434 4292098105
-0.2348461449 -0.1610292941 0.5224383473 4292098105
-0.2349080592 -0.1604911387 0.5225760937 4292098105
-0.2345748991 -0.1596837193 0.5218349695 4292032312
-0.2346363664 -0.1591456085 0.5219717026 4292032312
-0.2346976548 -0.1586070806 0.5221080184 4292163898
-0.2347587645 -0.1580681354 0.5222439766 4292295484
-0.2348197103 -0.1575287580 0.5223795772 4292098618
-0.2348804623 -0.1569889635 0.5225147009 4291835446
-0.2349410504 -0.1564487666 0.5226494670 4291901241
-0.2350014597 -0.1559081376 0.5227838755 4291769655
-0.2346659601 -0.1551055312 0.5220375061 4291769655
-0.2347259074 -0.1545649916 0.5221708417 4291835448
-0.2347856760 -0.1540240198 0.5223038197 4291901241
-0.2348452508 -0.1534826458 0.5224363804 4291967034
-0.2349046618 -0.1529408693 0.5225685239 4291901498
-0.2349638939 -0.1523986757 0.5227003098 4291835705
-0.2350229472 -0.1518560648 0.5228316784 4291967034
-0.2350818068 -0.1513130516 0.5229626298 4291967034
-0.2355370224 -0.1510238796 0.5239753127 4291967034
-0.2355956286 -0.1504791379 0.5241056681 4292032827
-0.2356540412 -0.1499339938 0.5242356062 4292098620
-0.2357122749 -0.1493884325 0.5243651867 4292098620
-0.2357703298 -0.1488424689 0.5244942904 4292032827
-0.2358281910 -0.1482961178 0.5246230364 4291967034
-0.2358858734 -0.1477493495 0.5247513652 4292098620
-0.2359433770 -0.1472021788 0.5248792768 4292032827
-0.2360006869 -0.1466546208 0.5250067711 4292032827
-0.2360578179 -0.1461066604 0.5251338482 4292032827
-0.2361147553 -0.1455582976 0.5252605081 4292032827
-0.2361715138 -0.1450095475 0.5253867507 4292098620
-0.2362280786 -0.1444603950 0.5255125761 4292098620
-0.2362844497 -0.1439108551 0.5256380439 4292164413
-0.2363406420 -0.1433609128 0.5257630348 4291968061
-0.2363966405 -0.1428105831 0.5258876085 4291902268
-0.2364524603 -0.1422598660 0.5260117650 4291902268
-0.2365080714 -0.1417087466 0.5261355042 4291836475
-0.2365635037 -0.1411572546 0.5262588263 4291836475
-0.2366187572 -0.1406053752 0.5263817310 4291836475
-0.2362753600 -0.1398173124 0.5256177783 4291902268
-0.2367286682 -0.1395004392 0.5266262293 4291902268
-0.2367833257 -0.1389473975 0.5267478228 4291902268
-0.2368378043 -0.1383939832 0.5268689990 4291968061
-0.2368920892 -0.1378401816 0.5269897580 4291902268
-0.2369461805 -0.1372859925 0.5271100998 4291968061
-0.2373990715 -0.1369616240 0.5281175971 4291902268
-0.2374528646 -0.1364057511 0.5282372832 4291836475
-0.2375064641 -0.1358494908 0.5283564925 4292033854
-0.2375598699 -0.1352928728 0.5284752846 4291902268
-0.2376130819 -0.1347358674 0.5285936594 4291771709
-0.2376660854 -0.1341784894 0.5287116170 4291771709
-0.2381184399 -0.1338453144 0.5297178626 4291968061
-0.2381711453 -0.1332862526 0.5298351645 4291968061
-0.2382236570 -0.1327268332 0.5299519897 4292099131
-0.2382759601 -0.1321670264 0.5300683379 4292099131
-0.2383280843 -0.1316068619 0.5301842690 4291706422
-0.2383800000 -0.1310463250 0.5302997828 4291574836
-0.2380316556 -0.1302665025 0.5295248628 4290788399
-0.2380830944 -0.1297061741 0.5296392441 4290459434
-0.2381343246 -0.1291454881 0.5297532082 4289936424
-0.2381853461 -0.1285844445 0.5298667550 4290133803
-0.2378357798 -0.1278078854 0.5290890932 4290332977
-0.2378863245 -0.1272470653 0.5292015672 4290398770
-0.2379366755 -0.1266858876 0.5293135643 4290465076
-0.2379868180 -0.1261243522 0.5294250846 4290136111
-0.2380367517 -0.1255624592 0.5295361876 4288432423
-0.2376856655 -0.1247897893 0.5287551880 4287906079
-0.2377351224 -0.1242281422 0.5288651586 4285812766
-0.2373833805 -0.1234576106 0.5280827284 4285812766
-0.2374323457 -0.1228962094 0.5281916261 4285681950
-0.2370799631 -0.1221278235 0.5274077058 4285681950
-0.2371284366 -0.1215666905 0.5275155306 4285746460
-0.2371767014 -0.1210052073 0.5276229382 4285746460
-0.2368233800 -0.1202395931 0.5268369317 4285419546
-0.2360682040 -0.1192726865 0.5251569748 4285419546
-0.2357140630 -0.1185111478 0.5243691206 4285746971
-0.2349579185 -0.1175502390 0.5226870179 4285812764
-0.2346029729 -0.1167927906 0.5218973756 4285878557
-0.2350512445 -0.1164349839 0.5228946209 4285878557
-0.2350976020 -0.1158768609 0.5229977965 4285682461
-0.2351437658 -0.1153184101 0.5231004357 4285682461
-0.2355917394 -0.1149557978 0.5240970254 4285290012
-0.2352354527 -0.1142005175 0.5233044028 4285290012
-0.2356831878 -0.1138353422 0.5243004560 4285355035
-0.2357285917 -0.1132746264 0.5244014859 4285223449
-0.2357738018 -0.1127135903 0.5245020390 4285419801
-0.2362212092 -0.1123436168 0.5254973173 4285485594
-0.2362660766 -0.1117809787 0.5255971551 4285551385
-0.2367133051 -0.1114074811 0.5265920758 4285419799
-0.2363551855 -0.1106547415 0.5257953405 4285551385
-0.2368021458 -0.1102786958 0.5267896652 4285682971
-0.2368462384 -0.1097138226 0.5268877745 4285617178
-0.2364872694 -0.1089630052 0.5260891914 4285617178
-0.2365308702 -0.1083984673 0.5261862278 4285945630
-0.2369772941 -0.1080173254 0.5271793008 4286011423
-0.2370205522 -0.1074512005 0.5272755623 4286011164
-0.2370636016 -0.1068847701 0.5273712873 4286142750
-0.2371064276 -0.1063180268 0.5274665952 4286600740
-0.2379556894 -0.1061106846 0.5293558240 4286666533
-0.2371914685 -0.1051836312 0.5276557803 4287256103
-0.2376371324 -0.1047938988 0.5286471844 4287387689
-0.2376791835 -0.1042249724 0.5287407041 4287976492
-0.2377210259 -0.1036557481 0.5288338065 4287976492
-0.2381663173 -0.1032612473 0.5298244357 4288302636
-0.2386115491 -0.1028645039 0.5308148861 4288105257
-0.2390566915 -0.1024655327 0.5318051577 4289284911
-0.2390978783 -0.1018922105 0.5318967700 4289613876
-0.2395428121 -0.1014897451 0.5328865647 4290269755
-0.2395836264 -0.1009148657 0.5329773426 4290203962
-0.2404324114 -0.1006781012 0.5348655581 4289351221
-0.2404729426 -0.1001006961 0.5349557400 4288824877
-0.2401090115 -0.0993557349 0.5341461301 4287776552
-0.2409576178 -0.0991113111 0.5360339284 4287710759
-0.2409975529 -0.0985320657 0.5361227393 4288301355
-0.2406328321 -0.0977881774 0.5353114009 4288432941
-0.2406722456 -0.0972093344 0.5353991389 4289350193
-0.2411160171 -0.0967926085 0.5363863111 4289481779
-0.2411550581 -0.0962122232 0.5364731550 4289809717
-0.2399798185 -0.0951501876 0.5338587165 4289941303
-0.2412324846 -0.0950506106 0.5366454124 4290203192
-0.2416756749 -0.0946278870 0.5376313329 4290137399
-0.2421187758 -0.0942029431 0.5386170149 4290398774
-0.2421568334 -0.0936192125 0.5387017131 4290398774
-0.2421946526 -0.0930352062 0.5387858748 4290659636
-0.2422322631 -0.0924509317 0.5388695002 4290725429
-0.2426747829 -0.0920200050 0.5398539305 4290463797
-0.2427119911 -0.0914342105 0.5399367213 4290398004
-0.2423437387 -0.0906964839 0.5391175151 4289351476
-0.2427857518 -0.0902618170 0.5401008129 4289285683
-0.2428222895 -0.0896752179 0.5401821136 4288956975
-0.2424531579 -0.0889396295 0.5393609405 4288825389
-0.2424891889 -0.0883534849 0.5394410491 4287908650
-0.2425249815 -0.0877670795 0.5395206809 4287842857
-0.2425605506 -0.0871804208 0.5395998359 4286861095
-0.2421902120 -0.0864486918 0.5387759805 4286795302
-0.2426309884 -0.0860063210 0.5397565365 4286533670
-0.2426658720 -0.0854188949 0.5398341417 4286533670
-0.2422946692 -0.0846893489 0.5390083790 4286861352
-0.2419231236 -0.0839615241 0.5381817818 4286927145
-0.2415512353 -0.0832354203 0.5373545289 4286927145
-0.2407729775 -0.0823721290 0.5356231928 4286861352
-0.2412125170 -0.0819262937 0.5366009474 4286468391
-0.2404335141 -0.0810674354 0.5348680019 4286468391
-0.2400602549 -0.0803482309 0.5340376496 4285944870
-0.2396866679 -0.0796307549 0.5332065821 4285944870
-0.2393127233 -0.0789150223 0.5323747396 4285944354
-0.2389384508 -0.0782010183 0.5315421224 4285878561
-0.2385638505 -0.0774887577 0.5307087302 4286205473
-0.2385953665 -0.0769092664 0.5307788849 4286205473
-0.2386266589 -0.0763295442 0.5308485031 4286663973
-0.2390642911 -0.0758786350 0.5318220258 4286927145
-0.2390951812 -0.0752974674 0.5318907499 4287779374
-0.2395325154 -0.0748431459 0.5328636765 4287976753
-0.2399697304 -0.0743866265 0.5338362455 4289548600
-0.2408135831 -0.0740529895 0.5357134938 4289745979
-0.2420642525 -0.0738392770 0.5384957194 4290727997
-0.2416874617 -0.0731269643 0.5376575589 4290793790
-0.2425311208 -0.0727827698 0.5395343304 4290924865
-0.2429677844 -0.0723132715 0.5405057073 4290859072
-0.2434042990 -0.0718415678 0.5414767861 4290727999
-0.2426194400 -0.0710102394 0.5397308469 4290662206
-0.2430555373 -0.0705371127 0.5407009721 4290334266
-0.2422699630 -0.0697103217 0.5389533639 4290268473
-0.2443345338 -0.0697004572 0.5435461998 4290399291
-0.2435484380 -0.0688742325 0.5417974591 4290465084
-0.2439838797 -0.0683943257 0.5427661538 4290595902
-0.2436044365 -0.0676858425 0.5419220328 4290661695
-0.2436320782 -0.0670913383 0.5419835448 4290858304
-0.2436594814 -0.0664966404 0.5420445204 4290858304
-0.2436866611 -0.0659017339 0.5421049595 4291187269
-0.2441211343 -0.0654158443 0.5430715084 4291779406
-0.2445554584 -0.0649277642 0.5440376997 4292107856
-0.2449896336 -0.0644374937 0.5450035930 4291910477
-0.2450159788 -0.0638388246 0.5450621843 4291908939
-0.2454498112 -0.0633451790 0.5460272431 4291711560
-0.2458834946 -0.0628493577 0.5469920039 4291644486
-0.2446857691 -0.0619384237 0.5443275571 4291381314
-0.2455268055 -0.0615444556 0.5461985469 4291512131
-0.2459598929 -0.0610450767 0.5471619964 4291577924
-0.2459848672 -0.0604432784 0.5472175479 4291577924
-0.2460096180 -0.0598412976 0.5472725630 4291643717
-0.2460341007 -0.0592391379 0.5473271012 4291774790
-0.2460583597 -0.0586367957 0.5473810434 4291774790
-0.2460823804 -0.0580342785 0.5474344492 4291774533
-0.2461061478 -0.0574315861 0.5474873185 4291840326
-0.2469460219 -0.0570172071 0.5493557453 4291905349
-0.2469693720 -0.0564121716 0.5494076610 4291971142
-0.2469924837 -0.0558069609 0.5494590998 4292102217
-0.2466070652 -0.0551103391 0.5486016870 4292102217
-0.2466296405 -0.0545057952 0.5486519337 4292102217
-0.2466519922 -0.0539010875 0.5487016439 4292168010
-0.2466740757 -0.0532962121 0.5487507582 4292364619
-0.2466959357 -0.0526911803 0.5487993956 4292364619
-0.2467175275 -0.0520859845 0.5488474369 4292036937
-0.2475559115 -0.0516510978 0.5507124662 4292036937
-0.2475770861 -0.0510435849 0.5507596135 4292036937
-0.2475980222 -0.0504359156 0.5508061647 4292036937
-0.2476187050 -0.0498280935 0.5508521795 4292168010
-0.2476391494 -0.0492201187 0.5508976579 4292168010
-0.2476593405 -0.0486119948 0.5509425998 4292102217
-0.2480880022 -0.0480829366 0.5518961549 4292102217
-0.2481077313 -0.0474735163 0.5519400239 4292168010
-0.2493535280 -0.0470955670 0.5547114611 4292168010
-0.2481464297 -0.0462542437 0.5520261526 4292233033
-0.2481654137 -0.0456443913 0.5520684123 4292233033
-0.2481841445 -0.0450344048 0.5521100760 4292364619
-0.2482026368 -0.0444242805 0.5521512032 4292298826
-0.2482208759 -0.0438140184 0.5521917343 4292233033
-0.2482388467 -0.0432036221 0.5522317886 4292298826
-0.2482565939 -0.0425930992 0.5522711873 4292102217
-0.2482740730 -0.0419824421 0.5523101091 4292168010
-0.2482913136 -0.0413716584 0.5523484349 4292233803
-0.2491264343 -0.0408950485 0.5542063117 4292233803
-0.2487341315 -0.0402158573 0.5533335209 4292233803
-0.2487506419 -0.0396036915 0.5533702970 4292168010
-0.2483577430 -0.0389272757 0.5524962544 4292233033
-0.2483737320 -0.0383158773 0.5525317788 4292233033
-0.2479802519 -0.0376422480 0.5516564846 4292298826
-0.2475864738 -0.0369705185 0.5507804751 4292364619
-0.2484201640 -0.0364809893 0.5526351333 4292429899
-0.2476165742 -0.0357509516 0.5508474112 4292364106
-0.2476312518 -0.0351410024 0.5508800745 4292364106
-0.2484643459 -0.0346450992 0.5527333617 4292364106
-0.2492972761 -0.0341450572 0.5545862913 4292364106
-0.2480831593 -0.0333655775 0.5518853664 4292429899
-0.2485062480 -0.0328082517 0.5528265834 4292495946
-0.2481102943 -0.0321427286 0.5519457459 4292430153
-0.2481234819 -0.0315311514 0.5519751310 4292495946
-0.2497742921 -0.0311235692 0.5556474924 4292298567
-0.2497870624 -0.0305077657 0.5556759238 4292364360
-0.2485710531 -0.0297448579 0.5529707670 4292495946
-0.2498118430 -0.0292758774 0.5557309985 4292430153
-0.2498238534 -0.0286597982 0.5557577610 4292430153
-0.2486069053 -0.0279057119 0.5530505180 4292299080
-0.2494375110 -0.0273824148 0.5548983216 4292299080
-0.2486295402 -0.0266791824 0.5531008840 4292233287
-0.2482308447 -0.0260228533 0.5522139668 4292233287
-0.2498800755 -0.0255781207 0.5558828115 4292299080
-0.2486615926 -0.0248387810 0.5531721711 4292364873
-0.2494911104 -0.0243049767 0.5550175309 4292430666
-0.2499107569 -0.0237281565 0.5559510589 4292364873
-0.2491010576 -0.0230355784 0.5541498065 4292429899
-0.2499299347 -0.0224944800 0.5559937358 4292364106
-0.2503488660 -0.0219134018 0.5569257140 4292364621
-0.2503578365 -0.0212953798 0.5569456816 4292430414
-0.2507763207 -0.0207111351 0.5578765869 4292168523
-0.2503750026 -0.0200591423 0.5569838285 4292102730
-0.2512027919 -0.0195045657 0.5588253140 4292037188
-0.2516205609 -0.0189150758 0.5597546697 4292037188
-0.2516282797 -0.0182937104 0.5597718954 4292627270
-0.2528652251 -0.0177586358 0.5625236034 4292561477
-0.2528724670 -0.0171341226 0.5625396967 4292036426
-0.2532893121 -0.0165363140 0.5634670258 4292168012
-0.2549420297 -0.0153839383 0.5671436191 4293559691
-0.2549482882 -0.0147541640 0.5671575665 4294360515
-0.2553641796 -0.0141470507 0.5680827498 4294958563
-0.2561897337 -0.0135595649 0.5699192882 4294898428
-0.2582447827 -0.0130300345 0.5744909644 4294965247
-0.2566103935 -0.0123133082 0.5708550811 4294702844
-0.2574352324 -0.0117165884 0.5726900101 4294900223
-0.2582598329 -0.0111157801 0.5745244026 4294967039
-0.2599040866 -0.0105441492 0.5781822205 4294637821
-0.2603182793 -0.0099175274 0.5791036487 4294899194
-0.2619620860 -0.0093326643 0.5827604532 4294966015
-0.2627857625 -0.0087124836 0.5845928192 4294966271
-0.2636091709 -0.0080882236 0.5864245892 4294965501
-0.2640223801 -0.0074483212 0.5873437524 4294177268
-0.2648452818 -0.0068169213 0.5891744494 4293190373
-0.2660779357 -0.0061909868 0.5919165611 4292467422
-0.2664903402 -0.0055419020 0.5928339958 4292730594
-0.2669025064 -0.0048907730 0.5937508941 4292993256
-0.2677243948 -0.0042441022 0.5955792665 4292730084
-0.2681359947 -0.0035878790 0.5964949131 4293387232
-0.2689573467 -0.0029340906 0.5983220935 4293913576
-0.2693684399 -0.0022727803 0.5992366076 4293913576
-0.2697792351 -0.0016094364 0.6001504660 4293189853
-0.2697797716 -0.0009426281 0.6001516581 4292071627
-0.2701900303 -0.0002762362 0.6010642648 4291216318
-0.2710099816 0.0003927777 0.6028884053 4291216316
-0.2710096836 0.0010626287 0.6028877497 4291874246
-0.2710091174 0.0017324764 0.6028864384 4291742658
-0.2710082531 0.0024023186 0.6028845310 4292795346
-0.2714171112 0.0030768013 0.6037940979 4294111208
-0.2407843620 -0.2615654469 0.5369752645 4290428358
-0.2408749014 -0.2610669434 0.5371772051 4289638842
-0.2405911833 -0.2601633072 0.5365444422 4288980912
-0.2403070629 -0.2592606544 0.5359108448 4287862429
-0.2403970212 -0.2587620318 0.5361114740 4286743948
-0.2401122749 -0.2578605711 0.5354764462 4285757053
-0.2402018756 -0.2573616207 0.5356762409 4285099123
-0.2402913719 -0.2568621337 0.5358758569 4285032562
-0.2400057465 -0.2559621036 0.5352388620 4285229941
-0.2400948852 -0.2554622591 0.5354376435 4286480008
-0.2398086190 -0.2545634806 0.5347992778 4287861661
-0.2398974001 -0.2540633082 0.5349972844 4288322210
-0.2392349541 -0.2527689636 0.5335199237 4288848554
-0.2389475256 -0.2518732250 0.5328789353 4289374641
-0.2386597246 -0.2509784997 0.5322371125 4289440434
-0.2387475222 -0.2504792511 0.5324328542 4289769145
-0.2384590805 -0.2495857775 0.5317896008 4289769145
-0.2385465056 -0.2490862012 0.5319846272 4289242801
-0.2382574379 -0.2481940091 0.5313399434 4289505973
-0.2372149080 -0.2465202212 0.5290150046 4289966524
-0.2369247824 -0.2456316650 0.5283679962 4290163903
-0.2366342694 -0.2447441518 0.5277200937 4290032830
-0.2367203236 -0.2442465872 0.5279120207 4290098623
-0.2368062586 -0.2437485009 0.5281036496 4290098623
-0.2368920743 -0.2432498634 0.5282950401 4289835451
-0.2362230718 -0.2419775873 0.5268030763 4289769145
-0.2351759225 -0.2403222173 0.5244678259 4290163903
-0.2360159755 -0.2405958325 0.5263412595 4290623425
-0.2357231677 -0.2397132665 0.5256882310 4290491839
-0.2342962772 -0.2376816869 0.5225061178 4290557119
-0.2343803197 -0.2371862084 0.5226935744 4290425533
-0.2348424196 -0.2370719314 0.5237240791 4289833909
-0.2345480770 -0.2361936271 0.5230676532 4289241772
-0.2346317619 -0.2356965393 0.5232543349 4289768884
-0.2347153425 -0.2351989150 0.5234407187 4289966263
-0.2336626947 -0.2335651219 0.5210931897 4290228154
-0.2341244668 -0.2334465832 0.5221229792 4290030775
-0.2334494740 -0.2321951091 0.5206176639 4289898421
-0.2331529409 -0.2313224524 0.5199563503 4289306284
-0.2332352549 -0.2308262140 0.5201399326 4288188575
-0.2329380810 -0.2299549282 0.5194771886 4287333266
-0.2322610170 -0.2287110239 0.5179672837 4286282631
-0.2327222228 -0.2285885513 0.5189958215 4286019459
-0.2312846780 -0.2266034633 0.5157899261 4286670195
-0.2321254313 -0.2268520296 0.5176649094 4286078058
-0.2322064936 -0.2263558954 0.5178456903 4287383890
-0.2315270901 -0.2251199186 0.5163305402 4286857546
-0.2316076458 -0.2246243805 0.5165101886 4289212216
-0.2313076407 -0.2237602770 0.5158411860 4289606974
-0.2313878387 -0.2232645154 0.5160200000 4290589489
-0.2307064831 -0.2220354378 0.5145004988 4290984247
-0.2307861596 -0.2215402871 0.5146781802 4291705147
-0.2301037908 -0.2203150839 0.5131564140 4291770940
-0.2301829457 -0.2198205292 0.5133329630 4292098620
-0.2302619964 -0.2193254828 0.5135092735 4292164413
-0.2299595624 -0.2184676081 0.5128347874 4292164670
-0.2300382257 -0.2179723531 0.5130102038 4292098877
-0.2297351360 -0.2171159238 0.5123342872 4291771709
-0.2298134267 -0.2166204751 0.5125088692 4291705916
-0.2295097113 -0.2157655060 0.5118315816 4291706170
-0.2292055935 -0.2149116844 0.5111533403 4291640377
-0.2292832434 -0.2144163698 0.5113265514 4291836475
-0.2285962254 -0.2132074833 0.5097944140 4291836475
-0.2286733687 -0.2127128094 0.5099664330 4291966779
-0.2287503630 -0.2122176439 0.5101381540 4291835193
-0.2288272530 -0.2117219716 0.5103095770 4291967292
-0.2289039940 -0.2112258077 0.5104807615 4291901499
-0.2289806157 -0.2107291520 0.5106516480 4292033085
-0.2290571183 -0.2102319747 0.5108222365 4292033085
-0.2287503183 -0.2093835920 0.5101380348 4292098365
-0.2288264185 -0.2088862658 0.5103077292 4292032572
-0.2285189629 -0.2080393881 0.5096220970 4291966779
-0.2282111347 -0.2071936727 0.5089356303 4291835193
-0.2282865942 -0.2066965401 0.5091038942 4291900986
-0.2279781252 -0.2058523446 0.5084159374 4291900986
-0.2276692688 -0.2050093412 0.5077271461 4291835193
-0.2277440727 -0.2045124024 0.5078939795 4291835193
-0.2285871059 -0.2047030479 0.5097740889 4291900986
-0.2278932929 -0.2035170496 0.5082267523 4291835193
-0.2279677093 -0.2030186355 0.5083927512 4291835193
-0.2284265310 -0.2028612494 0.5094159842 4291900986
-0.2281161249 -0.2020203471 0.5087237358 4291900986
-0.2285749316 -0.2018603086 0.5097469091 4291835193
-0.2282640040 -0.2010201216 0.5090534687 4291835193
-0.2279526740 -0.2001811415 0.5083591938 4291835193
-0.2280261517 -0.1996806562 0.5085230470 4291835193
-0.2284847945 -0.1995161325 0.5095458627 4291900986
-0.2281726897 -0.1986782402 0.5088498592 4291900986
-0.2286313027 -0.1985110641 0.5098726153 4291900986
-0.2290900201 -0.1983417124 0.5108956099 4291966521
-0.2291630507 -0.1978371143 0.5110585093 4291966521
-0.2292359471 -0.1973320395 0.5112210512 4292032314
-0.2293086946 -0.1968264878 0.5113832951 4292032314
-0.2289951444 -0.1959899366 0.5106840134 4291966521
-0.2290674895 -0.1954842657 0.5108453631 4291966521
-0.2291397005 -0.1949781328 0.5110064149 4291966521
-0.2295982838 -0.1947994530 0.5120291114 4292032314
-0.2296703309 -0.1942914873 0.5121897459 4291966521
-0.2297422290 -0.1937830597 0.5123500824 4291900728
-0.2298139781 -0.1932741553 0.5125101209 4291966521
-0.2302726060 -0.1930892766 0.5135329366 4292032314
-0.2303441912 -0.1925785542 0.5136925578 4291966521
-0.2300283909 -0.1917445660 0.5129882693 4292032314
-0.2300995588 -0.1912337542 0.5131469965 4292032312
-0.2301705927 -0.1907224655 0.5133054256 4292032312
-0.2306290865 -0.1905309260 0.5143278837 4292032312
-0.2303122133 -0.1896984726 0.5136212111 4291966519
-0.2303828001 -0.1891857684 0.5137786865 4291835446
-0.2304532379 -0.1886725873 0.5139357448 4291835446
-0.2301354557 -0.1878421754 0.5132270455 4291967032
-0.2302054763 -0.1873289347 0.5133832097 4292032825
-0.2306636721 -0.1871302575 0.5144050121 4292032825
-0.2307335138 -0.1866151989 0.5145608187 4292032825
-0.2308032066 -0.1860996783 0.5147162080 4292098107
-0.2308727503 -0.1855836958 0.5148712993 4292098107
-0.2309421450 -0.1850672364 0.5150260329 4292098107
-0.2310113907 -0.1845503300 0.5151804686 4292098107
-0.2306914479 -0.1837231219 0.5144670010 4292163900
-0.2311494052 -0.1835151017 0.5154882669 4292098107
-0.2312181890 -0.1829967946 0.5156416893 4292032312
-0.2312868088 -0.1824780256 0.5157946944 4292098105
-0.2309658080 -0.1816524565 0.5150787830 4292032312
-0.2310340106 -0.1811336428 0.5152308941 4292032312
-0.2311020494 -0.1806143671 0.5153826475 4292032312
-0.2311699390 -0.1800946295 0.5155340433 4292032312
-0.2312376797 -0.1795744449 0.5156851411 4292098105
-0.2316953242 -0.1793557405 0.5167056918 4292098105
-0.2313726842 -0.1785326898 0.5159862041 4292098105
-0.2314399481 -0.1780111194 0.5161362290 4292098105
-0.2315070629 -0.1774891168 0.5162858963 4291967034
-0.2315739989 -0.1769666374 0.5164351463 4291967034
-0.2320314199 -0.1767412722 0.5174552798 4292098107
-0.2320981622 -0.1762170047 0.5176041126 4292098107
-0.2321647406 -0.1756923050 0.5177525878 4292032314
-0.2322311699 -0.1751671433 0.5179007053 4292032314
-0.2326885015 -0.1749355495 0.5189206004 4292032827
-0.2327547222 -0.1744085997 0.5190683007 4292098620
-0.2328207642 -0.1738812029 0.5192155838 4291967034
-0.2328866571 -0.1733533591 0.5193625093 4291901241
-0.2329523712 -0.1728250682 0.5195090771 4291835448
-0.2326263040 -0.1720067561 0.5187819004 4291901241
-0.2322998494 -0.1711897850 0.5180538893 4292032827
-0.2327567041 -0.1709497273 0.5190727115 4292032827
-0.2324297130 -0.1701336503 0.5183435082 4292032827
-0.2324943990 -0.1696049124 0.5184877515 4292032827
-0.2325589061 -0.1690757424 0.5186316371 4292032312
-0.2326232642 -0.1685461253 0.5187751055 4292032312
-0.2326874435 -0.1680160761 0.5189182758 4291966519
-0.2327514589 -0.1674855947 0.5190610290 4291900726
-0.2328153104 -0.1669546664 0.5192034245 4291966519
-0.2328789830 -0.1664232910 0.5193454027 4292032312
-0.2329424918 -0.1658914983 0.5194870830 4292098105
-0.2330058366 -0.1653592587 0.5196283460 4292163898
-0.2330690175 -0.1648266017 0.5197691917 4292098105
-0.2331320196 -0.1642934978 0.5199097395 4292163898
-0.2331948578 -0.1637599617 0.5200498104 4292098105
-0.2336508632 -0.1635012627 0.5210667849 4292032312
-0.2337134629 -0.1629659683 0.5212063789 4292098105
-0.2337758839 -0.1624302417 0.5213456154 4292032312
-0.2338381410 -0.1618940830 0.5214844346 4292032312
-0.2339002192 -0.1613575071 0.5216228962 4292098105
-0.2339621335 -0.1608204991 0.5217609406 4292098105
-0.2344178408 -0.1605529040 0.5227772593 4292098105
-0.2340854257 -0.1597452015 0.5220358968 4292098105
-0.2341468036 -0.1592069268 0.5221728086 4292032312
-0.2342080176 -0.1586682200 0.5223093033 4292032312
-0.2338746488 -0.1578628868 0.5215658545 4292163898
-0.2339354157 -0.1573242396 0.5217013359 4292032825
-0.2339959890 -0.1567851901 0.5218364596 4291703860
-0.2340563834 -0.1562457085 0.5219711661 4291967032
-0.2337218076 -0.1554432362 0.5212250352 4291835446
-0.2337817550 -0.1549038440 0.5213586688 4291901241
-0.2338415235 -0.1543640345 0.5214920044 4291967034
-0.2339011133 -0.1538238078 0.5216248631 4291967034
-0.2339605242 -0.1532831639 0.5217573643 4291967034
-0.2340197563 -0.1527421176 0.5218894482 4291967291
-0.2340788096 -0.1522006541 0.5220211148 4291835705
-0.2341376692 -0.1516587883 0.5221524239 4291967034
-0.2341963649 -0.1511165053 0.5222833157 4291967034
-0.2342548817 -0.1505738199 0.5224137902 4292032827
-0.2343132049 -0.1500307322 0.5225439072 4292032827
-0.2343713492 -0.1494872272 0.5226735473 4292032827
-0.2344293147 -0.1489433348 0.5228028297 4292032827
-0.2344870865 -0.1483990252 0.5229316950 4292098620
-0.2349408865 -0.1481040716 0.5239436626 4292098620
-0.2349983901 -0.1475580484 0.5240719318 4292032827
-0.2350557148 -0.1470116228 0.5241997838 4292032827
-0.2351128608 -0.1464647949 0.5243272185 4291967034
-0.2351698130 -0.1459175646 0.5244542360 4292032827
-0.2352265865 -0.1453699470 0.5245808363 4292032827
-0.2352831662 -0.1448219270 0.5247070193 4292098620
-0.2353395671 -0.1442735195 0.5248327851 4292098620
-0.2353957742 -0.1437247097 0.5249581337 4292164413
-0.2354518026 -0.1431755126 0.5250830650 4292033084
-0.2355076373 -0.1426259130 0.5252075791 4291967291
-0.2355632782 -0.1420759410 0.5253316760 4291967291
-0.2356187403 -0.1415255666 0.5254553556 4291967291
-0.2356739938 -0.1409748048 0.5255786180 4291967291
-0.2353315651 -0.1401868612 0.5248149037 4292033084
-0.2353863567 -0.1396362484 0.5249370933 4292098877
-0.2354409546 -0.1390852630 0.5250588655 4292098877
-0.2354953736 -0.1385339051 0.5251802206 4291968061
-0.2359474748 -0.1382152289 0.5261884928 4291968061
-0.2360016108 -0.1376621723 0.5263091922 4292098877
-0.2360555381 -0.1371087283 0.5264294744 4292098877
-0.2361092716 -0.1365548968 0.5265492797 4291968061
-0.2361628115 -0.1360007077 0.5266687274 4291902268
-0.2362161577 -0.1354461312 0.5267876983 4291836475
-0.2362693250 -0.1348911822 0.5269062519 4291770682
-0.2363222837 -0.1343358457 0.5270243287 4291640636
-0.2363750488 -0.1337801516 0.5271419883 4291640636
-0.2368263155 -0.1334487498 0.5281484127 4291968061
-0.2368787825 -0.1328913718 0.5282654166 4292033854
-0.2369310409 -0.1323336214 0.5283819437 4292230717
-0.2369831204 -0.1317754984 0.5284980536 4292296510
-0.2370349914 -0.1312170178 0.5286137462 4291772215
-0.2370866686 -0.1306581646 0.5287290215 4291509043
-0.2371381372 -0.1300989538 0.5288438201 4290525227
-0.2367901057 -0.1293212920 0.5280676484 4290393641
-0.2368410975 -0.1287623048 0.5281813741 4290068010
-0.2368918955 -0.1282029450 0.5282946229 4290331182
-0.2369424850 -0.1276432276 0.5284074545 4290399283
-0.2365932316 -0.1268688440 0.5276286006 4290465076
-0.2370430827 -0.1265227199 0.5286318064 4290202931
-0.2370930761 -0.1259619296 0.5287432671 4289545001
-0.2367429584 -0.1251893193 0.5279625058 4287906847
-0.2367924750 -0.1246287674 0.5280728936 4287643675
-0.2364417017 -0.1238582954 0.5272906423 4285877530
-0.2364907265 -0.1232979968 0.5273999572 4285811737
-0.2361392975 -0.1225296706 0.5266162753 4285418776
-0.2361878306 -0.1219696254 0.5267245173 4285352983
-0.2358357608 -0.1212034598 0.5259393454 4285222167
-0.2358838171 -0.1206436753 0.5260465145 4285287960
-0.2355310917 -0.1198796704 0.5252599120 4285092634
-0.2347773612 -0.1189143062 0.5235790014 4285092634
-0.2348245531 -0.1183563620 0.5236842632 4285485339
-0.2344707400 -0.1175970584 0.5228952169 4285551132
-0.2349183410 -0.1172394603 0.5238934159 4285552157
-0.2345639616 -0.1164814010 0.5231030583 4285552157
-0.2346102595 -0.1159230694 0.5232063532 4285486364
-0.2346563488 -0.1153644100 0.5233091116 4285420571
-0.2347022444 -0.1148054227 0.5234114528 4285485594
-0.2351492047 -0.1144414023 0.5244082808 4285419801
-0.2351947576 -0.1138808057 0.5245098472 4285550874
-0.2352401167 -0.1133198887 0.5246109962 4285485081
-0.2356867641 -0.1129510626 0.5256071091 4285419288
-0.2353301942 -0.1121970713 0.5248118639 4285485081
-0.2357765883 -0.1118256897 0.5258073807 4285551387
-0.2358211875 -0.1112625226 0.5259068608 4285551387
-0.2358655781 -0.1106990352 0.5260058641 4285682458
-0.2367135435 -0.1105104834 0.5278968811 4285879837
-0.2359537333 -0.1095711142 0.5262024403 4286141982
-0.2363995314 -0.1091923788 0.5271966457 4286207775
-0.2364431620 -0.1086266711 0.5272939205 4286667299
-0.2364865839 -0.1080606431 0.5273907185 4286798885
-0.2365297824 -0.1074943095 0.5274870992 4286798885
-0.2365727723 -0.1069276705 0.5275830030 4286930471
-0.2366155535 -0.1063607186 0.5276783705 4287844904
-0.2366581261 -0.1057934612 0.5277733207 4287844904
-0.2367004901 -0.1052258983 0.5278677940 4288892717
-0.2367426306 -0.1046580300 0.5279617906 4289024303
-0.2371872514 -0.1042668819 0.5289533138 4289875249
-0.2364235073 -0.1033453271 0.5272501111 4289941042
-0.2380762845 -0.1034778804 0.5309360027 4289940788
-0.2381177843 -0.1029059067 0.5310285091 4289874995
-0.2385620475 -0.1025067940 0.5320192575 4289942584
-0.2386031896 -0.1019332558 0.5321109891 4290403135
-0.2390472293 -0.1015306339 0.5331012607 4290009663
-0.2394911796 -0.1011257842 0.5340913534 4289220147
-0.2391285449 -0.1003801450 0.5332826376 4287908650
-0.2395722121 -0.0999727696 0.5342720151 4287645478
-0.2396124005 -0.0993958265 0.5343616605 4286663203
-0.2392489016 -0.0986522287 0.5335510373 4286400031
-0.2396921068 -0.0982410684 0.5345394015 4286728226
-0.2397316396 -0.0976632610 0.5346275568 4286794019
-0.2393672764 -0.0969217196 0.5338150263 4287318310
-0.2390025854 -0.0961818472 0.5330017209 4287713068
-0.2390413135 -0.0956051350 0.5330880880 4289678131
-0.2394836843 -0.0951886624 0.5340746045 4289941303
-0.2399259508 -0.0947699696 0.5350609422 4290464824
-0.2399641573 -0.0941904709 0.5351461172 4290464824
-0.2404061705 -0.0937682912 0.5361318588 4290792249
-0.2404439896 -0.0931872651 0.5362161994 4290858042
-0.2392690778 -0.0921390504 0.5335960388 4290922808
-0.2405189574 -0.0920244008 0.5363833904 4290988601
-0.2409604043 -0.0915962458 0.5373678803 4290596153
-0.2414017469 -0.0911658630 0.5383520722 4290530360
-0.2414385676 -0.0905815363 0.5384342074 4290988088
-0.2410706878 -0.0898461863 0.5376138091 4291053881
-0.2415115386 -0.0894120708 0.5385969281 4290464567
-0.2415476739 -0.0888269395 0.5386775136 4290398774
-0.2415836006 -0.0882415473 0.5387576222 4289612851
-0.2416192889 -0.0876559019 0.5388372540 4289415472
-0.2416547537 -0.0870699883 0.5389163494 4288105516
-0.2420948297 -0.0866286904 0.5398977399 4287908137
-0.2417249829 -0.0858974010 0.5390729904 4287122471
-0.2417597622 -0.0853107274 0.5391505361 4287056678
-0.2417943180 -0.0847238004 0.5392276049 4286533157
-0.2414235622 -0.0839956850 0.5384007692 4286533157
-0.2410524786 -0.0832692906 0.5375731587 4286336805
-0.2410862297 -0.0826835856 0.5376484394 4286271012
-0.2407145053 -0.0819596574 0.5368194580 4286139937
-0.2403424382 -0.0812374502 0.5359897017 4286139937
-0.2399700284 -0.0805169716 0.5351592302 4286140450
-0.2395972908 -0.0797982290 0.5343279839 4286206243
-0.2392242104 -0.0790812224 0.5334959626 4285878050
-0.2392563075 -0.0784990042 0.5335675478 4285878050
-0.2384770364 -0.0776524246 0.5318296552 4286532387
-0.2385085672 -0.0770717114 0.5318999887 4286532387
-0.2385398746 -0.0764907748 0.5319698453 4286401571
-0.2385709584 -0.0759096071 0.5320391059 4286467364
-0.2386018038 -0.0753282085 0.5321079493 4286533415
-0.2382265776 -0.0746194720 0.5312711596 4286730794
-0.2386628091 -0.0741647482 0.5322439671 4288303409
-0.2390989065 -0.0737078264 0.5332165360 4288632374
-0.2395348847 -0.0732487068 0.5341888070 4289810747
-0.2403767705 -0.0729105398 0.5360662937 4289942333
-0.2412186265 -0.0725681931 0.5379437208 4290531647
-0.2416542917 -0.0721004903 0.5389153361 4290465854
-0.2420898378 -0.0716305897 0.5398866534 4290792509
-0.2417127639 -0.0709201023 0.5390456915 4290792509
-0.2433668077 -0.0708023906 0.5427343845 4290203195
-0.2433956414 -0.0702076927 0.5427986979 4290137402
-0.2434242517 -0.0696127787 0.5428624749 4290267705
-0.2430461794 -0.0689024404 0.5420193672 4290267705
-0.2434807420 -0.0684223399 0.5429884791 4290660414
-0.2435086370 -0.0678268149 0.5430507064 4290923586
-0.2431297302 -0.0671188384 0.5422056913 4291383367
-0.2435637116 -0.0666351393 0.5431735516 4291514953
-0.2435908914 -0.0660390034 0.5432341099 4291843916
-0.2436178327 -0.0654426739 0.5432941914 4292436053
-0.2436445355 -0.0648461431 0.5433537960 4292371028
-0.2440778017 -0.0643566772 0.5443199873 4291844684
-0.2445109040 -0.0638650209 0.5452858806 4291449160
-0.2445369810 -0.0632659122 0.5453439951 4291251781
-0.2445628047 -0.0626666173 0.5454016328 4291315781
-0.2445884049 -0.0620671324 0.5454586744 4291249988
-0.2446137518 -0.0614674576 0.5455152392 4291577924
-0.2446388602 -0.0608676001 0.5455712080 4291643717
-0.2450708300 -0.0603678338 0.5465345383 4291643717
-0.2450954914 -0.0597666129 0.5465895534 4291643717
-0.2451199293 -0.0591652058 0.5466440320 4291775303
-0.2447368950 -0.0584663413 0.5457898378 4291775303
-0.2447607964 -0.0578655824 0.5458431244 4291774533
-0.2455990463 -0.0574552119 0.5477125049 4291774533
-0.2456225306 -0.0568521023 0.5477648973 4291971142
-0.2456457913 -0.0562488176 0.5478167534 4292036935
-0.2456687987 -0.0556453653 0.5478680730 4292036937
-0.2452841103 -0.0549504645 0.5470101833 4291971144
-0.2453065962 -0.0543476790 0.5470603108 4292102217
-0.2453288287 -0.0537447296 0.5471099019 4292168010
-0.2453508228 -0.0531416126 0.5471589565 4292233033
-0.2453725785 -0.0525383390 0.5472074747 4292298826
-0.2453940809 -0.0519349016 0.5472554564 4292036937
-0.2462306768 -0.0515018441 0.5491211414 4292036937
-0.2462517619 -0.0508960895 0.5491681695 4292168010
-0.2462725937 -0.0502901822 0.5492146015 4292168010
-0.2462931871 -0.0496841185 0.5492605567 4292168010
-0.2463135421 -0.0490779057 0.5493059158 4292102217
-0.2463336438 -0.0484715402 0.5493507385 4292102217
-0.2475771010 -0.0481027700 0.5521237850 4292168010
-0.2467810065 -0.0473366156 0.5503484011 4292168010
-0.2468003929 -0.0467288122 0.5503916740 4292233803
-0.2472275048 -0.0461970977 0.5513441563 4292364619
-0.2468384355 -0.0455127768 0.5504764915 4292298826
-0.2468570769 -0.0449045487 0.5505180955 4292298826
-0.2468754798 -0.0442961864 0.5505591035 4292233033
-0.2468936294 -0.0436876863 0.5505995750 4292167240
-0.2469115406 -0.0430790558 0.5506395102 4292298826
-0.2469291836 -0.0424702913 0.5506789088 4292102217
-0.2469465882 -0.0418614000 0.5507177114 4292168010
-0.2481883615 -0.0414569341 0.5534870028 4292233803
-0.2473888993 -0.0407104120 0.5517041087 4292233803
-0.2474055737 -0.0401001312 0.5517413020 4292168010
-0.2474220097 -0.0394897312 0.5517779589 4292168010
-0.2474382073 -0.0388792083 0.5518140197 4292233033
-0.2474541366 -0.0382685699 0.5518496037 4292233033
-0.2474698275 -0.0376578122 0.5518845916 4292298826
-0.2470768690 -0.0369858071 0.5510082245 4292298826
-0.2475004494 -0.0364359543 0.5519528389 4292298826
-0.2479238212 -0.0358839743 0.5528970361 4292298826
-0.2475300580 -0.0352136493 0.5520188808 4292429899
-0.2479529828 -0.0346594341 0.5529620647 4292429899
-0.2479671836 -0.0340470038 0.5529937148 4292429899
-0.2475726008 -0.0333793871 0.5521137714 4292429899
-0.2479948401 -0.0328218304 0.5530554056 4292430153
-0.2480082810 -0.0322090946 0.5530853868 4292495946
-0.2484300882 -0.0316483118 0.5540260673 4292495946
-0.2484430522 -0.0310343672 0.5540549755 4292364360
-0.2484557629 -0.0304203294 0.5540833473 4292364360
-0.2484682202 -0.0298061986 0.5541111231 4292430153
-0.2484804392 -0.0291919746 0.5541383624 4292364360
-0.2484923899 -0.0285776630 0.5541650057 4292495946
-0.2480953634 -0.0279172696 0.5532795787 4292299080
-0.2476980537 -0.0272588134 0.5523935556 4292299080
-0.2489354908 -0.0267781764 0.5551531911 4292299080
-0.2489464581 -0.0261625145 0.5551776290 4292299080
-0.2489571571 -0.0255467705 0.5552014709 4292299080
-0.2481499761 -0.0248490740 0.5534014106 4292299080
-0.2489778101 -0.0243150499 0.5552475452 4292364873
-0.2489877492 -0.0236990768 0.5552697182 4292430666
-0.2481797189 -0.0230072234 0.5534676909 4292627021
-0.2490068674 -0.0224669129 0.5553123355 4292495435
-0.2494249493 -0.0218866058 0.5562447309 4292430412
-0.2494338900 -0.0212693419 0.5562646389 4292496205
-0.2498514950 -0.0206858665 0.5571959615 4292627532
-0.2502688766 -0.0201003030 0.5581267476 4292627532
-0.2510949671 -0.0195444860 0.5599690676 4292495432
-0.2519208789 -0.0189845581 0.5618108511 4292363846
-0.2515196204 -0.0183311030 0.5609160662 4292431180
-0.2523450851 -0.0177660007 0.5627568960 4292628559
-0.2527613044 -0.0171690099 0.5636851788 4291583842
-0.2531773150 -0.0165699422 0.5646128654 4293294460
-0.2531840503 -0.0159430411 0.5646278858 4293309108
-0.2535995543 -0.0153408339 0.5655545592 4294957017
-0.2552419603 -0.0148077449 0.5692172647 4294966010
-0.2560660541 -0.0142210722 0.5710551143 4294966267
-0.2556627691 -0.0135651911 0.5701557398 4294440702
-0.2560773194 -0.0129526760 0.5710802078 4294835455
-0.2569007277 -0.0123577733 0.5729165077 4294965759
-0.2581329644 -0.0117774438 0.5756645203 4294833917
-0.2585467994 -0.0111556957 0.5765874386 4294964474
-0.2585512996 -0.0105152484 0.5765974522 4294964731
-0.2601919472 -0.0099372678 0.5802563429 4294966271
-0.2610141635 -0.0093219262 0.5820899606 4294966783
-0.2618361413 -0.0087025017 0.5839230418 4294506492
-0.2622487545 -0.0080664130 0.5848431587 4293651183
-0.2630702257 -0.0074398420 0.5866751075 4292927460
-0.2638914287 -0.0068091936 0.5885065198 4292730081
-0.2643032670 -0.0061649266 0.5894249678 4292927714
-0.2659422457 -0.0055442019 0.5930801034 4293256679
-0.2663535476 -0.0048928033 0.5939973593 4293454058
-0.2667646110 -0.0042393617 0.5949140191 4293322472
-0.2675845325 -0.0035893682 0.5967425108 4293649893
-0.2679950297 -0.0029308340 0.5976579785 4293649893
-0.2684052587 -0.0022702629 0.5985728502 4292663509
-0.2688152194 -0.0016076574 0.5994871259 4291610821
-0.2688157558 -0.0009415862 0.5994883180 4291347904
-0.2696343064 -0.0002763508 0.6013137698 4291347904
-0.2696342766 0.0003917518 0.6013137102 4291545281
-0.2700431347 0.0010614615 0.6022255421 4292269004
-0.2700425684 0.0017305734 0.6022242308 4293322462
-0.2397050411 -0.2598487139 0.5358956456 4290691787
-0.2397949696 -0.2593505681 0.5360966921 4290099650
-0.2395111471 -0.2584486306 0.5354621410 4289375927
-0.2396007180 -0.2579501271 0.5356624126 4288717738
-0.2393162698 -0.2570494413 0.5350264311 4287928222
-0.2394054830 -0.2565506101 0.5352259278 4286941329
-0.2394946069 -0.2560512125 0.5354251862 4286151813
-0.2392092645 -0.2551519573 0.5347872376 4285296504
-0.2389235348 -0.2542537153 0.5341484547 4285362297
-0.2390120625 -0.2537541986 0.5343463421 4285493111
-0.2391004711 -0.2532541454 0.5345439911 4286085248
