VERSION 0.7
FIELDS x y z rgba
SIZE 4 4 4 4
TYPE F F F U
COUNT 1 1 1 1
WIDTH 920
HEIGHT 1
VIEWPOINT 0.0 0.0 0.0 1.0 0.0 0.0 0.0
POINTS 920
DATA ascii
-0.3307826817 -0.1754870564 0.6208156943 4293520629
-0.3304023743 -0.1745963246 0.6201019287 4293454064
-0.3304780722 -0.1739471853 0.6202440262 4293454064
-0.3305535316 -0.1732976139 0.6203855872 4293651443
-0.3292587101 -0.1719321907 0.6179555058 4293914615
-0.3302469254 -0.1717595607 0.6198101640 4294111996
-0.3303215206 -0.1711095423 0.6199501753 4294243582
-0.3303958774 -0.1704591066 0.6200897098 4294309373
-0.3304699659 -0.1698082089 0.6202288270 4294309373
-0.3305438161 -0.1691568941 0.6203674078 4294243833
-0.3306174278 -0.1685051322 0.6205055714 4294243833
-0.3302333951 -0.1676207781 0.6197847724 4294309626
-0.3303063810 -0.1669690460 0.6199218035 4294375419
-0.3308367133 -0.1665472537 0.6209171414 4294440699
-0.3309093118 -0.1658937633 0.6210533381 4294506492
-0.3309816420 -0.1652398407 0.6211891174 4294900223
-0.3310537338 -0.1645854861 0.6213244200 4294702844
-0.3311255574 -0.1639307141 0.6214592457 4294768124
-0.3316552341 -0.1635013372 0.6224533319 4294504952
-0.3317266405 -0.1628448069 0.6225873232 4294636538
-0.3327143788 -0.1626358926 0.6244411469 4294965759
-0.3332438469 -0.1621998101 0.6254348755 4294966271
-0.3337732852 -0.1617614776 0.6264284849 4294966271
-0.3338440359 -0.1610996276 0.6265612841 4294966271
-0.3343732357 -0.1606577337 0.6275544763 4294965503
-0.3349023461 -0.1602136046 0.6285475492 4294769663
-0.3354313970 -0.1597672254 0.6295404434 4294835455
-0.3359603882 -0.1593186110 0.6305332780 4294572285
-0.3360302448 -0.1586510241 0.6306643486 4294901247
-0.3365589678 -0.1581988484 0.6316567063 4294967039
-0.3370876312 -0.1577444226 0.6326488853 4294835455
-0.3371568918 -0.1570737660 0.6327788234 4294966783
-0.3372258544 -0.1564026922 0.6329082847 4294835199
-0.3377541006 -0.1559433788 0.6338996887 4294440442
-0.3378226161 -0.1552705765 0.6340283155 4294703614
-0.3383506238 -0.1548076868 0.6350192428 4294835199
-0.3384186924 -0.1541331559 0.6351470351 4294900991
-0.3389464021 -0.1536667049 0.6361374855 4294702331
-0.3390140533 -0.1529904306 0.6362643838 4293254885
-0.3395414948 -0.1525204331 0.6372543573 4292725204
-0.3386883438 -0.1514309347 0.6356531382 4292988376
-0.3396756053 -0.1511640400 0.6375060081 4293054170
-0.3402025998 -0.1506891549 0.6384950876 4293514721
-0.3402690589 -0.1500090361 0.6386197805 4294438389
-0.3407957852 -0.1495305896 0.6396083236 4294966015
-0.3408617675 -0.1488487571 0.6397322416 4294769918
-0.3413881958 -0.1483667493 0.6407202482 4294967295
-0.3414537311 -0.1476832032 0.6408432126 4294900475
-0.3419798613 -0.1471976489 0.6418306828 4294439924
-0.3420449197 -0.1465124041 0.6419528127 4293451487
-0.3421097100 -0.1458267570 0.6420743465 4292793557
-0.3426353633 -0.1453363299 0.6430609226 4292397256
-0.3422384560 -0.1444543153 0.6423159838 4291278775
-0.3423023820 -0.1437675059 0.6424359679 4290948781
-0.3423660398 -0.1430803239 0.6425554752 4291409332
-0.3424294293 -0.1423927546 0.6426743865 4291408305
-0.3424925208 -0.1417047977 0.6427928209 4291474098
-0.3430170119 -0.1412065178 0.6437771916 4292592315
-0.3430796266 -0.1405168772 0.6438946724 4292987073
-0.3431419432 -0.1398268640 0.6440116763 4292788406
-0.3432039917 -0.1391364783 0.6441281438 4291275167
-0.3432657719 -0.1384457201 0.6442440748 4290878352
-0.3433272541 -0.1377545893 0.6443594098 4290417801
-0.3433884382 -0.1370630860 0.6444742680 4288573024
-0.3434493244 -0.1363712102 0.6445885897 4285875511
-0.3435099721 -0.1356789619 0.6447023749 4287124291
-0.3440327048 -0.1351680309 0.6456834674 4290084976
-0.3445553184 -0.1346548796 0.6466642618 4289097309
-0.3446152210 -0.1339596808 0.6467767358 4287123519
-0.3446748555 -0.1332641095 0.6468886733 4286926910
-0.3447341919 -0.1325681955 0.6470000148 4289098079
-0.3452560604 -0.1320489198 0.6479794383 4289888108
-0.3453148901 -0.1313513517 0.6480898261 4290151280
-0.3453734219 -0.1306534261 0.6481997371 4291005308
-0.3454316854 -0.1299551427 0.6483090520 4291268480
-0.3454896212 -0.1292565018 0.6484178305 4288112216
-0.3460105062 -0.1287298501 0.6493954062 4285414703
-0.3460679352 -0.1280295849 0.6495031714 4287258454
-0.3456617296 -0.1271585077 0.6487408280 4290942862
-0.3466453850 -0.1267975122 0.6505869627 4293707713
-0.3467020094 -0.1260952652 0.6506932378 4293839299
-0.3467583656 -0.1253926605 0.6507989764 4291802032
-0.3472780585 -0.1248564273 0.6517743468 4291078309
-0.3473338783 -0.1241522133 0.6518791318 4292594636
-0.3473894000 -0.1234476641 0.6519833207 4294239461
-0.3469807506 -0.1225788966 0.6512163877 4294767608
-0.3479635119 -0.1222004816 0.6530607939 4294965758
-0.3484822214 -0.1216559708 0.6540343761 4294899710
-0.3485367000 -0.1209481955 0.6541365981 4294965759
-0.3485908806 -0.1202400848 0.6542382836 4294835199
-0.3486447632 -0.1195316538 0.6543393731 4294769407
-0.3486983180 -0.1188228875 0.6544399261 4294966271
-0.3487515748 -0.1181138009 0.6545398831 4294966271
-0.3488045633 -0.1174043864 0.6546393037 4294834430
-0.3488571942 -0.1166946441 0.6547381282 4294768637
-0.3489095569 -0.1159845889 0.6548363566 4294900223
-0.3489616215 -0.1152742133 0.6549340487 4294966783
-0.3485486209 -0.1144109741 0.6541590095 4294965503
-0.3486000001 -0.1137009114 0.6542553902 4293912815
-0.3481862247 -0.1128398851 0.6534788013 4293583080
-0.3482369184 -0.1121301502 0.6535739303 4293780459
-0.3482872844 -0.1114201024 0.6536685228 4293911788
-0.3483373821 -0.1107097492 0.6537625194 4293517030
-0.3483871520 -0.1099990904 0.6538559198 4292793818
-0.3484366238 -0.1092881262 0.6539487839 4292464853
-0.3480205238 -0.1084318981 0.6531678438 4292399060
-0.3476040065 -0.1075772718 0.6523860693 4292464853
-0.3471870124 -0.1067242473 0.6516035199 4292333267
-0.3472350538 -0.1060149372 0.6516936421 4292530646
-0.3472827971 -0.1053053364 0.6517832875 4293122529
-0.3468646407 -0.1044552326 0.6509984732 4293517287
-0.3469117284 -0.1037460044 0.6510868073 4293320932
-0.3469584584 -0.1030364856 0.6511745453 4293123553
-0.3465391397 -0.1021893248 0.6503875256 4293254885
-0.3465852141 -0.1014801934 0.6504740119 4293386471
-0.3470968902 -0.1009062156 0.6514343023 4293452265
-0.3471423984 -0.1001955643 0.6515197754 4293386472
-0.3471876085 -0.0994846374 0.6516045928 4293452265
-0.3467664421 -0.0986408442 0.6508141160 4293518058
-0.3468109667 -0.0979303196 0.6508976817 4293583850
-0.3463889658 -0.0970888436 0.6501057148 4293583850
-0.3459665477 -0.0962490141 0.6493129134 4293650156
-0.3460100293 -0.0955395848 0.6493945122 4294373879
-0.3460532129 -0.0948298946 0.6494755149 4294966014
-0.3460960686 -0.0941199362 0.6495559812 4294966527
-0.3456721008 -0.0932838246 0.6487603188 4294966783
-0.3461808264 -0.0926992297 0.6497150660 4294966527
-0.3462227583 -0.0919884890 0.6497937441 4294966271
-0.3462643623 -0.0912774876 0.6498718262 4294966271
-0.3463056684 -0.0905662328 0.6499493718 4294900223
-0.3463466465 -0.0898547247 0.6500262618 4294044914
-0.3463872969 -0.0891429633 0.6501025558 4292860381
-0.3464276493 -0.0884309560 0.6501783133 4291939279
-0.3464677036 -0.0877186954 0.6502534747 4291281349
-0.3465074301 -0.0870061889 0.6503280401 4291281349
-0.3460797966 -0.0861771479 0.6495254040 4292202710
-0.3465859294 -0.0855804533 0.6504753232 4293058019
-0.3466247022 -0.0848672241 0.6505481601 4293716719
-0.3466631770 -0.0841537565 0.6506203413 4294045684
-0.3443650603 -0.0828777850 0.6463071704 4294374649
-0.3462718427 -0.0826146230 0.6498858929 4294637821
-0.3458419442 -0.0817908794 0.6490790248 4294769407
-0.3454116285 -0.0809688345 0.6482714415 4294769407
-0.3449808955 -0.0801484957 0.6474630237 4294835199
-0.3445497751 -0.0793298483 0.6466538906 4294835199
-0.3441182077 -0.0785129070 0.6458439231 4294966271
-0.3436862528 -0.0776976719 0.6450331807 4294900223
-0.3437215090 -0.0769888908 0.6450994015 4294572028
-0.3432887793 -0.0761761144 0.6442872286 4294506235
-0.3423878551 -0.0752622336 0.6425964236 4294243063
-0.3419542611 -0.0744538531 0.6417825818 4294045684
-0.3415202498 -0.0736471936 0.6409680247 4294373879
-0.3415536880 -0.0729421750 0.6410308480 4294242293
-0.3411189020 -0.0721379966 0.6402148008 4293651183
-0.3406836987 -0.0713355467 0.6393980384 4293519597
-0.3407161236 -0.0706318542 0.6394588947 4293256168
-0.3402801752 -0.0698319003 0.6386407018 4292729824
-0.3403119147 -0.0691287741 0.6387002468 4292465882
-0.3403433561 -0.0684254542 0.6387592554 4292465882
-0.3399062753 -0.0676287860 0.6379389167 4291872462
-0.3399370313 -0.0669260398 0.6379966736 4290030258
-0.3394992054 -0.0661318973 0.6371749043 4290424246
-0.3385926485 -0.0652492493 0.6354734898 4292003278
-0.3390906751 -0.0646381304 0.6364082098 4292068044
-0.3386516869 -0.0638482720 0.6355842948 4290028461
-0.3386807442 -0.0631475076 0.6356388330 4289896105
-0.3391779661 -0.0625329390 0.6365720034 4290883000
-0.3387379050 -0.0617454462 0.6357461214 4290816694
-0.3382974565 -0.0609597191 0.6349194646 4290882487
-0.3378566206 -0.0601757579 0.6340920925 4291937485
-0.3383526206 -0.0595585518 0.6350230575 4293187552
-0.3379110694 -0.0587761924 0.6341943145 4293517030
-0.3379378319 -0.0580761544 0.6342445612 4293517030
-0.3374955356 -0.0572963767 0.6334144473 4293517287
-0.3379904330 -0.0566755906 0.6343432665 4293780459
-0.3375474215 -0.0558974259 0.6335118413 4293977838
-0.3375728726 -0.0551977120 0.6335595846 4293977838
-0.3375980258 -0.0544978417 0.6336067915 4293979121
-0.3376228511 -0.0537978150 0.6336534023 4294110707
-0.3376473486 -0.0530976355 0.6336993575 4294111477
-0.3376715481 -0.0523973033 0.6337447762 4294111477
-0.3372263908 -0.0516250208 0.6329092979 4294111734
-0.3377189636 -0.0509961955 0.6338337660 4294309113
-0.3377422094 -0.0502954200 0.6338773966 4294309113
-0.3372960091 -0.0495256223 0.6330399513 4294243320
-0.3373185694 -0.0488255359 0.6330823302 4294111734
-0.3368716538 -0.0480583757 0.6322435141 4294045941
-0.3364243507 -0.0472930260 0.6314040422 4294045684
-0.3364458978 -0.0465944782 0.6314444542 4294111477
-0.3369364142 -0.0459598042 0.6323650479 4294177527
-0.3364880383 -0.0451969802 0.6315235496 4294243320
-0.3360393047 -0.0444359742 0.6306813955 4294309626
-0.3360595703 -0.0437378772 0.6307194233 4294243833
-0.3356101215 -0.0429795422 0.6298758388 4294046454
-0.3356297016 -0.0422821753 0.6299126148 4294046454
-0.3351795375 -0.0415265225 0.6290677190 4294046455
-0.3356679082 -0.0408870727 0.6299843788 4293980662
-0.3352170587 -0.0401331373 0.6291381717 4293980662
-0.3352353573 -0.0394362733 0.6291725039 4293980662
-0.3347837627 -0.0386850350 0.6283249855 4294046969
-0.3348014057 -0.0379889198 0.6283580661 4294244348
-0.3343491256 -0.0372403935 0.6275092363 4294374906
-0.3338964581 -0.0364937149 0.6266596913 4294374906
-0.3339130878 -0.0357992314 0.6266908646 4294374906
-0.3339293897 -0.0351046473 0.6267215014 4294440699
-0.3339453936 -0.0344099626 0.6267514825 4294441212
-0.3334913552 -0.0336677618 0.6258993745 4294572798
-0.3330369592 -0.0329274163 0.6250465512 4294703871
-0.3325822055 -0.0321889296 0.6241930723 4294703871
-0.3316573203 -0.0314078219 0.6224572062 4294572798
-0.3316715956 -0.0307175498 0.6224840283 4294704383
-0.3321554065 -0.0300697219 0.6233920455 4294573567
-0.3316992521 -0.0293367449 0.6225359440 4294507775
-0.3317126036 -0.0286462158 0.6225609779 4294376189
-0.3307859004 -0.0278764106 0.6208217144 4294310396
-0.3307985663 -0.0271876752 0.6208454967 4294113017
-0.3303410113 -0.0264612213 0.6199867725 4293586673
-0.3308229744 -0.0258099716 0.6208913326 4293126380
-0.3313046396 -0.0251566898 0.6217952967 4292534243
-0.3313160539 -0.0244666748 0.6218167543 4291810520
-0.3303872347 -0.0237091370 0.6200734973 4290823625
-0.3394241333 -0.1917959899 0.6383647323 4291546585
-0.3385987878 -0.1906220615 0.6368124485 4291414485
-0.3373187184 -0.1891965568 0.6344050169 4291480278
-0.3364918828 -0.1880296469 0.6328499317 4292072415
-0.3352101445 -0.1866129488 0.6304393411 4293125103
-0.3343818188 -0.1854530871 0.6288815141 4293321967
-0.3340072632 -0.1845474094 0.6281770468 4293321967
-0.3331776857 -0.1833928376 0.6266168356 4293848824
-0.3323474526 -0.1822413504 0.6250554323 4293783031
-0.3319712877 -0.1813413948 0.6243479252 4293848565
-0.3315946758 -0.1804427505 0.6236396432 4293848565
-0.3307626247 -0.1792988181 0.6220747828 4293520375
-0.3303849697 -0.1784037203 0.6213645339 4293454582
-0.3300068676 -0.1775099635 0.6206534505 4293455096
-0.3296283185 -0.1766175330 0.6199414730 4293455096
-0.3278831244 -0.1749972999 0.6166592240 4293520629
-0.3288698494 -0.1748367101 0.6185149550 4293520629
-0.3284898996 -0.1739483029 0.6178004146 4293716979
-0.3285652399 -0.1733016223 0.6179420948 4293848565
-0.3286403120 -0.1726544797 0.6180832982 4294177528
-0.3282592297 -0.1717683375 0.6173666120 4294374907
-0.3278777003 -0.1708835512 0.6166490316 4294309373
-0.3288640678 -0.1707104295 0.6185041070 4294243580
-0.3289381862 -0.1700615287 0.6186434627 4294112766
-0.3290120065 -0.1694121957 0.6187823415 4294046973
-0.3290856183 -0.1687624305 0.6189207435 4294178557
-0.3291589618 -0.1681122184 0.6190586686 4294178557
-0.3292320371 -0.1674615741 0.6191961765 4294178555
-0.3293048739 -0.1668105125 0.6193331480 4294178555
-0.3293774724 -0.1661590040 0.6194696426 4294243834
-0.3294498026 -0.1655070633 0.6196057200 4294309627
-0.3295218945 -0.1648547053 0.6197412610 4294439159
-0.3295937181 -0.1642019153 0.6198763847 4293649643
-0.3296653032 -0.1635486931 0.6200109720 4293516517
-0.3301939368 -0.1631209701 0.6210052371 4293121759
-0.3307225406 -0.1626910269 0.6219993830 4293384415
-0.3312510848 -0.1622588336 0.6229934096 4293910759
-0.3317795396 -0.1618244052 0.6239873171 4294502896
-0.3323079646 -0.1613877416 0.6249811053 4294831861
-0.3328363001 -0.1609488279 0.6259748340 4294766582
-0.3329066634 -0.1602872014 0.6261071563 4294634996
-0.3334347904 -0.1598447263 0.6271004081 4293979121
-0.3339628279 -0.1594000161 0.6280934811 4294505465
-0.3344908059 -0.1589530557 0.6290864944 4294965247
-0.3345604241 -0.1582870334 0.6292173862 4294964733
-0.3355465531 -0.1580524296 0.6310720444 4294703614
-0.3356158137 -0.1573837399 0.6312023401 4294967039
-0.3356848359 -0.1567146480 0.6313320994 4294967039
-0.3362122476 -0.1562583148 0.6323240399 4294901247
-0.3362807930 -0.1555874795 0.6324529648 4294768124
-0.3363490999 -0.1549162269 0.6325814128 4294768124
-0.3364171386 -0.1542445719 0.6327093840 4294768637
-0.3369439244 -0.1537820250 0.6337001324 4294966015
-0.3374706507 -0.1533172429 0.6346907616 4294572028
-0.3375380635 -0.1526425332 0.6348175406 4293453547
-0.3376052082 -0.1519674212 0.6349437833 4292594899
-0.3381314874 -0.1514977515 0.6359335780 4291936969
-0.3377386630 -0.1506160051 0.6351947784 4291673286
-0.3387241662 -0.1503476948 0.6370483041 4291936458
-0.3392500877 -0.1498722285 0.6380373836 4293516517
-0.3393161297 -0.1491923481 0.6381615996 4294832377
-0.3398417532 -0.1487133205 0.6391501427 4294899964
-0.3399073482 -0.1480317414 0.6392735243 4294965757
-0.3404326737 -0.1475491673 0.6402615309 4294966525
-0.3404977918 -0.1468658745 0.6403840184 4294966268
-0.3405626416 -0.1461821944 0.6405059099 4294701811
-0.3406271935 -0.1454981118 0.6406273842 4294109674
-0.3411518633 -0.1450093538 0.6416141391 4293845216
-0.3412159681 -0.1443235725 0.6417346597 4293055700
-0.3412797749 -0.1436374187 0.6418546438 4292791245
-0.3413432837 -0.1429508775 0.6419741511 4292133315
-0.3414065540 -0.1422639489 0.6420931220 4291212468
-0.3414694965 -0.1415766478 0.6422114968 4290751917
-0.3415322006 -0.1408889592 0.6423293948 4291869622
-0.3420555890 -0.1403901130 0.6433137655 4292461759
-0.3421177864 -0.1397007406 0.6434307694 4293249731
-0.3421796858 -0.1390109956 0.6435471773 4292460215
-0.3422413468 -0.1383208781 0.6436631083 4291075733
-0.3423026800 -0.1376303881 0.6437785029 4290352010
-0.3423637450 -0.1369395256 0.6438933611 4289230956
-0.3424245119 -0.1362483054 0.6440076232 4285480755
-0.3424850106 -0.1355566978 0.6441214085 4285545261
-0.3430068791 -0.1350464970 0.6451028585 4289821806
-0.3430668712 -0.1343532503 0.6452157497 4291400066
-0.3431265652 -0.1336596161 0.6453280449 4290676343
-0.3436478972 -0.1331446022 0.6463084817 4290149997
-0.3437071145 -0.1324493140 0.6464198232 4290347376
-0.3437660336 -0.1317536831 0.6465306282 4290084974
-0.3442867994 -0.1312338412 0.6475100517 4289821802
-0.3443452120 -0.1305365562 0.6476199627 4291138440
-0.3444033265 -0.1298389286 0.6477292776 4291664784
-0.3444611728 -0.1291409284 0.6478380561 4290152060
-0.3449811637 -0.1286149919 0.6488159895 4288112477
-0.3450384736 -0.1279153675 0.6489238143 4289692798
-0.3450955153 -0.1272153854 0.6490310431 4292916655
-0.3456149399 -0.1266846657 0.6500079632 4293707459
-0.3456714451 -0.1259830594 0.6501142383 4292654771
-0.3457276821 -0.1252811104 0.6502199769 4290880419
-0.3462465107 -0.1247455850 0.6511957645 4292656830
-0.3463022113 -0.1240420192 0.6513004899 4293975521
-0.3463576138 -0.1233381033 0.6514047384 4294830830
-0.3464127183 -0.1226338595 0.6515083909 4294965244
-0.3469307423 -0.1220922843 0.6524826288 4294965244
-0.3469853103 -0.1213864237 0.6525852680 4294702844
-0.3470396101 -0.1206802353 0.6526873708 4294966271
-0.3470935822 -0.1199737117 0.6527888775 4294965759
-0.3471472859 -0.1192668602 0.6528898478 4294899711
-0.3472006619 -0.1185596809 0.6529902816 4294833148
-0.3472537398 -0.1178521812 0.6530901194 4294964734
-0.3473065495 -0.1171443537 0.6531893611 4294898941
-0.3473590016 -0.1164362058 0.6532880664 4294767355
-0.3469473720 -0.1155732274 0.6525138617 4294702332
-0.3469991684 -0.1148653850 0.6526113153 4294899711
-0.3470506668 -0.1141572297 0.6527081728 4294966015
-0.3466378450 -0.1132970899 0.6519317031 4294636538
-0.3462245464 -0.1124385297 0.6511544585 4294899710
-0.3462750018 -0.1117313355 0.6512493491 4294966015
-0.3467893898 -0.1111726537 0.6522167921 4294636538
-0.3463750184 -0.1103160158 0.6514374614 4294044401
-0.3464245498 -0.1096078977 0.6515306234 4293978608
-0.3427582681 -0.1077316552 0.6446353197 4294373366
-0.3460582197 -0.1080457270 0.6508416533 4294175471
-0.3456422091 -0.1071935743 0.6500592232 4293912299
-0.3452257514 -0.1063430309 0.6492760181 4293714407
-0.3452735841 -0.1056362689 0.6493659616 4293451235
-0.3453210890 -0.1049292162 0.6494553089 4293385442
-0.3449034691 -0.1040816009 0.6486698985 4293517028
-0.3449503183 -0.1033749208 0.6487579942 4293583334
-0.3449968398 -0.1026679501 0.6488454938 4293714920
-0.3450430632 -0.1019606963 0.6489323974 4293451748
-0.3446239233 -0.1011167020 0.6481441259 4293188576
-0.3446694613 -0.1004098356 0.6482297778 4292727771
-0.3451799154 -0.0998372436 0.6491897702 4292201427
-0.3452248871 -0.0991288647 0.6492744088 4291938255
-0.3452695906 -0.0984202102 0.6493584514 4291675083
-0.3448485732 -0.0975795984 0.6485666633 4291346888
-0.3448925912 -0.0968713537 0.6486493945 4291281095
-0.3444707692 -0.0960330665 0.6478561163 4292268244
-0.3445141017 -0.0953252390 0.6479375958 4293123553
-0.3440915048 -0.0944892913 0.6471428275 4294176241
-0.3441341519 -0.0937818885 0.6472229958 4294834171
-0.3441765010 -0.0930742323 0.6473026276 4294966014
-0.3442185521 -0.0923663080 0.6473817229 4294966271
-0.3442602456 -0.0916581303 0.6474601626 4294965503
-0.3447675705 -0.0910727605 0.6484142542 4294833917
-0.3448087275 -0.0903631151 0.6484916806 4294834430
-0.3448495567 -0.0896532089 0.6485685110 4294768637
-0.3448900878 -0.0889430568 0.6486446857 4294373877
-0.3449303210 -0.0882326514 0.6487203240 4293650154
-0.3449701965 -0.0875220001 0.6487953663 4292926431
-0.3450098038 -0.0868111029 0.6488698721 4292531673
-0.3445827961 -0.0859836116 0.6480667591 4292729054
-0.3446216881 -0.0852731913 0.6481399536 4292926433
-0.3441939056 -0.0844480991 0.6473353505 4292597468
-0.3446985781 -0.0838516355 0.6482844949 4292663261
-0.3442700505 -0.0830279961 0.6474785805 4293519340
-0.3433745503 -0.0820945054 0.6457943916 4294506235
-0.3420119584 -0.0810540542 0.6432317495 4294900223
-0.3429819643 -0.0805672333 0.6450560093 4294966015
-0.3430184722 -0.0798590332 0.6451246738 4294900223
-0.3425879180 -0.0790429115 0.6443149447 4294702844
-0.3421569467 -0.0782285035 0.6435043812 4294702844
-0.3412587345 -0.0773100331 0.6418151259 4294702844
-0.3408268988 -0.0765000060 0.6410029531 4294505465
-0.3408615887 -0.0757955164 0.6410681605 4294571258
-0.3404289782 -0.0749879554 0.6402545571 4294505466
-0.3399959803 -0.0741821080 0.6394401789 4294308087
-0.3395625353 -0.0733779818 0.6386250257 4294439673
-0.3395958543 -0.0726755485 0.6386876702 4294308087
-0.3391616642 -0.0718739107 0.6378710866 4294045941
-0.3387270570 -0.0710740015 0.6370537281 4294111734
-0.3392265737 -0.0704699606 0.6379932165 4294177270
-0.3392585814 -0.0697676837 0.6380533576 4294177270
-0.3388229012 -0.0689700767 0.6372339725 4294439159
-0.3388542235 -0.0682683736 0.6372929215 4293912815
-0.3388852477 -0.0675664768 0.6373512149 4292793307
-0.3389159441 -0.0668643937 0.6374089122 4291345861
-0.3384788036 -0.0660708547 0.6365867853 4292528595
-0.3385088146 -0.0653693601 0.6366432309 4292923353
-0.3380709291 -0.0645783544 0.6358196735 4291935175
-0.3381002545 -0.0638774633 0.6358748674 4290027178
-0.3376616240 -0.0630889982 0.6350499392 4290157737
-0.3381580114 -0.0624751225 0.6359835267 4290618288
-0.3381864130 -0.0617736876 0.6360369325 4290420396
-0.3377467096 -0.0609876066 0.6352099180 4290683568
-0.3373066187 -0.0602032915 0.6343822479 4291475907
-0.3373339772 -0.0595032759 0.6344337463 4291146942
-0.3368931413 -0.0587215349 0.6336045861 4291607750
-0.3369198442 -0.0580221564 0.6336548328 4292594645
-0.3369462490 -0.0573226102 0.6337044835 4292792794
-0.3369722962 -0.0566229001 0.6337535381 4293187552
-0.3369980752 -0.0559230298 0.6338019371 4293780202
-0.3370234966 -0.0552229993 0.6338497996 4293451237
-0.3370486498 -0.0545228086 0.6338970661 4293188322
-0.3370734453 -0.0538224652 0.6339437366 4293583080
-0.3366297483 -0.0530481897 0.6331092119 4293715436
-0.3366538882 -0.0523485132 0.6331546307 4293649643
-0.3366777003 -0.0516486876 0.6331994534 4293518570
-0.3362329304 -0.0508778542 0.6323629022 4293584363
-0.3367244005 -0.0502485931 0.6332872510 4293781742
-0.3362789154 -0.0494794212 0.6324494481 4293781742
-0.3363014460 -0.0487799905 0.6324917674 4293716464
-0.3363236487 -0.0480804220 0.6325335503 4293584878
-0.3358770907 -0.0473147221 0.6316936612 4293519085
-0.3354301453 -0.0465508401 0.6308531165 4293584878
-0.3354513347 -0.0458528139 0.6308929324 4293782257
-0.3359407485 -0.0452177227 0.6318134069 4293782257
-0.3354927599 -0.0444563702 0.6309708953 4293716464
-0.3350444138 -0.0436968394 0.6301276088 4293782257
-0.3350642920 -0.0429992750 0.6301650405 4293716464
-0.3346152008 -0.0422424264 0.6293204427 4293650671
-0.3346344531 -0.0415455922 0.6293566227 4293650671
-0.3351220489 -0.0409058519 0.6302736998 4293584878
-0.3346719444 -0.0401515700 0.6294271350 4293519085
-0.3342214823 -0.0393991284 0.6285799146 4293519085
-0.3337706327 -0.0386485271 0.6277319789 4293651184
-0.3337882161 -0.0379530713 0.6277650595 4293914356
-0.3333366513 -0.0372051783 0.6269158125 4294111477
-0.3328847289 -0.0364591330 0.6260659099 4294111477
-0.3333702087 -0.0358156860 0.6269789338 4294111477
-0.3333864808 -0.0351207852 0.6270095706 4294243063
-0.3329335451 -0.0343773626 0.6261577010 4294309113
-0.3329491913 -0.0336832367 0.6261870861 4294506492
-0.3324955404 -0.0329425521 0.6253339052 4294638078
-0.3320415318 -0.0322037302 0.6244800687 4294703871
-0.3315871656 -0.0314667709 0.6236255169 4294572285
-0.3311324418 -0.0307316761 0.6227703094 4294769663
-0.3316154778 -0.0300835520 0.6236787438 4294704383
-0.3311600685 -0.0293502398 0.6228222847 4294704383
-0.3307043314 -0.0286187995 0.6219651103 4294638591
-0.3307173252 -0.0279288497 0.6219895482 4294704383
-0.3307300210 -0.0272388197 0.6220134497 4294704383
-0.3298040926 -0.0264733955 0.6202720404 4294507005
-0.3302852809 -0.0258218478 0.6211770177 4294309627
-0.3302969933 -0.0251325667 0.6211990714 4294178041
-0.3298391998 -0.0244084932 0.6203380823 4293849590
-0.3298502862 -0.0237200502 0.6203588843 4293454832
-0.3298610151 -0.0230315365 0.6203790903 4292533730
-0.3294022381 -0.0223111771 0.6195162535 4291678421
-0.3294123411 -0.0216235127 0.6195352674 4290757319
-0.3368841410 -0.1921700686 0.6349139810 4292533994
-0.3360607028 -0.1909966320 0.6333620548 4292335587
-0.3352365792 -0.1898262650 0.6318088174 4291414485
-0.3348649144 -0.1889146119 0.6311083436 4291216593
-0.3340395391 -0.1877494901 0.6295527816 4290887628
-0.3332134783 -0.1865874380 0.6279959679 4291215564
-0.3323867321 -0.1854284853 0.6264378428 4292202459
-0.3320128918 -0.1845246851 0.6257332563 4292005080
-0.3311848938 -0.1833710074 0.6241727471 4291676115
-0.3308100104 -0.1824707389 0.6234662533 4292597985
-0.3299807906 -0.1813223660 0.6219034195 4292795364
-0.3296048939 -0.1804256141 0.6211949587 4292992745
-0.3292285204 -0.1795302033 0.6204856634 4293058538
-0.3288517296 -0.1786361039 0.6197755337 4292795625
-0.3280201256 -0.1774975061 0.6182082295 4292532453
-0.3276422918 -0.1766069680 0.6174961329 4292598246
-0.3272640109 -0.1757177711 0.6167832017 4292993004
-0.3268852830 -0.1748299152 0.6160694361 4293650932
-0.3269608319 -0.1741856635 0.6162117720 4294111483
-0.3270361125 -0.1735409796 0.6163536906 4294374396
-0.3271111846 -0.1728958338 0.6164951921 4294440189
-0.3271859884 -0.1722502559 0.6166361570 4294506493
-0.3263502419 -0.1711268872 0.6150610447 4294309114
-0.3277901411 -0.1711955220 0.6177747846 4294111735
-0.3278643191 -0.1705477238 0.6179146171 4294045942
-0.3279382586 -0.1698994786 0.6180539131 4294243580
-0.3280119300 -0.1692507863 0.6181927919 4294506751
-0.3280853629 -0.1686016768 0.6183311939 4294243582
-0.3277027607 -0.1677188426 0.6176101565 4294375167
-0.3282314837 -0.1673021317 0.6186065674 4294375166
-0.3283041716 -0.1666517109 0.6187435389 4294111994
-0.3283765912 -0.1660008579 0.6188800335 4294242808
-0.3284487724 -0.1653495729 0.6190161109 4294440187
-0.3285207152 -0.1646978557 0.6191516519 4294175217
-0.3285923600 -0.1640457213 0.6192867160 4292859357
-0.3286637962 -0.1633931547 0.6194213629 4291541698
-0.3291915357 -0.1629661918 0.6204159260 4291212733
-0.3297192156 -0.1625369936 0.6214104891 4291013812
-0.3302468359 -0.1621055454 0.6224048734 4291013812
-0.3307744265 -0.1616718620 0.6233991385 4292065471
-0.3308449388 -0.1610135585 0.6235320568 4293381331
-0.3313722908 -0.1605762988 0.6245259643 4294367456
-0.3318995535 -0.1601368189 0.6255196929 4294696421
-0.3305977583 -0.1588164270 0.6230661869 4292921807
-0.3324965537 -0.1590323597 0.6266448498 4292066498
-0.3330235481 -0.1585870683 0.6276379824 4293315797
-0.3335504532 -0.1581395268 0.6286310554 4294565864
-0.3340772688 -0.1576897502 0.6296239495 4294896625
-0.3346040547 -0.1572377235 0.6306167245 4294963960
-0.3346728981 -0.1565692723 0.6307464838 4294964729
-0.3347414732 -0.1559004188 0.6308757663 4294965757
-0.3348098099 -0.1552311480 0.6310045123 4294965245
-0.3353359699 -0.1547728926 0.6319961548 4294964474
-0.3354038596 -0.1541018933 0.6321240664 4294834430
-0.3359297514 -0.1536400914 0.6331152320 4294900223
-0.3364555836 -0.1531760395 0.6341062784 4294834430
-0.3360643685 -0.1522942185 0.6333689094 4294571258
-0.3365898430 -0.1518275291 0.6343593001 4294240240
-0.3366565704 -0.1511526555 0.6344850063 4293648103
-0.3362642527 -0.1502723843 0.6337456703 4292528852
-0.3372480273 -0.1500058323 0.6355997324 4292397266
-0.3377729356 -0.1495320201 0.6365890503 4293384161
-0.3378387690 -0.1488537192 0.6367130876 4294107884
-0.3383634090 -0.1483763456 0.6377018690 4294701302
-0.3384287655 -0.1476963311 0.6378250122 4294964988
-0.3389531374 -0.1472154111 0.6388132572 4294966271
-0.3394773901 -0.1467322409 0.6398013234 4294702842
-0.3395420909 -0.1460492015 0.6399232745 4294703096
-0.3396065235 -0.1453657895 0.6400446892 4294571510
-0.3401302993 -0.1448777467 0.6410318613 4294635250
-0.3401942551 -0.1441926211 0.6411523819 4293911527
-0.3407177329 -0.1437010467 0.6421389580 4293910755
-0.3407812119 -0.1430142224 0.6422585845 4293450204
-0.3408443928 -0.1423270106 0.6423777342 4292595665
-0.3409073055 -0.1416394264 0.6424962878 4291542977
-0.3409699500 -0.1409514546 0.6426143050 4291804603
-0.3410322964 -0.1402631104 0.6427318454 4291607224
-0.3415547013 -0.1397627592 0.6437163949 4293250247
-0.3416165709 -0.1390727311 0.6438329816 4292723903
-0.3416781425 -0.1383823305 0.6439490318 4290352268
-0.3417394459 -0.1376915574 0.6440646052 4289496959
-0.3418004811 -0.1370004117 0.6441795826 4289758329
-0.3418611884 -0.1363088936 0.6442940235 4287850332
-0.3419216573 -0.1356170028 0.6444079280 4285283117
-0.3424426913 -0.1351065934 0.6453899741 4287585872
-0.3425026536 -0.1344130486 0.6455029249 4291006080
-0.3425623178 -0.1337191463 0.6456153989 4290282357
-0.3426216841 -0.1330248713 0.6457273364 4289887597
-0.3426807821 -0.1323302388 0.6458386779 4289361253
-0.3432008624 -0.1318124235 0.6468188763 4289361251
-0.3432594538 -0.1311161369 0.6469292641 4289361251
-0.3433177471 -0.1304194927 0.6470391750 4291072131
-0.3433757722 -0.1297225058 0.6471484900 4291795854
-0.3434334695 -0.1290251613 0.6472572684 4290875783
-0.3434908986 -0.1283274591 0.6473654509 4289823095
-0.3435480297 -0.1276294142 0.6474731565 4291074450
-0.3440667093 -0.1271016300 0.6484506726 4293771963
-0.3441233337 -0.1264019608 0.6485573649 4293116092
-0.3441796601 -0.1257019341 0.6486635208 4291142302
-0.3446977437 -0.1251693517 0.6496399641 4290552483
-0.3447535634 -0.1244677082 0.6497451663 4293315789
-0.3448090851 -0.1237657219 0.6498497725 4294305513
-0.3453265727 -0.1232283637 0.6508250833 4294963443
-0.3449192047 -0.1223607361 0.6500573754 4294966015
-0.3454362750 -0.1218208224 0.6510318518 4294899710
-0.3459531665 -0.1212786809 0.6520060301 4294703359
-0.3460073471 -0.1205731332 0.6521081328 4294966527
-0.3455985785 -0.1197070107 0.6513377428 4294833918
-0.3456520736 -0.1190017462 0.6514385939 4294899711
-0.3457053006 -0.1182961538 0.6515388489 4294767355
-0.3457581997 -0.1175902411 0.6516385674 4294767355
-0.3453478515 -0.1167275310 0.6508651972 4294898428
-0.3454000950 -0.1160219237 0.6509636641 4294964221
-0.3454520106 -0.1153159887 0.6510615349 4294964476
-0.3455036581 -0.1146097407 0.6511588097 4294767097
-0.3450917602 -0.1137504876 0.6503825784 4294701561
-0.3451427221 -0.1130445600 0.6504786015 4294372596
-0.3451933861 -0.1123383120 0.6505740881 4294504436
-0.3443168998 -0.1113320813 0.6489222050 4294833401
-0.3443668187 -0.1106271148 0.6490162611 4294964474
-0.3444164395 -0.1099218428 0.6491097808 4294767095
-0.3440021276 -0.1090692729 0.6483289599 4294569203
-0.3435873687 -0.1082183048 0.6475473046 4294503410
-0.3436359465 -0.1075140312 0.6476388574 4294175471
-0.3432204127 -0.1066653132 0.6468556523 4294241264
-0.3428044319 -0.1058182046 0.6460716724 4294174958
-0.3428519666 -0.1051149443 0.6461612582 4294174958
-0.3428991735 -0.1044113934 0.6462502480 4294438643
-0.3429461122 -0.1037075520 0.6463387012 4294767608
-0.3425285816 -0.1028640419 0.6455518007 4294767608
-0.3430390358 -0.1022990048 0.6465138197 4294767608
-0.3430850208 -0.1015943065 0.6466005445 4294899194
-0.3426664174 -0.1007528007 0.6458115578 4294833401
-0.3431761265 -0.1001840606 0.6467722058 4294438643
-0.3436856568 -0.0996131301 0.6477324963 4293780713
-0.3432659805 -0.0987726972 0.6469416022 4292794334
-0.3433104455 -0.0980666056 0.6470254064 4292070611
-0.3428899944 -0.0972284898 0.6462329626 4291741900
-0.3429338038 -0.0965228081 0.6463155150 4291741900
-0.3425125480 -0.0956870168 0.6455215812 4291807693
-0.3425556719 -0.0949817598 0.6456028819 4292005072
-0.3425984979 -0.0942762271 0.6456835866 4292530646
-0.3426409960 -0.0935704336 0.6457636952 4293056990
-0.3426831961 -0.0928643793 0.6458432078 4293846506
-0.3427250683 -0.0921580642 0.6459221244 4294636022
-0.3432317376 -0.0915755779 0.6468770504 4294965757
-0.3432730436 -0.0908677876 0.6469548941 4294966271
-0.3433140814 -0.0901597440 0.6470322013 4294966015
-0.3433547616 -0.0894514471 0.6471089125 4294966271
-0.3433951735 -0.0887429044 0.6471850276 4294900223
-0.3434352279 -0.0880341083 0.6472605467 4294834430
-0.3434750140 -0.0873250663 0.6473355293 4294834430
-0.3435144424 -0.0866157785 0.6474098563 4294505465
-0.3430880606 -0.0857898444 0.6466062665 4293386984
-0.3431268334 -0.0850810260 0.6466793418 4292136917
-0.3426996768 -0.0842574984 0.6458743215 4291741900
-0.3427377939 -0.0835491717 0.6459460855 4291412935
-0.3423098326 -0.0827280581 0.6451395750 4292334294
-0.3418814838 -0.0819086358 0.6443322301 4293452775
-0.3409868777 -0.0809802786 0.6426461935 4293913328
-0.3405576348 -0.0801652074 0.6418372393 4293979121
-0.3401279747 -0.0793518424 0.6410275102 4293649643
-0.3396979272 -0.0785401836 0.6402169466 4293254885
-0.3392674327 -0.0777302310 0.6394056678 4292860127
-0.3388365507 -0.0769219846 0.6385936141 4293452264
-0.3379391432 -0.0760106146 0.6369022727 4293715950
-0.3384397626 -0.0754145160 0.6378457546 4293913329
-0.3380076885 -0.0746104568 0.6370314360 4294308087
-0.3375752270 -0.0738081187 0.6362164021 4294637052
-0.3376086652 -0.0731084719 0.6362794638 4294702845
-0.3371754587 -0.0723086149 0.6354629397 4294439673
-0.3372082412 -0.0716095343 0.6355247498 4294243321
-0.3377071321 -0.0710083246 0.6364650130 4294243321
-0.3377393186 -0.0703078657 0.6365256906 4294177270
-0.3377712071 -0.0696072131 0.6365857720 4294177270
-0.3378027678 -0.0689063594 0.6366452575 4294570745
-0.3373674154 -0.0681110993 0.6358247399 4294373366
-0.3373983204 -0.0674108267 0.6358829737 4293780459
-0.3374288976 -0.0667103678 0.6359406114 4293319908
-0.3374591768 -0.0660097077 0.6359976530 4293713896
-0.3370223343 -0.0652185380 0.6351743937 4293582310
-0.3365851045 -0.0644291192 0.6343503594 4292725974
-0.3366143405 -0.0637298450 0.6344054341 4291673286
-0.3371101916 -0.0631178170 0.6353399754 4291145659
-0.3371388316 -0.0624172129 0.6353939772 4290553522
-0.3367002010 -0.0616309494 0.6345672607 4291145659
-0.3367281854 -0.0609309673 0.6346200109 4292395726
-0.3362887800 -0.0601472706 0.6337918639 4292660179
-0.3363161087 -0.0594479106 0.6338433623 4290883768
-0.3358759582 -0.0586667843 0.6330138445 4289699753
-0.3359026015 -0.0579680614 0.6330640912 4289897132
-0.3359289467 -0.0572691709 0.6331137419 4290490039
-0.3364222348 -0.0566487983 0.6340433955 4291345348
-0.3359806836 -0.0558709055 0.6332111955 4292332243
-0.3360060751 -0.0551715307 0.6332590580 4292266450
-0.3360311389 -0.0544719994 0.6333063245 4291938255
-0.3355884850 -0.0536975227 0.6324720979 4292398806
-0.3356128931 -0.0529986545 0.6325180531 4292794334
-0.3356370032 -0.0522996373 0.6325634718 4293254885
-0.3356607556 -0.0516004674 0.6326082945 4293123299
-0.3356842101 -0.0509011522 0.6326525211 4292794334
-0.3352397978 -0.0501317717 0.6318148971 4292992226
-0.3357301950 -0.0495020822 0.6327391267 4293189605
-0.3352850676 -0.0487343669 0.6319001913 4293255399
-0.3353072107 -0.0480354540 0.6319419742 4293123813
-0.3348613679 -0.0472703837 0.6311017275 4293058020
-0.3344151676 -0.0465071276 0.6302607059 4292926434
-0.3349040449 -0.0458738320 0.6311821342 4293123813
-0.3349249065 -0.0451753549 0.6312214136 4293386985
-0.3344776332 -0.0444146320 0.6303784847 4293255399
-0.3344978392 -0.0437168740 0.6304165721 4293255399
-0.3340498507 -0.0429588258 0.6295722723 4293518571
-0.3340694010 -0.0422617979 0.6296090484 4293518571
-0.3336206973 -0.0415064357 0.6287634373 4293583851
-0.3336395621 -0.0408101417 0.6287990212 4293583851
-0.3336581290 -0.0401137322 0.6288339496 4293518058
-0.3336763382 -0.0394172072 0.6288683414 4293452265
-0.3332262635 -0.0386662595 0.6280200481 4293518571
-0.3327758014 -0.0379171595 0.6271710992 4293650157
-0.3323249519 -0.0371699035 0.6263214350 4293847535
-0.3323418498 -0.0364758708 0.6263532639 4293913328
-0.3318903148 -0.0357313342 0.6255022883 4293914098
-0.3323746920 -0.0350874886 0.6264151335 4293979891
-0.3319224715 -0.0343447067 0.6255628467 4294045684
-0.3314699233 -0.0336037800 0.6247099042 4294177270
-0.3314851820 -0.0329111964 0.6247386932 4294374649
-0.3310318887 -0.0321730152 0.6238844395 4294506235
-0.3310465217 -0.0314812250 0.6239119768 4294506492
-0.3305925429 -0.0307457931 0.6230564117 4294638078
-0.3306065202 -0.0300548021 0.6230826974 4294638078
-0.3306201398 -0.0293637235 0.6231083870 4294572285
-0.3296968341 -0.0285913367 0.6213682890 4294507005
-0.3301781416 -0.0279416833 0.6222754121 4294572798
-0.3297224641 -0.0272126831 0.6214165688 4294704383
-0.3287980556 -0.0264478866 0.6196743846 4294638591
-0.3292784393 -0.0257970188 0.6205797195 4294835455
-0.3292901516 -0.0251084026 0.6206017733 4294506493
-0.3288331032 -0.0243849773 0.6197404265 4294111735
-0.3288441300 -0.0236971974 0.6197612286 4294243321
-0.3283864260 -0.0229765717 0.6188985705 4294243834
-0.3279283345 -0.0222578403 0.6180352569 4294112248
-0.3279384077 -0.0215718225 0.6180542707 4293454832
-0.3279481828 -0.0208857413 0.6180726290 4292402144
-0.3284261227 -0.0202284548 0.6189734340 4290954698
-0.3360747993 -0.1942261606 0.6347172260 4293126645
-0.3348023593 -0.1927882433 0.6323140860 4293258231
-0.3339809477 -0.1916144341 0.6307627559 4293520888
-0.3331588507 -0.1904436797 0.6292101145 4293455095
-0.3323360980 -0.1892759949 0.6276562214 4293322482
-0.3315126300 -0.1881113648 0.6261010170 4292269794
-0.3311408758 -0.1872055531 0.6253989339 4291742678
-0.3307686448 -0.1863010377 0.6246959567 4291676885
-0.3303959966 -0.1853978336 0.6239920855 4291807188
-0.3300228417 -0.1844959408 0.6232873797 4292070360
-0.3291964531 -0.1833431572 0.6217266321 4291280328
-0.3288222849 -0.1824447811 0.6210199594 4290490812
-0.3284476697 -0.1815477163 0.6203124523 4291148742
-0.3280726075 -0.1806519777 0.6196041107 4291280328
-0.3272438049 -0.1795089245 0.6180388331 4291215564
-0.3268677294 -0.1786167175 0.6173285842 4291149771
-0.3264911771 -0.1777258515 0.6166173816 4291017670
-0.3261141777 -0.1768363118 0.6159054041 4290820291
-0.3257367313 -0.1759481132 0.6151925325 4290951877
-0.3253588080 -0.1750612557 0.6144788265 4291675600
-0.3254343271 -0.1744190007 0.6146214604 4292596702
-0.3255096078 -0.1737762988 0.6147636175 4293123046
-0.3255846500 -0.1731331646 0.6149052978 4293518317
-0.3256594241 -0.1724895686 0.6150465608 4293913075
-0.3257339895 -0.1718455404 0.6151873469 4294177017
-0.3258082867 -0.1712010652 0.6153276563 4294440189
-0.3263368607 -0.1707940251 0.6163259149 4294637052
-0.3264107704 -0.1701477617 0.6164655089 4294505466
-0.3264844418 -0.1695010811 0.6166046858 4294439672
-0.3265578449 -0.1688539535 0.6167433262 4294439672
-0.3266310096 -0.1682063788 0.6168814898 4294308605
-0.3267039359 -0.1675583869 0.6170192361 4294440191
-0.3267766237 -0.1669099480 0.6171565056 4294374398
-0.3273042440 -0.1664926410 0.6181529760 4294177019
-0.3269211948 -0.1656117886 0.6174295545 4294439419
-0.3269931376 -0.1649620682 0.6175653934 4294636798
-0.3275203109 -0.1645407528 0.6185610294 4294569975
-0.3275918365 -0.1638892740 0.6186961532 4293780459
-0.3276630938 -0.1632373482 0.6188307405 4293252829
-0.3277341127 -0.1625850201 0.6189648509 4292660692
-0.3282607794 -0.1621574759 0.6199595332 4292855500
-0.3287874162 -0.1617276967 0.6209540963 4292921293
-0.3293139637 -0.1612956822 0.6219485402 4292918211
-0.3293842375 -0.1606389284 0.6220812798 4291931316
-0.3303668797 -0.1604249179 0.6239371300 4292586936
-0.3295240402 -0.1593241692 0.6223453283 4293837003
-0.3309630454 -0.1593254358 0.6250630617 4294035149
-0.3314892054 -0.1588831246 0.6260567307 4291798187
-0.3320152760 -0.1584385633 0.6270502806 4290549146
-0.3325412571 -0.1579917818 0.6280437112 4291207076
-0.3330671787 -0.1575427353 0.6290369630 4292325303
-0.3331360519 -0.1568762660 0.6291670799 4293575370
-0.3336617351 -0.1564236581 0.6301598549 4294433249
-0.3337301910 -0.1557554603 0.6302891374 4294961906
-0.3337983787 -0.1550868303 0.6304178834 4294965245
-0.3343236148 -0.1546293348 0.6314099431 4294964988
-0.3343913555 -0.1539589763 0.6315378547 4294900223
-0.3349163830 -0.1534979194 0.6325293779 4294768637
-0.3349836767 -0.1528258324 0.6326564550 4294833148
-0.3350507021 -0.1521533430 0.6327830553 4294964734
-0.3355752528 -0.1516873837 0.6337737441 4294833150
-0.3342681229 -0.1503951102 0.6313050985 4294569978
-0.3361661434 -0.1505436599 0.6348897219 4292858587
-0.3362322450 -0.1498677284 0.6350145936 4292266450
-0.3358399272 -0.1489881426 0.6342736483 4292397007
-0.3368219435 -0.1487170011 0.6361283064 4292528593
-0.3368873596 -0.1480389535 0.6362518072 4293713380
-0.3374109268 -0.1475610137 0.6372406483 4294766068
-0.3379343748 -0.1470808238 0.6382292509 4294966014
-0.3384577632 -0.1465983838 0.6392176747 4294966527
-0.3385223150 -0.1459160000 0.6393396258 4294900221
-0.3385865986 -0.1452332288 0.6394610405 4294834428
-0.3391094804 -0.1447459310 0.6404485703 4294964988
-0.3391732872 -0.1440614462 0.6405690908 4294635509
-0.3396959007 -0.1435706019 0.6415560842 4294569203
-0.3397592306 -0.1428844184 0.6416757107 4294371824
-0.3398222923 -0.1421978623 0.6417948008 4293846506
-0.3398850858 -0.1415109187 0.6419133544 4292530646
-0.3399475813 -0.1408236027 0.6420314312 4291673533
-0.3404692709 -0.1403252780 0.6430166960 4290949810
-0.3405312896 -0.1396362782 0.6431338191 4293382091
-0.3405930400 -0.1389468908 0.6432504654 4292855747
-0.3406544924 -0.1382571459 0.6433665156 4291208347
-0.3407156765 -0.1375670135 0.6434820294 4291208347
-0.3407765627 -0.1368765086 0.6435970664 4291666326
-0.3408371508 -0.1361856461 0.6437115073 4290416259
-0.3413575292 -0.1356772631 0.6446942687 4288046169
-0.3414176404 -0.1349847317 0.6448078156 4288506720
-0.3414774835 -0.1342918277 0.6449208260 4290414200
-0.3415369987 -0.1335985661 0.6450332403 4289361512
-0.3415962756 -0.1329049468 0.6451451778 4290348150
-0.3416552246 -0.1322109550 0.6452565193 4290611322
-0.3417139053 -0.1315166205 0.6453673244 4290084976
-0.3422328830 -0.1309982240 0.6463475227 4289756011
-0.3422910869 -0.1303022355 0.6464573741 4290215794
-0.3423489630 -0.1296058893 0.6465666890 4290281587
-0.3424065411 -0.1289091855 0.6466754675 4289822066
-0.3424638510 -0.1282121390 0.6467837095 4289690480
-0.3425208628 -0.1275147349 0.6468913555 4289824381
-0.3425775766 -0.1268169880 0.6469984651 4292390308
-0.3426340222 -0.1261188984 0.6471050382 4293248705
-0.3426901400 -0.1254204661 0.6472110748 4292459189
-0.3432072699 -0.1248895451 0.6481877565 4290553766
-0.3432629108 -0.1241894886 0.6482927799 4291869626
-0.3437796831 -0.1236550659 0.6492688060 4293714146
-0.3438347876 -0.1229533851 0.6493728757 4294964470
-0.3438895941 -0.1222513691 0.6494763494 4294965759
-0.3439441025 -0.1215490252 0.6495793462 4294966015
-0.3439983130 -0.1208463386 0.6496816874 4294637567
-0.3445140421 -0.1203045920 0.6506557465 4294769151
-0.3441058397 -0.1194399819 0.6498848200 4294768637
-0.3441591561 -0.1187363043 0.6499854922 4294834430
-0.3442122042 -0.1180323064 0.6500856280 4294768124
-0.3442649245 -0.1173279807 0.6501852274 4294768124
-0.3438551724 -0.1164667979 0.6494113803 4294833401
-0.3439072073 -0.1157627776 0.6495096684 4294701815
-0.3434966505 -0.1149037853 0.6487342715 4294964474
-0.3435480297 -0.1142000780 0.6488313079 4294898681
-0.3435991108 -0.1134960502 0.6489278078 4294964474
-0.3436498940 -0.1127917171 0.6490237117 4294569716
-0.3432378173 -0.1119362041 0.6482453942 4294174956
-0.3428252637 -0.1110822856 0.6474662423 4293714405
-0.3428750038 -0.1103789210 0.6475602388 4293384413
-0.3424616456 -0.1095272377 0.6467795372 4292923862
-0.3420478702 -0.1086771488 0.6459980607 4292857556
-0.3411707580 -0.1076825559 0.6443415284 4293120728
-0.3412190080 -0.1069817767 0.6444326639 4292859611
-0.3408039510 -0.1061365008 0.6436487436 4292991197
-0.3408515453 -0.1054360867 0.6437386870 4292662232
-0.3408988416 -0.1047353819 0.6438279748 4292464853
-0.3409458399 -0.1040343791 0.6439167261 4293056990
-0.3409925401 -0.1033330932 0.6440049410 4293912299
-0.3410389125 -0.1026315168 0.6440925598 4294570229
-0.3410850167 -0.1019296572 0.6441795826 4294964987
-0.3411307931 -0.1012275144 0.6442660689 4294965758
-0.3411762714 -0.1005250886 0.6443519592 4294965244
-0.3416850567 -0.0999580100 0.6453129053 4294899964
-0.3417299986 -0.0992540717 0.6453977227 4294899964
-0.3413108885 -0.0984161422 0.6446061730 4294702585
-0.3413551450 -0.0977126062 0.6446897984 4294307827
-0.3409352303 -0.0968769938 0.6438967586 4293847022
-0.3409788311 -0.0961738750 0.6439790726 4293583850
-0.3410221040 -0.0954704806 0.6440607905 4292991197
-0.3410650790 -0.0947668254 0.6441419721 4292728025
-0.3406436443 -0.0939349234 0.6433460712 4292464853
-0.3406859636 -0.0932317004 0.6434259415 4292399060
-0.3407279551 -0.0925282091 0.6435052156 4292925404
-0.3412339091 -0.0919495597 0.6444607973 4293714920
-0.3412753344 -0.0912446007 0.6445390582 4294307057
-0.3413164616 -0.0905393809 0.6446167231 4294570229
-0.3413572609 -0.0898339003 0.6446937919 4294834171
-0.3413977623 -0.0891281739 0.6447702646 4294966527
-0.3414379656 -0.0884222016 0.6448462009 4294966271
-0.3410132527 -0.0875966325 0.6440441012 4294834430
-0.3410527706 -0.0868911222 0.6441187263 4294900223
-0.3410919905 -0.0861853659 0.6441927552 4294900223
-0.3406661451 -0.0853629187 0.6433885098 4294373366
-0.3402398527 -0.0845421478 0.6425834298 4293518057
-0.3407428861 -0.0839521289 0.6435334682 4292334037
-0.3398509920 -0.0830192342 0.6418489814 4291741900
-0.3394235075 -0.0822025687 0.6410416365 4292005072
-0.3389956355 -0.0813876018 0.6402335763 4292465623
-0.3385673463 -0.0805743262 0.6394246817 4292597209
-0.3386037648 -0.0798724741 0.6394934654 4292202451
-0.3377095461 -0.0789528862 0.6378046274 4291675853
-0.3372800052 -0.0781447291 0.6369934082 4291346888
-0.3368500769 -0.0773382708 0.6361814141 4292070611
-0.3364197612 -0.0765335336 0.6353687048 4292925920
-0.3350583017 -0.0755207241 0.6327974200 4292991713
-0.3364886642 -0.0751370415 0.6354988813 4292662748
-0.3365226686 -0.0744384751 0.6355630755 4293189093
-0.3365563452 -0.0737397000 0.6356266737 4294175988
-0.3361241817 -0.0729396939 0.6348104477 4294636539
-0.3361572027 -0.0722414628 0.6348728538 4294636539
-0.3357242644 -0.0714439452 0.6340551972 4294637052
-0.3357565999 -0.0707462803 0.6341162920 4294702845
-0.3362543881 -0.0701455697 0.6350563765 4294637052
-0.3362861574 -0.0694465414 0.6351163983 4294373880
-0.3363175988 -0.0687473118 0.6351757646 4294373367
-0.3363487422 -0.0680478886 0.6352345943 4294439160
-0.3363795877 -0.0673482642 0.6352928281 4294438389
-0.3359441459 -0.0665561482 0.6344704628 4294504182
-0.3359743357 -0.0658571199 0.6345274448 4294438389
-0.3360041678 -0.0651578978 0.6345838308 4294372596
-0.3360337019 -0.0644584969 0.6346396208 4294109167
-0.3355968297 -0.0636704788 0.6338145137 4293780202
-0.3356257081 -0.0629716888 0.6338690519 4293253345
-0.3356542587 -0.0622727089 0.6339229941 4292727001
-0.3361487091 -0.0616590753 0.6348568201 4292463829
-0.3357104361 -0.0608742274 0.6340290308 4292003278
-0.3357380331 -0.0601747259 0.6340811849 4291015867
-0.3357653320 -0.0594750494 0.6341327429 4290094765
-0.3353259563 -0.0586935729 0.6333029270 4290489523
-0.3353525698 -0.0579945371 0.6333532333 4291213246
-0.3349124491 -0.0572156422 0.6325219870 4290686902
-0.3349384069 -0.0565172471 0.6325709820 4289963179
-0.3354305923 -0.0558964312 0.6335005164 4290753211
-0.3349893987 -0.0551199727 0.6326673031 4291279555
-0.3350144029 -0.0544210970 0.6327145696 4290622138
-0.3350391090 -0.0537220687 0.6327611804 4290358966
-0.3350634873 -0.0530228838 0.6328072548 4291082689
-0.3350875676 -0.0523235500 0.6328527331 4292595928
-0.3351113200 -0.0516240634 0.6328975558 4292990943
-0.3351347744 -0.0509244315 0.6329418421 4292859357
-0.3351579010 -0.0502246544 0.6329855323 4293188322
-0.3347138762 -0.0494557545 0.6321469545 4293385701
-0.3342694640 -0.0486886650 0.6313076615 4292991714
-0.3342915773 -0.0479904115 0.6313493848 4293057507
-0.3338464499 -0.0472259670 0.6305087209 4293123300
-0.3338679075 -0.0465284176 0.6305492520 4292925921
-0.3334220648 -0.0457666330 0.6297072172 4292991714
-0.3339098394 -0.0451329164 0.6306284666 4293452265
-0.3339303434 -0.0444349684 0.6306671500 4293452265
-0.3330163956 -0.0436145552 0.6289410591 4293386472
-0.3335033059 -0.0429785028 0.6298606396 4293189093
