VERSION 0.7
FIELDS x y z rgba
SIZE 4 4 4 4
TYPE F F F U
COUNT 1 1 1 1
WIDTH 920
HEIGHT 1
VIEWPOINT 0.0 0.0 0.0 1.0 0.0 0.0 0.0
POINTS 920
DATA ascii
-0.3026088774 -0.1489945799 0.6167961359 4292731372
-0.3026712537 -0.1483398527 0.6169233322 4292336614
-0.3027334213 -0.1476847231 0.6170499921 4291941856
-0.3032260239 -0.1472383440 0.6180540919 4291547098
-0.3032877445 -0.1465814710 0.6181799173 4291218133
-0.3033492267 -0.1459242105 0.6183052063 4291152340
-0.3034104705 -0.1452665478 0.6184300184 4290954961
-0.3034714460 -0.1446084827 0.6185543537 4291020754
-0.3035321832 -0.1439500153 0.6186780930 4291349719
-0.3035926521 -0.1432911754 0.6188013554 4291744477
-0.3032215536 -0.1424293220 0.6180449724 4292205028
-0.3028500080 -0.1415689588 0.6172876954 4292731372
-0.3029095531 -0.1409108043 0.6174090505 4293455095
-0.3029688597 -0.1402522624 0.6175299287 4293718267
-0.3030278981 -0.1395933330 0.6176502109 4294047231
-0.3030866683 -0.1389340311 0.6177700162 4294047231
-0.3027133644 -0.1380773634 0.6170091033 4293849853
-0.3027715385 -0.1374182254 0.6171277165 4293455095
-0.3028294742 -0.1367587149 0.6172457933 4292928751
-0.3028871417 -0.1360988319 0.6173633337 4292468200
-0.3025123775 -0.1352453530 0.6165995002 4292072415
-0.3021372259 -0.1343933940 0.6158348322 4291217106
-0.3021939397 -0.1337342560 0.6159504652 4290164418
-0.3022504449 -0.1330747604 0.6160655618 4289177523
-0.3018741608 -0.1322254539 0.6152986288 4288651179
-0.3014974892 -0.1313776672 0.6145308614 4288716972
-0.3015530109 -0.1307189614 0.6146440506 4288914351
-0.3011755943 -0.1298732907 0.6138747334 4288716972
-0.3007977307 -0.1290291399 0.6131045818 4288848558
-0.3012852073 -0.1285559535 0.6140981913 4289111730
-0.3013396263 -0.1278967410 0.6142091155 4289769660
-0.3005277216 -0.1268715560 0.6125542521 4290164418
-0.2997152507 -0.1258497983 0.6108981967 4290296004
-0.2997685671 -0.1251933277 0.6110069156 4290361797
-0.2998216450 -0.1245364994 0.6111150980 4290098625
-0.2994411290 -0.1237003058 0.6103394628 4289506488
-0.2994935811 -0.1230437309 0.6104463935 4288782765
-0.2991123199 -0.1222097054 0.6096692681 4288124835
-0.2991642058 -0.1215533987 0.6097750068 4287401626
-0.2996494472 -0.1210719571 0.6107640862 4286941075
-0.2997008860 -0.1204140186 0.6108689308 4286612110
-0.2997520566 -0.1197557449 0.6109732389 4286677903
-0.3002368212 -0.1192694828 0.6119613051 4287006352
-0.3007214665 -0.1187809855 0.6129491329 4287335317
-0.3012060225 -0.1182902381 0.6139367819 4287992734
-0.3016904294 -0.1177972555 0.6149241328 4288321699
-0.3021747172 -0.1173020303 0.6159112453 4288650664
-0.3026588857 -0.1168045625 0.6168981194 4288913836
-0.3027086258 -0.1161382347 0.6169995070 4289177008
-0.3031924963 -0.1156372428 0.6179857254 4289505973
-0.3032417595 -0.1149692982 0.6180861592 4289834679
-0.3028562367 -0.1141372696 0.6173003912 4289966265
-0.3029049039 -0.1134696379 0.6173995733 4290164416
-0.3029533029 -0.1128016859 0.6174982190 4290230209
-0.3030014336 -0.1121334061 0.6175963283 4290427588
-0.3030492961 -0.1114648134 0.6176938415 4290624967
-0.3030968904 -0.1107959077 0.6177908778 4290756553
-0.3035791218 -0.1102846861 0.6187738180 4290756553
-0.3036262393 -0.1096141934 0.6188697815 4290624965
-0.3041081131 -0.1090994626 0.6198520660 4290493379
-0.3041547537 -0.1084273905 0.6199470758 4290164414
-0.3046362996 -0.1079091579 0.6209285855 4290098621
-0.3046824634 -0.1072355062 0.6210226417 4289967035
-0.3051636517 -0.1067137718 0.6220034957 4289638070
-0.3060801029 -0.1063410863 0.6238714457 4289374641
-0.3065610528 -0.1058139279 0.6248517632 4289243055
-0.3066063523 -0.1051352099 0.6249440908 4289177260
-0.3066513836 -0.1044561863 0.6250358820 4288979881
-0.3066961169 -0.1037768722 0.6251270771 4288914090
-0.3067405820 -0.1030972525 0.6252176762 4288848297
-0.3072205484 -0.1025628224 0.6261959672 4288914090
-0.3072645068 -0.1018816531 0.6262856126 4288848297
-0.3073081970 -0.1012001932 0.6263746619 4288651175
-0.3073516190 -0.1005184352 0.6264631152 4288585382
-0.3073947430 -0.0998364016 0.6265510321 4288322210
-0.3074375689 -0.0991540700 0.6266383529 4287927452
-0.3074801266 -0.0984714627 0.6267250776 4287532694
-0.3075224161 -0.0977885723 0.6268112659 4287137936
-0.3080006838 -0.0972431377 0.6277860999 4286546569
-0.3080424368 -0.0965587124 0.6278712153 4286151811
-0.3080839217 -0.0958740190 0.6279557943 4285954432
-0.3085615635 -0.0953238681 0.6289293170 4285625467
-0.3086025417 -0.0946376473 0.6290128827 4285099123
-0.3086432517 -0.0939511582 0.6290957928 4284638572
-0.3086836636 -0.0932643935 0.6291781664 4284309605
-0.3091604412 -0.0927083120 0.6301499605 4284243812
-0.3092003167 -0.0920200422 0.6302312613 4284375398
-0.3092399240 -0.0913315043 0.6303120255 4284770156
-0.3092792332 -0.0906427056 0.6303921342 4285230707
-0.3093182743 -0.0899536461 0.6304717064 4285822844
-0.3097939491 -0.0893904045 0.6314412355 4286546567
-0.3098324537 -0.0886998475 0.6315197349 4287204497
-0.3103077412 -0.0881331712 0.6324884892 4288454564
-0.3103457093 -0.0874411315 0.6325658560 4289244080
-0.3108205497 -0.0868710205 0.6335337162 4290033596
-0.3108580112 -0.0861775056 0.6336100698 4290691526
-0.3113324344 -0.0856039673 0.6345770955 4291152077
-0.3113693595 -0.0849089697 0.6346523166 4291481042
-0.3118433654 -0.0843320116 0.6356184483 4291810007
-0.3118797541 -0.0836355537 0.6356926560 4292073179
-0.3119158447 -0.0829388499 0.6357662082 4292468188
-0.3123891652 -0.0823572502 0.6367309690 4292731360
-0.3124247193 -0.0816590935 0.6368033886 4292862946
-0.3124599755 -0.0809606910 0.6368752718 4293060325
-0.3129326105 -0.0803744718 0.6378386617 4293455596
-0.3016711771 -0.1529783010 0.6162800789 4292533993
-0.3017350137 -0.1523257792 0.6164104342 4292205028
-0.3013692796 -0.1514571011 0.6156632900 4291941856
-0.3010031283 -0.1505898833 0.6149153113 4291481305
-0.3010660112 -0.1499379873 0.6150437593 4291152340
-0.3011286557 -0.1492856890 0.6151717901 4291218133
-0.3003317416 -0.1482089311 0.6135437489 4291349719
-0.3003937304 -0.1475576758 0.6136704087 4291547098
-0.3004554510 -0.1469060332 0.6137964725 4292007649
-0.3005169332 -0.1462539732 0.6139221191 4292599786
-0.3010081947 -0.1458098292 0.6149256825 4292993517
-0.3010692596 -0.1451560557 0.6150504351 4293519861
-0.3006998897 -0.1442954391 0.6142958403 4293586168
-0.3003301024 -0.1434362978 0.6135404110 4293322996
-0.3003902733 -0.1427832097 0.6136633158 4293257203
-0.3004501760 -0.1421297193 0.6137856841 4293454582
-0.3000792861 -0.1412731558 0.6130279899 4293256689
-0.2997079790 -0.1404180676 0.6122694612 4292664552
-0.2993362546 -0.1395644844 0.6115100384 4292072415
-0.2993948758 -0.1389122605 0.6116298437 4291743450
-0.2990224063 -0.1380607188 0.6108689308 4290888655
-0.2990804613 -0.1374086738 0.6109874845 4289901760
-0.2991382480 -0.1367562413 0.6111055613 4288915119
-0.2991957963 -0.1361034364 0.6112231612 4288257189
-0.2992531061 -0.1354502589 0.6113401651 4287993247
-0.2988788486 -0.1346024722 0.6105756164 4287598489
-0.2989355326 -0.1339494735 0.6106914878 4287137940
-0.2985605597 -0.1331037730 0.6099253893 4287006354
-0.2986166477 -0.1324509978 0.6100400090 4286414217
-0.2991041243 -0.1319883019 0.6110358238 4286545803
-0.2987281084 -0.1311443299 0.6102676988 4287598491
-0.2987834513 -0.1304904521 0.6103807688 4288585386
-0.2984066904 -0.1296485811 0.6096110940 4288585901
-0.2984614372 -0.1289949268 0.6097229719 4288125350
-0.2985159457 -0.1283408999 0.6098342538 4287599006
-0.2990022600 -0.1278713197 0.6108278036 4287335834
-0.2990563214 -0.1272156388 0.6109381914 4287335064
-0.2991101146 -0.1265596002 0.6110481024 4287071892
-0.2982990444 -0.1255393326 0.6093911529 4286808720
-0.2983521521 -0.1248845011 0.6094996929 4286611341
-0.2984050214 -0.1242293119 0.6096076965 4286348941
-0.2984576225 -0.1235737726 0.6097151637 4286283148
-0.2985099852 -0.1229178905 0.6098220944 4286480778
-0.2981293797 -0.1220844761 0.6090445518 4286612364
-0.2981811166 -0.1214288622 0.6091502905 4286743696
-0.2986654639 -0.1209481880 0.6101397276 4287138454
-0.2991496921 -0.1204652712 0.6111289263 4287664798
-0.2992008030 -0.1198067367 0.6112333536 4288256935
-0.2996847332 -0.1193202883 0.6122219563 4288915119
-0.2997353971 -0.1186601222 0.6123254895 4289507256
-0.3002189994 -0.1181701422 0.6133134365 4290296770
-0.3007025123 -0.1176779196 0.6143011451 4290691528
-0.3011858761 -0.1171834543 0.6152886152 4291020495
-0.3021025658 -0.1168543994 0.6171613336 4291086288
-0.3021522462 -0.1161877960 0.6172628403 4291086288
-0.3022016883 -0.1155208722 0.6173638105 4291020495
-0.3022508323 -0.1148536131 0.6174642444 4290757321
-0.3027334511 -0.1143498570 0.6184501648 4290362563
-0.3023483455 -0.1135181263 0.6176634431 4290033600
-0.3023966849 -0.1128499061 0.6177622080 4289704635
-0.3024447858 -0.1121813580 0.6178604364 4289638842
-0.3024925888 -0.1115124971 0.6179580688 4289770428
-0.3025401235 -0.1108433157 0.6180552244 4289638842
-0.3030215204 -0.1103318930 0.6190386415 4289375670
-0.3030685782 -0.1096611246 0.6191347837 4289046703
-0.3035496175 -0.1091461927 0.6201175451 4288783531
-0.3035961986 -0.1084738374 0.6202126741 4288520359
-0.3040769100 -0.1079554036 0.6211947203 4288651945
-0.3041230142 -0.1072814763 0.6212888956 4288454566
-0.3046033680 -0.1067595333 0.6222701669 4288388773
-0.3050835729 -0.1062353626 0.6232511997 4288257187
-0.3055636287 -0.1057089642 0.6242319345 4288125601
-0.3056088388 -0.1050309315 0.6243242621 4288322980
-0.3056537509 -0.1043525934 0.6244159937 4288322980
-0.3056983650 -0.1036739647 0.6245071888 4288388773
-0.3057427406 -0.1029950306 0.6245977879 4288388773
-0.3062217832 -0.1024613529 0.6255764365 4288454566
-0.3062656522 -0.1017808691 0.6256660223 4288388773
-0.3063092232 -0.1011000946 0.6257550716 4287994015
-0.3063525259 -0.1004190296 0.6258435249 4287533464
-0.3063955605 -0.0997376740 0.6259314418 4287007122
-0.3064382970 -0.0990560353 0.6260187626 4286480778
-0.3064807653 -0.0983741134 0.6261054873 4285822848
-0.3065229356 -0.0976919085 0.6261916757 4285691262
-0.3070002794 -0.0971472189 0.6271668077 4285296504
-0.3070419729 -0.0964634791 0.6272519827 4285033332
-0.3070833385 -0.0957794711 0.6273365021 4284901746
-0.3075600863 -0.0952300653 0.6283104420 4285033332
-0.3076009750 -0.0945445374 0.6283939481 4285428090
-0.3076415658 -0.0938587263 0.6284769177 4285954434
-0.3081176877 -0.0933046266 0.6294495463 4286612360
-0.3081577718 -0.0926173106 0.6295314431 4287270290
-0.3081975579 -0.0919297263 0.6296127439 4288126112
-0.3082370758 -0.0912418738 0.6296934485 4289047214
-0.3082762957 -0.0905537605 0.6297735572 4289836729
-0.3087513149 -0.0899924934 0.6307439804 4290494659
-0.3087900281 -0.0893028826 0.6308230758 4290889417
-0.3088284433 -0.0886130184 0.6309015155 4291218382
-0.3088665605 -0.0879228935 0.6309794188 4291744726
-0.3093407154 -0.0873557255 0.6319480538 4292007898
-0.3093782961 -0.0866641179 0.6320248246 4292271070
-0.3098520339 -0.0860935152 0.6329926252 4292336863
-0.3098891079 -0.0854004323 0.6330683231 4292468703
-0.2991431057 -0.1547634304 0.6125052571 4292533481
-0.2996355295 -0.1543365270 0.6135134697 4291480793
-0.3001278639 -0.1539073437 0.6145215631 4290757070
-0.3001919389 -0.1532572806 0.6146527529 4290691277
-0.2998274267 -0.1523890942 0.6139063835 4290954449
-0.2994624972 -0.1515223384 0.6131591797 4291151828
-0.2990971208 -0.1506570429 0.6124110818 4291678172
-0.2987313569 -0.1497931927 0.6116621494 4292336102
-0.2987938225 -0.1491447836 0.6117900610 4293125617
-0.2984272838 -0.1482829154 0.6110395789 4293520375
-0.2980602980 -0.1474224925 0.6102882028 4293717754
-0.2981218696 -0.1467747390 0.6104142070 4293915133
-0.2981831729 -0.1461265683 0.6105397940 4293849340
-0.2978151143 -0.1452686787 0.6097861528 4293586168
-0.2978758514 -0.1446206570 0.6099104881 4292861931
-0.2979363501 -0.1439722329 0.6100343466 4292269794
-0.2975671887 -0.1431168914 0.6092785001 4291217620
-0.2971976399 -0.1422630250 0.6085218191 4290230725
-0.2968276441 -0.1414106488 0.6077642441 4289638588
-0.2964572310 -0.1405597627 0.6070058346 4289309623
-0.2960864007 -0.1397103518 0.6062465310 4288782765
-0.2961449623 -0.1390642822 0.6063664556 4287993249
-0.2957733870 -0.1382169127 0.6056056619 4287664284
-0.2954013944 -0.1373710632 0.6048439741 4287532698
-0.2954590321 -0.1367257088 0.6049619913 4287006868
-0.2955164611 -0.1360799968 0.6050795317 4286612110
-0.2955735922 -0.1354338974 0.6051965952 4286348938
-0.2952001989 -0.1345912218 0.6044319868 4286348938
-0.2952567637 -0.1339453161 0.6045478582 4286480010
-0.2953130901 -0.1332990527 0.6046631932 4286414217
-0.2953691483 -0.1326524019 0.6047779918 4286217352
-0.2949943244 -0.1318129748 0.6040105224 4285954180
-0.2954805493 -0.1313580275 0.6050060391 4285558908
-0.2955358624 -0.1307102889 0.6051192880 4285493115
-0.2955909371 -0.1300621778 0.6052320600 4285690494
-0.2960767150 -0.1296023726 0.6062266827 4285756287
-0.2961313426 -0.1289525926 0.6063385606 4285559422
-0.2961857319 -0.1283024698 0.6064499021 4285493629
-0.2966710627 -0.1278377920 0.6074436307 4285691008
-0.2967250049 -0.1271860003 0.6075540781 4285822594
-0.2972100675 -0.1267177761 0.6085472703 4286283146
-0.2972635627 -0.1260643303 0.6086568236 4286875283
-0.2973168194 -0.1254105270 0.6087659001 4287467420
-0.2973698378 -0.1247563809 0.6088743806 4288191143
-0.2974225581 -0.1241018847 0.6089823842 4288914866
-0.2974750400 -0.1234470382 0.6090898514 4289243831
-0.2975272536 -0.1227918491 0.6091967821 4289770428
-0.2975792289 -0.1221363172 0.6093031764 4290099393
-0.2976309359 -0.1214804351 0.6094090343 4290493897
-0.2976823747 -0.1208242178 0.6095143557 4290954448
-0.2981656790 -0.1203420684 0.6105039120 4291151827
-0.2986488640 -0.1198576763 0.6114932299 4291020241
-0.2986996472 -0.1191985384 0.6115972996 4290757323
-0.2991825342 -0.1187106073 0.6125860214 4290625737
-0.2992329001 -0.1180498451 0.6126890779 4290494151
-0.2997154593 -0.1175583825 0.6136771441 4290362565
-0.3006304801 -0.1172333583 0.6155506968 4290099393
-0.3011128902 -0.1167364568 0.6165384054 4289770428
-0.3011624515 -0.1160705462 0.6166399121 4289507256
-0.3016445339 -0.1155701205 0.6176270247 4289375670
-0.3016936481 -0.1149025932 0.6177275777 4289244082
-0.3017424941 -0.1142347455 0.6178275347 4289178289
-0.3017910421 -0.1135665700 0.6179270148 4288849326
-0.3018393517 -0.1128980741 0.6180258989 4288717740
-0.3018873930 -0.1122292653 0.6181242466 4288586154
-0.3019351363 -0.1115601286 0.6182220578 4288454568
-0.3024159074 -0.1110497788 0.6192064285 4288454568
-0.3024631739 -0.1103790477 0.6193032265 4288520361
-0.3025102019 -0.1097080112 0.6193994880 4288651945
-0.3025569618 -0.1090366617 0.6194952130 4288586152
-0.3030369580 -0.1085202470 0.6204780340 4288783531
-0.3030832112 -0.1078473106 0.6205727458 4289046703
-0.3035628498 -0.1073273942 0.6215548515 4289441461
-0.3040423691 -0.1068052500 0.6225366592 4289836219
-0.3040879369 -0.1061294675 0.6226299405 4289902012
-0.3045670986 -0.1056038216 0.6236110330 4289836219
-0.3046121597 -0.1049264744 0.6237033606 4289770426
-0.3046569824 -0.1042488292 0.6237950921 4289507254
-0.3047015071 -0.1035708860 0.6238862872 4288849583
-0.3051798642 -0.1030392125 0.6248657107 4288323239
-0.3052239120 -0.1023597121 0.6249558926 4287533723
-0.3052676618 -0.1016799137 0.6250454783 4286678414
-0.3053111434 -0.1009998247 0.6251345277 4285954691
-0.3053543270 -0.1003194526 0.6252229214 4285625726
-0.3053972423 -0.0996387824 0.6253108382 4285559933
-0.3054398894 -0.0989578366 0.6253980994 4285559933
-0.3054822385 -0.0982766002 0.6254848838 4285757055
-0.3059589267 -0.0977339074 0.6264608502 4286217606
-0.3064354360 -0.0971889943 0.6274365187 4286809743
-0.3064770699 -0.0965049788 0.6275218129 4287401880
-0.3065184355 -0.0958206803 0.6276064515 4288125603
-0.3065594733 -0.0951361060 0.6276905537 4288915119
-0.3070351481 -0.0945852399 0.6286644936 4289704633
-0.3070757091 -0.0938991457 0.6287475228 4290362563
-0.3071160018 -0.0932127833 0.6288299561 4291152077
-0.3078632951 -0.0878366008 0.6303601265 4292863207
-0.2970471084 -0.1567385644 0.6095998883 4293059824
-0.2971120775 -0.1560954005 0.6097332835 4291678171
-0.2971768081 -0.1554518044 0.6098661423 4290362312
-0.2972413003 -0.1548077911 0.6099984646 4289638589
-0.2973055840 -0.1541633606 0.6101303697 4289243831
-0.2977968454 -0.1537390798 0.6111385822 4289835968
-0.2974333763 -0.1528732479 0.6103926301 4291086035
-0.2974969149 -0.1522275656 0.6105230451 4292401895
-0.2971326709 -0.1513636857 0.6097755432 4293191411
-0.2967680097 -0.1505012512 0.6090272069 4293125618
-0.2964029312 -0.1496402621 0.6082779765 4293388790
-0.2960374355 -0.1487807333 0.6075279117 4293454583
-0.2956715226 -0.1479226649 0.6067769527 4293059825
-0.2953051627 -0.1470660418 0.6060250998 4292204516
-0.2953664660 -0.1464230865 0.6061509252 4291415000
-0.2954275310 -0.1457797438 0.6062762141 4291020242
-0.2950600982 -0.1449256539 0.6055221558 4290493898
-0.2946922481 -0.1440730393 0.6047672629 4289704382
-0.2947523892 -0.1434303671 0.6048907042 4289045937
-0.2948122919 -0.1427873075 0.6050136089 4288190628
-0.2944433689 -0.1419372410 0.6042565107 4287335319
-0.2940739989 -0.1410886645 0.6034985185 4286874768
-0.2941330075 -0.1404463053 0.6036195755 4286743182
-0.2937628925 -0.1395997554 0.6028600931 4286940561
-0.2933923900 -0.1387547106 0.6020997167 4287006354
-0.2934504747 -0.1381130815 0.6022189260 4286808975
-0.2935082912 -0.1374710500 0.6023375988 4286480010
-0.2931367159 -0.1366286129 0.6015750170 4286216838
-0.2936232388 -0.1361858845 0.6025734544 4285822080
-0.2936803401 -0.1355427355 0.6026906371 4285427322
-0.2937372029 -0.1348992139 0.6028073430 4285229943
-0.2937937975 -0.1342553198 0.6029234529 4285164150
-0.2938501537 -0.1336110532 0.6030391455 4285098357
-0.2943359315 -0.1331607997 0.6040360332 4285098357
-0.2943918705 -0.1325148493 0.6041508317 4284967285
-0.2944475412 -0.1318685412 0.6042650938 4284901492
-0.2945029736 -0.1312218457 0.6043788791 4285493115
-0.2945581675 -0.1305748075 0.6044921279 4286151045
-0.2946130931 -0.1299273968 0.6046048403 4286809489
-0.2950979173 -0.1294683516 0.6055998206 4287599005
-0.2951524258 -0.1288192719 0.6057116985 4288454314
-0.2956370115 -0.1283566803 0.6067061424 4289112244
-0.2961214781 -0.1278918236 0.6077003479 4289704381
-0.2961753905 -0.1272397786 0.6078109741 4289901760
-0.2966595888 -0.1267713755 0.6088046432 4290296518
-0.2967130542 -0.1261176616 0.6089143753 4290691276
-0.2967662513 -0.1254636049 0.6090235710 4290822862
-0.2968191803 -0.1248092055 0.6091321707 4290822862
-0.2968718708 -0.1241544485 0.6092402935 4290691276
-0.2969242930 -0.1234993413 0.6093478799 4290559690
-0.2969764769 -0.1228438914 0.6094549894 4290625737
-0.2970283628 -0.1221880987 0.6095615029 4290494151
-0.2970800102 -0.1215319633 0.6096674800 4290230979
-0.2971314192 -0.1208754852 0.6097729206 4290033600
-0.2971825302 -0.1202186644 0.6098778844 4289967807
-0.2976647913 -0.1197350323 0.6108675599 4289770428
-0.2981469631 -0.1192491651 0.6118570566 4289507256
-0.2981974483 -0.1185894236 0.6119606495 4289309877
-0.2986792922 -0.1181000173 0.6129494905 4289244084
-0.2987293303 -0.1174386516 0.6130521894 4289046705
-0.2996426225 -0.1171144694 0.6149263978 4288849326
-0.3001240790 -0.1166183278 0.6159145236 4288915119
-0.3006054461 -0.1161199436 0.6169023514 4288915119
-0.3006547093 -0.1154534370 0.6170034409 4288980912
-0.3007037044 -0.1147866026 0.6171039939 4289178291
-0.3007524312 -0.1141194403 0.6172039509 4289441463
-0.3008008599 -0.1134519577 0.6173034310 4289704635
-0.3008490503 -0.1127841547 0.6174022555 4290033600
-0.3008969724 -0.1121160313 0.6175006032 4290362565
-0.3013769984 -0.1116077155 0.6184857488 4290494151
-0.3014244437 -0.1109379902 0.6185830832 4290823116
-0.3014716208 -0.1102679595 0.6186799407 4291086288
-0.3015185297 -0.1095976084 0.6187761426 4291086286
-0.3019978106 -0.1090832278 0.6197597980 4290954700
-0.3020442426 -0.1084112898 0.6198550463 4290691528
-0.3020903766 -0.1077390462 0.6199497581 4290362563
-0.3025691211 -0.1072198898 0.6209322214 4290099904
-0.3030477166 -0.1066984907 0.6219143867 4289705146
-0.3030931950 -0.1060234010 0.6220076680 4288915630
-0.3031383753 -0.1053480133 0.6221004128 4288060321
-0.3037055135 -0.1034676358 0.6232643127 4285888898
-0.3041829765 -0.1029367149 0.6242441535 4285954691
-0.3042269051 -0.1022578999 0.6243342757 4286086277
-0.3042705655 -0.1015787944 0.6244238615 4286283656
-0.3043139279 -0.1008993983 0.6245129108 4286612621
-0.3043570220 -0.1002197042 0.6246013045 4287204758
-0.3043998182 -0.0995397344 0.6246891618 4287928481
-0.3044423759 -0.0988594666 0.6247764826 4288520618
-0.3044846356 -0.0981789231 0.6248632073 4289310134
-0.3054360151 -0.0970928147 0.6268156171 4290757834
-0.2954454124 -0.1582751572 0.6076980829 4292665067
-0.2955108583 -0.1576348692 0.6078326702 4291415000
-0.2955760658 -0.1569941640 0.6079667807 4289835968
-0.2956410348 -0.1563530266 0.6081004143 4289178038
-0.2957057357 -0.1557114571 0.6082335711 4289046452
-0.2953440547 -0.1548460424 0.6074895859 4289704381
-0.2954082191 -0.1542045623 0.6076215506 4290428104
-0.2954721153 -0.1535626650 0.6077530384 4291415512
-0.2951093316 -0.1526996940 0.6070067883 4292797165
-0.2947461307 -0.1518381685 0.6062597632 4293586681
-0.2948091626 -0.1511968821 0.6063893437 4293323509
-0.2944452167 -0.1503373086 0.6056407690 4292401894
-0.2940808237 -0.1494791955 0.6048912406 4291020241
-0.2937160134 -0.1486225277 0.6041409373 4289901761
-0.2933508158 -0.1477673203 0.6033896804 4289572796
-0.2929851711 -0.1469135582 0.6026375890 4288981172
-0.2926191092 -0.1460612714 0.6018846631 4288323242
-0.2922526300 -0.1452104449 0.6011309028 4287731105
-0.2923130989 -0.1445724368 0.6012552381 4287731105
-0.2919458747 -0.1437236220 0.6004999280 4288256936
-0.2920057476 -0.1430857778 0.6006230712 4288585901
-0.2920654118 -0.1424475312 0.6007457972 4287665052
-0.2921248078 -0.1418088973 0.6008679867 4287336087
-0.2917561829 -0.1409631819 0.6001097560 4286875536
-0.2918150127 -0.1403247118 0.6002307534 4286349192
-0.2918736041 -0.1396858543 0.6003512740 4285756801
-0.2915039062 -0.1388427317 0.5995908380 4285296250
-0.2911337912 -0.1380010992 0.5988295078 4285164664
-0.2911914885 -0.1373629719 0.5989481807 4285164664
-0.2912489176 -0.1367244571 0.5990663767 4285164664
-0.2913061082 -0.1360855699 0.5991839767 4285362043
-0.2917915285 -0.1356454939 0.6001824737 4285691008
-0.2922768891 -0.1352031678 0.6011807919 4286283145
-0.2923335135 -0.1345612854 0.6012972593 4287006868
-0.2928186059 -0.1341153830 0.6022950411 4287730591
-0.2928748429 -0.1334718019 0.6024106741 4288388521
-0.2929307818 -0.1328278631 0.6025257707 4288849072
-0.2934154868 -0.1323770732 0.6035227180 4289507002
-0.2934710085 -0.1317314506 0.6036369801 4289704381
-0.2935263216 -0.1310854703 0.6037507057 4290296518
-0.2940105796 -0.1306298077 0.6047467589 4290493897
-0.2940654457 -0.1299821436 0.6048595905 4290625483
-0.2941200435 -0.1293341219 0.6049719453 4290822862
-0.2941744328 -0.1286857426 0.6050837636 4290691276
-0.2946580648 -0.1282239109 0.6060785651 4290625483
-0.2951416075 -0.1277598292 0.6070731878 4290428104
-0.2956250608 -0.1272934973 0.6080675721 4290296518
-0.2956786454 -0.1266408414 0.6081777811 4290164932
-0.2961618006 -0.1261709481 0.6091716290 4289967553
-0.2962149680 -0.1255166382 0.6092809439 4289770174
-0.2962678373 -0.1248619705 0.6093897223 4289572795
-0.2963204980 -0.1242069602 0.6094979644 4289375929
-0.2963728607 -0.1235515922 0.6096057296 4289244343
-0.2959947586 -0.1227175146 0.6088280082 4289244341
-0.2960465252 -0.1220624149 0.6089345217 4289310134
-0.2960980535 -0.1214069724 0.6090404391 4289375927
-0.2961493134 -0.1207511872 0.6091458797 4289375927
-0.2966308296 -0.1202696189 0.6101363301 4289507513
-0.2971122563 -0.1197858006 0.6111265421 4289639099
-0.2971628606 -0.1191270873 0.6112306714 4289704892
-0.2976439893 -0.1186397374 0.6122202873 4289704892
-0.2981249690 -0.1181501374 0.6132096052 4290297029
-0.2986058593 -0.1176582947 0.6141987443 4290362822
-0.2986556292 -0.1169953793 0.6143011451 4290625994
-0.3004809320 -0.1101566851 0.6180555820 4290494151
-0.3005277216 -0.1094870195 0.6181518435 4289836732
-0.3010061085 -0.1089733988 0.6191357970 4289310388
-0.3032307625 -0.1021559238 0.6237117052 4289310904
-0.3032743335 -0.1014775112 0.6238012314 4289968834
-0.2939115465 -0.1591604352 0.6059273481 4292073442
-0.2939772010 -0.1585226059 0.6060627103 4290164932
-0.2940426171 -0.1578843445 0.6061975360 4287927970
-0.2936827838 -0.1570184380 0.6054556966 4286940306
-0.2937476337 -0.1563802510 0.6055893898 4287466650
-0.2933870554 -0.1555162668 0.6048460603 4289572026
-0.2930260599 -0.1546536982 0.6041017771 4292072160
-0.2930900156 -0.1540161073 0.6042336226 4293520375
-0.2927282453 -0.1531554908 0.6034878492 4294309887
-0.2923660576 -0.1522963047 0.6027411819 4294573055
-0.2915778160 -0.1512178183 0.6011161208 4293980926
-0.2916404307 -0.1505822688 0.6012452245 4292533480
-0.2912769914 -0.1497274339 0.6004959941 4290428104
-0.2909131348 -0.1488740295 0.5997458100 4288388521
-0.2909748852 -0.1482391208 0.5998731256 4286809489
-0.2906102836 -0.1473877132 0.5991214514 4286414731
-0.2902452648 -0.1465377510 0.5983689427 4286348938
-0.2903061211 -0.1459034979 0.5984944105 4286283145
-0.2903667390 -0.1452688575 0.5986193419 4286414731
-0.2900006473 -0.1444214284 0.5978646278 4286283145
-0.2900606692 -0.1437869221 0.5979883671 4285888387
-0.2901204824 -0.1431520283 0.5981116891 4285691008
-0.2901800573 -0.1425167471 0.5982344747 4285822594
-0.2902393937 -0.1418810636 0.5983567834 4285559676
-0.2902984619 -0.1412449926 0.5984786153 4286020227
-0.2903573215 -0.1406085342 0.5985999107 4286546571
-0.2908429801 -0.1401775330 0.5996012092 4286875536
-0.2909014523 -0.1395393610 0.5997217298 4287335833
-0.2909596264 -0.1389008164 0.5998417139 4287862177
-0.2905902565 -0.1380588561 0.5990801454 4288388521
-0.2906478941 -0.1374204904 0.5991989970 4288717486
-0.2907052636 -0.1367817372 0.5993172526 4289441209
-0.2907624245 -0.1361425966 0.5994350910 4289638588
-0.2912469804 -0.1357023567 0.6004340649 4290099139
-0.2917314768 -0.1352598667 0.6014328599 4290493897
-0.2917880416 -0.1346177310 0.6015495062 4290691276
-0.2922722697 -0.1341716647 0.6025478244 4290625483
-0.2923284471 -0.1335278451 0.6026635766 4290559690
-0.2923843265 -0.1328836530 0.6027788520 4290493897
-0.2924399972 -0.1322390884 0.6028935909 4290296518
-0.2929236591 -0.1317868233 0.6038907170 4290164932
-0.2929788828 -0.1311405897 0.6040045619 4290033346
-0.2930338681 -0.1304939836 0.6041179299 4289704381
-0.2930886149 -0.1298470050 0.6042307615 4289441722
-0.2931430936 -0.1291996837 0.6043431163 4289441722
-0.2936259806 -0.1287399232 0.6053385735 4289375416
-0.2941087484 -0.1282779276 0.6063339114 4289441209
-0.2945914567 -0.1278136671 0.6073290110 4289507515
-0.2946451604 -0.1271620542 0.6074397564 4289507515
-0.2951275706 -0.1266942471 0.6084342599 4289573308
-0.2951808572 -0.1260409802 0.6085441113 4289704894
-0.2952338755 -0.1253873557 0.6086534262 4290033859
-0.2952866256 -0.1247333884 0.6087622046 4290428617
-0.2953391373 -0.1240790710 0.6088704467 4290757582
-0.2953913808 -0.1234243959 0.6089781523 4290954961
-0.2954433560 -0.1227693856 0.6090853214 4291218131
-0.2954950929 -0.1221140251 0.6091919541 4291481303
-0.2955465615 -0.1214583144 0.6092980504 4291744475
-0.2955977619 -0.1208022684 0.6094036102 4291876061
-0.2956486940 -0.1201458871 0.6095086336 4291941854
-0.2961291969 -0.1196628362 0.6104992032 4292007647
-0.2961796820 -0.1190048233 0.6106033325 4291941854
-0.2970898151 -0.1186899990 0.6124796271 4291876061
-0.2992537618 -0.1133853197 0.6169407964 4290428358
-0.2993017733 -0.1127179414 0.6170397997 4289967807
-0.2993495166 -0.1120502353 0.6171382666 4289178548
-0.2993969917 -0.1113822162 0.6172361374 4288586411
-0.3010610938 -0.1064844504 0.6206668019 4288587179
-0.3015377223 -0.1059623361 0.6216493845 4289310902
-0.3015827537 -0.1052873582 0.6217422485 4290034625
-0.3016274869 -0.1046120822 0.6218345165 4290429383
-0.3021035492 -0.1040851995 0.6228159666 4290955727
-0.3021478355 -0.1034083515 0.6229072213 4291284178
-0.3021918237 -0.1027312130 0.6229979396 4291481557
-0.2919565439 -0.1598051637 0.6032782793 4292533993
-0.2920223176 -0.1591707170 0.6034141779 4290033346
-0.2920878530 -0.1585358530 0.6035495400 4287204247
-0.2921531498 -0.1579005569 0.6036844850 4285230457
-0.2922182083 -0.1572648287 0.6038189530 4285362043
-0.2918588221 -0.1564013660 0.6030763388 4287927456
-0.2919233143 -0.1557657123 0.6032096148 4291282899
-0.2911387682 -0.1546786875 0.6015884876 4293454068
-0.2907781303 -0.1538195014 0.6008432508 4294572543
-0.2904170752 -0.1529617459 0.6000971794 4294704127
-0.2900555730 -0.1521054357 0.5993502140 4294572543
-0.2892689109 -0.1510287821 0.5977246761 4293190896
-0.2893313468 -0.1503971219 0.5978537202 4290756555
-0.2889685929 -0.1495451480 0.5971041918 4288256421
-0.2886054218 -0.1486946195 0.5963537693 4286216838
-0.2886669934 -0.1480636001 0.5964809656 4285229943
-0.2887283266 -0.1474321783 0.5966076851 4284966771
-0.2883640826 -0.1465841532 0.5958550572 4285361529
-0.2884248495 -0.1459528655 0.5959805846 4285887873
-0.2884853482 -0.1453211755 0.5961056352 4286414217
-0.2885456383 -0.1446890831 0.5962302089 4286874768
-0.2890313566 -0.1442690790 0.5972338915 4287269526
-0.2886655033 -0.1434237212 0.5964778662 4287598491
-0.2887250781 -0.1427904516 0.5966009498 4288124835
-0.2887844145 -0.1421567947 0.5967235565 4288651179
-0.2892695069 -0.1417314857 0.5977259874 4289441722
-0.2893284559 -0.1410961002 0.5978477597 4289836480
-0.2893871367 -0.1404603422 0.5979690552 4290099652
-0.2894456089 -0.1398241967 0.5980898142 4290297031
-0.2899301946 -0.1393926442 0.5990911126 4290625996
-0.2899882495 -0.1387548000 0.5992110968 4290757582
-0.2900460362 -0.1381165534 0.5993305445 4290625996
-0.2901036143 -0.1374779344 0.5994495153 4290494410
-0.2901609540 -0.1368389428 0.5995679498 4290297031
-0.2902180254 -0.1361995637 0.5996859074 4290165445
-0.2911286056 -0.1359585226 0.6015674472 4290165445
-0.2911853492 -0.1353165060 0.6016847491 4290231238
-0.2916689217 -0.1348716021 0.6026839018 4290165445
-0.2917252481 -0.1342279017 0.6028003097 4290033859
-0.2917813361 -0.1335838288 0.6029162407 4289968066
-0.2914099097 -0.1327447444 0.6021487117 4289902273
-0.2918927968 -0.1322945654 0.6031465530 4290033859
-0.2919481397 -0.1316493899 0.6032609344 4289902273
-0.2924307883 -0.1311956495 0.6042581797 4289968066
-0.2924857140 -0.1305487901 0.6043716669 4290165445
-0.2925403714 -0.1299015731 0.6044846773 4290362824
-0.2925948203 -0.1292539835 0.6045971513 4290560203
-0.2926489711 -0.1286060512 0.6047090888 4291020754
-0.2931308448 -0.1281448156 0.6057047248 4291612891
-0.2936125994 -0.1276813298 0.6067001820 4291810270
-0.2940942347 -0.1272155941 0.6076954603 4292007649
-0.2941476405 -0.1265633702 0.6078057885 4292205028
-0.2946290076 -0.1260940731 0.6088004708 4292402407
-0.2946819961 -0.1254401952 0.6089099050 4292337384
-0.2947346866 -0.1247859746 0.6090188026 4292271591
-0.2947871387 -0.1241313964 0.6091272235 4292402407
-0.2948393226 -0.1234764680 0.6092350483 4292336614
-0.2948912680 -0.1228211969 0.6093423367 4292140005
-0.2945142388 -0.1219880059 0.6085633039 4292008419
-0.2945655882 -0.1213330030 0.6086694002 4291876831
-0.2971630991 -0.1162627786 0.6140366793 4290429385
-0.2972121835 -0.1155996323 0.6141381264 4289968834
-0.2976905704 -0.1151022539 0.6151266694 4289508283
-0.2989323735 -0.1100919917 0.6176926494 4288652204
-0.2989790142 -0.1094227582 0.6177889705 4289178802
-0.2990253568 -0.1087532043 0.6178847551 4289705146
-0.2990714312 -0.1080833450 0.6179800034 4290429383
-0.2995476425 -0.1075677276 0.6189639568 4290824141
-0.2995932400 -0.1068962887 0.6190581918 4291284692
-0.2833459377 -0.2206501216 0.5868327022 4292337642
-0.2834319770 -0.2200649083 0.5870108604 4290495438
-0.2835178077 -0.2194791585 0.5871886611 4289771715
-0.2836034894 -0.2188928872 0.5873661041 4290627024
-0.2836889923 -0.2183060646 0.5875431895 4291613919
-0.2908516526 -0.1609051675 0.6023776531 4292994545
-0.2909177244 -0.1602722704 0.6025144458 4290559691
-0.2905606031 -0.1594069153 0.6017748713 4287533213
-0.2906261086 -0.1587740779 0.6019105315 4284769907
-0.2906913757 -0.1581408232 0.6020457149 4283585633
-0.2903331816 -0.1572778672 0.6013038754 4284703599
-0.2899745703 -0.1564163417 0.6005611420 4288388007
-0.2896155417 -0.1555562317 0.5998175740 4292138208
-0.2892560959 -0.1546975523 0.5990731120 4294243583
-0.2884726226 -0.1536147296 0.5974504948 4294638335
-0.2881122231 -0.1527598500 0.5967040658 4294440959
-0.2881752253 -0.1521301121 0.5968345404 4293388275
-0.2873902023 -0.1510543823 0.5952087045 4291546071
-0.2870285809 -0.1502038240 0.5944597721 4289177523
-0.2870905995 -0.1495756507 0.5945882201 4287335319
-0.2871523798 -0.1489470601 0.5947161317 4286743182
-0.2867896855 -0.1480989903 0.5939649343 4286940561
-0.2868508995 -0.1474705189 0.5940917730 4287664284
-0.2873363197 -0.1470588744 0.5950970650 4288453800
-0.2869726419 -0.1462123990 0.5943439007 4289045937
-0.2870331407 -0.1455827206 0.5944691896 4289440695
-0.2875181139 -0.1451670974 0.5954736471 4289901246
-0.2880030274 -0.1447491944 0.5964779258 4290230211
-0.2880630195 -0.1441164762 0.5966021419 4290559176
-0.2876977921 -0.1432717294 0.5958457589 4290559176
-0.2877572179 -0.1426391602 0.5959688425 4290427590
-0.2882415354 -0.1422159523 0.5969718695 4290361797
-0.2883005738 -0.1415816545 0.5970941186 4290297031
-0.2883593440 -0.1409469843 0.5972158909 4290297031
-0.2884179056 -0.1403119117 0.5973371863 4290164932
-0.2884761989 -0.1396764666 0.5974579453 4289967553
-0.2889598310 -0.1392457038 0.5984595418 4289967553
-0.2890177667 -0.1386085451 0.5985794663 4289901760
-0.2895011604 -0.1381741911 0.5995806456 4289573308
-0.2895586789 -0.1375353336 0.5996997952 4289310136
-0.2896159291 -0.1368960887 0.5998183489 4289573308
-0.2896729410 -0.1362564713 0.5999364853 4289639101
-0.2901557982 -0.1358159184 0.6009364724 4289967553
-0.2906385660 -0.1353730857 0.6019363403 4290362311
-0.2906950116 -0.1347304583 0.6020532250 4290757069
-0.2907512188 -0.1340874583 0.6021696329 4291151827
-0.2908071876 -0.1334440857 0.6022855043 4291415512
-0.2908628881 -0.1328003258 0.6024008989 4291612891
-0.2909183502 -0.1321562082 0.6025157571 4292073440
-0.2920999527 -0.1286600381 0.6049630046 4293191921
-0.2925809324 -0.1281986386 0.6059591770 4293323507
-0.2930618525 -0.1277349889 0.6069551110 4293060335
-0.2931153476 -0.1270838082 0.6070659757 4292994542
-0.2935959697 -0.1266165972 0.6080613732 4292600556
-0.2936490774 -0.1259637624 0.6081713438 4292271591
-0.2937018871 -0.1253105849 0.6082807183 4292074212
-0.2937544584 -0.1246570498 0.6083896160 4291811040
-0.2946443260 -0.1189325526 0.6102325320 4290560973
-0.2951227129 -0.1184465513 0.6112233400 4290429387
-0.2951726019 -0.1177873388 0.6113266349 4290034629
-0.2968490720 -0.1129916459 0.6147987843 4289179318
-0.2968967557 -0.1123266071 0.6148976088 4289508283
-0.2973733246 -0.1118226126 0.6158846021 4290034627
-0.2974205613 -0.1111559793 0.6159824133 4290560971
-0.2974675596 -0.1104890332 0.6160797477 4290955729
-0.2820679545 -0.2195107937 0.5855327845 4291877091
-0.2821534872 -0.2189265788 0.5857102871 4290495438
-0.2822388113 -0.2183418274 0.5858874321 4289640129
-0.2823239565 -0.2177565396 0.5860642195 4289113785
-0.2824089527 -0.2171707302 0.5862406492 4289969094
-0.2816701531 -0.2159529477 0.5847069621 4291021782
-0.2817545235 -0.2153677940 0.5848821402 4292140263
-0.2893256545 -0.1617646068 0.6005987525 4293125877
-0.2893919349 -0.1611341834 0.6007362604 4290954451
-0.2890360057 -0.1602693647 0.5999974608 4288059559
-0.2891016901 -0.1596390009 0.6001338363 4285493630
-0.2887450159 -0.1587760895 0.5993934274 4283848805
-0.2888101637 -0.1581457853 0.5995286703 4283256668
-0.2888750732 -0.1575150639 0.5996633768 4284243563
-0.2880949080 -0.1564251930 0.5980438590 4288190373
-0.2877366543 -0.1555670202 0.5973001719 4292795883
-0.2873779833 -0.1547102928 0.5965556502 4294309375
-0.2870188951 -0.1538549811 0.5958102345 4294046205
-0.2862365842 -0.1527754515 0.5941862464 4293190896
-0.2862994373 -0.1521486789 0.5943167806 4291348692
-0.2859390974 -0.1512976736 0.5935687423 4289770175
-0.2855783403 -0.1504481286 0.5928198695 4288783280
-0.2856403291 -0.1498219818 0.5929485559 4288650924
-0.2857021093 -0.1491954327 0.5930767655 4289308854
-0.2857636213 -0.1485684663 0.5932044983 4289835453
-0.2858249247 -0.1479410976 0.5933317542 4289835453
-0.2858859897 -0.1473133266 0.5934584737 4289375416
-0.2863704562 -0.1469024718 0.5944641232 4289507002
-0.2864311337 -0.1462729722 0.5945901275 4289770174
-0.2860677838 -0.1454276294 0.5938358307 4289507002
-0.2865518034 -0.1450127661 0.5948406458 4289506488
-0.2870357633 -0.1445956528 0.5958452225 4289506488
-0.2870956063 -0.1439636350 0.5959694386 4289440695
-0.2871551812 -0.1433312148 0.5960931778 4289309109
-0.2872145474 -0.1426984072 0.5962163806 4289112244
-0.2872736752 -0.1420651972 0.5963391066 4289178037
-0.2877569795 -0.1416405141 0.5973423719 4289178550
-0.2878156900 -0.1410056055 0.5974642634 4289375929
-0.2878741920 -0.1403702945 0.5975856781 4289704381
-0.2879324257 -0.1397345960 0.5977065563 4290033346
-0.2879904211 -0.1390985250 0.5978270173 4290362311
-0.2884730399 -0.1386662722 0.5988288522 4290625483
-0.2889555693 -0.1382317692 0.5998305082 4290823375
-0.2890130281 -0.1375926733 0.5999497771 4291086547
-0.2890702486 -0.1369531900 0.6000685096 4292007649
-0.2891272008 -0.1363133192 0.6001867652 4292270821
-0.2891839147 -0.1356730759 0.6003044844 4292665066
-0.2896657288 -0.1352310330 0.6013047099 4292994031
-0.2930844426 -0.1206036061 0.6084014177 4290363594
-0.2948145568 -0.1151958331 0.6119928956 4290034627
-0.2952910066 -0.1147009432 0.6129819751 4290363592
-0.2953393459 -0.1140385345 0.6130822897 4290824143
-0.2808766365 -0.2177901715 0.5844072104 4291877091
-0.2809614539 -0.2172064185 0.5845836401 4290824403
-0.2810460925 -0.2166221440 0.5847597122 4289903301
-0.2807195187 -0.2157214880 0.5840802789 4289640129
-0.2803925574 -0.2148220241 0.5833999515 4289836995
-0.2800651491 -0.2139237374 0.5827187300 4290231753
-0.2801487148 -0.2133399248 0.5828925967 4291218648
-0.2794090807 -0.2121307552 0.5813536644 4292402922
-0.2873815894 -0.1623776704 0.5979417562 4292927471
-0.2874479294 -0.1617506593 0.5980798006 4291216853
-0.2875140607 -0.1611232013 0.5982173681 4288519340
-0.2875799537 -0.1604953110 0.5983544588 4285558657
-0.2876456082 -0.1598669887 0.5984910727 4284111211
-0.2872897983 -0.1590050906 0.5977507234 4284176750
-0.2869335711 -0.1581446081 0.5970095396 4284176750
-0.2865769267 -0.1572855413 0.5962675214 4284045164
-0.2862198651 -0.1564279050 0.5955245495 4287597986
-0.2854407430 -0.1553422213 0.5939034820 4292072162
-0.2850827575 -0.1544883549 0.5931586623 4293782780
-0.2847243249 -0.1536359191 0.5924128890 4292861676
-0.2843655050 -0.1527849138 0.5916663408 4291282644
-0.2840062678 -0.1519353390 0.5909188390 4290032832
-0.2840687037 -0.1513120532 0.5910487771 4289506488
-0.2841309011 -0.1506883502 0.5911781788 4289704382
-0.2841928899 -0.1500642300 0.5913071632 4289835968
-0.2842546403 -0.1494397074 0.5914356112 4289704381
-0.2847386003 -0.1490359008 0.5924425721 4289507002
-0.2847999632 -0.1484096348 0.5925703049 4289178037
-0.2848611176 -0.1477829665 0.5926975012 4288914865
-0.2853447497 -0.1473742276 0.5937038064 4288914866
-0.2854055166 -0.1467458159 0.5938302279 4289178038
-0.2854660451 -0.1461170167 0.5939561725 4289572795
-0.2855263650 -0.1454878151 0.5940816402 4289770174
-0.2860095203 -0.1450728178 0.5950869322 4289901760
-0.2860694230 -0.1444418877 0.5952115655 4290099139
-0.2861291170 -0.1438105553 0.5953357816 4290362822
-0.2861885428 -0.1431788355 0.5954594612 4290691787
-0.2866711915 -0.1427575946 0.5964636803 4291086547
-0.2867302597 -0.1421241462 0.5965865254 4291415512
-0.2867890596 -0.1414903104 0.5967088938 4291810271
-0.2868476510 -0.1408560872 0.5968307853 4292270822
-0.2873297632 -0.1404286027 0.5978339314 4292731373
-0.2927325070 -0.1180302575 0.6090751290 4290362822
-0.2927820683 -0.1173733920 0.6091782451 4290889166
-0.2932582200 -0.1168863401 0.6101689935 4291283924
-0.2796857357 -0.2160729617 0.5832772851 4292140263
-0.2797698677 -0.2154896855 0.5834526420 4291219161
-0.2798537910 -0.2149058878 0.5836277008 4290100167
-0.2795270979 -0.2140073031 0.5829463601 4289179065
-0.2791999578 -0.2131099105 0.5822641850 4288915893
-0.2788724005 -0.2122137249 0.5815810561 4289244858
-0.2785444260 -0.2113187164 0.5808970928 4290232266
-0.2782160342 -0.2104249150 0.5802121758 4291482333
-0.2859284878 -0.1625933796 0.5962963104 4291743195
-0.2859947979 -0.1619683951 0.5964345932 4288782510
-0.2860608697 -0.1613429785 0.5965723991 4285953413
-0.2861267030 -0.1607171446 0.5967097282 4283519072
-0.2857720852 -0.1598557830 0.5959701538 4283584867
-0.2854170501 -0.1589958370 0.5952297449 4283716453
-0.2850615978 -0.1581372917 0.5944884419 4283387234
-0.2847056985 -0.1572801769 0.5937462449 4284571508
-0.2843494117 -0.1564244777 0.5930032134 4287663779
-0.2844134271 -0.1558006853 0.5931367278 4291019222
-0.2836355567 -0.1547173560 0.5915145278 4291611611
-0.2832780182 -0.1538659334 0.5907688737 4290558923
-0.2833410800 -0.1532436460 0.5909003615 4289967039
-0.2829827964 -0.1523941755 0.5901531577 4289703867
-0.2830452919 -0.1517719924 0.5902835131 4289967039
-0.2835288644 -0.1513743103 0.5912919641 4290032832
-0.2835910022 -0.1507503837 0.5914215446 4289243831
-0.2836529016 -0.1501260400 0.5915506482 4289507003
-0.2837145925 -0.1495012790 0.5916792750 4289770174
-0.2837760448 -0.1488761157 0.5918074250 4290033346
-0.2842589915 -0.1484708339 0.5928146839 4290428104
-0.2843200862 -0.1478439271 0.5929420590 4291020241
-0.2843809128 -0.1472166330 0.5930688977 4291678171
-0.2844415307 -0.1465889215 0.5931953192 4292204515
-0.2845019102 -0.1459608227 0.5933212638 4292467687
-0.2845620513 -0.1453323066 0.5934466720 4292665066
-0.2850442529 -0.1449180990 0.5944522619 4292862445
-0.2784953117 -0.2143591791 0.5821430087 4292403435
-0.2781690359 -0.2134620249 0.5814610720 4291482333
-0.2778423727 -0.2125660479 0.5807781816 4290298059
-0.2775152624 -0.2116712630 0.5800944567 4288916406
-0.2771877348 -0.2107776850 0.5794097781 4288126890
-0.2768597901 -0.2098852992 0.5787243247 4288061097
-0.2769417167 -0.2093042135 0.5788955092 4289311164
-0.2766130567 -0.2084133923 0.5782085061 4290495438
-0.2762839496 -0.2075237632 0.5775206089 4291811298
-0.2763651013 -0.2069428563 0.5776902437 4292798193
-0.2852494717 -0.1639088243 0.5962613821 4291810268
-0.2848971784 -0.1630447209 0.5955249667 4289704892
-0.2845444977 -0.1621820182 0.5947877169 4286545291
-0.2846105099 -0.1615586579 0.5949257612 4284110950
-0.2850956023 -0.1611718684 0.5959396958 4283650399
-0.2847419083 -0.1603106260 0.5952004194 4284439915
-0.2843878269 -0.1594507843 0.5944602489 4283715940
-0.2836137712 -0.1583580971 0.5928422809 4283781733
-0.2832587659 -0.1575020105 0.5921001434 4285361024
-0.2829033434 -0.1566473246 0.5913571715 4288716467
-0.2825474739 -0.1557940841 0.5906133652 4290098374
-0.2821912169 -0.1549422443 0.5898686647 4289440444
-0.2818345428 -0.1540918499 0.5891230702 4289243063
-0.2818975747 -0.1534716040 0.5892547965 4289835200
-0.2819603682 -0.1528509408 0.5893860459 4290164418
-0.2816026211 -0.1520029902 0.5886383057 4289901246
-0.2816648781 -0.1513824314 0.5887684226 4289967039
-0.2821473777 -0.1509864777 0.5897769928 4290361797
-0.2826298475 -0.1505882591 0.5907855034 4291282899
-0.2826915979 -0.1499646157 0.5909146070 4291875036
-0.2827531099 -0.1493405551 0.5910432339 4292664552
-0.2773053348 -0.2126488686 0.5810045004 4292732400
-0.2765697837 -0.2114410102 0.5794634223 4291482333
-0.2766520977 -0.2108599097 0.5796358585 4289640129
-0.2767342329 -0.2102783024 0.5798078775 4287995304
-0.2759971917 -0.2090757638 0.5782637000 4287863205
-0.2760787010 -0.2084948421 0.5784344673 4288060584
-0.2757503092 -0.2076049149 0.5777464509 4288586928
-0.2758313715 -0.2070238292 0.5779162645 4289508030
-0.2755022645 -0.2061354816 0.5772266984 4290889683
-0.2755828202 -0.2055542320 0.5773954988 4292271336
-0.2752529979 -0.2046674490 0.5767044425 4292929779
-0.2836664021 -0.1653595120 0.5943320394 4292994285
-0.2841513455 -0.1649807245 0.5953481197 4291283667
-0.2842182815 -0.1643579602 0.5954883695 4288915119
-0.2842850387 -0.1637347639 0.5956282020 4286414983
-0.2839333713 -0.1628712565 0.5948914289 4284506986
-0.2835812867 -0.1620091498 0.5941537619 4283847778
-0.2832288146 -0.1611484587 0.5934152007 4284505708
-0.2832943499 -0.1605262607 0.5935525298 4284045157
-0.2829411030 -0.1596674621 0.5928124785 4283518813
-0.2825874686 -0.1588100493 0.5920715332 4284966520
-0.2822334170 -0.1579540670 0.5913296938 4286874517
-0.2814601064 -0.1568660736 0.5897094607 4289440444
-0.2811051011 -0.1560138464 0.5889657140 4289045686
-0.2815877795 -0.1556262076 0.5899769664 4287466654
-0.2812321484 -0.1547749788 0.5892318487 4288716721
-0.2812953293 -0.1541549265 0.5893642306 4290098372
-0.2813582718 -0.1535344571 0.5894961357 4290229958
-0.2814210057 -0.1529135704 0.5896275640 4290164932
-0.2814835012 -0.1522922665 0.5897585154 4290954448
-0.2815457880 -0.1516705453 0.5898889899 4291941597
-0.2757073641 -0.2106299996 0.5790038705 4292073957
-0.2753807008 -0.2097378820 0.5783178210 4290165960
-0.2754622996 -0.2091573030 0.5784891844 4288981172
-0.2751349211 -0.2082667351 0.5778016448 4288652207
-0.2752160430 -0.2076859772 0.5779720545 4288652207
-0.2748879492 -0.2067969739 0.5772829652 4288389035
-0.2745594084 -0.2059091926 0.5765930414 4288126379
-0.2746397555 -0.2053286284 0.5767617822 4288850102
-0.2743104994 -0.2044424117 0.5760703683 4290231755
-0.2743903697 -0.2038616985 0.5762380958 4291547615
-0.2740604281 -0.2029770762 0.5755451322 4292205545
-0.2824344039 -0.1676613986 0.5931310654 4292994285
-0.2825021744 -0.1670424640 0.5932734013 4292336353
-0.2825697362 -0.1664230824 0.5934152603 4290954700
-0.2822202146 -0.1655587107 0.5926812291 4289177519
-0.2827042043 -0.1651829928 0.5936976671 4287137936
-0.2823540270 -0.1643195748 0.5929622650 4285230193
-0.2828377783 -0.1639411449 0.5939781666 4284045919
-0.2833214998 -0.1635604352 0.5949940085 4283914333
-0.2821357548 -0.1622176021 0.5925039053 4284111712
-0.2826190293 -0.1618360281 0.5935187936 4284308586
-0.2818496227 -0.1607377827 0.5919029713 4284505965
-0.2814972699 -0.1598800123 0.5911629796 4283584865
-0.2811444700 -0.1590236425 0.5904220939 4285163897
-0.2807912529 -0.1581686735 0.5896803737 4288979893
-0.2804376483 -0.1573151350 0.5889377594 4290361546
-0.2800836265 -0.1564630121 0.5881942511 4289308604
-0.2797291875 -0.1556123197 0.5874499083 4288387502
-0.2797925472 -0.1549947113 0.5875830054 4289111993
-0.2798556983 -0.1543767005 0.5877156258 4290296267
-0.2799186110 -0.1537582725 0.5878477097 4290428107
-0.2803998291 -0.1533683389 0.5888583064 4291283416
-0.2804623842 -0.1527481377 0.5889896750 4292665067
-0.2744375169 -0.2095081955 0.5776844621 4292995060
-0.2745189071 -0.2089283019 0.5778558254 4291875810
-0.2741920948 -0.2080383003 0.5771678686 4291020501
-0.2738648653 -0.2071495056 0.5764790773 4290230985
-0.2735372186 -0.2062619328 0.5757893920 4289375676
-0.2740259171 -0.2059895545 0.5768181086 4288322988
-0.2736976743 -0.2051026821 0.5761271119 4287862437
-0.2733690143 -0.2042170465 0.5754352808 4287929000
-0.2730399072 -0.2033326179 0.5747426152 4288389551
-0.2727104127 -0.2024494410 0.5740489960 4289179067
-0.2731984556 -0.2021727860 0.5750763416 4290363341
-0.2720501721 -0.2006867528 0.5726591945 4291350236
-0.2721286118 -0.2001081854 0.5728243589 4292205545
-0.2801644802 -0.1712894291 0.5897396207 4293323248
-0.2806485295 -0.1709289998 0.5907585621 4292862697
-0.2807173431 -0.1703143716 0.5909033418 4292073179
-0.2803705633 -0.1694482565 0.5901734233 4291283663
-0.2808542848 -0.1690837443 0.5911916494 4290691526
-0.2805068791 -0.1682185531 0.5904603601 4290099389
-0.2809903622 -0.1678513288 0.5914781094 4289046187
-0.2806423306 -0.1669870615 0.5907454491 4287664534
-0.2811255753 -0.1666171253 0.5917627215 4285690744
