VERSION 0.7
FIELDS x y z rgba
SIZE 4 4 4 4
TYPE F F F U
COUNT 1 1 1 1
WIDTH 920
HEIGHT 1
VIEWPOINT 0.0 0.0 0.0 1.0 0.0 0.0 0.0
POINTS 920
DATA ascii
-0.3134441972 -0.1651242822 0.6233584285 4292533216
-0.3135137856 -0.1644681990 0.6234968305 4290230207
-0.3127084374 -0.1633547544 0.6218951941 4286545799
-0.3132148087 -0.1629271805 0.6229022741 4286348420
-0.3132835925 -0.1622707099 0.6230390072 4285822076
-0.3137897551 -0.1618395299 0.6240456104 4286085248
-0.3142958581 -0.1614060849 0.6250521541 4286282627
-0.3152397275 -0.1611942500 0.6269292831 4288782761
-0.3161837459 -0.1609783024 0.6288066506 4292598755
-0.3136822879 -0.1906231642 0.6252129674 4291811298
-0.3137612045 -0.1899762899 0.6253702044 4291679712
-0.3138398826 -0.1893289238 0.6255270243 4291482333
-0.3139183521 -0.1886810660 0.6256834269 4291284441
-0.3135634661 -0.1877733767 0.6249760985 4290955476
-0.3136413395 -0.1871254444 0.6251313090 4290363339
-0.3132856786 -0.1862194836 0.6244224310 4289836995
-0.3133630157 -0.1855714917 0.6245765090 4289639871
-0.3138736188 -0.1851787865 0.6255942583 4289639871
-0.3143841922 -0.1847838163 0.6266119480 4289837250
-0.3140273094 -0.1838786155 0.6259005666 4290495180
-0.3141037822 -0.1832278073 0.6260530353 4291283926
-0.3141800463 -0.1825765371 0.6262050271 4291876063
-0.3142560720 -0.1819247901 0.6263565421 4291152079
-0.3143318594 -0.1812725663 0.6265075803 4288717738
-0.3144074082 -0.1806198657 0.6266581416 4285888641
-0.3140483499 -0.1797181368 0.6259425282 4285099125
-0.3136888444 -0.1788177341 0.6252259612 4285691262
-0.3137634695 -0.1781654507 0.6253747344 4286283399
-0.3138378561 -0.1775126904 0.6255230308 4287335315
-0.3130424619 -0.1763695478 0.6239376664 4288980140
-0.3126812875 -0.1754736304 0.6232178211 4290822344
-0.3127546608 -0.1748221964 0.6233640313 4290624965
-0.3123927116 -0.1739280820 0.6226426363 4287598489
-0.3124655187 -0.1732766479 0.6227877140 4284966769
-0.3125380576 -0.1726247519 0.6229323149 4285032562
-0.3126103580 -0.1719724089 0.6230764389 4284440425
-0.3126824498 -0.1713196188 0.6232200861 4286019198
-0.3127542734 -0.1706663817 0.6233632565 4290493122
-0.3128258586 -0.1700126827 0.6235059500 4291677396
-0.3124614358 -0.1691226661 0.6227795482 4288519332
-0.3125324249 -0.1684689820 0.6229211092 4285690233
-0.3126032054 -0.1678148657 0.6230621338 4284637545
-0.3126737177 -0.1671603024 0.6232026815 4284045408
-0.3123078048 -0.1662730724 0.6224733591 4284440166
-0.3119414449 -0.1653872132 0.6217432022 4288388003
-0.3120110333 -0.1647331566 0.6218819022 4292006618
-0.3112074435 -0.1636196971 0.6202802062 4291217102
-0.3104031980 -0.1625094712 0.6186772585 4287137936
-0.3109083474 -0.1620854288 0.6196840405 4284637802
-0.3114134371 -0.1616591066 0.6206907630 4284703595
-0.3114815950 -0.1610047072 0.6208266020 4284966769
-0.3119864762 -0.1605747789 0.6218329072 4284374632
-0.3129283488 -0.1603665650 0.6237102151 4284770158
-0.3138703406 -0.1601542383 0.6255877614 4288849324
-0.3148124814 -0.1599377990 0.6274655461 4292468970
-0.3118218780 -0.1899130046 0.6228837371 4291811298
-0.3119003773 -0.1892685741 0.6230405569 4291744992
-0.3119786680 -0.1886236668 0.6231969595 4291679199
-0.3120567203 -0.1879782677 0.6233528256 4291481820
-0.3117022216 -0.1870729178 0.6226447225 4291218648
-0.3122121394 -0.1866860241 0.6236633062 4291087317
-0.3118569553 -0.1857814938 0.6229538321 4290495180
-0.3119339943 -0.1851350665 0.6231076717 4289968836
-0.3124435246 -0.1847440302 0.6241255403 4289179320
-0.3125202060 -0.1840957552 0.6242786646 4288916148
-0.3125966489 -0.1834469885 0.6244313717 4289179320
-0.3126728535 -0.1827977598 0.6245836020 4289639871
-0.3127488196 -0.1821480393 0.6247353554 4290429387
-0.3128245473 -0.1814978570 0.6248866320 4290954700
-0.3124666810 -0.1805967242 0.6241717935 4290033598
-0.3125418425 -0.1799464971 0.6243219376 4286809743
-0.3126167655 -0.1792958081 0.6244716048 4284243816
-0.3118240833 -0.1781491041 0.6228881478 4284506988
-0.3118983209 -0.1774992794 0.6230364442 4284967539
-0.3119723499 -0.1768490076 0.6231843233 4285098353
-0.3116121292 -0.1759531945 0.6224647164 4285229939
-0.3112514615 -0.1750587523 0.6217442751 4289703863
-0.3108903468 -0.1741656512 0.6210229397 4290953930
-0.3105288148 -0.1732739061 0.6203007698 4288980142
-0.3106012344 -0.1726249605 0.6204454303 4285295734
-0.3102388978 -0.1717350334 0.6197216511 4284308839
-0.3103107512 -0.1710860729 0.6198651195 4284045667
-0.3103823364 -0.1704366803 0.6200081706 4283716443
-0.3104537129 -0.1697868407 0.6201507449 4286150784
-0.3109597266 -0.1693734378 0.6211615801 4290229950
-0.3101606965 -0.1682498306 0.6195654273 4290361536
-0.3097961247 -0.1673644930 0.6188371778 4286611335
-0.3098663390 -0.1667146981 0.6189774275 4284637545
-0.3095009923 -0.1658312231 0.6182476282 4283716443
-0.3095706105 -0.1651814431 0.6183866858 4283387478
-0.3092044890 -0.1642998308 0.6176553369 4284045665
-0.3097091317 -0.1638806015 0.6186634302 4288059038
-0.3080352545 -0.1623112112 0.6153197289 4290624965
-0.3076677322 -0.1614347100 0.6145855784 4288651175
-0.3086074293 -0.1612428278 0.6164626479 4284374632
-0.3091112673 -0.1608200371 0.6174691319 4283650909
-0.3087429106 -0.1599431634 0.6167333126 4284243046
-0.3092464805 -0.1595176756 0.6177392006 4284045667
-0.3101862371 -0.1593139917 0.6196164489 4283849056
-0.3115625083 -0.1593293548 0.6223655939 4285033330
-0.3125026226 -0.1591165364 0.6242435575 4289113525
-0.3134428561 -0.1588996202 0.6261217594 4292205796
-0.3101214170 -0.1879176795 0.6208644509 4292008164
-0.3101990819 -0.1872747391 0.6210198998 4291679199
-0.3102764785 -0.1866313070 0.6211748719 4291416027
-0.3103536963 -0.1859873980 0.6213294268 4291021524
-0.3104306459 -0.1853430122 0.6214835048 4290955731
-0.3105073869 -0.1846981496 0.6216371655 4290758352
-0.3110158741 -0.1843087822 0.6226551533 4289968836
-0.3110922575 -0.1836620718 0.6228080392 4289442492
-0.3111684024 -0.1830148697 0.6229605079 4289113527
-0.3112443089 -0.1823672056 0.6231124997 4288916148
-0.3113200068 -0.1817190647 0.6232640147 4289574078
-0.3109629750 -0.1808189601 0.6225492358 4289638840
-0.3110380769 -0.1801707745 0.6226996183 4290099391
-0.3111129701 -0.1795221120 0.6228495240 4288059810
-0.3111876249 -0.1788730025 0.6229989529 4284835953
-0.3103962243 -0.1777276546 0.6214146018 4284046437
-0.3104701936 -0.1770794094 0.6215626597 4284243816
-0.3105439246 -0.1764307022 0.6217103004 4284506216
-0.3101842105 -0.1755363643 0.6209901571 4283914079
-0.3098240495 -0.1746433824 0.6202691197 4285493111
-0.3094634414 -0.1737517565 0.6195471883 4289835449
-0.3091024160 -0.1728615016 0.6188243628 4289967037
-0.3087409437 -0.1719725877 0.6181007028 4287269524
-0.3083790243 -0.1710850447 0.6173761487 4284177253
-0.3080166578 -0.1701988727 0.6166507006 4283321944
-0.3080877960 -0.1695528775 0.6167930961 4283782236
-0.3081586957 -0.1689064354 0.6169350147 4283387478
-0.3082293272 -0.1682595462 0.6170765162 4285690231
-0.3078655303 -0.1673761457 0.6163481474 4288782502
-0.3066326380 -0.1660237908 0.6138799191 4288058268
-0.3062677681 -0.1651449800 0.6131494045 4285031790
-0.3063369691 -0.1645008922 0.6132879853 4283387478
-0.3059713244 -0.1636239439 0.6125559211 4283979615
-0.3064746559 -0.1632114053 0.6135635972 4283519575
-0.3065431416 -0.1625660211 0.6137007475 4283848540
-0.3053066730 -0.1612311602 0.6112253070 4285295732
-0.3045043647 -0.1601301432 0.6096190810 4286019455
-0.3054418564 -0.1599437296 0.6114959121 4284177251
-0.3063794971 -0.1597532183 0.6133730412 4283519321
-0.3060113788 -0.1588805914 0.6126360893 4284308837
-0.3069489896 -0.1586846262 0.6145132184 4284111458
-0.3078867495 -0.1584845781 0.6163906455 4284046435
-0.3092602193 -0.1585036516 0.6191403270 4283717470
-0.3101983368 -0.1582944691 0.6210184097 4284836210
-0.3111365736 -0.1580811590 0.6228967905 4288981169
-0.3125107884 -0.1580842435 0.6256479621 4292599784
-0.3087760508 -0.1868310571 0.6195486188 4292008677
-0.3088531792 -0.1861892045 0.6197034121 4291745505
-0.3089300990 -0.1855468601 0.6198576689 4291416540
-0.3090067804 -0.1849040240 0.6200115681 4291087575
-0.3090832233 -0.1842607260 0.6201649308 4290824403
-0.3095906377 -0.1838730425 0.6211830378 4290298059
-0.3096667230 -0.1832278818 0.6213356853 4289837508
-0.3097425997 -0.1825822592 0.6214879155 4289574336
-0.3093867302 -0.1816827655 0.6207739115 4289179578
-0.3094620109 -0.1810370833 0.6209250093 4289047992
-0.3095370829 -0.1803909391 0.6210755706 4289507513
-0.3096119165 -0.1797443330 0.6212257743 4289902271
-0.3096865118 -0.1790972501 0.6213754416 4289178548
-0.3093288541 -0.1782008111 0.6206578016 4287007379
-0.3094028831 -0.1775536984 0.6208063364 4284243816
-0.3090444505 -0.1766590476 0.6200871468 4283651679
-0.3086856008 -0.1757657528 0.6193671227 4284243044
-0.3087587059 -0.1751190573 0.6195138097 4283914079
-0.3083990514 -0.1742275506 0.6187921762 4283255892
-0.3080389798 -0.1733374000 0.6180697083 4286611335
-0.3072457016 -0.1722060740 0.6164780259 4289177262
-0.3068846464 -0.1713195443 0.6157535315 4288190367
-0.3065231144 -0.1704344004 0.6150282025 4285229169
-0.3061611950 -0.1695506126 0.6143019795 4284044895
-0.3062319458 -0.1689071059 0.6144439578 4283781721
-0.3058692217 -0.1680251658 0.6137161851 4283781721
-0.3055060804 -0.1671445966 0.6129875183 4283848029
-0.3055759370 -0.1665015966 0.6131277084 4284834924
-0.3043449223 -0.1651523560 0.6106577516 4285492854
-0.3031131029 -0.1638081670 0.6081861258 4283848029
-0.3027479053 -0.1629358977 0.6074533463 4283716443
-0.3028161228 -0.1622975320 0.6075902581 4283782236
-0.3028841019 -0.1616587341 0.6077266335 4283913822
-0.3029518425 -0.1610195190 0.6078625321 4283913822
-0.3030193448 -0.1603798568 0.6079980135 4283453271
-0.3026523888 -0.1595109254 0.6072617173 4283650650
-0.3027193248 -0.1588713378 0.6073960066 4283914079
-0.3027860224 -0.1582313329 0.6075298190 4284440423
-0.3032869697 -0.1578170061 0.6085349917 4284374630
-0.3042224944 -0.1576255858 0.6104120612 4284111458
-0.3051581383 -0.1574300677 0.6122893691 4284440423
-0.3078330755 -0.1581238061 0.6176565886 4284835181
-0.3065949380 -0.1568043232 0.6151722670 4284244843
-0.3088358343 -0.1572618932 0.6196685433 4283981671
-0.3102072477 -0.1572686881 0.6224203110 4287929251
-0.3111438453 -0.1570498645 0.6242994666 4292337382
-0.3071551323 -0.1842065454 0.6176728010 4292008164
-0.3076614738 -0.1838228106 0.6186910272 4291679199
-0.3077374101 -0.1831806004 0.6188437343 4291152855
-0.3078131080 -0.1825379133 0.6189959645 4290560718
-0.3078885972 -0.1818947494 0.6191477180 4289836995
-0.3079638481 -0.1812511235 0.6192990541 4288784307
-0.3076080382 -0.1803544164 0.6185835600 4287994791
-0.3076826930 -0.1797107458 0.6187337041 4288849585
-0.3077571392 -0.1790665984 0.6188834310 4289310136
-0.3078313768 -0.1784219891 0.6190326810 4289441722
-0.3079053462 -0.1777769178 0.6191814542 4288389034
-0.3075477481 -0.1768833101 0.6184623241 4285428090
-0.3076211810 -0.1762382090 0.6186099648 4283520093
-0.3072628081 -0.1753463745 0.6178893447 4283783265
-0.3069040179 -0.1744558960 0.6171677709 4283783265
-0.3065447509 -0.1735667735 0.6164453626 4283914079
-0.3061850667 -0.1726790071 0.6157220602 4284177251
-0.3058249652 -0.1717926115 0.6149978638 4284900717
-0.3050323427 -0.1706658304 0.6134039760 4284900717
-0.3051034212 -0.1700239033 0.6135469079 4284308580
-0.3043097258 -0.1689016819 0.6119508147 4284045408
-0.3043801188 -0.1682606786 0.6120923758 4283847516
-0.3035853505 -0.1671430320 0.6104941964 4284176481
-0.3032225370 -0.1662657857 0.6097645164 4284571752
-0.3032919168 -0.1656261832 0.6099040508 4284111201
-0.3029283285 -0.1647507846 0.6091728806 4283650650
-0.3016985655 -0.1634078920 0.6066999435 4283453271
-0.3013339043 -0.1625371128 0.6059666276 4284045408
-0.3014018834 -0.1619003415 0.6061033010 4283716443
-0.3014695942 -0.1612631381 0.6062394381 4283716443
-0.3015370667 -0.1606255174 0.6063751578 4283716443
-0.3016043007 -0.1599874496 0.6065104008 4283387735
-0.3012378812 -0.1591200233 0.6057735085 4283519321
-0.3013045490 -0.1584820300 0.6059076190 4283453528
-0.3013709784 -0.1578436196 0.6060411930 4283387735
-0.3018709123 -0.1574309766 0.6070464849 4283585116
-0.3023707867 -0.1570160836 0.6080517173 4283979874
-0.3033044934 -0.1568232775 0.6099293828 4283782495
-0.3042383492 -0.1566263735 0.6118073463 4282927186
-0.3056064546 -0.1566478610 0.6145585179 4282665295
-0.3065406680 -0.1564418226 0.6164371371 4281020470
-0.3079093099 -0.1564523280 0.6191893816 4282336330
-0.3084095120 -0.1560174078 0.6201952696 4287402391
-0.3097785711 -0.1560178399 0.6229483485 4292073694
-0.3053075075 -0.1835083514 0.6153316498 4292863473
-0.3058126569 -0.1831271797 0.6163497567 4292468715
-0.3058882058 -0.1824874431 0.6165020466 4292073957
-0.3059635162 -0.1818472296 0.6166538000 4291613661
-0.3060385883 -0.1812065393 0.6168051362 4290955731
-0.3061134517 -0.1805653721 0.6169559956 4289903043
-0.3061880767 -0.1799237430 0.6171063781 4288850355
-0.3062624633 -0.1792816371 0.6172563434 4287928484
-0.3063366413 -0.1786390841 0.6174058318 4287270554
-0.3064105809 -0.1779960394 0.6175548434 4287731105
-0.3060538173 -0.1771034598 0.6168358326 4287862691
-0.3061271906 -0.1764604002 0.6169837117 4287270553
-0.3062003255 -0.1758168787 0.6171311140 4283915110
-0.3058424592 -0.1749265194 0.6164098382 4283256667
-0.3054841757 -0.1740375310 0.6156877279 4283651425
-0.3051254451 -0.1731498837 0.6149647236 4284177253
-0.3047662675 -0.1722635925 0.6142408252 4284111460
-0.3039754927 -0.1711359322 0.6126470566 4283321942
-0.3040466309 -0.1704951227 0.6127904058 4283190356
-0.3036861420 -0.1696129292 0.6120638847 4284045408
-0.3024622798 -0.1682520807 0.6095972657 4284045408
-0.3029638827 -0.1678526849 0.6106082201 4284045408
-0.3017387688 -0.1664982289 0.6081390381 4284111201
-0.3013763428 -0.1656233817 0.6074085832 4284703336
-0.3010134995 -0.1647499204 0.6066772938 4284900715
-0.3006502092 -0.1638778448 0.6059451103 4283979613
-0.3007185757 -0.1632416993 0.6060829163 4283321683
-0.2999223769 -0.1621378660 0.6044781804 4282926925
-0.2999900579 -0.1615026891 0.6046146154 4282466374
-0.3004898727 -0.1610988826 0.6056219935 4282597962
-0.3001247346 -0.1602310538 0.6048860550 4282334790
-0.3001917303 -0.1595945954 0.6050210595 4281940289
-0.2998258173 -0.1587286592 0.6042836308 4281677117
-0.2998922467 -0.1580922753 0.6044174433 4281677117
-0.3003912568 -0.1576826721 0.6054232121 4281413945
-0.3004572988 -0.1570445150 0.6055563092 4281019189
-0.3009561300 -0.1566313058 0.6065616608 4281084982
-0.3014549017 -0.1562158465 0.6075668931 4281282361
-0.3023868501 -0.1560216546 0.6094452143 4281282361
-0.3033189178 -0.1558233500 0.6113237739 4281612094
-0.3046845198 -0.1558426172 0.6140760779 4282072645
-0.3056169450 -0.1556351781 0.6159553528 4282138438
-0.3061159253 -0.1552037746 0.6169609427 4283914849
-0.3070484996 -0.1549890339 0.6188405156 4287007633
-0.3079812229 -0.1547701657 0.6207203865 4290757834
-0.3044718504 -0.1820499897 0.6150241494 4292929266
-0.3045468628 -0.1814113408 0.6151756644 4292600301
-0.3046216667 -0.1807722151 0.6153267622 4292271336
-0.3046962321 -0.1801326275 0.6154773831 4291679199
-0.3047705889 -0.1794925779 0.6156275868 4290889683
-0.3048446774 -0.1788520515 0.6157772541 4289968067
-0.3049185872 -0.1782110631 0.6159265041 4287994277
-0.3049922287 -0.1775695980 0.6160752773 4286612624
-0.3050656617 -0.1769276857 0.6162236333 4286217866
-0.3047090769 -0.1760370135 0.6155033112 4286941075
-0.3047819138 -0.1753950715 0.6156505346 4286941075
-0.3044245839 -0.1745061874 0.6149286628 4283322460
-0.3040667772 -0.1736186743 0.6142059565 4283059288
-0.3041387498 -0.1729771644 0.6143512726 4283585886
-0.3033499122 -0.1718477011 0.6127578616 4283914851
-0.3029908240 -0.1709642708 0.6120325327 4283979872
-0.3026312888 -0.1700821966 0.6113062501 4283321942
-0.3022713065 -0.1692014933 0.6105791330 4283453528
-0.3014802337 -0.1680820435 0.6089811921 4283124563
-0.3024116755 -0.1679226309 0.6108626723 4283190097
-0.3011888266 -0.1665676534 0.6083925366 4283584855
-0.2999651730 -0.1652176976 0.6059207916 4283782234
-0.2996028364 -0.1643457264 0.6051889062 4283321683
-0.2988089025 -0.1632395983 0.6035851836 4281545272
-0.2984456122 -0.1623713225 0.6028513908 4281479479
-0.2985132933 -0.1617381722 0.6029880643 4282137409
-0.2981492579 -0.1608717740 0.6022526622 4282005823
-0.2982163429 -0.1602386832 0.6023882031 4281545531
-0.2982832193 -0.1596051753 0.6025232673 4281545531
-0.2983498275 -0.1589712203 0.6026578546 4281545531
-0.2988480926 -0.1585659981 0.6036643386 4281545531
-0.2989143431 -0.1579302847 0.6037981510 4282269254
-0.2994124293 -0.1575214565 0.6048042774 4283058770
-0.2999104559 -0.1571103781 0.6058102250 4283650909
-0.3004084229 -0.1566970199 0.6068161130 4284243046
-0.3004739881 -0.1560568660 0.6069486141 4284506218
-0.3009717762 -0.1556399167 0.6079540849 4284572011
-0.3019020259 -0.1554434150 0.6098331809 4284835949
-0.3028323948 -0.1552427858 0.6117125154 4285099121
-0.3037629128 -0.1550380588 0.6135921478 4284770158
-0.3042607307 -0.1546092778 0.6145977378 4285559674
-0.3051913977 -0.1543972492 0.6164776683 4285493881
-0.3056892157 -0.1539630145 0.6174831986 4286414983
-0.3061869442 -0.1535265148 0.6184886098 4288915630
-0.3066846132 -0.1530877650 0.6194939017 4290297283
-0.3071822226 -0.1526467353 0.6204990149 4290362822
-0.3081131279 -0.1524178088 0.6223794222 4290954959
-0.3086106777 -0.1519713104 0.6233844757 4292403175
-0.3028531075 -0.1794455796 0.6131299138 4292732400
-0.3029270470 -0.1788080037 0.6132796407 4292206056
-0.3030007780 -0.1781699657 0.6134288907 4291876064
-0.3030742705 -0.1775314510 0.6135776639 4290757583
-0.3031475544 -0.1768924743 0.6137260199 4288915379
-0.3032205999 -0.1762530357 0.6138738990 4286875796
-0.3032934070 -0.1756131351 0.6140213013 4285493629
-0.3029368818 -0.1747252941 0.6132995486 4287072661
-0.3030091226 -0.1740853786 0.6134458184 4285888387
-0.3026518524 -0.1731993407 0.6127224565 4283125081
-0.3027235568 -0.1725594252 0.6128675938 4283321944
-0.3023655117 -0.1716751903 0.6121427417 4283453530
-0.3020070195 -0.1707923263 0.6114169955 4282795598
-0.3016481102 -0.1699108332 0.6106903553 4282203461
-0.3012887537 -0.1690307111 0.6099628806 4282466633
-0.3009289801 -0.1681519598 0.6092345119 4282071875
-0.3005687594 -0.1672745943 0.6085052490 4282597960
-0.3002081215 -0.1663985997 0.6077750921 4283058511
-0.2994168401 -0.1652865112 0.6061731577 4282795339
-0.2986249626 -0.1641776413 0.6045699716 4283387476
-0.2974020243 -0.1628363431 0.6020941138 4283585368
-0.2979002595 -0.1624390483 0.6031028032 4283585368
-0.2975372672 -0.1615718305 0.6023679376 4282532680
-0.2976045310 -0.1609389335 0.6025041342 4282335301
-0.2972407937 -0.1600736231 0.6017677188 4282532680
-0.2973074913 -0.1594407856 0.6019027233 4282993231
-0.2973739505 -0.1588075310 0.6020373106 4282729805
-0.2978712618 -0.1584030837 0.6030440927 4282598219
-0.2983685136 -0.1579963714 0.6040508151 4283256149
-0.2988657355 -0.1575873941 0.6050574183 4284045665
-0.2993628979 -0.1571761668 0.6060639620 4284572011
-0.2998600304 -0.1567626745 0.6070703864 4284703597
-0.2999255359 -0.1561222821 0.6072030067 4284440425
-0.3004224598 -0.1557051837 0.6082090139 4284308839
-0.3009193242 -0.1552858204 0.6092149615 4283914333
-0.3014161587 -0.1548642069 0.6102207899 4284177505
-0.3019129038 -0.1544403136 0.6112264395 4284309091
-0.3028416336 -0.1542341858 0.6131066680 4286019709
-0.3033383489 -0.1538048387 0.6141123176 4285625467
-0.3038350344 -0.1533732414 0.6151177883 4284375400
-0.3043316305 -0.1529393643 0.6161231995 4284309607
-0.3043957949 -0.1522869021 0.6162531376 4284375400
-0.3053246439 -0.1520648152 0.6181336045 4283717729
-0.3058210611 -0.1516241431 0.6191385984 4284309866
-0.3063174188 -0.1511812061 0.6201434135 4286481035
-0.3068136871 -0.1507359892 0.6211481690 4289902271
-0.3073098958 -0.1502885222 0.6221526861 4292534761
-0.3015886843 -0.1777392775 0.6119461060 4293520890
-0.3016619086 -0.1771023571 0.6120946407 4292928752
-0.3017348945 -0.1764649600 0.6122427583 4291612892
-0.3018076420 -0.1758271009 0.6123903990 4289310137
-0.3018801808 -0.1751887798 0.6125375628 4287204760
-0.3015241921 -0.1743024141 0.6118152142 4285757314
-0.3011677563 -0.1734174043 0.6110919714 4287401626
-0.3012394011 -0.1727795303 0.6112373471 4285822594
-0.3013108075 -0.1721411943 0.6113821864 4282598991
-0.3009532690 -0.1712584496 0.6106567383 4281612096
-0.3005953133 -0.1703770757 0.6099303961 4281808703
-0.3002369106 -0.1694970578 0.6092032194 4282203461
-0.2998780608 -0.1686184257 0.6084750891 4282663755
-0.2999479175 -0.1679814905 0.6086168289 4282926927
-0.2995883226 -0.1671046913 0.6078872085 4283124306
-0.2992283106 -0.1662292928 0.6071566939 4283321685
-0.2988678515 -0.1653552651 0.6064252853 4283256403
-0.2980774641 -0.1642459631 0.6048215628 4283716954
-0.2972864509 -0.1631398797 0.6032165289 4284703849
-0.2977839112 -0.1627415419 0.6042258739 4284901228
-0.2978515327 -0.1621070057 0.6043631434 4283585368
-0.2979189456 -0.1614720374 0.6044998765 4283059024
-0.2975561023 -0.1606045663 0.6037636399 4282795852
-0.2976229191 -0.1599696577 0.6038992405 4282993231
-0.2976895273 -0.1593343168 0.6040343642 4283519321
-0.2977558672 -0.1586985588 0.6041690111 4283519321
-0.2982523739 -0.1582908034 0.6051764488 4283914079
-0.2987488210 -0.1578807682 0.6061838269 4284177251
-0.2992452383 -0.1574684680 0.6071910262 4284506216
-0.2993109226 -0.1568282545 0.6073243618 4285229939
-0.2998071611 -0.1564123631 0.6083312035 4286151041
-0.2998724580 -0.1557703912 0.6084637046 4286808971
-0.2999375165 -0.1551279873 0.6085957289 4287203983
-0.3004333973 -0.1547071487 0.6096019149 4287664534
-0.3009292185 -0.1542840302 0.6106079221 4287203729
-0.3014249504 -0.1538586468 0.6116138697 4286677385
-0.3019206524 -0.1534310132 0.6126196384 4286151041
-0.3024162948 -0.1530010998 0.6136253476 4286414213
-0.3024803698 -0.1523515880 0.6137553453 4286678155
-0.3025441766 -0.1517016739 0.6138848662 4285691260
-0.3030394614 -0.1512668133 0.6148898005 4283651677
-0.3035346568 -0.1508297026 0.6158945560 4282598989
-0.3035979271 -0.1501766890 0.6160229445 4281875525
-0.3040928841 -0.1497359723 0.6170272827 4283322971
-0.3045877814 -0.1492929757 0.6180314422 4287533723
-0.3050826192 -0.1488477290 0.6190354824 4291415510
-0.3051451445 -0.1481903046 0.6191623807 4293060335
-0.3003247082 -0.1760369539 0.6107577682 4293126645
-0.3003971875 -0.1754006743 0.6109051704 4292073957
-0.3004694283 -0.1747639328 0.6110520959 4290362824
-0.3001139462 -0.1738790572 0.6103291512 4287533725
-0.2997580171 -0.1729955226 0.6096053720 4285954693
-0.2998293936 -0.1723592281 0.6097504497 4287270553
-0.2999005020 -0.1717224866 0.6098951101 4285954180
-0.2999714315 -0.1710852832 0.6100392938 4282467151
-0.2991860509 -0.1699613333 0.6084421277 4282598221
-0.2992562950 -0.1693250686 0.6085850000 4282861393
-0.2988980711 -0.1684470028 0.6078565121 4282927186
-0.2985394299 -0.1675703228 0.6071271896 4283914081
-0.2986087799 -0.1669345349 0.6072682142 4283058259
-0.2986778915 -0.1662983000 0.6074087620 4282729294
-0.2983181775 -0.1654239446 0.6066771746 4282927438
-0.2979580164 -0.1645509750 0.6059446931 4283716954
-0.2971685827 -0.1634435505 0.6043393612 4283387989
-0.2976652980 -0.1630441546 0.6053494811 4282927438
-0.2977329493 -0.1624084711 0.6054870486 4283387989
-0.2978003919 -0.1617723554 0.6056241989 4283914333
-0.2974383533 -0.1609036326 0.6048879623 4283585368
-0.2975052297 -0.1602675766 0.6050239205 4283519575
-0.2975718379 -0.1596310884 0.6051594019 4284045665
-0.2980677187 -0.1592236012 0.6061678529 4284769388
-0.2981339693 -0.1585853547 0.6063025594 4285427318
-0.2981999815 -0.1579466611 0.6064368486 4285822076
-0.2986955345 -0.1575342268 0.6074445844 4286611592
-0.2987611592 -0.1568937749 0.6075780988 4287730073
-0.2988265455 -0.1562529057 0.6077110767 4287993245
-0.2988916934 -0.1556116194 0.6078435183 4287137936
-0.2993867695 -0.1551928818 0.6088503599 4287795866
-0.2994515300 -0.1545498371 0.6089820266 4288124831
-0.2999463975 -0.1541274935 0.6099884510 4288651175
-0.3000107706 -0.1534826905 0.6101193428 4288388003
-0.3005054295 -0.1530567408 0.6111252904 4287137936
-0.3010000288 -0.1526285410 0.6121311188 4286085248
-0.3010638356 -0.1519806385 0.6122609377 4286545799
-0.3011274338 -0.1513323188 0.6123902202 4287203729
-0.3016216457 -0.1508991718 0.6133953333 4285296502
-0.3016848266 -0.1502491087 0.6135238409 4284506986
-0.3017477691 -0.1495986432 0.6136518121 4283651679
-0.3022416234 -0.1491605490 0.6146560907 4282138440
-0.3027353883 -0.1487201899 0.6156603098 4282730577
-0.3023664355 -0.1478557289 0.6149099469 4286151813
-0.3028598726 -0.1474127024 0.6159134507 4289967807
-0.3029217422 -0.1467583477 0.6160392761 4292928492
-0.2986345291 -0.1740899086 0.6086954474 4292666094
-0.2987061739 -0.1734552085 0.6088414788 4290692304
-0.2987775803 -0.1728200614 0.6089870334 4288060069
-0.2984218597 -0.1719384640 0.6082619429 4285954693
-0.2984926999 -0.1713033020 0.6084063649 4287730591
-0.2985633314 -0.1706676930 0.6085503101 4287138454
-0.2982065082 -0.1697883904 0.6078230143 4284243048
-0.2978492379 -0.1689104438 0.6070948243 4283256153
-0.2979189754 -0.1682753116 0.6072369218 4283058772
-0.2975609601 -0.1673992127 0.6065071821 4283058772
-0.2976301312 -0.1667640954 0.6066482067 4283519323
-0.2976990938 -0.1661285460 0.6067887545 4283124565
-0.2973399758 -0.1652547717 0.6060567498 4284177505
-0.2974083424 -0.1646192521 0.6061961651 4284309091
-0.2970484793 -0.1637473553 0.6054626107 4284440677
-0.2971163094 -0.1631118655 0.6056008935 4284703849
-0.2971839011 -0.1624759585 0.6057386398 4284506470
-0.2972512543 -0.1618396044 0.6058759093 4284309091
-0.2973183692 -0.1612028331 0.6060127616 4284703849
-0.2973852456 -0.1605656147 0.6061490774 4284901228
-0.2974519134 -0.1599279791 0.6062849164 4284835435
-0.2975183129 -0.1592899114 0.6064202785 4285295986
-0.2980132997 -0.1588800251 0.6074292064 4286216834
-0.2980793417 -0.1582401842 0.6075637937 4287532694
-0.2981451452 -0.1575999260 0.6076979041 4288651175
-0.2982107103 -0.1569592357 0.6078315377 4289177519
-0.2982760370 -0.1563181281 0.6079646945 4288322210
-0.2983410954 -0.1556765884 0.6080973744 4286480006
-0.2984059453 -0.1550346464 0.6082295179 4286019455
-0.2989000082 -0.1546144187 0.6092365384 4286348420
-0.2989644706 -0.1539707184 0.6093679070 4286940557
-0.2990286946 -0.1533265859 0.6094987988 4287532694
-0.2995223999 -0.1529014260 0.6105051041 4288453796
-0.2995862067 -0.1522555351 0.6106352210 4287137936
-0.2996498048 -0.1516092569 0.6107648015 4285953662
-0.2997131348 -0.1509625465 0.6108939052 4286545799
-0.3002063334 -0.1505310982 0.6118991375 4286217604
-0.3002692461 -0.1498826444 0.6120274067 4286217604
-0.3003319502 -0.1492338032 0.6121551991 4285559674
-0.3003943861 -0.1485845298 0.6122825146 4283914849
-0.3004565835 -0.1479348689 0.6124092937 4283059540
-0.3005185425 -0.1472848058 0.6125355363 4282730575
-0.3005802631 -0.1466343403 0.6126613021 4284375400
-0.3006417155 -0.1459834725 0.6127865911 4288915117
-0.3011337221 -0.1455404162 0.6137894392 4292599784
-0.2973008752 -0.1730308831 0.6073520184 4292798193
-0.2973720133 -0.1723973155 0.6074973345 4291283927
-0.2970167994 -0.1715172082 0.6067717075 4288191656
-0.2970873713 -0.1708836406 0.6069158912 4286283659
-0.2971577346 -0.1702496260 0.6070595980 4287533726
-0.2968014181 -0.1693718135 0.6063317060 4288323242
-0.2968712151 -0.1687377989 0.6064742804 4287731105
-0.2969407737 -0.1681033522 0.6066163778 4286612624
-0.2965833843 -0.1672278345 0.6058862805 4286020487
-0.2966523767 -0.1665934026 0.6060272455 4285625216
-0.2967211604 -0.1659585238 0.6061677337 4285033079
-0.2967897058 -0.1653232127 0.6063077450 4284637804
-0.2964308858 -0.1644504964 0.6055747271 4284572011
-0.2964988649 -0.1638152301 0.6057136059 4284440423
-0.2961392999 -0.1629443914 0.6049790382 4284703595
-0.2966341376 -0.1625433713 0.6059899926 4285361525
-0.2967014313 -0.1619067937 0.6061274409 4286085248
-0.2967684865 -0.1612697691 0.6062644124 4286677385
-0.2968353033 -0.1606323272 0.6064009070 4287137936
-0.2969018817 -0.1599944532 0.6065369248 4287861659
-0.2969682217 -0.1593561471 0.6066724658 4288256417
-0.2970343530 -0.1587174237 0.6068075299 4289111980
-0.2975283265 -0.1583060473 0.6078166366 4289704117
-0.2975940406 -0.1576655507 0.6079509258 4289638324
-0.2976595461 -0.1570246220 0.6080847383 4289375152
-0.2977248132 -0.1563832760 0.6082180738 4288519843
-0.2977898121 -0.1557414979 0.6083508730 4287467155
-0.2978546023 -0.1550993174 0.6084832549 4286151045
-0.2983478010 -0.1546789408 0.6094907522 4285756287
-0.2984122038 -0.1540349871 0.6096222997 4285493115
-0.2984763384 -0.1533906311 0.6097533703 4285558908
-0.2985402644 -0.1527458429 0.6098839641 4286545803
-0.2986039221 -0.1521006525 0.6100140214 4287993249
-0.2986673415 -0.1514550447 0.6101436019 4287598491
-0.2987305224 -0.1508090347 0.6102726460 4285756287
-0.2992227674 -0.1503783464 0.6112782359 4286282631
-0.2988561690 -0.1495157629 0.6105293036 4286940561
-0.2989186049 -0.1488685310 0.6106568575 4286940559
-0.2989808321 -0.1482208818 0.6107839346 4285822078
-0.2990427911 -0.1475728303 0.6109105349 4284308839
-0.2986747324 -0.1467132866 0.6101586819 4283650909
-0.2987361252 -0.1460653692 0.6102840900 4283058772
-0.2987972498 -0.1454170495 0.6104089618 4283716702
-0.2992881536 -0.1449766308 0.6114118099 4287665309
-0.2997789681 -0.1445339471 0.6124144793 4291612889
-0.2959689200 -0.1719741076 0.6060060263 4292797680
-0.2960395515 -0.1713416725 0.6061506271 4291152855
-0.2961099744 -0.1707087755 0.6062948108 4288323242
-0.2957546115 -0.1698310822 0.6055671573 4286349452
-0.2958244681 -0.1691982001 0.6057102084 4286612624
-0.2958940864 -0.1685648859 0.6058527827 4288454828
-0.2959634662 -0.1679311097 0.6059948802 4289046965
-0.2960326374 -0.1672968864 0.6061365008 4288981172
-0.2961015701 -0.1666622311 0.6062776446 4288651694
-0.2961702943 -0.1660271287 0.6064183116 4287664799
-0.2958125174 -0.1651536077 0.6056857705 4287137938
-0.2958806753 -0.1645185500 0.6058253050 4287006352
-0.2955221534 -0.1636468917 0.6050912142 4287072145
-0.2955897152 -0.1630118638 0.6052295566 4287598489
-0.2956570685 -0.1623764038 0.6053674817 4288322210
-0.2961509228 -0.1619738936 0.6063786745 4288782761
-0.2962179184 -0.1613366455 0.6065158248 4288782761
-0.2962846458 -0.1606989801 0.6066524982 4288716968
-0.2963511646 -0.1600608677 0.6067886949 4288322980
-0.2964174449 -0.1594223231 0.6069244146 4287730843
-0.2964834869 -0.1587833613 0.6070595980 4287007120
-0.2965493202 -0.1581439674 0.6071943641 4286283397
-0.2970422804 -0.1577311009 0.6082037091 4285559674
-0.2971076965 -0.1570899338 0.6083377004 4284835951
-0.2971729040 -0.1564483494 0.6084711552 4284441193
-0.2972378433 -0.1558063477 0.6086041927 4284309607
-0.2973025739 -0.1551639140 0.6087366939 4283914597
-0.2977949083 -0.1547434032 0.6097447872 4284046183
-0.2978592217 -0.1540992111 0.6098764539 4284375148
-0.2979233265 -0.1534546018 0.6100077033 4284769906
-0.2979871631 -0.1528095752 0.6101384163 4285230711
-0.2980507612 -0.1521641463 0.6102686524 4286414985
-0.2981141210 -0.1515183002 0.6103983521 4287664798
-0.2981772423 -0.1508720368 0.6105276346 4287796384
-0.2982401252 -0.1502253711 0.6106563210 4286217606
-0.2978741527 -0.1493633687 0.6099070311 4286086020
-0.2979364395 -0.1487168223 0.6100345850 4287007122
-0.2979984879 -0.1480698586 0.6101616025 4287336087
-0.2976314425 -0.1472103745 0.6094100475 4285888639
-0.2972639501 -0.1463523656 0.6086576581 4284704365
-0.2973251045 -0.1457060575 0.6087828279 4283980644
-0.2969568670 -0.1448500454 0.6080288291 4283520093
-0.2974466383 -0.1444122642 0.6090316772 4283849315
-0.2975070477 -0.1437647790 0.6091553569 4286415242
-0.2979965806 -0.1433234066 0.6101577282 4290428615
-0.2989155352 -0.1430853605 0.6120392680 4293257714
-0.2946386933 -0.1709195673 0.6046573520 4292863986
-0.2947088182 -0.1702882648 0.6048012972 4291218648
-0.2947787344 -0.1696565300 0.6049447656 4288455342
-0.2944235504 -0.1687807739 0.6042158604 4285626243
-0.2944929004 -0.1681490541 0.6043581963 4284968313
-0.2945620120 -0.1675168723 0.6045000553 4285954694
-0.2946309149 -0.1668842584 0.6046414375 4286678417
-0.2951248288 -0.1664910913 0.6056550741 4286612623
-0.2951933742 -0.1658566743 0.6057956815 4286349451
-0.2948362231 -0.1649837494 0.6050627828 4286020227
-0.2949042022 -0.1643493623 0.6052022576 4285362297
-0.2945463061 -0.1634783000 0.6044678092 4284638574
-0.2946137190 -0.1628439575 0.6046061516 4284178023
-0.2951067388 -0.1624435782 0.6056179404 4283717472
-0.2951737940 -0.1618074477 0.6057555676 4283191128
-0.2952406108 -0.1611708850 0.6058926582 4282664784
-0.2948810756 -0.1603022516 0.6051548123 4282335819
-0.2949473262 -0.1596657485 0.6052907705 4282072647
-0.2958659828 -0.1594884247 0.6071760654 4282467405
-0.2959319651 -0.1588492244 0.6073114276 4282401612
-0.2959977090 -0.1582095921 0.6074463725 4282138440
-0.2960632145 -0.1575695425 0.6075807810 4282401612
-0.2961284816 -0.1569290608 0.6077147126 4282862163
-0.2961935103 -0.1562881619 0.6078481674 4283322714
-0.2962583005 -0.1556468457 0.6079811454 4283717472
-0.2963228524 -0.1550050974 0.6081136465 4283454559
-0.2968142331 -0.1545853615 0.6091220379 4284441454
-0.2964512408 -0.1537203640 0.6083770990 4284902005
-0.2965150774 -0.1530773640 0.6085081100 4285757314
-0.2965786755 -0.1524339616 0.6086386442 4286875536
-0.2970694602 -0.1520088464 0.6096458435 4287072915
-0.2971326709 -0.1513636857 0.6097755432 4287401880
-0.2971956432 -0.1507181078 0.6099047661 4287994017
-0.2968306541 -0.1498561949 0.6091557145 4287665052
-0.2968930304 -0.1492107362 0.6092837453 4286086020
-0.2969551682 -0.1485648751 0.6094112992 4285757055
-0.2965891063 -0.1477054507 0.6086599827 4286809743
-0.2966506779 -0.1470597088 0.6087863445 4287467671
-0.2962838411 -0.1462022960 0.6080335379 4286941327
-0.2959165871 -0.1453463435 0.6072798371 4285625469
-0.2959772348 -0.1447012573 0.6074043512 4283783265
-0.2960376441 -0.1440557837 0.6075283289 4283849058
-0.2960978150 -0.1434099227 0.6076517701 4283783265
-0.2965863049 -0.1429702640 0.6086543202 4285099125
-0.2970747650 -0.1425283402 0.6096566916 4289638842
-0.2971343398 -0.1418794245 0.6097790003 4292797163
-0.2976225615 -0.1414339244 0.6107808352 4293915644
-0.2933101654 -0.1698672771 0.6033061147 4292797680
-0.2933797836 -0.1692371219 0.6034493446 4291021269
-0.2934491932 -0.1686065346 0.6035920978 4288455597
-0.2930942178 -0.1677327454 0.6028619409 4286152842
-0.2935873270 -0.1673439890 0.6038761735 4284771189
-0.2936560512 -0.1667120606 0.6040175557 4283981673
-0.2941490114 -0.1663196832 0.6050314903 4283454559
-0.2942173779 -0.1656859517 0.6051720977 4282862422
-0.2942855060 -0.1650517732 0.6053122878 4282730577
-0.2939286530 -0.1641799062 0.6045782566 4282598991
-0.2939962447 -0.1635457724 0.6047172546 4282533198
-0.2940635979 -0.1629111916 0.6048558354 4282598991
-0.2941307127 -0.1622761786 0.6049938798 4282533198
-0.2941975892 -0.1616407484 0.6051314473 4282598991
-0.2942642272 -0.1610048711 0.6052685380 4282862163
-0.2943306565 -0.1603685617 0.6054051518 4283125335
-0.2943968475 -0.1597318202 0.6055412889 4283520093
-0.2948883176 -0.1593245566 0.6065521836 4283783265
-0.2949541211 -0.1586860418 0.6066875458 4283783265
-0.2954454124 -0.1582751572 0.6076980829 4283783265
-0.2955108583 -0.1576348692 0.6078326702 4284112230
-0.2955760658 -0.1569941640 0.6079667807 4284178023
-0.2952150404 -0.1561277211 0.6072241664 4284507245
-0.2952796519 -0.1554870903 0.6073571444 4285296761
-0.2957702279 -0.1550694853 0.6083661914 4285362556
-0.2958344817 -0.1544270813 0.6084983349 4286086279
-0.2958984971 -0.1537842602 0.6086300015 4286546828
-0.2955358028 -0.1529203653 0.6078839898 4287994274
-0.2955992520 -0.1522776335 0.6080144644 4289902271
-0.2956624329 -0.1516344994 0.6081444621 4290889166
-0.2961521447 -0.1512088329 0.6091517210 4291283667
-0.2962149382 -0.1505639553 0.6092808843 4291020495
-0.2958505750 -0.1497026384 0.6085314751 4289309877
-0.2959128320 -0.1490578502 0.6086594462 4287401880
-0.2959748209 -0.1484126747 0.6087870002 4285691260
-0.2956093848 -0.1475538611 0.6080353260 4285625467
-0.2956707776 -0.1469088048 0.6081616282 4286743948
-0.2948772311 -0.1458406299 0.6065294147 4287270292
-0.2949379981 -0.1451966316 0.6066543460 4287269522
-0.2945709527 -0.1443427503 0.6058994532 4285756283
-0.2946311533 -0.1436989009 0.6060231924 4284112230
-0.2946910560 -0.1430546492 0.6061464548 4283520093
-0.2951785326 -0.1426167190 0.6071491838 4282927956
-0.2952380776 -0.1419707537 0.6072716117 4284375402
-0.2952973545 -0.1413244009 0.6073935032 4288257189
-0.2953563929 -0.1406776607 0.6075149179 4292336355
-0.2919833660 -0.1688172519 0.6019521952 4292535276
-0.2920525074 -0.1681882590 0.6020947099 4291745247
-0.2921214104 -0.1675588191 0.6022367477 4290429387
-0.2921900749 -0.1669289172 0.6023783684 4288652206
-0.2926821113 -0.1665395945 0.6033927202 4287533725
-0.2927504182 -0.1659079045 0.6035335660 4286875793
-0.2928185165 -0.1652757674 0.6036739349 4286020484
-0.2928863764 -0.1646431983 0.6038138866 4285493883
-0.2929540277 -0.1640101820 0.6039533019 4285428090
-0.2930214405 -0.1633767337 0.6040922999 4285296504
-0.2930886149 -0.1627428532 0.6042307615 4285033332
-0.2935798168 -0.1623431295 0.6052434444 4284770160
-0.2936466336 -0.1617074460 0.6053811908 4284506988
-0.2937132120 -0.1610713452 0.6055184603 4284441195
-0.2937795520 -0.1604347974 0.6056551933 4284572781
-0.2934210300 -0.1595669091 0.6049160957 4284506988
-0.2939115465 -0.1591604352 0.6059273481 4284441195
-0.2944020331 -0.1587516814 0.6069384813 4284309609
-0.2944675386 -0.1581125110 0.6070735455 4284638574
-0.2945328057 -0.1574728936 0.6072081327 4285099382
-0.2945978343 -0.1568328738 0.6073421836 4285362554
-0.2942374647 -0.1559670419 0.6065992117 4285691519
-0.2943019271 -0.1553270817 0.6067321301 4286349449
-0.2947915494 -0.1549102515 0.6077415347 4286546828
-0.2948556244 -0.1542685479 0.6078736782 4287467930
-0.2949194908 -0.1536264122 0.6080052853 4288389032
-0.2949830890 -0.1529838592 0.6081364155 4290165443
-0.2950464785 -0.1523409039 0.6082670689 4292007647
-0.2951095998 -0.1516975313 0.6083972454 4293191921
-0.2951724827 -0.1510537416 0.6085268855 4293849594
-0.2952351272 -0.1504095346 0.6086560488 4293520629
-0.2948714197 -0.1495488137 0.6079062223 4292731111
-0.2945072949 -0.1486895531 0.6071555614 4290428356
-0.2945690453 -0.1480459869 0.6072828770 4287862429
-0.2946305573 -0.1474020332 0.6074096560 4286283397
-0.2942653596 -0.1465452760 0.6066567302 4286020225
-0.2938997149 -0.1456899941 0.6059029698 4286612362
-0.2935336828 -0.1448361725 0.6051483154 4287730073
-0.2935939431 -0.1441934109 0.6052725315 4286874764
-0.2932271361 -0.1433416009 0.6045163870 4286085248
-0.2932868302 -0.1426989883 0.6046394110 4284769388
-0.2933462858 -0.1420559734 0.6047619581 4284243814
-0.2934054732 -0.1414125711 0.6048840284 4283454298
-0.2934644520 -0.1407687813 0.6050055623 4283520091
-0.2935231626 -0.1401246190 0.6051266193 4286941327
-0.2940089703 -0.1396830827 0.6061281562 4290889420
-0.2911494970 -0.1673846096 0.6016106606 4292534763
-0.2912180126 -0.1667553931 0.6017522216 4291942624
-0.2917090654 -0.1663668603 0.6027668715 4291679452
-0.2917771935 -0.1657358557 0.6029077172 4291218901
-0.2918451428 -0.1651044190 0.6030480266 4290889936
-0.2919128239 -0.1644725204 0.6031879187 4290888909
-0.2919802964 -0.1638402045 0.6033273339 4290757323
-0.2920475304 -0.1632074416 0.6034662724 4290494151
-0.2921145558 -0.1625742316 0.6036047339 4290230979
-0.2921813428 -0.1619406044 0.6037427783 4289836221
-0.2926714420 -0.1615403146 0.6047554612 4289178291
-0.2927378416 -0.1609048843 0.6048926711 4288257189
-0.2928040326 -0.1602690369 0.6050294638 4287599259
-0.2928699851 -0.1596327573 0.6051657200 4286415242
-0.2929356992 -0.1589960456 0.6053014994 4286020484
-0.2934252024 -0.1585880816 0.6063129902 4285757312
-0.2934905589 -0.1579495817 0.6064480543 4285888898
-0.2935556769 -0.1573106647 0.6065825820 4286217863
-0.2936205566 -0.1566713303 0.6067166328 4286612621
-0.2932607830 -0.1558060944 0.6059732437 4286810000
-0.2933250964 -0.1551668346 0.6061061621 4286875793
-0.2933891714 -0.1545271426 0.6062385440 4287270551
-0.2938776910 -0.1541097462 0.6072479486 4288454825
-0.2939413786 -0.1534683108 0.6073795557 4289770685
-0.2940048277 -0.1528264582 0.6075106859 4291612889
-0.2940680385 -0.1521841735 0.6076413393 4293191921
-0.2941310108 -0.1515414864 0.6077714562 4293915644
-0.2941937447 -0.1508983970 0.6079010963 4294507519
-0.2938310206 -0.1500377506 0.6071515679 4294770687
-0.2938931882 -0.1493947655 0.6072800159 4294441727
-0.2935297191 -0.1485361010 0.6065289378 4293191662
-0.2935912907 -0.1478932202 0.6066561937 4290954700
-0.2932270765 -0.1470365524 0.6059035659 4288388773
-0.2928624153 -0.1461813301 0.6051501036 4286546569
-0.2929230928 -0.1455391198 0.6052755117 4285888639
-0.2925577164 -0.1446859092 0.6045204401 4286809739
-0.2926178277 -0.1440438330 0.6046446562 4287665048
-0.2922516763 -0.1431926340 0.6038880944 4286611592
-0.2918851078 -0.1423429102 0.6031306386 4286282627
-0.2919443250 -0.1417015195 0.6032530069 4284967537
-0.2920033038 -0.1410597563 0.6033748388 4284375400
-0.2920620143 -0.1404175907 0.6034961939 4283651677
-0.2921205163 -0.1397750527 0.6036170721 4283388505
-0.2921787500 -0.1391321272 0.6037374139 4285625980
-0.2922367454 -0.1384888142 0.6038572192 4289770939
-0.2922944725 -0.1378451139 0.6039765477 4292797415
-0.2903149724 -0.1659526527 0.6012661457 4293061107
-0.2903828323 -0.1653232425 0.6014066935 4292600556
-0.2904505134 -0.1646934003 0.6015468240 4292403177
-0.2909401953 -0.1643015891 0.6025610566 4292402407
-0.2905851305 -0.1634324044 0.6018256545 4292270821
-0.2906520963 -0.1628012508 0.6019643545 4292007649
-0.2907188535 -0.1621696502 0.6021026373 4291876063
-0.2912080288 -0.1617724150 0.6031157374 4291810270
-0.2912743986 -0.1611390412 0.6032531857 4291612891
-0.2913405597 -0.1605052203 0.6033902168 4291020752
-0.2914064825 -0.1598709822 0.6035267711 4290297029
-0.2914721668 -0.1592363119 0.6036627889 4289573306
-0.2919607759 -0.1588314027 0.6046746969 4288454825
-0.2920260727 -0.1581949443 0.6048099995 4287731102
-0.2925145030 -0.1577864140 0.6058215499 4287599516
-0.2921560109 -0.1569207609 0.6050791144 4287270551
-0.2922206521 -0.1562830359 0.6052129269 4287073172
-0.2922850251 -0.1556448936 0.6053462625 4287467930
-0.2923491895 -0.1550063193 0.6054791212 4287928481
-0.2924130857 -0.1543673277 0.6056115031 4288323239
-0.2924767733 -0.1537279189 0.6057434082 4288783790
-0.2925402224 -0.1530880928 0.6058747768 4290362822
-0.2926034033 -0.1524478495 0.6060056686 4292336612
-0.2930905223 -0.1520272046 0.6070145369 4293389300
-0.2927291095 -0.1511661261 0.6062660217 4294047230
-0.2927916050 -0.1505246460 0.6063954234 4294705151
-0.2924294174 -0.1496655345 0.6056452990 4294705151
-0.2924913466 -0.1490241736 0.6057735682 4294705151
-0.2925530076 -0.1483823955 0.6059013009 4294639615
-0.2921897471 -0.1475257874 0.6051489711 4293323761
-0.2922508717 -0.1468841434 0.6052755117 4291152592
-0.2918868661 -0.1460295320 0.6045216322 4288652458
-0.2915224433 -0.1451763809 0.6037669182 4286481289
-0.2915826440 -0.1445353925 0.6038916111 4285560185
-0.2912174761 -0.1436842531 0.6031352878 4286547080
-0.2912771106 -0.1430434138 0.6032588482 4287137936
-0.2909111977 -0.1421943009 0.6025009751 4286940557
-0.2909702659 -0.1415536106 0.6026233435 4286349192
-0.2906036079 -0.1407065243 0.6018639207 4285099125
-0.2902365327 -0.1398609281 0.6011037230 4283914849
-0.2902947068 -0.1392209530 0.6012241840 4283651677
-0.2903526425 -0.1385805905 0.6013441086 4283717470
-0.2904103100 -0.1379398555 0.6014636159 4285033330
-0.2904677391 -0.1372987330 0.6015825272 4288586665
-0.2909509242 -0.1368575990 0.6025832295 4292402659
-0.2893256545 -0.1617646068 0.6005987525 4292994544
-0.2898137867 -0.1613690704 0.6016119719 4292665579
-0.2898798883 -0.1607373059 0.6017492414 4292468200
-0.2899457812 -0.1601051092 0.6018860340 4292007649
-0.2900114357 -0.1594724655 0.6020223498 4291349719
-0.2900768816 -0.1588394046 0.6021581888 4290495180
-0.2901420891 -0.1582059264 0.6022934914 4289771457
-0.2906294763 -0.1578013599 0.6033052802 4289310904
-0.2911168337 -0.1573945433 0.6043169498 4288784560
-0.2911815047 -0.1567579210 0.6044512391 4287863458
-0.2908232510 -0.1558942944 0.6037075520 4287468700
-0.2908873856 -0.1552577615 0.6038406491 4287666079
-0.2909512818 -0.1546208113 0.6039733291 4287863458
-0.2914379239 -0.1542072445 0.6049835086 4288257700
-0.2915014625 -0.1535685360 0.6051153541 4289178802
-0.2915647328 -0.1529293954 0.6052467227 4290560201
-0.2912045121 -0.1520688236 0.6044989824 4292270819
-0.2916905880 -0.1516498774 0.6055079699 4293652472
-0.2917531431 -0.1510095149 0.6056378484 4294310399
-0.2913919389 -0.1501504779 0.6048880816 4294508031
-0.2914539576 -0.1495102048 0.6050167680 4294639615
-0.2910920084 -0.1486531496 0.6042653918 4294639615
-0.2911534309 -0.1480129957 0.6043929458 4294573823
-0.2912146449 -0.1473724544 0.6045199633 4294508031
-0.2908515930 -0.1465179026 0.6037663817 4293784312
-0.2904881537 -0.1456648260 0.6030119061 4291547350
-0.2901242971 -0.1448132247 0.6022565961 4289178802
-0.2901842594 -0.1441738755 0.6023811102 4286481287
-0.2902440131 -0.1435341239 0.6025050879 4285560185
-0.2898790538 -0.1426850706 0.6017475128 4285625467
-0.2899382412 -0.1420454681 0.6018703580 4286875534
-0.2895725369 -0.1411984414 0.6011112332 4286875536
-0.2896311283 -0.1405589879 0.6012328863 4286809743
-0.2888399661 -0.1395088434 0.5995904803 4285428090
-0.2884730399 -0.1386662722 0.5988288522 4283651679
-0.2889555693 -0.1382317692 0.5998305082 4283651677
-0.2885880172 -0.1373903304 0.5990675092 4284178021
-0.2886451185 -0.1367517859 0.5991860628 4284112741
-0.2891272008 -0.1363133192 0.6001867652 4287336598
-0.2896091938 -0.1358726025 0.6011872888 4291152592
-0.2885535359 -0.1597045362 0.6003801227 4292797935
-0.2886189222 -0.1590735018 0.6005162001 4292271591
-0.2886840999 -0.1584420651 0.6006518006 4291613661
-0.2887490392 -0.1578101814 0.6007869244 4290889938
-0.2892353833 -0.1574073434 0.6017988324 4290035142
-0.2892999351 -0.1567736864 0.6019331813 4289508798
-0.2893642783 -0.1561396122 0.6020670533 4288981941
-0.2894283831 -0.1555051208 0.6022004485 4288324011
-0.2894922793 -0.1548701972 0.6023333073 4287995046
-0.2895559072 -0.1542348713 0.6024657488 4287995046
-0.2900415063 -0.1538230181 0.6034761071 4288389800
-0.2901047766 -0.1531859189 0.6036077142 4288718765
-0.2901678085 -0.1525484025 0.6037389040 4290034625
-0.2902306020 -0.1519104689 0.6038695574 4291482071
-0.2902931571 -0.1512721330 0.6039996743 4292534759
-0.2903554738 -0.1506333798 0.6041293740 4293390068
-0.2904175520 -0.1499942094 0.6042585373 4294047484
-0.2904793918 -0.1493546367 0.6043872237 4294179070
-0.2901180983 -0.1484981775 0.6036354899 4294179068
-0.2897563875 -0.1476431936 0.6028828621 4294179068
-0.2898173332 -0.1470042616 0.6030097008 4294310653
-0.2894548774 -0.1461512595 0.6022555232 4294179067
-0.2890919745 -0.1452997178 0.6015004516 4293586418
-0.2887286842 -0.1444496512 0.6007446051 4291875800
-0.2887884080 -0.1438119262 0.6008688807 4289244082
-0.2888478935 -0.1431738138 0.6009926200 4287270292
-0.2884835303 -0.1423262954 0.6002345085 4286152324
-0.2885424495 -0.1416883320 0.6003571153 4286086531
-0.2886011600 -0.1410499662 0.6004791856 4287533977
-0.2882357240 -0.1402050406 0.5997188687 4287336598
-0.2878698707 -0.1393615901 0.5989576578 4287073426
-0.2875036001 -0.1385196447 0.5981956124 4285691773
-0.2871369421 -0.1376791894 0.5974326730 4283323223
-0.2867698371 -0.1368402392 0.5966688991 4283257430
-0.2872509658 -0.1364057660 0.5976699591 4283980640
-0.2873076200 -0.1357684731 0.5977877975 4284046433
-0.2877884805 -0.1353304237 0.5987883210 4286349188
-0.2886938155 -0.1350887567 0.6006720662 4290296768
-0.2895992398 -0.1348429620 0.6025559306 4293520625
-0.2867433727 -0.1590702683 0.5979957581 4293127413
-0.2872289419 -0.1586740911 0.5990083814 4292798448
-0.2872938514 -0.1580442637 0.5991437435 4292469483
-0.2873585224 -0.1574140042 0.5992786288 4291811553
