VERSION 0.7
FIELDS x y z rgba
SIZE 4 4 4 4
TYPE F F F U
COUNT 1 1 1 1
WIDTH 920
HEIGHT 1
VIEWPOINT 0.0 0.0 0.0 1.0 0.0 0.0 0.0
POINTS 920
DATA ascii
-0.3469110131 -0.1078411341 0.6721004844 4291546835
-0.3465045691 -0.1069689095 0.6713130474 4290230461
-0.3456435204 -0.1059590727 0.6696448326 4288651429
-0.3447819054 -0.1049527675 0.6679755449 4287664280
-0.3439197242 -0.1039500087 0.6663051844 4288782761
-0.3421482146 -0.1026780754 0.6628731489 4289506484
-0.3399215043 -0.1012781262 0.6585591435 4289177519
-0.3376938701 -0.0998875052 0.6542433500 4287466901
-0.3359198868 -0.0986396819 0.6508064270 4285822076
-0.3341451287 -0.0973992720 0.6473680735 4285953662
-0.3328242898 -0.0962978303 0.6448090672 4287861659
-0.3315027654 -0.0952018872 0.6422488093 4290297283
-0.3301806152 -0.0941114426 0.6396872401 4292271073
-0.3307376206 -0.0843030885 0.6407664418 4293126380
-0.3307751417 -0.0836006328 0.6408390999 4291282899
-0.3303566873 -0.0827837512 0.6400283575 4289967039
-0.3299378157 -0.0819685757 0.6392168403 4290427588
-0.3286069930 -0.0809305981 0.6366385818 4288322212
-0.3277314007 -0.0800094903 0.6349422336 4287862431
-0.3268553019 -0.0790920258 0.6332448721 4283322714
-0.3259786963 -0.0781782120 0.6315465569 4282072647
-0.3255575597 -0.0773764253 0.6307306290 4283783265
-0.3251360357 -0.0765763596 0.6299139857 4285954945
-0.3251701593 -0.0758844465 0.6299800873 4288389286
-0.3265722990 -0.0755086914 0.6326965690 4292534243
-0.3265173733 -0.2510465682 0.6339542866 4289046451
-0.3274823725 -0.2510820627 0.6358278990 4283980903
-0.3275833726 -0.2504528463 0.6360239983 4284046696
-0.3276841938 -0.2498230189 0.6362197399 4283783524
-0.3277848065 -0.2491926253 0.6364150643 4283191387
-0.3278852403 -0.2485616654 0.6366100907 4283586145
-0.3275527656 -0.2476030290 0.6359645724 4284704626
-0.3267869949 -0.2463192344 0.6344777942 4288652206
-0.3260205388 -0.2450381964 0.6329896450 4292862958
-0.3292134106 -0.2303935438 0.6391888261 4292928492
-0.3288716376 -0.2294449061 0.6385252476 4291678425
-0.3289656937 -0.2288008779 0.6387078762 4289507256
-0.3290595412 -0.2281562984 0.6388900876 4286809743
-0.3282800913 -0.2269076854 0.6373767257 4284901746
-0.3283732533 -0.2262637168 0.6375576258 4284111460
-0.3280294538 -0.2253191769 0.6368900537 4283848288
-0.3276851475 -0.2243757993 0.6362215877 4284374632
-0.3264663219 -0.2228369862 0.6338552237 4283585116
-0.3248094022 -0.2210053205 0.6306381822 4282861393
-0.3253377080 -0.2206629515 0.6316638589 4282795600
-0.3241164088 -0.2191354185 0.6292926669 4282663501
-0.3224566281 -0.2173176408 0.6260700822 4282268743
-0.3251721561 -0.2184462845 0.6313424706 4282268743
-0.3196596801 -0.2133639157 0.6206396222 4282794826
-0.3214998543 -0.2138986439 0.6242124438 4282860619
-0.3180832267 -0.2109393328 0.6175788641 4282926927
-0.3168557286 -0.2094417810 0.6151955724 4282663755
-0.3147505224 -0.2073712647 0.6111082435 4282598221
-0.3139594197 -0.2061727643 0.6095722318 4283848288
-0.3127290010 -0.2046901435 0.6071832776 4287006352
-0.3128138483 -0.2040708661 0.6073480248 4290296002
-0.3120207787 -0.2028803974 0.6058081985 4292533734
-0.3448138535 -0.1096518710 0.6694780588 4292796388
-0.3448622525 -0.1089233235 0.6695720553 4291743700
-0.3449103534 -0.1081944630 0.6696654558 4290822598
-0.3445048630 -0.1073240936 0.6688781381 4289440945
-0.3436455429 -0.1063150764 0.6672097445 4288519843
-0.3423322737 -0.1051702946 0.6646599174 4288651429
-0.3410183191 -0.1040309742 0.6621087790 4289177519
-0.3383430541 -0.1024849862 0.6569145918 4289769656
-0.3356667459 -0.1009502187 0.6517183781 4288651175
-0.3329894245 -0.0994266942 0.6465201974 4286611592
-0.3307648003 -0.0980489179 0.6422009468 4285690490
-0.3294468522 -0.0969475433 0.6396420598 4287401108
-0.3281282187 -0.0958516672 0.6370818615 4290230207
-0.3272628784 -0.0948929042 0.6354017258 4292532962
-0.3263969719 -0.0939377248 0.6337205172 4293455347
-0.3301732838 -0.0843407214 0.6410524845 4292863208
-0.3302107453 -0.0836379603 0.6411252022 4291151311
-0.3297930360 -0.0828207210 0.6403142214 4289967037
-0.3293749094 -0.0820051879 0.6395024061 4290559174
-0.3280464113 -0.0809667632 0.6369230151 4288322212
-0.3267173171 -0.0799339190 0.6343424916 4287730843
-0.3258426785 -0.0790170208 0.6326443553 4282664782
-0.3249675632 -0.0781037733 0.6309452057 4282204231
-0.3245471120 -0.0773026124 0.6301289201 4284178021
-0.3241263032 -0.0765031651 0.6293118596 4287073424
-0.3246156275 -0.0759183913 0.6302618980 4290889418
-0.3258432448 -0.2517741024 0.6340126395 4292665579
-0.3259442449 -0.2511475086 0.6342091560 4286875795
-0.3247512579 -0.2495261878 0.6318879128 4283454559
-0.3261457384 -0.2498925626 0.6346011758 4284112489
-0.3262461722 -0.2492642254 0.6347966194 4283783524
-0.3259147704 -0.2483064234 0.6341518164 4283059801
-0.3260146976 -0.2476777583 0.6343462467 4283980903
-0.3256824911 -0.2467212975 0.6336998343 4285165177
-0.3249177635 -0.2454395443 0.6322118640 4290297031
-0.3271777630 -0.2273418009 0.6366093159 4291810011
-0.3272709548 -0.2266990244 0.6367906332 4289638842
-0.3269280195 -0.2257547081 0.6361232996 4287138708
-0.3265846074 -0.2248115391 0.6354551315 4285099125
-0.3262407482 -0.2238695472 0.6347861290 4284374632
-0.3258964419 -0.2229287177 0.6341161728 4284177253
-0.3255516589 -0.2219890803 0.6334453225 4284243046
-0.3252064288 -0.2210506201 0.6327735782 4284045667
-0.3248607516 -0.2201133370 0.6321009398 4283387224
-0.3237311244 -0.2179482132 0.6299029589 4282531915
-0.3229469359 -0.2167220861 0.6283771396 4282005571
-0.3217249215 -0.2152065039 0.6259993911 4282334279
-0.3209392428 -0.2139870971 0.6244705915 4282268486
-0.3192780912 -0.2121893018 0.6212384105 4282466122
-0.3176158071 -0.2103978992 0.6180039644 4282729294
-0.3163899183 -0.2089018524 0.6156187654 4282532430
-0.3151631355 -0.2074104846 0.6132316589 4282137672
-0.3143732250 -0.2062110305 0.6116947532 4282269256
-0.3166484237 -0.2070188671 0.6161217093 4283124565
-0.3132295012 -0.2041064650 0.6094692945 4285953664
-0.3124376535 -0.2029150426 0.6079286337 4289177521
-0.3116451502 -0.2017266005 0.6063865423 4292007136
-0.3427682817 -0.1107189804 0.6669446826 4292861667
-0.3428170681 -0.1099936143 0.6670396328 4292006358
-0.3428655565 -0.1092679352 0.6671339869 4291019463
-0.3424613476 -0.1083987579 0.6663474441 4289769396
-0.3420566916 -0.1075311899 0.6655601263 4288387744
-0.3416516185 -0.1066652313 0.6647719145 4287466642
-0.3403409421 -0.1055202633 0.6622216702 4287532948
-0.3381243050 -0.1041020229 0.6579086185 4288585636
-0.3359067440 -0.1026930884 0.6535937786 4288651175
-0.3323299587 -0.1008811444 0.6466342211 4288059038
-0.3292047381 -0.0992207527 0.6405532956 4287072913
-0.3269841373 -0.0978445783 0.6362324953 4287928222
-0.3252155781 -0.0966122895 0.6327913404 4289836219
-0.3248052895 -0.0957882181 0.6319929957 4292073181
-0.3239414990 -0.0948331580 0.6303122640 4293520629
-0.3291164637 -0.0849639550 0.6403815150 4293521138
-0.3296081722 -0.0843783244 0.6413382292 4292468450
-0.3296456039 -0.0836752579 0.6414111257 4290756553
-0.3287745416 -0.0827433765 0.6397162080 4290164416
-0.3279029429 -0.0818151385 0.6380203366 4290624965
-0.3270308673 -0.0808905438 0.6363234520 4288453796
-0.3257040083 -0.0798582137 0.6337417364 4287598487
-0.3248308599 -0.0789418891 0.6320427656 4282400840
-0.3244115710 -0.0781386495 0.6312269568 4282862161
-0.3235374987 -0.0772286654 0.6295261979 4285362295
-0.3235718012 -0.0765373409 0.6295929551 4288849322
-0.3240603507 -0.0759523138 0.6305435300 4293257453
-0.3244090378 -0.2512087822 0.6325890422 4291678171
-0.3245096803 -0.2505836487 0.6327853203 4285493629
-0.3246101439 -0.2499579489 0.6329812407 4283848804
-0.3242797852 -0.2490009964 0.6323370337 4284111976
-0.3235181570 -0.2477152646 0.6308519244 4283520352
-0.3244794905 -0.2477483451 0.6327264905 4283257180
-0.3241480291 -0.2467929572 0.6320801377 4284375661
-0.3238160908 -0.2458386868 0.6314328909 4285888900
-0.3213271499 -0.2432529181 0.6265795231 4291481305
-0.3259202540 -0.2255462259 0.6355358958 4291875804
-0.3255774081 -0.2246035933 0.6348673701 4290099393
-0.3256694973 -0.2239615321 0.6350469589 4287730845
-0.3253258467 -0.2230203748 0.6343768835 4285691262
-0.3249817491 -0.2220803946 0.6337059140 4284308841
-0.3246372044 -0.2211416066 0.6330340505 4284111462
-0.3242922127 -0.2202039808 0.6323612928 4284111462
-0.3239467442 -0.2192675620 0.6316876411 4283782497
-0.3231647015 -0.2180380672 0.6301626563 4283189847
-0.3228181899 -0.2171048820 0.6294869781 4282663503
-0.3220348954 -0.2158803642 0.6279595494 4282597710
-0.3208144009 -0.2143671364 0.6255795956 4282466124
-0.3200295568 -0.2131493390 0.6240492463 4282334538
-0.3188073039 -0.2116445750 0.6216658950 4282071366
-0.3180209696 -0.2104335427 0.6201325655 4282137159
-0.3172339499 -0.2092254758 0.6185978651 4282400331
-0.3151350021 -0.2071583867 0.6145049334 4282466635
-0.3178438246 -0.2082504481 0.6197870970 4282729807
-0.3139941096 -0.2050478309 0.6122802496 4282203463
-0.3127666414 -0.2035686374 0.6098867655 4282927186
-0.3119758368 -0.2023780048 0.6083446741 4284966769
-0.3116219938 -0.2014733255 0.6076546907 4288124833
-0.3108299375 -0.2002877891 0.6061101556 4291020495
-0.3104750812 -0.1993864775 0.6054182649 4292862699
-0.3411776125 -0.1119222119 0.6652873755 4292797415
-0.3412268460 -0.1111990735 0.6653833389 4291415762
-0.3412757516 -0.1104756221 0.6654787660 4290822084
-0.3408729136 -0.1096066907 0.6646931767 4289440431
-0.3404695988 -0.1087393612 0.6639067531 4288387743
-0.3400658667 -0.1078736484 0.6631194949 4287532434
-0.3392100334 -0.1068672389 0.6614506245 4287137677
-0.3379018903 -0.1057230309 0.6588997841 4287335056
-0.3356894553 -0.1043035164 0.6545856595 4287203983
-0.3321205378 -0.1024750322 0.6476262808 4287138190
-0.3290022314 -0.1008000895 0.6415457129 4286809741
-0.3254307806 -0.0990007967 0.6345814466 4288454566
-0.3227621615 -0.0974896848 0.6293777227 4290099391
-0.3219009638 -0.0965321437 0.6276984215 4292073181
-0.3210392296 -0.0955781713 0.6260180473 4293126128
-0.3280982375 -0.0848845392 0.6397829056 4293257455
-0.3281358480 -0.0841833428 0.6398562789 4291941595
-0.3281731606 -0.0834819078 0.6399289966 4290822346
-0.3277568221 -0.0826658979 0.6391171813 4290690760
-0.3264333606 -0.0816248581 0.6365364790 4290164414
-0.3255626857 -0.0807017982 0.6348387003 4288388003
-0.3246915340 -0.0797823817 0.6331399679 4287072143
-0.3238198757 -0.0788666233 0.6314402223 4282400840
-0.3229477108 -0.0779545233 0.6297395229 4283388505
-0.3225286603 -0.0771545991 0.6289224029 4286480776
-0.3225629330 -0.0764639378 0.6289892197 4291086284
-0.3225476742 -0.2503095567 0.6303246021 4290362311
-0.3213589489 -0.2486893088 0.6280016303 4284506734
-0.3227477968 -0.2490633130 0.6307157278 4284177769
-0.3228475749 -0.2484393269 0.6309106946 4283783011
-0.3229471743 -0.2478147745 0.6311053634 4283256667
-0.3226164281 -0.2468604892 0.6304590106 4283585632
-0.3222852349 -0.2459072918 0.6298117638 4284440941
-0.3219535649 -0.2449551821 0.6291636229 4287006868
-0.3211908937 -0.2436775267 0.6276732087 4292402407
-0.3246628940 -0.2237538993 0.6344581842 4292730859
-0.3243198097 -0.2228132784 0.6337877512 4291086034
-0.3239762783 -0.2218738198 0.6331164241 4288651693
-0.3240672648 -0.2212325037 0.6332942247 4286085766
-0.3237229288 -0.2202945501 0.6326213479 4284505965
-0.3233781457 -0.2193577886 0.6319475770 4283848035
-0.3225975633 -0.2181278467 0.6304221153 4283519070
-0.3222517371 -0.2171943188 0.6297463179 4283321691
-0.3214698732 -0.2159693539 0.6282184124 4282992726
-0.3206873238 -0.2147473097 0.6266890764 4282992726
-0.3203398883 -0.2138191164 0.6260101795 4282861395
-0.3195560575 -0.2126020938 0.6244783998 4282335051
-0.3187715411 -0.2113880068 0.6229452491 4282006086
-0.3179863095 -0.2101768702 0.6214107871 4282137672
-0.3167640865 -0.2086812556 0.6190223098 4282269258
-0.3156265318 -0.2065612227 0.6167992949 4282269256
-0.3144018948 -0.2050770968 0.6144061089 4282664014
-0.3136131167 -0.2038816661 0.6128646731 4282926927
-0.3128236532 -0.2026892155 0.6113218665 4283058513
-0.3115964830 -0.2012175322 0.6089237332 4284308580
-0.3103684187 -0.1997505873 0.6065238118 4287071886
-0.3095766604 -0.1985688657 0.6049765944 4290164414
-0.3092216253 -0.1976697296 0.6042827964 4292335583
-0.3391383290 -0.1129674315 0.6627461910 4292731621
-0.3391879499 -0.1122474819 0.6628431678 4291086796
-0.3392372429 -0.1115272269 0.6629394889 4289902522
-0.3392862380 -0.1108066589 0.6630352139 4289113006
-0.3388842940 -0.1099395752 0.6622497439 4288453536
-0.3384819031 -0.1090741009 0.6614633799 4287006090
-0.3376283348 -0.1080659628 0.6597953439 4286282367
-0.3367741704 -0.1070613489 0.6581261158 4286479746
-0.3350176811 -0.1057755351 0.6546936035 4286743431
-0.3319074810 -0.1040728986 0.6486156583 4286480259
-0.3292471468 -0.1025238410 0.6434168220 4286546053
-0.3256835938 -0.1007070467 0.6364529133 4287664534
-0.3221187890 -0.0989053324 0.6294865012 4290165182
-0.3212599158 -0.0979440883 0.6278080940 4292204765
-0.3194980025 -0.0967132077 0.6243649125 4293389554
-0.3270807862 -0.0848049819 0.6391832829 4292928490
-0.3271183372 -0.0841044486 0.6392566562 4291415251
-0.3271555603 -0.0834036842 0.6393293738 4290493381
-0.3262873888 -0.0824738964 0.6376327872 4291019725
-0.3254187107 -0.0815477595 0.6359352469 4289769658
-0.3240968883 -0.0805128217 0.6333521008 4288782763
-0.3236798644 -0.0797064230 0.6325371265 4286019455
-0.3228096664 -0.0787912384 0.6308366060 4282137668
-0.3223918080 -0.0779892430 0.6300200224 4283783263
-0.3219735026 -0.0771889687 0.6292026043 4288322980
-0.3224606216 -0.0766056031 0.6301545501 4292928488
-0.3206901848 -0.2494094074 0.6280578971 4288717486
-0.3207898438 -0.2487888932 0.6282531023 4283980390
-0.3208893239 -0.2481677830 0.6284478903 4284177769
-0.3197012246 -0.2465532720 0.6261211038 4283717218
-0.3210877180 -0.2469238490 0.6288364530 4283322460
-0.3211866319 -0.2463010252 0.6290301681 4283848804
-0.3208558261 -0.2453491688 0.6283823252 4284440941
-0.3205245733 -0.2443984002 0.6277335286 4288322728
-0.3229716122 -0.2216669023 0.6325259805 4293059824
-0.3226281703 -0.2207291573 0.6318534017 4291414999
-0.3227186501 -0.2200888097 0.6320305467 4288914866
-0.3223744035 -0.2191525847 0.6313563585 4286283146
-0.3220297396 -0.2182175368 0.6306813359 4284309356
-0.3216845989 -0.2172836810 0.6300054193 4283322461
-0.3213390112 -0.2163510174 0.6293286085 4283585633
-0.3209929764 -0.2154195607 0.6286509037 4283190875
-0.3202114105 -0.2141982615 0.6271201968 4283125082
-0.3194291294 -0.2129799128 0.6255881786 4283059289
-0.3186461926 -0.2117645144 0.6240547895 4282861395
-0.3182979524 -0.2108404785 0.6233728528 4282532430
-0.3179492950 -0.2099176794 0.6226899624 4282269258
-0.3171645105 -0.2087093890 0.6211529970 4282137672
-0.3172506094 -0.2080757171 0.6213216186 4281874498
-0.3164646626 -0.2068716288 0.6197823882 4281874498
-0.3156780601 -0.2056705058 0.6182418466 4282268995
-0.3140184879 -0.2039059550 0.6149916649 4283058511
-0.3127940297 -0.2024302185 0.6125935912 4283190097
-0.3111322522 -0.2006777674 0.6093391180 4282597960
-0.3103423417 -0.1994929612 0.6077920794 4283584855
-0.3091151118 -0.1980314702 0.6053886414 4285953403
-0.3083237112 -0.1968535483 0.6038386822 4289244341
-0.3075316250 -0.1956786513 0.6022874117 4291547096
-0.3375018835 -0.1148700565 0.6609828472 4292929001
-0.3375522196 -0.1141526774 0.6610814333 4292205278
-0.3371526897 -0.1132839397 0.6602990031 4290428867
-0.3372023702 -0.1125668734 0.6603962779 4288783529
-0.3368020654 -0.1117003709 0.6596122980 4288586150
-0.3368510604 -0.1109836325 0.6597082615 4288388771
-0.3368997574 -0.1102665886 0.6598036289 4287138704
-0.3360484242 -0.1092567146 0.6581363082 4286217087
-0.3356464505 -0.1083956659 0.6573491096 4285953915
-0.3343440592 -0.1072475389 0.6547984481 4286677638
-0.3325909674 -0.1059614792 0.6513650417 4287203982
-0.3303869069 -0.1045403630 0.6470485330 4286677638
-0.3259310424 -0.1024212241 0.6383218765 4286480259
-0.3214736283 -0.1003209949 0.6295922399 4288257185
-0.3188159168 -0.0987978727 0.6243872046 4291086284
-0.3175082505 -0.0977017507 0.6218262315 4292994281
-0.3256125748 -0.0846079364 0.6376981735 4292533732
-0.3256499767 -0.0839090496 0.6377714276 4291086286
-0.3256870508 -0.0832099169 0.6378440857 4290624454
-0.3248203099 -0.0822816640 0.6361466050 4291019212
-0.3244048953 -0.0814705342 0.6353330016 4289374900
-0.3230853379 -0.0804361105 0.6327486634 4288980142
-0.3222170770 -0.0795188099 0.6310482621 4285493113
-0.3218003213 -0.0787157193 0.6302320361 4282664014
-0.3218351603 -0.0780239329 0.6303002238 4285164916
-0.3214176297 -0.0772233158 0.6294825673 4290428356
-0.3191650808 -0.2494604141 0.6264336705 4292008419
-0.3188365996 -0.2485083789 0.6257889271 4286677903
-0.3189357817 -0.2478901595 0.6259835958 4283783011
-0.3190347552 -0.2472713590 0.6261778474 4284111976
-0.3191335499 -0.2466519922 0.6263717413 4283717218
-0.3188036382 -0.2457017899 0.6257242560 4283388253
-0.3184733093 -0.2447526902 0.6250758767 4283980390
-0.3190000355 -0.2444618493 0.6261097193 4284835699
-0.3182401657 -0.2431855202 0.6246182919 4289638588
-0.3212815821 -0.2195864171 0.6305877566 4293126130
-0.3213714957 -0.2189470381 0.6307642460 4291678684
-0.3214612007 -0.2183071375 0.6309403181 4289310136
-0.3206828237 -0.2170792073 0.6294125319 4286875795
-0.3207718432 -0.2164399624 0.6295872927 4284112236
-0.3204264939 -0.2155081630 0.6289094687 4283125341
-0.3200806677 -0.2145775706 0.6282306910 4282796630
-0.3192999959 -0.2133578956 0.6266984344 4283125595
-0.3185186088 -0.2121411711 0.6251648068 4283256667
-0.3181712031 -0.2112159431 0.6244829297 4282993495
-0.3178233206 -0.2102919221 0.6238001585 4282730323
-0.3170401156 -0.2090823203 0.6222629547 4282730323
-0.3140811324 -0.2064460069 0.6164552569 4281874498
-0.3159067631 -0.2069570869 0.6200384498 4281874498
-0.3155568540 -0.2060397118 0.6193516850 4282005823
-0.3147711158 -0.2048402429 0.6178095341 4282071616
-0.3135492206 -0.2033613175 0.6154112816 4282400581
-0.3123264313 -0.2018871307 0.6130112410 4283058511
-0.3111026883 -0.2004176974 0.6106094122 4283190097
-0.3098780811 -0.1989530027 0.6082057953 4282861132
-0.3086525202 -0.1974930763 0.6058003902 4282993749
-0.3074260652 -0.1960379034 0.6033931971 4285428090
-0.3066349030 -0.1948647052 0.6018403172 4288454568
-0.3062793314 -0.1939708441 0.6011424661 4291217874
-0.3059233427 -0.1930782497 0.6004437804 4292862699
-0.3345208764 -0.1162921563 0.6565728784 4292994283
-0.3350202143 -0.1157351583 0.6575528979 4291415251
-0.3355193734 -0.1151759177 0.6585326791 4288651945
-0.3351211250 -0.1143084094 0.6577510238 4286875534
-0.3347224593 -0.1134424806 0.6569685340 4286085248
-0.3347721100 -0.1127292663 0.6570659876 4286282627
-0.3343726695 -0.1118655726 0.6562819481 4286940811
-0.3344216347 -0.1111526862 0.6563781500 4287335569
-0.3340213895 -0.1102912351 0.6555925012 4286546053
-0.3340697289 -0.1095786765 0.6556873918 4285493365
-0.3323214054 -0.1082805097 0.6522559524 4285690743
-0.3310214579 -0.1071350724 0.6497044563 4285953915
-0.3297207952 -0.1059950888 0.6471516490 4286152064
-0.3243759871 -0.1035695225 0.6366612911 4286086271
-0.3221747577 -0.1021641195 0.6323408484 4286546822
-0.3186244071 -0.1003434360 0.6253724694 4288915370
-0.3164211214 -0.0989595428 0.6210480332 4291810007
-0.3155655265 -0.0980037972 0.6193687320 4293389039
-0.3241091669 -0.0851076692 0.6361375451 4293257453
-0.3241467178 -0.0844106600 0.6362112164 4291941593
-0.3241839707 -0.0837134048 0.6362844110 4290757319
-0.3242209554 -0.0830159113 0.6363569498 4290821833
-0.3238066137 -0.0822036937 0.6355437040 4290953419
-0.3229408562 -0.0812796578 0.6338444948 4289506486
-0.3220745921 -0.0803592727 0.6321442127 4288585384
-0.3212078214 -0.0794425458 0.6304430366 4284637802
-0.3212429583 -0.0787506849 0.6305119395 4283519321
-0.3208265305 -0.0779489651 0.6296945810 4287664534
-0.3208609819 -0.0772576258 0.6297622323 4292467423
-0.3173151314 -0.2485563159 0.6241633296 4290890451
-0.3178413212 -0.2482738495 0.6251983643 4285098871
-0.3175128996 -0.2473234087 0.6245523691 4283848804
-0.3176115155 -0.2467060834 0.6247463822 4284111976
-0.3177099526 -0.2460881919 0.6249399781 4283585632
-0.3173804581 -0.2451393455 0.6242918968 4283190874
-0.3174783885 -0.2445211262 0.6244844794 4283980390
-0.3171481490 -0.2435736358 0.6238348484 4285099384
-0.3163892925 -0.2422993630 0.6223422289 4290428617
-0.3201150298 -0.2171682715 0.6296707988 4291876063
-0.3197706938 -0.2162358016 0.6289934516 4289179069
-0.3198592961 -0.2155966759 0.6291677952 4286613142
-0.3190806508 -0.2143744826 0.6276361346 4284309869
-0.3187349439 -0.2134456336 0.6269561648 4283322974
-0.3183887899 -0.2125179917 0.6262752414 4283322974
-0.3180421889 -0.2115915567 0.6255934834 4283388767
-0.3172610998 -0.2103785425 0.6240571141 4283191387
-0.3177817464 -0.2100292742 0.6250811815 4283125594
-0.3169996440 -0.2088195682 0.6235427856 4282270026
-0.3162168562 -0.2076128274 0.6220030785 4282138440
-0.3158679008 -0.2066933811 0.6213166118 4282071618
-0.3150838614 -0.2054917216 0.6197744012 4281940032
-0.3142991364 -0.2042930424 0.6182308793 4282137409
-0.3135137558 -0.2030973583 0.6166859865 4282334788
-0.3127276599 -0.2019046694 0.6151397228 4282663753
-0.3110707700 -0.2001550943 0.6118806005 4283058511
-0.3098479211 -0.1986910999 0.6094752550 4283321944
-0.3086241782 -0.1972318590 0.6070681214 4282992979
-0.3073995113 -0.1957774013 0.6046591997 4282927186
-0.3044318557 -0.1932220161 0.5988217592 4284835183
-0.3036405742 -0.1920561790 0.5972653031 4287861661
-0.3032843769 -0.1911680549 0.5965646505 4291085518
-0.3029277325 -0.1902812123 0.5958631039 4292731113
-0.3324928880 -0.1172930002 0.6540182233 4292862699
-0.3320965171 -0.1164273769 0.6532385349 4291020495
-0.3325949609 -0.1158752441 0.6542190313 4288124833
-0.3326455653 -0.1151658744 0.6543185115 4285032562
-0.3322480917 -0.1143021360 0.6535366774 4283585116
-0.3322980404 -0.1135930866 0.6536349058 4283650909
-0.3318997622 -0.1127315760 0.6528515220 4284966510
-0.3315010667 -0.1118716672 0.6520673037 4285098096
-0.3315500021 -0.1111635715 0.6521635056 4284045408
-0.3311505020 -0.1103059053 0.6513777375 4284374373
-0.3253725469 -0.1076701656 0.6400123835 4285295475
-0.3303502500 -0.1085953861 0.6498036385 4285690233
-0.3281562924 -0.1071569845 0.6454880834 4285494134
-0.3259613812 -0.1057278663 0.6411706209 4285625720
-0.3206265271 -0.1032967418 0.6306769252 4285494134
-0.3161868751 -0.1011753827 0.6219440699 4286546822
-0.3144370019 -0.0999282449 0.6185020208 4289507252
-0.3122377098 -0.0985469222 0.6141759753 4292336351
-0.3118322194 -0.0977374390 0.6133784056 4293652211
-0.3230958283 -0.0850269347 0.6355340481 4292797415
-0.3231332898 -0.0843305886 0.6356077790 4291415762
-0.3227203786 -0.0835175216 0.6347955465 4290363074
-0.3227572143 -0.0828216746 0.6348679662 4290953673
-0.3223435283 -0.0820110440 0.6340543032 4290624708
-0.3214792013 -0.0810885504 0.6323541403 4289111469
-0.3206143677 -0.0801697075 0.6306530237 4287466644
-0.3206497729 -0.0794777721 0.6307226419 4283914079
-0.3202344477 -0.0786749646 0.6299057007 4284637802
-0.3202691674 -0.0779835507 0.6299740076 4289901496
-0.3207541108 -0.0774006173 0.6309278607 4293651697
-0.3146164417 -0.2469819933 0.6202099323 4288916659
-0.3159939945 -0.2473712862 0.6229255795 4283783011
-0.3156658411 -0.2464230210 0.6222786903 4283717218
-0.3157639802 -0.2458080053 0.6224721074 4283585118
-0.3158619106 -0.2451924235 0.6226651669 4283453532
-0.3159596622 -0.2445762604 0.6228578687 4283059288
-0.3160572350 -0.2439595312 0.6230502129 4284506734
-0.3157273829 -0.2430133820 0.6223999858 4286086279
-0.3158244491 -0.2423963547 0.6225913167 4292139235
-0.3188587725 -0.2153928578 0.6285730004 4291941856
-0.3185142279 -0.2144624740 0.6278937459 4289967554
-0.3177363276 -0.2132427692 0.6263602376 4287335834
-0.3178237379 -0.2126053125 0.6265325546 4284638321
-0.3174778223 -0.2116785347 0.6258506179 4283190875
-0.3175646961 -0.2110408992 0.6260218620 4283190874
-0.3172179759 -0.2101157010 0.6253384352 4283454046
-0.3168708086 -0.2091917247 0.6246540546 4283453530
-0.3160896301 -0.2079836726 0.6231140494 4283256151
-0.3157414496 -0.2070630044 0.6224277020 4282927188
-0.3153928220 -0.2061435878 0.6217404604 4282861395
-0.3146097958 -0.2049427032 0.6201968789 4282598223
-0.3138260841 -0.2037448287 0.6186519265 4282071879
-0.3130417168 -0.2025499344 0.6171056628 4281874498
-0.3122566640 -0.2013580352 0.6155580878 4281742912
-0.3106020987 -0.1996107996 0.6122964025 4282927186
-0.3098154366 -0.1984266639 0.6107456684 4282992979
-0.3085934818 -0.1969681233 0.6083367467 4283191128
-0.3069358468 -0.1952378303 0.6050690413 4283388507
-0.3057119548 -0.1937897354 0.6026563644 4282664784
-0.3036172092 -0.1917968839 0.5985269547 4284506988
-0.3023913205 -0.1903601438 0.5961103439 4287401880
-0.3011645079 -0.1889282167 0.5936918855 4290559944
-0.3299183249 -0.1195300445 0.6503748894 4293190894
-0.3295238316 -0.1186653748 0.6495972276 4292467171
-0.3295755088 -0.1179621220 0.6496990919 4291414483
-0.3291802406 -0.1170996502 0.6489198804 4289703865
-0.3292312622 -0.1163966954 0.6490204930 4287664282
-0.3292819858 -0.1156934127 0.6491205096 4285164148
-0.3288855851 -0.1148337796 0.6483390331 4283387735
-0.3289356530 -0.1141308025 0.6484377384 4283256149
-0.3285384476 -0.1132733896 0.6476547122 4284308837
-0.3281408250 -0.1124175787 0.6468708515 4285558904
-0.3277427554 -0.1115633547 0.6460861564 4284439912
-0.3268970847 -0.1105594933 0.6444190145 4283255638
-0.3256035745 -0.1094088629 0.6418691278 4282795087
-0.3243094087 -0.1082636639 0.6393179297 4282860880
-0.3198828101 -0.1060853153 0.6305916905 4284111201
-0.3217189908 -0.1059896052 0.6342113614 4284769131
-0.3177376688 -0.1039820313 0.6263629198 4283849056
-0.3110694289 -0.1011184677 0.6132176518 4284046435
-0.3129042387 -0.1010295525 0.6168346405 4286612362
-0.3116053045 -0.0999276564 0.6142740250 4290296770
-0.3107534945 -0.0989738554 0.6125948429 4292599525
-0.3216340840 -0.0848275796 0.6340439916 4292270560
-0.3216714263 -0.0841328800 0.6341176033 4291217872
-0.3212591708 -0.0833214074 0.6333048940 4290099391
-0.3212958574 -0.0826271921 0.6333772540 4290822344
-0.3208828270 -0.0818181559 0.6325630546 4288980140
-0.3204694092 -0.0810108259 0.6317480803 4288519589
-0.3200556040 -0.0802052096 0.6309322715 4286151041
-0.3196413815 -0.0794012994 0.6301157475 4283519321
-0.3196763694 -0.0787098110 0.6301847100 4286940557
-0.3201607466 -0.0781278312 0.6311395764 4292664802
-0.3136269152 -0.2467454225 0.6196159124 4287139737
-0.3141505718 -0.2464678288 0.6206504703 4283256667
-0.3142485023 -0.2458548695 0.6208440065 4283519839
-0.3143462837 -0.2452413440 0.6210371256 4283585118
-0.3144438565 -0.2446272373 0.6212298870 4283256153
-0.3145412505 -0.2440125495 0.6214222908 4283190874
-0.3142121136 -0.2430675030 0.6207720637 4284638320
-0.3138825297 -0.2421235442 0.6201209426 4287073174
-0.3131258786 -0.2408525497 0.6186260581 4292862958
-0.3176027536 -0.2136208564 0.6274707913 4292336614
-0.3172580004 -0.2126925439 0.6267896295 4290099652
-0.3169127405 -0.2117654383 0.6261075735 4287533725
-0.3169995248 -0.2111275941 0.6262790561 4285296504
-0.3166535199 -0.2102020532 0.6255954504 4283388507
-0.3167397678 -0.2095640302 0.6257658005 4283388507
-0.3168257773 -0.2089254856 0.6259357333 4283585886
-0.3156127632 -0.2074327916 0.6235392690 4283782495
-0.3152649403 -0.2065121531 0.6228520870 4283519323
-0.3153498471 -0.2058755606 0.6230198145 4283124565
-0.3145679533 -0.2046746016 0.6214751005 4282795600
-0.3142187893 -0.2037576735 0.6207852960 4282532426
-0.3134356737 -0.2025618255 0.6192380786 4282006082
-0.3126518428 -0.2013689727 0.6176895499 4282729294
-0.3114336133 -0.1999007165 0.6152827144 4282795087
-0.3102144599 -0.1984372288 0.6128740907 4282927186
-0.3081264198 -0.1964252144 0.6087489128 4283058772
-0.3069052398 -0.1949730366 0.6063362956 4282138440
-0.3052489460 -0.1932507753 0.6030640006 4282138440
-0.3018542230 -0.1904390156 0.5963572860 4282861393
-0.3032363057 -0.1906453222 0.5990877151 4284177253
-0.3024460673 -0.1894846112 0.5975265503 4287533466
-0.3016551733 -0.1883269548 0.5959640145 4290230979
-0.2995592952 -0.1863609105 0.5918233395 4292533991
-0.3254597485 -0.1224599034 0.6429933906 4292994796
-0.3259581923 -0.1219319478 0.6439781785 4291876315
-0.3260111213 -0.1212361231 0.6440827250 4291021006
-0.3265092075 -0.1207046360 0.6450667381 4289836732
-0.3270071447 -0.1201709062 0.6460505128 4288981423
-0.3270593584 -0.1194721684 0.6461536884 4288389286
-0.3271112740 -0.1187731028 0.6462562680 4287203731
-0.3267171979 -0.1179128364 0.6454777122 4286085250
-0.3263226748 -0.1170541495 0.6446982622 4284900976
-0.3259277344 -0.1161970422 0.6439179778 4284045667
-0.3250864148 -0.1151835099 0.6422558427 4283914081
-0.3251365423 -0.1144875735 0.6423549056 4284177253
-0.3247403204 -0.1136352196 0.6415721178 4284506216
-0.3243436813 -0.1127844602 0.6407884359 4285164146
-0.3235003948 -0.1117811128 0.6391224265 4284769388
-0.3123922348 -0.1072571129 0.6171766520 4283585114
-0.3191341162 -0.1088713557 0.6304962039 4283519321
-0.3205207884 -0.1086408496 0.6332358122 4282664012
-0.3178893328 -0.1070511118 0.6280369759 4282400583
-0.3157033324 -0.1056219712 0.6237182021 4282992720
-0.3041377068 -0.1010849550 0.6008685827 4283716443
-0.3140085638 -0.1036764160 0.6203699112 4282992720
-0.3127136230 -0.1025624275 0.6178115606 4283322712
-0.3091840148 -0.1007261276 0.6108383536 4286217604
-0.3078874350 -0.0996278822 0.6082767248 4289836219
-0.3079309762 -0.0989660323 0.6083627343 4292796904
-0.3205856383 -0.0854403079 0.6333639026 4293323248
-0.3201747537 -0.0846279934 0.6325521469 4291481044
-0.3202119768 -0.0839349329 0.6326256394 4290690758
-0.3198003471 -0.0831250474 0.6318124533 4290098621
-0.3198369145 -0.0824324861 0.6318846941 4290822344
-0.3194245398 -0.0816250369 0.6310699582 4288848554
-0.3190117776 -0.0808193013 0.6302545071 4288190624
-0.3185985982 -0.0800152794 0.6294382215 4285427318
-0.3186338246 -0.0793246999 0.6295077801 4284243044
-0.3186687529 -0.0786338821 0.6295768023 4289045933
-0.3129649162 -0.2474545836 0.6196678281 4291613661
-0.3122134507 -0.2461735606 0.6181798577 4285429119
-0.3123110533 -0.2455634773 0.6183731556 4283322714
-0.3115584254 -0.2442862988 0.6168829203 4283651679
-0.3129309416 -0.2446740419 0.6196005344 4283650909
-0.3130281568 -0.2440614253 0.6197929978 4283058772
-0.3126997650 -0.2431174517 0.6191427708 4283454300
-0.3123708963 -0.2421745807 0.6184916496 4284704367
-0.3120415807 -0.2412328124 0.6178395748 4288257448
-0.3159154058 -0.2115632445 0.6255097389 4292599786
-0.3155702949 -0.2106378973 0.6248264313 4290494151
-0.3156565428 -0.2100010514 0.6249971986 4287994017
-0.3157425821 -0.2093636841 0.6251675487 4285230711
-0.3153963685 -0.2084402591 0.6244820356 4283651679
-0.3146175146 -0.2072333992 0.6229398847 4283124565
-0.3147025406 -0.2065971047 0.6231082678 4283453530
-0.3143549860 -0.2056773752 0.6224200726 4283585116
-0.3122768998 -0.2036307305 0.6183055043 4283387737
-0.3140911162 -0.2041227818 0.6218976378 4283190356
-0.3133095503 -0.2029256076 0.6203501821 4283190356
-0.3116616011 -0.2011726201 0.6170871854 4283255892
-0.3108784556 -0.1999832094 0.6155365705 4282861134
-0.3100946248 -0.1987968087 0.6139846444 4282466376
-0.3088769317 -0.1973366588 0.6115736365 4282466376
-0.3080916405 -0.1961571872 0.6100187898 4282663755
-0.3068722785 -0.1947057247 0.6076043844 4282663755
-0.3047848940 -0.1927108169 0.6034713984 4282597962
-0.3031298220 -0.1909974813 0.6001943946 4282861134
-0.3036425114 -0.1906525344 0.6012094617 4282927186
-0.2993824482 -0.1873190850 0.5927745700 4284506218
-0.3029319048 -0.1888735145 0.5998024940 4287203731
-0.3021418452 -0.1877162308 0.5982381701 4290296002
-0.2983115315 -0.1846802682 0.5906542540 4292467941
-0.3211787343 -0.1288870722 0.6359310746 4292797417
-0.3212344050 -0.1282027215 0.6360412836 4292731111
-0.3208460212 -0.1273418963 0.6352722645 4292731111
-0.3209010363 -0.1266577840 0.6353812218 4292862697
-0.3205118775 -0.1257990748 0.6346107125 4293060076
-0.3207810819 -0.1223762855 0.6351436973 4292139487
-0.3212784529 -0.1218592525 0.6361284852 4289376181
-0.3213312328 -0.1211723760 0.6362330317 4286941840
-0.3218282759 -0.1206518039 0.6372171640 4285099636
-0.3223251700 -0.1201290041 0.6382009983 4284112741
-0.3232665658 -0.1197687015 0.6400649548 4283520604
-0.3233185410 -0.1190766767 0.6401678324 4283520604
-0.3233701885 -0.1183843240 0.6402701735 4283783776
-0.3229767084 -0.1175297499 0.6394910216 4283848288
-0.3225828111 -0.1166767478 0.6387110949 4283650909
-0.3221884668 -0.1158253327 0.6379303336 4284177253
-0.3217937052 -0.1149754971 0.6371486783 4285098355
-0.3191727698 -0.1133368984 0.6319592595 4285822078
-0.3183315992 -0.1123379022 0.6302937269 4286151043
-0.3170445561 -0.1111862510 0.6277454495 4286216834
-0.3166475594 -0.1103504226 0.6269593835 4286282627
-0.3064508438 -0.1061227471 0.6067699790 4285164146
-0.3127338886 -0.1076105535 0.6192103624 4284243044
-0.3127807379 -0.1069385782 0.6193031073 4284703595
-0.3114904463 -0.1058121771 0.6167483330 4283585114
-0.3093080819 -0.1043903902 0.6124272943 4284111201
-0.3071247935 -0.1029778868 0.6081043482 4285098096
-0.3071696460 -0.1023171842 0.6081932187 4285558645
-0.3049848378 -0.1009184867 0.6038672924 4284769129
-0.3063666821 -0.1007017568 0.6066033244 4285033330
-0.3055185676 -0.0997508764 0.6049240828 4289573047
-0.3037777841 -0.0985142291 0.6014773250 4292862697
-0.3186804652 -0.0851193294 0.6309845448 4292599525
-0.3187178373 -0.0844281614 0.6310585141 4290823114
-0.3183072209 -0.0836191401 0.6302454472 4290230207
-0.3183439374 -0.0829284564 0.6303181648 4290230207
-0.3183803558 -0.0822375342 0.6303902864 4290624965
-0.3179686368 -0.0814316869 0.6295751333 4288782761
-0.3175565302 -0.0806275457 0.6287591457 4287466901
-0.3171440065 -0.0798251256 0.6279423833 4284637802
-0.3176271021 -0.0792479664 0.6288988590 4285624951
-0.3176619411 -0.0785578266 0.6289678812 4291546321
-0.3107049167 -0.2462090999 0.6165488958 4290099652
-0.3116503954 -0.2462711930 0.6184250116 4284638833
-0.3117479384 -0.2456609309 0.6186185479 4283782495
-0.3109967113 -0.2443832904 0.6171278954 4283782495
-0.3115180433 -0.2441061288 0.6181623936 4283585116
-0.3111903369 -0.2431632429 0.6175121069 4282927186
-0.3104375303 -0.2418905646 0.6160182357 4283783265
-0.3113832176 -0.2419409156 0.6178948879 4284770160
-0.3110544682 -0.2409996688 0.6172424555 4289375927
-0.3146604300 -0.2097997218 0.6243979931 4292599784
-0.3147462606 -0.2091630101 0.6245683432 4291086288
-0.3144006133 -0.2082401365 0.6238824129 4288586154
-0.3140545189 -0.2073184848 0.6231956482 4285888641
-0.3137079477 -0.2063980550 0.6225079894 4283980644
-0.3137925863 -0.2057618946 0.6226758957 4283716702
-0.3138769865 -0.2051252276 0.6228433847 4284177253
-0.3130974770 -0.2039254755 0.6212965250 4284045667
-0.3127492368 -0.2030091286 0.6206055284 4283585116
-0.3119684756 -0.2018145174 0.6190562248 4283913309
-0.3116192222 -0.2009015381 0.6183632016 4283913309
-0.3108372092 -0.1997120678 0.6168113947 4283387478
-0.3096221089 -0.1982487142 0.6144002080 4282663755
-0.3088386357 -0.1970661432 0.6128455400 4282597962
-0.3080545068 -0.1958866119 0.6112895012 4282268997
-0.3064041436 -0.1941616237 0.6080145836 4282400583
-0.3047526777 -0.1924432218 0.6047374606 4282532169
-0.3052650690 -0.1920937449 0.6057542562 4283058259
-0.3040450215 -0.1906556636 0.6033332944 4282992466
-0.3028240800 -0.1892224103 0.6009105444 4282664014
-0.2994355857 -0.1864448935 0.5941865444 4283585116
-0.2982123196 -0.1850257367 0.5917591453 4286151043
-0.2983651757 -0.1838049293 0.5920624733 4292203999
-0.3201562464 -0.1344068646 0.6353036761 4292599784
-0.3202140629 -0.1337251365 0.6354184151 4292402405
-0.3198292553 -0.1328592747 0.6346547604 4291678682
-0.3194439709 -0.1319949478 0.6338902712 4290691528
-0.3190582991 -0.1311321259 0.6331249475 4289967805
-0.3186721802 -0.1302708387 0.6323587298 4289507254
-0.3182856143 -0.1294110715 0.6315916777 4288980910
-0.3178986311 -0.1285528392 0.6308237910 4288257187
-0.3170683980 -0.1275180429 0.6291762590 4287730843
-0.3162375689 -0.1264866889 0.6275275946 4287401878
-0.3158491552 -0.1256349534 0.6267568469 4287204499
-0.3159033656 -0.1249600276 0.6268644333 4287007120
-0.3155141771 -0.1241104454 0.6260921359 4286941327
-0.3151245713 -0.1232624128 0.6253190041 4287270292
-0.3156211078 -0.1227607653 0.6263043284 4287862429
-0.3156741560 -0.1220854148 0.6264095902 4288059808
-0.3157269359 -0.1214097217 0.6265143156 4287862429
-0.3157794178 -0.1207336932 0.6266185045 4285625467
-0.3167188168 -0.1203945652 0.6284825802 4283256919
-0.3167709112 -0.1197159588 0.6285859346 4282270283
-0.3172664344 -0.1192037463 0.6295692921 4283125592
-0.3173180521 -0.1185235232 0.6296716928 4284046694
-0.3182571232 -0.1181726009 0.6315351129 4284573038
-0.3187522590 -0.1176536828 0.6325176954 4286152070
-0.3183592260 -0.1168067008 0.6317377687 4287270551
-0.3179657757 -0.1159613058 0.6309570074 4287730077
-0.3166835904 -0.1147954836 0.6284126639 4287730077
-0.3158449233 -0.1137951091 0.6267485023 4287664284
-0.3118956387 -0.1116845757 0.6189116836 4287598491
-0.3092779219 -0.1100653261 0.6137171984 4287532696
-0.3088812530 -0.1092431620 0.6129301190 4287335317
-0.3018166721 -0.1060791686 0.5989114046 4285887871
-0.3085312843 -0.1077589095 0.6122356057 4283716702
-0.3059102893 -0.1061690301 0.6070346236 4282269254
-0.3059564233 -0.1055104807 0.6071261764 4282400840
-0.3002202809 -0.1028704271 0.5957435966 4282861391
-0.3056030571 -0.1040410548 0.6064249873 4283979872
-0.3052034080 -0.1032320932 0.6056318879 4286151041
-0.3034684360 -0.1019761860 0.6021891236 4286282627
-0.3030678034 -0.1011733636 0.6013941169 4285361779
-0.3031118214 -0.1005197763 0.6014814973 4285559158
-0.3040895462 -0.0995031223 0.6034216285 4292204767
-0.3176728785 -0.0850372091 0.6303758025 4291875032
-0.3172633052 -0.0842280835 0.6295630336 4290756551
-0.3168533444 -0.0834206566 0.6287494898 4290098621
-0.3168899119 -0.0827316269 0.6288220882 4290427586
-0.3169262111 -0.0820423514 0.6288941503 4289572277
-0.3165151477 -0.0812380984 0.6280784607 4287927452
-0.3161036968 -0.0804355592 0.6272619367 4285361525
-0.3161390126 -0.0797475353 0.6273320317 4283914079
-0.3166212142 -0.0791710988 0.6282889247 4287532948
-0.3171032369 -0.0785924941 0.6292454004 4292993767
-0.3097197413 -0.2459705174 0.6159514785 4288191655
-0.3089704514 -0.2446927577 0.6144613028 4283849317
-0.3094905913 -0.2444208264 0.6154957414 4283782495
-0.3095873296 -0.2438131422 0.6156880856 4283585116
-0.3096838593 -0.2432048768 0.6158800721 4283191128
-0.3093564510 -0.2422641814 0.6152289510 4282796370
-0.3090285659 -0.2413245887 0.6145769358 4283980644
-0.3082762361 -0.2400558889 0.6130806804 4285099125
-0.3070990145 -0.2384606153 0.6107395291 4290494151
-0.3129752278 -0.2077539116 0.6224257350 4292797165
-0.3130601943 -0.2071185708 0.6225947142 4291415253
-0.3127142191 -0.2061986923 0.6219066978 4288980912
-0.3127986491 -0.2055631876 0.6220746040 4286020227
-0.3124518692 -0.2046449184 0.6213849783 4283980644
-0.3125357628 -0.2040092647 0.6215518117 4283585116
-0.3121882379 -0.2030925900 0.6208606362 4284045667
-0.3114089370 -0.2018975168 0.6193107963 4284242787
-0.3110603690 -0.2009842098 0.6186176538 4283848029
-0.3102798462 -0.1997942924 0.6170653701 4283848029
-0.3094986379 -0.1986073703 0.6155117154 4283650650
-0.3087167442 -0.1974234879 0.6139568090 4283387478
-0.3079341948 -0.1962426305 0.6124004722 4282400583
-0.3071509898 -0.1950647980 0.6108428836 4282268997
-0.3055028617 -0.1933430731 0.6075651646 4282400583
-0.3068791926 -0.1935360134 0.6103023887 4282137157
-0.3052296340 -0.1918212622 0.6070218086 4282663501
-0.3014167249 -0.1887590140 0.5994389057 4282795087
-0.3001969159 -0.1873318106 0.5970130563 4282466122
-0.2986202538 -0.1850282401 0.5938774943 4282927186
-0.2982638478 -0.1841483414 0.5931686759 4285690492
-0.2983399928 -0.1835361421 0.5933200717 4288848556
-0.2979828119 -0.1826579720 0.5926097631 4291218903
-0.3188543618 -0.1376787424 0.6341178417 4292336612
-0.3189134002 -0.1369995475 0.6342352629 4291678682
-0.3180898130 -0.1359428912 0.6325973272 4291086545
-0.3177068830 -0.1350772232 0.6318358183 4290428615
-0.3173235357 -0.1342130601 0.6310734153 4289639099
-0.3164983094 -0.1331646889 0.6294322610 4289112755
-0.3161140084 -0.1323045045 0.6286680102 4288322980
-0.3157292902 -0.1314458400 0.6279028654 4288059808
-0.3153441250 -0.1305886954 0.6271368861 4287796636
-0.3145168126 -0.1295511127 0.6254915595 4287336085
-0.3132470846 -0.1283359528 0.6229664087 4286808971
-0.3128603995 -0.1274862289 0.6221973896 4286216834
-0.3120313287 -0.1264589131 0.6205486059 4285888123
-0.3112016916 -0.1254350394 0.6188986897 4285756537
-0.3112557232 -0.1247690544 0.6190060973 4285164146
-0.3104250729 -0.1237501577 0.6173541546 4285361525
-0.3100361228 -0.1229100451 0.6165806651 4285033330
-0.3092043996 -0.1218970940 0.6149265766 4284441193
-0.3096994162 -0.1214079186 0.6159110069 4284046435
-0.3101942837 -0.1209165007 0.6168951988 4283651677
-0.3098039031 -0.1200797707 0.6161187887 4283125333
-0.3098557293 -0.1194151938 0.6162219048 4282664782
-0.3107927442 -0.1190895736 0.6180853844 4283059540
-0.3112869859 -0.1185911298 0.6190683246 4283914849
-0.3113382161 -0.1179227084 0.6191701889 4284573038
-0.3113892078 -0.1172539592 0.6192715764 4284244073
-0.3118829131 -0.1167507172 0.6202534437 4283388764
-0.3119333982 -0.1160803661 0.6203538775 4283783522
-0.3119836152 -0.1154096872 0.6204537153 4285954691
-0.3115903437 -0.1145756990 0.6196715832 4286810000
-0.3107533455 -0.1135812700 0.6180070043 4287006354
-0.3081423044 -0.1119460538 0.6128143072 4286282631
-0.3037563860 -0.1096814871 0.6040918827 4285032564
-0.3029168844 -0.1087090224 0.6024223566 4283716704
-0.2985282242 -0.1064744070 0.5936944485 4283124567
-0.2999053299 -0.1063028947 0.5964331627 4283256153
-0.3008388579 -0.1059690416 0.5982896686 4282664014
-0.2982221246 -0.1043883488 0.5930857062 4281216568
-0.2995989621 -0.1042082906 0.5958238840 4282006084
-0.3000881076 -0.1037153453 0.5967966318 4283387737
-0.2983571887 -0.1024578586 0.5933543444 4284440423
-0.2997338474 -0.1022683084 0.5960921049 4286151041
-0.2997782528 -0.1016210616 0.5961804390 4287072143
-0.2998224199 -0.1009735316 0.5962682962 4286282627
-0.3003105521 -0.1004743502 0.5972390175 4285098353
-0.3007985353 -0.0999729633 0.5982095599 4286808971
-0.3012863994 -0.0994693711 0.5991797447 4291020493
-0.3161826730 -0.0855239034 0.6288045645 4292927720
-0.3157741129 -0.0847156420 0.6279920340 4291019723
-0.3158111870 -0.0840277672 0.6280657649 4290559172
-0.3158479929 -0.0833396539 0.6281389594 4290032828
-0.3154383302 -0.0825345516 0.6273242235 4290230207
-0.3150282800 -0.0817311630 0.6265087128 4288848554
-0.3150640726 -0.0810442790 0.6265799403 4286808971
-0.3150995970 -0.0803571641 0.6266505718 4283124563
-0.3155812025 -0.0797826648 0.6276083589 4284177251
-0.3165090084 -0.0793178529 0.6294535398 4290033082
-0.3082160354 -0.2460007519 0.6143178940 4292074212
-0.3083130717 -0.2453954220 0.6145113111 4286481038
-0.3079874218 -0.2444541901 0.6138622761 4283257181
-0.3076613545 -0.2435140610 0.6132123470 4283914081
-0.3073348403 -0.2425750196 0.6125615835 4283585116
-0.3078536391 -0.2423027456 0.6135955453 4283125335
-0.3079494834 -0.2416962385 0.6137866378 4282862163
-0.3076220453 -0.2407579869 0.6131339669 4283980644
-0.3072941303 -0.2398208529 0.6124804020 4285559676
-0.3052721918 -0.2375668436 0.6084504128 4291349460
-0.3117213249 -0.2059990168 0.6213044524 4293060335
-0.3122356236 -0.2056474388 0.6223295331 4291283667
-0.3118895590 -0.2047288269 0.6216397882 4288849326
-0.3115430474 -0.2038114518 0.6209491491 4286151813
-0.3116265237 -0.2031759471 0.6211155057 4284309609
-0.3112792373 -0.2022601962 0.6204232574 4283848029
-0.3109315038 -0.2013456821 0.6197301745 4283979615
-0.3105833232 -0.2004324198 0.6190361977 4284374373
-0.3098038137 -0.1992433071 0.6174825430 4283913822
-0.3090236187 -0.1980572045 0.6159275174 4283584857
-0.3082427680 -0.1968741417 0.6143711805 4283321685
-0.3078924716 -0.1959685683 0.6136729717 4283256149
-0.3071103990 -0.1947906762 0.6121141911 4282664012
-0.3054647446 -0.1930704415 0.6088342071 4281808705
-0.3033864200 -0.1910849810 0.6046918035 4281808705
-0.3056235015 -0.1918171495 0.6091505885 4281742912
-0.3026800454 -0.1892994940 0.6032839417 4281874498
-0.3018943071 -0.1881395280 0.6017178297 4281940291
-0.3002439141 -0.1864461005 0.5984283090 4282071877
-0.2990244925 -0.1850266755 0.5959978700 4281941061
-0.2986686826 -0.1841450930 0.5952886939 4282598991
-0.2978800833 -0.1829992235 0.5937168598 4284704626
-0.2970908284 -0.1818564385 0.5921437740 4287994276
-0.2975986004 -0.1815082133 0.5931558609 4290691789
-0.2976737022 -0.1808948070 0.5933055282 4292533993
-0.3184275925 -0.1413246542 0.6346709728 4291876833
-0.3180480897 -0.1404518932 0.6339145899 4291087317
-0.3176681697 -0.1395806372 0.6331573129 4290560973
-0.3168477416 -0.1385184824 0.6315220594 4289902271
-0.3164668679 -0.1376511455 0.6307629347 4289375927
-0.3156453073 -0.1365948021 0.6291254759 4288652204
-0.3148231804 -0.1355418414 0.6274868846 4288060067
-0.3144408464 -0.1346808970 0.6267248392 4287862431
-0.3136176169 -0.1336337775 0.6250839829 4287994017
-0.3127937913 -0.1325900555 0.6234419942 4288191394
-0.3119693696 -0.1315497309 0.6217988133 4288257187
-0.3111443818 -0.1305128187 0.6201545000 4288322980
-0.3107595742 -0.1296632290 0.6193875670 4288388773
-0.3094926178 -0.1284492165 0.6168622971 4288124831
-0.3091068268 -0.1276045740 0.6160933971 4287006350
-0.3078385592 -0.1263992935 0.6135655046 4285822330
-0.3074517548 -0.1255596131 0.6127945781 4285098607
-0.3066233695 -0.1245422810 0.6111434698 4284901228
-0.3062356412 -0.1237066388 0.6103706956 4284703849
-0.3067301810 -0.1232271567 0.6113564372 4284703595
-0.3059003949 -0.1222163588 0.6097024679 4285164146
-0.3055115044 -0.1213844270 0.6089273691 4285033330
-0.3051221967 -0.1205540523 0.6081514359 4284375400
-0.3056157529 -0.1200722679 0.6091351509 4283585884
-0.3056674898 -0.1194156781 0.6092382669 4282862161
-0.3057189584 -0.1187587678 0.6093408465 4282335817
-0.3057701588 -0.1181015223 0.6094428897 4282138438
-0.3067049384 -0.1177833751 0.6113060713 4282138438
-0.3063137531 -0.1169548035 0.6105263829 4282270024
-0.3063642085 -0.1162956208 0.6106269956 4282664782
-0.3064144254 -0.1156361178 0.6107270122 4283717470
-0.3064643443 -0.1149762869 0.6108265519 4283914849
-0.3060716987 -0.1141511798 0.6100439429 4283322712
-0.3056786358 -0.1133276522 0.6092605591 4283191639
-0.3048427403 -0.1123426706 0.6075944304 4282270537
-0.3026787341 -0.1108748913 0.6032813191 4282664530
-0.3005137742 -0.1094163433 0.5989662409 4282269772
-0.2983478308 -0.1079670340 0.5946491957 4282137672
-0.2983945608 -0.1073231399 0.5947422981 4281940293
-0.2975554168 -0.1063623875 0.5930697918 4281808707
-0.2980443239 -0.1058771238 0.5940442681 4282137672
-0.2967613935 -0.1047641933 0.5914872289 4282795602
-0.2972497940 -0.1042783335 0.5924606323 4283321946
-0.2977380455 -0.1037902683 0.5934337974 4284045667
-0.2968967557 -0.1028395221 0.5917569995 4284572011
-0.2973845303 -0.1023499146 0.5927292109 4285756285
-0.2974289358 -0.1017065272 0.5928176641 4287466903
-0.2979163826 -0.1012134701 0.5937892199 4287269522
-0.2984036803 -0.1007182077 0.5947605371 4285493111
-0.2971170247 -0.0996259600 0.5921960473 4285164148
-0.2993778884 -0.0997210667 0.5967022777 4289506486
-0.2998647988 -0.0992191881 0.5976727009 4292731111
-0.3147324920 -0.0853200927 0.6273061037 4292138458
-0.3147697747 -0.0846331418 0.6273804307 4290559172
-0.3148067892 -0.0839459449 0.6274542212 4290296000
-0.3148435056 -0.0832585096 0.6275273561 4290098621
-0.3144345284 -0.0824540406 0.6267122626 4289769656
-0.3140251935 -0.0816512778 0.6258963346 4288453796
-0.3140609264 -0.0809650719 0.6259675622 4285427318
-0.3145418763 -0.0803925022 0.6269261837 4282335301
-0.3145770729 -0.0797048658 0.6269963384 4285953916
-0.3155032098 -0.0792408362 0.6288422942 4292270558
-0.3068121374 -0.2454235405 0.6128764749 4290560973
