VERSION 0.7
FIELDS x y z rgba
SIZE 4 4 4 4
TYPE F F F U
COUNT 1 1 1 1
WIDTH 920
HEIGHT 1
VIEWPOINT 0.0 0.0 0.0 1.0 0.0 0.0 0.0
POINTS 920
DATA ascii
-0.3010299504 -0.1123242229 0.5511880517 4294700237
-0.3010807037 -0.1117306426 0.5512809157 4294897616
-0.3016031682 -0.1113109663 0.5522376299 4294766289
-0.3021255732 -0.1108891219 0.5531941056 4294700496
-0.3021757305 -0.1102927849 0.5532859564 4294700496
-0.3022256196 -0.1096961573 0.5533772707 4294700496
-0.3027475476 -0.1092696935 0.5543329716 4294832082
-0.3027970195 -0.1086715460 0.5544235110 4294897875
-0.3028462231 -0.1080731004 0.5545136333 4294963668
-0.3028951585 -0.1074743643 0.5546032786 4294963668
-0.3029438555 -0.1068753377 0.5546924472 4294963668
-0.3034649789 -0.1064418182 0.5556465983 4294963668
-0.3035132289 -0.1058412865 0.5557349324 4294766289
-0.3035612404 -0.1052404642 0.5558228493 4294700496
-0.3036089838 -0.1046393588 0.5559102297 4294700496
-0.3036564589 -0.1040379703 0.5559971929 4294437324
-0.3041767180 -0.1035974175 0.5569497943 4294239945
-0.3042237759 -0.1029945239 0.5570359230 4294174152
-0.3047437370 -0.1025506034 0.5579879880 4294305738
-0.3047903180 -0.1019462198 0.5580733418 4294371531
-0.3048366606 -0.1013415605 0.5581581593 4294437324
-0.3048827052 -0.1007366255 0.5582424998 4294503117
-0.3054020107 -0.1002869010 0.5591933131 4294568910
-0.3059211671 -0.0998350233 0.5601438880 4294503117
-0.3059665859 -0.0992273912 0.5602270961 4294437067
-0.3064854443 -0.0987721533 0.5611770749 4294502860
-0.3065304160 -0.0981630459 0.5612593889 4294437067
-0.3065750897 -0.0975536630 0.5613412261 4294568653
-0.3066195250 -0.0969440192 0.5614225864 4294568399
-0.3066636920 -0.0963341147 0.5615034699 4294107848
-0.3071816266 -0.0958718956 0.5624517798 4293318845
-0.3072253168 -0.0952605158 0.5625318289 4292792501
-0.3072687685 -0.0946488827 0.5626113415 4292791988
-0.3073119223 -0.0940369889 0.5626903772 4292726195
-0.3078291118 -0.0935690105 0.5636373758 4291281072
-0.3078718185 -0.0929556563 0.5637155175 4290031005
-0.3174290955 -0.1710987240 0.5823993683 4288914062
-0.3114782572 -0.1672561765 0.5714811087 4289571214
-0.3110877573 -0.1664123386 0.5707647204 4289834386
-0.3130154610 -0.1668054461 0.5743015409 4290818961
-0.3098416328 -0.1644825041 0.5684784055 4290818961
-0.3094497323 -0.1636436284 0.5677593350 4290819212
-0.3095214069 -0.1630505621 0.5678908229 4290885005
-0.3086645603 -0.1619699746 0.5663187504 4290886027
-0.3078070581 -0.1608925313 0.5647454262 4291017613
-0.3074132502 -0.1600600183 0.5640229583 4291083406
-0.3065545559 -0.1589879990 0.5624474287 4291083406
-0.3066243529 -0.1583991498 0.5625755191 4291214738
-0.3057645559 -0.1573316753 0.5609980226 4291280531
-0.3049041331 -0.1562673748 0.5594193339 4291411601
-0.3045079410 -0.1554435790 0.5586923957 4291411601
-0.3041113019 -0.1546211690 0.5579646826 4291477647
-0.3041793406 -0.1540356874 0.5580895543 4291609233
-0.3037819564 -0.1532151699 0.5573604107 4291477643
-0.3024534881 -0.1519286036 0.5549230576 4291017092
-0.3020550013 -0.1511126906 0.5541919470 4290621821
-0.3025871515 -0.1507620662 0.5551682711 4290490235
-0.3021880090 -0.1499471962 0.5544359684 4290490235
-0.3018542826 -0.1485509127 0.5538236499 4290490488
-0.3019198775 -0.1479677260 0.5539439917 4290358902
-0.3015192151 -0.1471567005 0.5532088876 4290490740
-0.3015842438 -0.1465736628 0.5533282161 4290622326
-0.3016490340 -0.1459902376 0.5534471273 4290819704
-0.3017136157 -0.1454064399 0.5535655618 4290885497
-0.3013115227 -0.1445984244 0.5528278947 4290951291
-0.3013755381 -0.1440147907 0.5529453158 4291017084
-0.3014393151 -0.1434307694 0.5530623198 4291082364
-0.3015028834 -0.1428463906 0.5531789064 4291148157
-0.3010993600 -0.1420414150 0.5524386168 4291213952
-0.3011623621 -0.1414572001 0.5525541306 4291279745
-0.3007580936 -0.1406542063 0.5518124104 4291279998
-0.3008204997 -0.1400701702 0.5519269705 4291279998
-0.3004154861 -0.1392691731 0.5511838198 4291279743
-0.3000100255 -0.1384696364 0.5504399538 4291279743
-0.3000715673 -0.1378863305 0.5505528450 4291279745
-0.3001328409 -0.1373026669 0.5506652594 4291345538
-0.2997263074 -0.1365056783 0.5499193668 4291542663
-0.2997870445 -0.1359222233 0.5500308275 4291805835
-0.2998475134 -0.1353383958 0.5501418114 4291674252
-0.2999077737 -0.1347542256 0.5502523184 4291805838
-0.2999677956 -0.1341696978 0.5503624678 4292003478
-0.2995595038 -0.1333764195 0.5496133566 4292135064
-0.2996189594 -0.1327921003 0.5497224331 4292134810
-0.2996781766 -0.1322074383 0.5498310328 4292266396
-0.2997371256 -0.1316224337 0.5499392748 4292332190
-0.2993274331 -0.1308323443 0.5491875410 4292332190
-0.2993858457 -0.1302475631 0.5492947102 4292529319
-0.2994439900 -0.1296624392 0.5494014621 4292924077
-0.2990332246 -0.1288749874 0.5486477613 4292924329
-0.2990908325 -0.1282901019 0.5487534404 4292595364
-0.2991481721 -0.1277048886 0.5488586426 4292990120
-0.2992052734 -0.1271193326 0.5489634275 4293911222
-0.2987931073 -0.1263351142 0.5482071638 4293648050
-0.2988496423 -0.1257497966 0.5483109355 4292397983
-0.2989059389 -0.1251641661 0.5484142303 4292990120
-0.2989619970 -0.1245782003 0.5485171080 4292003225
-0.2990178168 -0.1239919066 0.5486195087 4291542674
-0.2986038923 -0.1232115477 0.5478600264 4292134811
-0.2986591458 -0.1226255223 0.5479614139 4293516466
-0.2982444465 -0.1218472794 0.5472005606 4294174396
-0.2982991338 -0.1212615296 0.5473008752 4293845179
-0.2983535528 -0.1206754521 0.5474007726 4293845179
-0.2984077334 -0.1200890541 0.5475001931 4293647802
-0.2984616756 -0.1195023432 0.5475991368 4292989872
-0.2989854813 -0.1191025749 0.5485601425 4293844926
-0.2990390062 -0.1185143068 0.5486583710 4294568649
-0.2995625734 -0.1181111336 0.5496189594 4294437063
-0.2996157110 -0.1175213084 0.5497164726 4294239684
-0.2996685803 -0.1169311628 0.5498134494 4294437063
-0.3001917303 -0.1165233478 0.5507733226 4294437063
-0.3002441823 -0.1159316599 0.5508695841 4293910719
-0.3002963960 -0.1153396592 0.5509653687 4293647547
-0.3003483713 -0.1147473454 0.5510607362 4293844926
-0.3004000783 -0.1141547337 0.5511555672 4294239684
-0.3004515469 -0.1135618091 0.5512500405 4294371272
-0.3005027771 -0.1129685864 0.5513439775 4294437065
-0.3005537391 -0.1123750582 0.5514374971 4294700237
-0.3006044328 -0.1117812321 0.5515305400 4294963409
-0.3006548882 -0.1111871004 0.5516231060 4294963666
-0.3011764288 -0.1107660159 0.5525799990 4294897616
-0.3016978800 -0.1103427708 0.5535367131 4294700237
-0.3017477393 -0.1097458825 0.5536281466 4294568651
-0.3017973304 -0.1091487035 0.5537191629 4294634444
-0.3018466830 -0.1085512340 0.5538097024 4294766030
-0.3018957675 -0.1079534665 0.5538998246 4294963411
-0.3024164140 -0.1075231507 0.5548549891 4294963668
-0.3024650514 -0.1069238707 0.5549442768 4294897618
-0.3025134802 -0.1063243002 0.5550330877 4294963668
-0.3025616109 -0.1057244390 0.5551214218 4294766289
-0.3026095033 -0.1051242948 0.5552092791 4294568910
-0.3026571274 -0.1045238674 0.5552967191 4294503117
-0.3031767607 -0.1040852889 0.5562500358 4294371531
-0.3032239377 -0.1034833565 0.5563366413 4294371531
-0.3032708764 -0.1028811485 0.5564227104 4294305738
-0.3037900031 -0.1024379730 0.5573751926 4294371272
-0.3038364649 -0.1018342674 0.5574604869 4294568651
-0.3038826883 -0.1012302861 0.5575453043 4294634957
-0.3039286435 -0.1006260291 0.5576295853 4294700750
-0.3044471145 -0.1001770571 0.5585808158 4294766289
-0.3044926226 -0.0995713100 0.5586643219 4294832082
-0.3054836094 -0.0992726460 0.5604825616 4294831825
-0.3055287600 -0.0986644775 0.5605653524 4294700239
-0.3060466349 -0.0982078388 0.5615155101 4294831825
-0.3060912788 -0.0975981951 0.5615974665 4294766032
-0.3061356843 -0.0969882831 0.5616789460 4294634446
-0.3066530526 -0.0965270698 0.5626281500 4294239688
-0.3066969812 -0.0959156901 0.5627087355 4293844930
-0.3067406416 -0.0953040496 0.5627888441 4293384379
-0.3067840338 -0.0946921483 0.5628684759 4293054901
-0.3068271875 -0.0940799862 0.5629476309 4292989108
-0.3073436022 -0.0936118066 0.5638951659 4292266935
-0.3073862791 -0.0929981843 0.5639734268 4291148454
-0.3069549799 -0.0922419578 0.5631821156 4290097059
-0.3074707985 -0.0917701796 0.5641284585 4289833887
-0.3191585839 -0.1730341613 0.5867682695 4289241997
-0.3132195473 -0.1691744626 0.5758494139 4289505169
-0.3114423156 -0.1675783843 0.5725820065 4289965713
-0.3106625080 -0.1658896059 0.5711483359 4290752908
-0.3098088503 -0.1648009270 0.5695788860 4290752908
-0.3094177246 -0.1639608294 0.5688598156 4290818951
-0.3076362610 -0.1623884141 0.5655846000 4290884744
-0.3086341619 -0.1622847319 0.5674192905 4291016842
-0.3068511486 -0.1607203931 0.5641412139 4291148428
-0.3064579666 -0.1598884463 0.5634183288 4291148429
-0.3060643077 -0.1590578705 0.5626946092 4291148429
-0.3056702316 -0.1582286805 0.5619701147 4291279761
-0.3052757084 -0.1574008763 0.5612447858 4291345554
-0.3048807383 -0.1565744579 0.5605186820 4291345808
-0.3044853508 -0.1557494402 0.5597917438 4291345808
-0.3036252558 -0.1546892673 0.5582104921 4291543438
-0.3036932647 -0.1541035622 0.5583354831 4291609231
-0.3032965660 -0.1532827169 0.5576061606 4291412105
-0.3028994203 -0.1524632871 0.5568760037 4290754175
-0.3025018573 -0.1516452581 0.5561450720 4290424442
-0.3016390800 -0.1505965889 0.5545588732 4290424442
-0.3017053902 -0.1500134170 0.5546808243 4290424697
-0.3017715216 -0.1494298577 0.5548023582 4290490490
-0.3009072244 -0.1483872235 0.5532134175 4290424436
-0.3014378548 -0.1480331570 0.5541889668 4290292850
-0.3010379076 -0.1472218037 0.5534536242 4290490482
-0.3011028767 -0.1466385275 0.5535731316 4290753654
-0.3007021546 -0.1458291411 0.5528364182 4290951031
-0.3007665873 -0.1452460140 0.5529548526 4291016824
-0.3008307815 -0.1446625143 0.5530728698 4291147387
-0.3008947670 -0.1440786421 0.5531904697 4291147387
-0.3009584844 -0.1434943825 0.5533076525 4291213180
-0.3005560040 -0.1426885575 0.5525677204 4291344766
-0.3006191850 -0.1421044767 0.5526838303 4291344766
-0.3002159595 -0.1413006037 0.5519424677 4291344766
-0.2998122871 -0.1404981911 0.5512003899 4291345017
-0.2998745739 -0.1399148405 0.5513148904 4291279224
-0.2994701564 -0.1391144097 0.5505713224 4291279226
-0.2995318770 -0.1385312378 0.5506848097 4291345019
-0.2995933294 -0.1379476935 0.5507978201 4291344766
-0.2996546030 -0.1373637915 0.5509104133 4291344766
-0.2992487550 -0.1365664899 0.5501643419 4291607940
-0.2993094325 -0.1359827816 0.5502758622 4291805319
-0.2993698716 -0.1353987157 0.5503870249 4291608456
-0.2994301021 -0.1348143071 0.5504977107 4291740042
-0.2994900644 -0.1342295557 0.5506079793 4292002963
-0.2990824878 -0.1334359348 0.5498586297 4292200342
-0.2991418839 -0.1328513920 0.5499678254 4292200344
-0.2992010713 -0.1322664917 0.5500766039 4292200344
-0.2987923920 -0.1314754933 0.5493252873 4292266137
-0.2988509834 -0.1308908314 0.5494330525 4292266137
-0.2989093661 -0.1303058118 0.5495403409 4292463526
-0.2989674807 -0.1297204494 0.5496472120 4292726698
-0.2985574007 -0.1289326549 0.5488932729 4292989868
-0.2986149490 -0.1283475310 0.5489991307 4293055661
-0.2986722887 -0.1277620792 0.5491044521 4293713843
-0.2982611358 -0.1269769520 0.5483485460 4293187499
-0.2983178794 -0.1263917387 0.5484529138 4292266397
-0.2983743846 -0.1258061826 0.5485568047 4293121706
-0.2984306216 -0.1252203137 0.5486602187 4293121706
-0.2984866500 -0.1246341020 0.5487632155 4291608467
-0.2980737686 -0.1238528192 0.5480040908 4291674260
-0.2981292009 -0.1232668757 0.5481060743 4292792741
-0.2977155745 -0.1224877089 0.5473455787 4293779638
-0.2977704406 -0.1219020337 0.5474464893 4293977017
-0.2978250980 -0.1213160381 0.5475469232 4293713593
-0.2978794873 -0.1207297221 0.5476469398 4294042558
-0.2979336083 -0.1201430783 0.5477464795 4293516473
-0.2979875207 -0.1195561215 0.5478455424 4292858543
-0.2985105515 -0.1191561967 0.5488071442 4293845439
-0.2985640466 -0.1185676754 0.5489054918 4294832334
-0.2990868092 -0.1181643456 0.5498666167 4294898129
-0.2991398871 -0.1175742671 0.5499641895 4294437578
-0.2991927266 -0.1169838831 0.5500613451 4294305992
-0.2992453277 -0.1163931787 0.5501580238 4294305992
-0.2997675240 -0.1159839630 0.5511180758 4293911232
-0.2998197079 -0.1153917089 0.5512140393 4293319095
-0.2998716533 -0.1147991493 0.5513094664 4293253302
-0.2999233305 -0.1142062843 0.5514044762 4293779646
-0.2999747396 -0.1136131138 0.5514990687 4293977027
-0.3000259399 -0.1130196378 0.5515931249 4294108613
-0.3000768721 -0.1124258637 0.5516867638 4294371785
-0.3001275361 -0.1118317842 0.5517799258 4294634957
-0.3001779616 -0.1112373993 0.5518726707 4294963921
-0.3006987274 -0.1108161435 0.5528300405 4294831821
-0.3007487059 -0.1102202311 0.5529219508 4294502858
-0.3012692034 -0.1097955853 0.5538788438 4294305479
-0.3013187647 -0.1091981456 0.5539699793 4294371272
-0.3013680875 -0.1086004227 0.5540606976 4294634444
-0.3014171422 -0.1080023944 0.5541508794 4294700750
-0.3014659584 -0.1074040830 0.5542405844 4294700750
-0.3019856215 -0.1069723666 0.5551959872 4294700750
-0.3020339906 -0.1063725352 0.5552849174 4294832336
-0.3020820916 -0.1057724208 0.5553733706 4294766289
-0.3021299541 -0.1051720232 0.5554613471 4294634703
-0.3021775484 -0.1045713350 0.5555489063 4294568910
-0.3022249043 -0.1039703712 0.5556359291 4294503117
-0.3027435541 -0.1035303846 0.5565894246 4294503887
-0.3027904332 -0.1029279158 0.5566756725 4294438094
-0.3028370738 -0.1023251638 0.5567613840 4294634442
-0.3033552468 -0.1018805876 0.5577140450 4294700235
-0.3034014404 -0.1012763456 0.5577989817 4294766543
-0.3034473658 -0.1006718278 0.5578833818 4294898129
-0.3034930229 -0.1000670344 0.5579673648 4294832082
-0.3040105104 -0.0996166542 0.5589187145 4294700496
-0.3045278490 -0.0991641283 0.5598698854 4294766030
-0.3050450683 -0.0987094417 0.5608207583 4294700237
-0.3050899208 -0.0981007442 0.5609031916 4294831825
-0.3056068122 -0.0976426899 0.5618535280 4294831825
-0.3056511879 -0.0970325172 0.5619350672 4294766032
-0.3056952953 -0.0964220762 0.5620161891 4294437067
-0.3062116802 -0.0959594622 0.5629655123 4294173382
-0.3062553108 -0.0953475535 0.5630457401 4293647038
-0.3062986732 -0.0947353840 0.5631254911 4293251764
-0.3063417673 -0.0941229537 0.5632047653 4293317557
-0.3063846231 -0.0935102627 0.5632835031 4292529846
-0.3069000542 -0.0930406824 0.5642311573 4291871916
-0.3069424331 -0.0924265385 0.5643090010 4290688935
-0.3069845140 -0.0918121412 0.5643864274 4290162591
-0.3703682125 -0.2012086958 0.6823096275 4289505419
-0.3122546077 -0.1689983755 0.5752500296 4289702798
-0.3141764104 -0.1693954021 0.5787904263 4289900171
-0.3110153675 -0.1670544595 0.5729670525 4289900171
-0.3101637959 -0.1659621894 0.5713982582 4290622084
-0.3102362752 -0.1653659642 0.5715317726 4290753670
-0.3093836010 -0.1642781943 0.5699609518 4290819463
-0.3085302711 -0.1631935686 0.5683888793 4290819463
-0.3072136343 -0.1618683040 0.5659632683 4290951049
-0.3082099855 -0.1617624164 0.5677988529 4291016842
-0.3064292669 -0.1602005959 0.5645182729 4291148680
-0.3055734038 -0.1591276973 0.5629416108 4291214473
-0.3051800430 -0.1582981795 0.5622168779 4291214473
-0.3047862053 -0.1574700326 0.5614913702 4291214473
-0.3043919504 -0.1566432863 0.5607650280 4291477132
-0.3035338223 -0.1555804014 0.5591841936 4291477132
-0.3031385839 -0.1547573358 0.5584560633 4291542925
-0.3027428985 -0.1539356560 0.5577270985 4291674511
-0.3023467958 -0.1531153768 0.5569974184 4291345544
-0.3024140894 -0.1525304466 0.5571213365 4290621821
-0.3020172119 -0.1517120898 0.5563901663 4290424444
-0.3016198874 -0.1508951336 0.5556582808 4290490237
-0.3012221456 -0.1500795931 0.5549255013 4290555768
-0.3012882173 -0.1494958103 0.5550472140 4290424182
-0.3004253805 -0.1484527439 0.5534576774 4290358643
-0.3009552062 -0.1480985433 0.5544337630 4290424436
-0.3005559444 -0.1472868621 0.5536981821 4290556022
-0.3006208837 -0.1467033625 0.5538178682 4290753401
-0.3002208769 -0.1458936334 0.5530809164 4290950526
-0.3002852499 -0.1453102827 0.5531995296 4290884733
-0.3003494143 -0.1447265446 0.5533176661 4291147391
-0.2999482751 -0.1439193040 0.5525787473 4291213184
-0.3000118732 -0.1433357298 0.5526958704 4291213180
-0.3000752330 -0.1427517980 0.5528126359 4291344766
-0.2996730208 -0.1419470608 0.5520716310 4291279996
-0.2997358143 -0.1413632929 0.5521873236 4291214203
-0.2993328571 -0.1405605525 0.5514450073 4291410553
-0.2993951142 -0.1399769485 0.5515596271 4291344760
-0.2989913821 -0.1391762048 0.5508158803 4291475576
-0.2990530431 -0.1385927945 0.5509294868 4291475576
-0.2991144955 -0.1380090117 0.5510426760 4291410299
-0.2991756797 -0.1374248713 0.5511554480 4291410299
-0.2987705469 -0.1366272420 0.5504090786 4291542145
-0.2988311946 -0.1360432953 0.5505207777 4291673731
-0.2988916039 -0.1354590058 0.5506320596 4291542663
-0.2984853983 -0.1346639544 0.5498837233 4291674249
-0.2985452116 -0.1340798587 0.5499939322 4291937424
-0.2986048162 -0.1334954202 0.5501037240 4292069010
-0.2986641824 -0.1329106390 0.5502130985 4292002963
-0.2982565463 -0.1321187466 0.5494621396 4292002963
-0.2983153462 -0.1315341741 0.5495705009 4292135062
-0.2983739078 -0.1309492588 0.5496783853 4292200855
-0.2979651988 -0.1301600039 0.5489253998 4292397723
-0.2980231941 -0.1295753121 0.5490322709 4292726688
-0.2980809510 -0.1289902925 0.5491386652 4292858274
-0.2981384695 -0.1284049302 0.5492445827 4293055653
-0.2977283597 -0.1276188940 0.5484890342 4292397725
-0.2977852821 -0.1270337701 0.5485939384 4291805588
-0.2978419960 -0.1264483184 0.5486984253 4292661155
-0.2978984714 -0.1258625239 0.5488024354 4293648050
-0.2979546785 -0.1252764165 0.5489060283 4292069018
-0.2975428402 -0.1244942099 0.5481473207 4291213709
-0.2971305549 -0.1237135306 0.5473877788 4291937944
-0.2976538837 -0.1233221665 0.5483518839 4292793253
-0.2972409725 -0.1225426719 0.5475912094 4293780149
-0.2972958088 -0.1219567508 0.5476921797 4293845942
-0.2973504066 -0.1213705167 0.5477927923 4293450932
-0.2974047661 -0.1207839474 0.5478929281 4293779897
-0.2974588573 -0.1201970652 0.5479925871 4293319348
-0.2975127399 -0.1196098626 0.5480918288 4293121969
-0.2975663543 -0.1190223396 0.5481905937 4293582520
-0.2980884016 -0.1186210141 0.5491523743 4294964687
-0.2986104190 -0.1182175204 0.5501140356 4294898126
-0.2986634672 -0.1176271960 0.5502117872 4294963919
-0.2987162471 -0.1170365587 0.5503090620 4294897875
-0.2987688184 -0.1164456084 0.5504058599 4294766289
-0.2992902398 -0.1160362288 0.5513664484 4294305738
-0.2993423641 -0.1154437289 0.5514624715 4293845187
-0.2993942797 -0.1148509234 0.5515580773 4293121203
-0.2994459271 -0.1142578050 0.5516532660 4293318582
-0.2994973063 -0.1136643812 0.5517479181 4294108353
-0.2995484471 -0.1130706593 0.5518421531 4294042560
-0.2995993495 -0.1124766320 0.5519359112 4293910719
-0.2996499836 -0.1118822992 0.5520291924 4294634442
-0.3001701236 -0.1114620939 0.5529874563 4294963409
-0.3002203405 -0.1108662337 0.5530799627 4294371272
-0.3002703190 -0.1102700680 0.5531719923 4294173893
-0.3003200293 -0.1096736118 0.5532635450 4294371272
-0.3008395433 -0.1092475578 0.5542206764 4294634444
-0.3008888364 -0.1086495742 0.5543114543 4294568651
-0.3009378612 -0.1080513000 0.5544017553 4294502858
-0.3009866178 -0.1074527279 0.5544916391 4294700237
-0.3010351360 -0.1068538725 0.5545809865 4294700239
-0.3010834157 -0.1062547266 0.5546699166 4294831825
-0.3011314273 -0.1056552902 0.5547583699 4294897364
-0.3016497493 -0.1052197218 0.5557132959 4294699985
-0.3016973138 -0.1046187729 0.5558009148 4294568399
-0.3017446399 -0.1040175483 0.5558880568 4294568399
-0.3017916977 -0.1034160405 0.5559747219 4294634446
-0.3023093641 -0.1029746458 0.5569283962 4294963411
-0.3023559749 -0.1023716405 0.5570142865 4294634444
-0.3024023175 -0.1017683595 0.5570996404 4294766030
-0.3024483919 -0.1011647955 0.5571845770 4294897616
-0.3029654026 -0.1007175967 0.5581369996 4294963409
-0.3030110300 -0.1001125425 0.5582211018 4294963409
-0.3035277426 -0.0996619686 0.5591729879 4294897616
-0.3040443063 -0.0992092490 0.5601246357 4294766030
-0.3040893078 -0.0986014977 0.5602074862 4294700237
-0.3046055436 -0.0981454030 0.5611585379 4294831823
-0.3046500981 -0.0975361764 0.5612406135 4294897616
-0.3051660061 -0.0970767215 0.5621910691 4294766030
-0.3052100837 -0.0964660197 0.5622722507 4294568651
-0.3057256937 -0.0960031971 0.5632221699 4294239686
-0.3057692945 -0.0953910276 0.5633024573 4293844928
-0.3058126569 -0.0947785899 0.5633823276 4293450170
-0.3058557212 -0.0941658914 0.5634616613 4293121205
-0.3058985174 -0.0935529396 0.5635405183 4292595639
-0.3064132035 -0.0930831507 0.5644887090 4292266674
-0.3069277406 -0.0926112160 0.5654366016 4291346862
-0.3069698513 -0.0919956043 0.5655142069 4290294174
-0.3758671284 -0.2076984495 0.6938596964 4289440935
-0.3750359118 -0.2064699084 0.6923252344 4289967279
-0.3700563908 -0.2029695213 0.6831329465 4291478708
-0.3761370480 -0.2055331618 0.6943579912 4291741880
-0.3729990721 -0.2030534297 0.6885651946 4290491543
-0.3149799109 -0.1708228737 0.5814604163 4289899406
-0.3122866154 -0.1687217057 0.5764885545 4289899141
-0.3109759688 -0.1673757583 0.5740690827 4290162313
-0.3110489249 -0.1667770594 0.5742037892 4290621825
-0.3097368777 -0.1654382646 0.5717816353 4290753411
-0.3088856339 -0.1643500477 0.5702102780 4290819204
-0.3080337346 -0.1632649899 0.5686376095 4290819204
-0.3062573373 -0.1616953015 0.5653583407 4290819204
-0.3072520494 -0.1615902930 0.5671946406 4290950790
-0.3059362769 -0.1602707952 0.5647656918 4291082374
-0.3050818741 -0.1591974646 0.5631884336 4291213960
-0.3042268455 -0.1581272930 0.5616099834 4291279753
-0.3042960465 -0.1575391442 0.5617377758 4291345546
-0.3034399152 -0.1564735323 0.5601573586 4291411339
-0.3030458093 -0.1556487381 0.5594298244 4291411339
-0.3026512563 -0.1548253298 0.5587014556 4291477130
-0.3022562861 -0.1540033370 0.5579723120 4291608716
-0.3018608689 -0.1531827301 0.5572423935 4291279751
-0.3014650345 -0.1523635238 0.5565116405 4290621821
-0.3006055653 -0.1513125747 0.5549250245 4290358651
-0.3006720245 -0.1507293433 0.5550477505 4290358651
-0.3007382751 -0.1501457095 0.5551699996 4290292596
-0.2998773158 -0.1491008103 0.5535806417 4290226803
-0.3004064858 -0.1487477571 0.5545575023 4290292848
-0.3000082374 -0.1479352266 0.5538223982 4290358641
-0.3000733554 -0.1473518759 0.5539426208 4290490227
-0.2996743619 -0.1465412974 0.5532060266 4290687606
-0.2997389436 -0.1459580809 0.5533252358 4290753401
-0.2998032570 -0.1453744918 0.5534439683 4290753401
-0.2994031906 -0.1445664018 0.5527054071 4290950010
-0.2994669676 -0.1439829767 0.5528231859 4290950010
-0.2990661263 -0.1431768388 0.5520831943 4291015543
-0.2991293371 -0.1425935775 0.5521999002 4291081336
-0.2991923094 -0.1420099288 0.5523161292 4291081845
-0.2987903953 -0.1412063241 0.5515741706 4291081845
-0.2988528013 -0.1406228542 0.5516894460 4291213174
-0.2984501123 -0.1398212314 0.5509460568 4291213174
-0.2985119820 -0.1392379403 0.5510602593 4291409785
-0.2985736132 -0.1386542916 0.5511739850 4291475578
-0.2981698215 -0.1378552318 0.5504286289 4291278713
-0.2982308865 -0.1372717619 0.5505413413 4291344506
-0.2982917428 -0.1366879493 0.5506536365 4291476352
-0.2983523309 -0.1361037791 0.5507655144 4291673731
-0.2979471385 -0.1353078336 0.5500175357 4291607942
-0.2980071604 -0.1347238570 0.5501283407 4291673735
-0.2980669737 -0.1341395378 0.5502387285 4291870860
-0.2976607084 -0.1333461851 0.5494887829 4291936653
-0.2977199256 -0.1327620745 0.5495980978 4291871631
-0.2977789342 -0.1321776211 0.5497069955 4292003217
-0.2978376746 -0.1315928102 0.5498154759 4292135060
-0.2974300086 -0.1308026463 0.5490629077 4292200853
-0.2974881828 -0.1302180737 0.5491703153 4292397975
-0.2975461483 -0.1296331435 0.5492773056 4292266389
-0.2971373796 -0.1288456172 0.5485227108 4292200342
-0.2971947789 -0.1282609254 0.5486286283 4292068756
-0.2972519100 -0.1276759058 0.5487341285 4291805588
-0.2973088324 -0.1270905584 0.5488392115 4292792483
-0.2973654866 -0.1265048534 0.5489438176 4293845428
-0.2974219024 -0.1259188354 0.5490479469 4293187498
-0.2970111072 -0.1251357198 0.5482895970 4291345548
-0.2965998650 -0.1243541092 0.5475304127 4291148169
-0.2966553867 -0.1237689331 0.5476329327 4292069269
-0.2967106700 -0.1231834292 0.5477349758 4292990371
-0.2967657149 -0.1225975901 0.5478366017 4293516976
-0.2968205214 -0.1220114306 0.5479377508 4293319597
-0.2968750596 -0.1214249507 0.5480384827 4293385137
-0.2969293892 -0.1208381429 0.5481387377 4293450930
-0.2969834507 -0.1202510148 0.5482385755 4293319346
-0.2970372736 -0.1196635664 0.5483379364 4292990381
-0.2975587249 -0.1192633212 0.5493004918 4293450932
-0.2980800867 -0.1188609079 0.5502629876 4294964685
-0.2981333435 -0.1182706580 0.5503612757 4294964690
-0.2981863618 -0.1176800877 0.5504591465 4294965204
-0.2982391417 -0.1170892045 0.5505565405 4294964693
-0.2987599373 -0.1166808903 0.5515179634 4294964179
-0.2988123000 -0.1160884574 0.5516146421 4294700750
-0.2988643944 -0.1154957116 0.5517107844 4294042820
-0.2989162505 -0.1149026528 0.5518065095 4293253301
-0.2989678681 -0.1143092886 0.5519018173 4293253301
-0.2990192175 -0.1137156188 0.5519965887 4293779899
-0.2986015677 -0.1129443347 0.5512256026 4294043071
-0.2986523509 -0.1123509854 0.5513193607 4293911485
-0.2991718054 -0.1119327769 0.5522782803 4294043071
-0.2996911407 -0.1115124077 0.5532370210 4294568649
-0.2997413278 -0.1109162867 0.5533296466 4294437063
-0.2997912765 -0.1103198752 0.5534218550 4294568651
-0.2998409271 -0.1097231656 0.5535135269 4294700237
-0.2998903692 -0.1091261581 0.5536047816 4294766030
-0.2999395430 -0.1085288525 0.5536955595 4294831823
-0.2999884486 -0.1079312563 0.5537858605 4294700237
-0.3000371158 -0.1073333696 0.5538756847 4294568651
-0.3000855148 -0.1067351922 0.5539650321 4294634444
-0.3006033599 -0.1063028201 0.5549210310 4294766030
-0.3006513417 -0.1057031304 0.5550095439 4294897364
-0.3006990552 -0.1051031575 0.5550976396 4294831571
-0.3007465303 -0.1045028940 0.5551852584 4294765778
-0.3012637198 -0.1040646955 0.5561400056 4294765778
-0.3013107479 -0.1034629270 0.5562267900 4294700239
-0.3013575077 -0.1028608829 0.5563131571 4294831825
-0.3014039993 -0.1022585556 0.5563989878 4294700237
-0.3019205332 -0.1018145382 0.5573524833 4294766030
-0.3019665778 -0.1012107208 0.5574375391 4294897616
-0.3024827838 -0.1007633284 0.5583904386 4294963409
-0.3025284111 -0.1001580134 0.5584746599 4294963409
-0.3030443192 -0.0997072533 0.5594270229 4294897616
-0.3035601079 -0.0992543399 0.5603792071 4294766030
-0.3036050498 -0.0986463279 0.5604621768 4294700237
-0.3041205406 -0.0981900394 0.5614137650 4294831823
-0.3046358824 -0.0977315977 0.5623651147 4294831823
-0.3046801984 -0.0971208960 0.5624468923 4294831823
-0.3047242165 -0.0965099260 0.5625281930 4294634444
-0.3047679961 -0.0958986878 0.5626090169 4294437065
-0.3048115075 -0.0952871963 0.5626893640 4294173893
-0.3053259552 -0.0948217660 0.5636389852 4293844928
-0.3053689897 -0.0942087993 0.5637184381 4293515963
-0.3054117560 -0.0935955793 0.5637974143 4292989881
-0.3059256673 -0.0931255892 0.5647460818 4292792502
-0.3059679568 -0.0925109088 0.5648241639 4292136119
-0.3069530129 -0.0921791643 0.5666425824 4291149224
-0.3793070316 -0.2108094990 0.7016484141 4289309095
-0.3789386153 -0.2098259181 0.7009668946 4290097835
-0.3776496947 -0.2083360553 0.6985827088 4291347902
-0.3768199682 -0.2071038485 0.6970478296 4293123276
-0.3727680743 -0.2041107416 0.6895526052 4292399553
-0.3148568571 -0.1717540771 0.5824274421 4290687895
-0.3149315417 -0.1711475551 0.5825655460 4289964172
-0.3122427762 -0.1690446138 0.5775918961 4289898110
-0.3123163581 -0.1684425473 0.5777279735 4290292868
-0.3105466962 -0.1668498516 0.5744544268 4290621312
-0.3083150685 -0.1650171876 0.5703263283 4290621312
-0.3074650764 -0.1639303118 0.5687539577 4290687105
-0.3056922555 -0.1623568237 0.5654745698 4290752898
-0.3066854477 -0.1622539908 0.5673118234 4290752898
-0.3049111068 -0.1606885940 0.5640296340 4290818691
-0.3045198619 -0.1598565429 0.5633059144 4291016068
-0.3032051921 -0.1585432440 0.5608739853 4291147654
-0.3032744825 -0.1579561532 0.5610021949 4291213447
-0.3028818369 -0.1571291387 0.5602758527 4291476619
-0.3020269275 -0.1560648829 0.5586944222 4291542412
-0.3016333282 -0.1552415490 0.5579662919 4291410826
-0.3017012775 -0.1546564549 0.5580920577 4291411337
-0.3013069034 -0.1538350135 0.5573624969 4291477130
-0.3009120822 -0.1530149728 0.5566321611 4291016579
-0.3005168140 -0.1521963477 0.5559009910 4290358649
-0.3001211286 -0.1513791084 0.5551690459 4290226552
-0.2997250259 -0.1505632997 0.5544363260 4290226552
-0.2997910976 -0.1499803364 0.5545585752 4290357875
-0.2993942201 -0.1491664499 0.5538244247 4290357875
-0.2999225855 -0.1488132775 0.5548018217 4290489457
-0.2995250523 -0.1480004191 0.5540664196 4290555250
-0.2991271019 -0.1471889913 0.5533302426 4290686836
-0.2991918325 -0.1466059238 0.5534500480 4290818422
-0.2992563546 -0.1460224837 0.5535693765 4290818424
-0.2993206382 -0.1454386711 0.5536882877 4290818424
-0.2989212573 -0.1446302533 0.5529494882 4290949497
-0.2989850044 -0.1440465897 0.5530673862 4290949497
-0.2985848486 -0.1432401240 0.5523272157 4291080566
-0.2981842756 -0.1424351037 0.5515862107 4291146359
-0.2982471287 -0.1418521404 0.5517024994 4291015793
-0.2983097434 -0.1412688196 0.5518183112 4291015793
-0.2983721197 -0.1406851113 0.5519337058 4291081588
-0.2979701161 -0.1398831606 0.5511900783 4291147381
-0.2975677252 -0.1390826702 0.5504456758 4291343992
-0.2976292074 -0.1384996921 0.5505594611 4291343992
-0.2976904511 -0.1379163563 0.5506727695 4291212922
-0.2977514863 -0.1373326629 0.5507856011 4291278715
-0.2978122532 -0.1367486119 0.5508980751 4291344766
-0.2974081039 -0.1359517872 0.5501504540 4291542145
-0.2974683344 -0.1353679299 0.5502618551 4291476354
-0.2970634401 -0.1345731318 0.5495128632 4291476354
-0.2971231043 -0.1339894831 0.5496232510 4291607942
-0.2971825004 -0.1334054917 0.5497331619 4291673735
-0.2972416878 -0.1328211427 0.5498426557 4291805067
-0.2973006368 -0.1322364509 0.5499516726 4292068239
-0.2968940139 -0.1314453781 0.5491994619 4292200596
-0.2969523966 -0.1308609098 0.5493074656 4292266389
-0.2970105410 -0.1302760988 0.5494150519 4292332182
-0.2970684469 -0.1296909302 0.5495221615 4291674252
-0.2971261144 -0.1291054338 0.5496288538 4291937172
-0.2967177629 -0.1283181608 0.5488734245 4292529309
-0.2967748642 -0.1277328879 0.5489790440 4292858021
-0.2963657379 -0.1269477010 0.5482222438 4293779123
-0.2964222729 -0.1263626814 0.5483268499 4293976757
-0.2964785695 -0.1257773340 0.5484309793 4292463518
-0.2965346277 -0.1251916587 0.5485346317 4290819204
-0.2965904176 -0.1246056408 0.5486379266 4291345548
-0.2961795926 -0.1238242984 0.5478779078 4292332441
-0.2962348163 -0.1232385486 0.5479800701 4293187750
-0.2962898314 -0.1226524711 0.5480818152 4293319084
-0.2963445783 -0.1220660731 0.5481831431 4293121705
-0.2963991165 -0.1214793473 0.5482839942 4293713845
-0.2964533865 -0.1208922938 0.5483843684 4293450673
-0.2965074182 -0.1203049272 0.5484843254 4293385137
-0.2965612113 -0.1197172329 0.5485838652 4292924586
-0.2970818579 -0.1193168312 0.5495469570 4293385137
-0.2971352339 -0.1187275723 0.5496457219 4294832583
-0.2976556718 -0.1183237508 0.5506083965 4294964944
-0.2977086306 -0.1177329421 0.5507063866 4294965715
-0.2977613807 -0.1171418056 0.5508038998 4294964177
-0.2978138626 -0.1165503636 0.5509009957 4294964177
-0.2983337045 -0.1161406487 0.5518625975 4294766541
-0.2983857691 -0.1155476570 0.5519589186 4294503369
-0.2984375954 -0.1149543449 0.5520548224 4294108610
-0.2984891534 -0.1143607348 0.5521501899 4293582266
-0.2985404730 -0.1137668118 0.5522451401 4293187760
-0.2985915542 -0.1131725907 0.5523396134 4293450932
-0.2981742918 -0.1124016047 0.5515677333 4293845690
-0.2982247770 -0.1118077040 0.5516611338 4293845690
-0.2987432778 -0.1113880873 0.5526202321 4293977024
-0.2987933457 -0.1107926518 0.5527128577 4294174403
-0.2993115783 -0.1103696451 0.5536714792 4294766541
-0.2993611991 -0.1097726822 0.5537633300 4294964434
-0.2994106114 -0.1091754213 0.5538547039 4294964436
-0.2994597256 -0.1085778624 0.5539456010 4294963922
-0.2995086312 -0.1079800129 0.5540360212 4294766543
-0.2995572388 -0.1073818728 0.5541259646 4294700750
-0.2996056080 -0.1067834422 0.5542154312 4294569164
-0.2996537387 -0.1061847135 0.5543044806 4294634957
-0.2997016013 -0.1055857092 0.5543929935 4294832082
-0.2997492254 -0.1049864143 0.5544810891 4294832082
-0.3002657294 -0.1045501903 0.5554365516 4294700498
-0.3003129065 -0.1039493904 0.5555238128 4294700498
-0.3003598154 -0.1033483073 0.5556105971 4294700498
-0.3008758426 -0.1029074788 0.5565651655 4294766291
-0.3009223342 -0.1023048982 0.5566511154 4294766030
-0.3009685278 -0.1017020345 0.5567365885 4294766030
-0.3010144830 -0.1010988876 0.5568215847 4294831823
-0.3015298545 -0.1006522551 0.5577749014 4294897616
-0.3015753627 -0.1000476182 0.5578591228 4294897616
-0.3025602400 -0.0997525081 0.5596809387 4294831823
-0.3026053607 -0.0991454422 0.5597643852 4294766030
-0.3026502132 -0.0985381156 0.5598473549 4294766030
-0.3026947975 -0.0979305133 0.5599299073 4294831823
-0.3032092452 -0.0974737629 0.5608814955 4294897616
-0.3037235439 -0.0970148593 0.5618328452 4294831823
-0.3042376935 -0.0965538025 0.5627839565 4294700237
-0.3042814434 -0.0959423035 0.5628648996 4294700237
-0.3043249249 -0.0953305438 0.5629453063 4294568651
-0.3043681383 -0.0947185159 0.5630252361 4294239686
-0.3044110835 -0.0941062346 0.5631046891 4293910721
-0.3049243391 -0.0936381966 0.5640541315 4293449918
-0.3049668074 -0.0930244476 0.5641326904 4292989367
-0.3054797351 -0.0925530568 0.5650814772 4292595639
-0.3055217266 -0.0919378474 0.5651592016 4292069295
-0.3055634797 -0.0913223922 0.5652363896 4290754985
-0.3736428320 -0.2080890089 0.6925936937 4289112229
-0.3732738793 -0.2071147561 0.6919097304 4290821556
-0.3724451661 -0.2058878988 0.6903736591 4292795346
-0.3716157675 -0.2046640515 0.6888362169 4293715159
-0.3694072664 -0.2026869357 0.6847425103 4291478197
-0.3649861515 -0.1987577826 0.6765474677 4289898379
-0.3136501014 -0.1695101559 0.5813896656 4290161021
-0.3086637557 -0.1661796272 0.5721468329 4290555003
-0.3078158498 -0.1650891751 0.5705751181 4290555003
-0.3069672585 -0.1640018523 0.5690022111 4290555517
-0.3056577146 -0.1626726985 0.5665747523 4290621310
-0.3048077226 -0.1615925729 0.5649992228 4290621310
-0.3044176102 -0.1607588083 0.5642760992 4290687103
-0.3040270805 -0.1599264294 0.5635522008 4290884482
-0.3036361039 -0.1590954214 0.5628274679 4291081861
-0.3032447100 -0.1582657993 0.5621019602 4291082115
-0.3028528392 -0.1574375629 0.5613756180 4291345287
-0.3024605811 -0.1566107124 0.5606484413 4291542666
-0.3016066849 -0.1555474252 0.5590656400 4291476873
-0.3012134135 -0.1547242552 0.5583367348 4291476873
-0.3008197248 -0.1539024860 0.5576069355 4291345287
-0.3008870780 -0.1533172727 0.5577318072 4290753150
-0.3000310361 -0.1522631496 0.5561450124 4290095220
-0.2996360660 -0.1514455974 0.5554128885 4289963634
-0.2997024357 -0.1508619040 0.5555359125 4290029427
-0.2993066907 -0.1500462741 0.5548023582 4290292082
-0.2993724942 -0.1494626999 0.5549243093 4290357875
-0.2989759743 -0.1486490071 0.5541893244 4290423664
-0.2990412414 -0.1480655670 0.5543103218 4290489457
-0.2986439764 -0.1472538114 0.5535739064 4290686579
-0.2987086773 -0.1466705203 0.5536938310 4290883958
-0.2987731397 -0.1460868418 0.5538133383 4290818165
-0.2988373935 -0.1455028057 0.5539324284 4290818165
-0.2989014089 -0.1449183822 0.5540511012 4291014774
-0.2985023856 -0.1441101581 0.5533114672 4291014774
-0.2985658348 -0.1435258836 0.5534290671 4291080820
-0.2981660664 -0.1427196264 0.5526880622 4291146613
-0.2977658808 -0.1419148296 0.5519462228 4291080816
-0.2978284359 -0.1413312554 0.5520622134 4291080816
-0.2974274755 -0.1405284405 0.5513190031 4291146611
-0.2974894941 -0.1399450451 0.5514339209 4291212404
-0.2970877886 -0.1391442269 0.5506893396 4291278199
-0.2966856658 -0.1383448541 0.5499439240 4291278199
-0.2967467606 -0.1377622038 0.5500572324 4291147129
-0.2968076468 -0.1371791810 0.5501700640 4291147129
-0.2968682945 -0.1365958154 0.5502824783 4291278716
-0.2969287038 -0.1360120773 0.5503944755 4291344509
-0.2969888747 -0.1354279965 0.5505059958 4291344509
-0.2965846956 -0.1346328557 0.5497567654 4291410302
-0.2966443002 -0.1340489835 0.5498672724 4291410561
-0.2967036963 -0.1334647536 0.5499773622 4291476354
-0.2967628241 -0.1328801662 0.5500869751 4291673735
-0.2968217432 -0.1322952360 0.5501961708 4292002700
-0.2964158058 -0.1315038353 0.5494437218 4292265618
-0.2964741588 -0.1309191287 0.5495518446 4292397204
-0.2960674763 -0.1301297992 0.5487980247 4292266135
-0.2961252332 -0.1295453161 0.5489051342 4292200342
-0.2961827815 -0.1289604902 0.5490117669 4292463518
-0.2962400913 -0.1283753365 0.5491179824 4292989862
-0.2958320081 -0.1275892258 0.5483615994 4293647539
-0.2958887219 -0.1270043105 0.5484667420 4293976504
-0.2959452271 -0.1264190525 0.5485714674 4293252781
-0.2960014939 -0.1258334666 0.5486757159 4291936921
-0.2955920100 -0.1250506192 0.5479167104 4290818691
-0.2956476808 -0.1244652867 0.5480199456 4291476621
-0.2957031429 -0.1238796264 0.5481227040 4292595100
-0.2957583368 -0.1232936308 0.5482250452 4293187237
-0.2958132923 -0.1227073148 0.5483269095 4293121448
-0.2958680391 -0.1221206710 0.5484283566 4293187241
-0.2959225178 -0.1215337068 0.5485293269 4293910713
-0.2959767282 -0.1209464148 0.5486298800 4293450162
-0.2960307300 -0.1203587949 0.5487299562 4292924586
-0.2960844934 -0.1197708622 0.5488296151 4292858793
-0.2961379886 -0.1191826090 0.5489287972 4293516725
-0.2966577113 -0.1187807992 0.5498921275 4294569413
-0.2971773148 -0.1183768138 0.5508552790 4294832587
-0.2972302735 -0.1177857518 0.5509534478 4294964687
-0.2972829640 -0.1171943769 0.5510510802 4294832334
-0.2973354161 -0.1166026890 0.5511482954 4294832334
-0.2973875999 -0.1160106882 0.5512450933 4294634955
-0.2974395454 -0.1154183745 0.5513413548 4294700748
-0.2974912524 -0.1148257479 0.5514371991 4294766540
-0.2980098128 -0.1144121438 0.5523984432 4294108610
-0.2980611026 -0.1138179749 0.5524935126 4292991153
-0.2981121242 -0.1132235005 0.5525881052 4292991153
-0.2976955771 -0.1124521866 0.5518159270 4293451702
-0.2977460325 -0.1118580326 0.5519095063 4293451702
-0.2982637584 -0.1114382520 0.5528691411 4293319348
-0.2983137667 -0.1108425632 0.5529618859 4293450934
-0.2983635664 -0.1102465764 0.5530541539 4294240196
-0.2984130979 -0.1096502990 0.5531459451 4294964176
-0.2984623611 -0.1090537161 0.5532373190 4294964691
-0.2985113859 -0.1084568426 0.5533281565 4294832334
-0.2985601723 -0.1078596786 0.5534185767 4294700750
-0.2986086905 -0.1072622165 0.5535085201 4294963922
-0.2986569405 -0.1066644639 0.5535979867 4294634957
-0.2991731465 -0.1062326729 0.5545548201 4294634957
-0.2992209792 -0.1056334078 0.5546434522 4294898129
-0.2992685735 -0.1050338596 0.5547316670 4294898129
-0.2993158698 -0.1044340208 0.5548194051 4294634703
-0.2993629277 -0.1038339064 0.5549066067 4294634703
-0.2994097471 -0.1032335013 0.5549933910 4294766291
-0.2999249399 -0.1027934328 0.5559483171 4294832084
-0.2999712825 -0.1021915302 0.5560342669 4294831825
-0.3000174165 -0.1015893444 0.5561197400 4294766032
-0.3005321026 -0.1011446789 0.5570737720 4294831823
-0.3005777597 -0.1005410030 0.5571584105 4294897616
-0.3010921478 -0.1000929624 0.5581119061 4294897616
-0.3016064167 -0.0996427611 0.5590651631 4294831823
-0.3021205664 -0.0991904065 0.5600182414 4294766030
-0.3021654189 -0.0985828117 0.5601013303 4294766030
-0.3022099733 -0.0979749486 0.5601839423 4294766030
-0.3027236164 -0.0975180045 0.5611360669 4294831823
-0.3032371402 -0.0970589072 0.5620878935 4294831823
-0.3032810390 -0.0964483470 0.5621693134 4294766030
-0.3037942350 -0.0959858894 0.5631205440 4294766030
-0.3033680618 -0.0952264518 0.5623306036 4294766030
-0.3034111857 -0.0946151018 0.5624105334 4294502858
-0.3034540415 -0.0940034986 0.5624899864 4294042307
-0.3039664328 -0.0935362056 0.5634397864 4293976001
-0.3044787049 -0.0930667669 0.5643892884 4293186485
-0.3045208752 -0.0924524963 0.5644674897 4292857781
-0.3050328195 -0.0919796973 0.5654163957 4292660402
-0.3050745130 -0.0913639665 0.5654937625 4291741361
-0.3055860996 -0.0908878148 0.5664420128 4291346603
-0.3060975373 -0.0904095173 0.5673900247 4290427052
-0.3715704381 -0.2081285864 0.6901730895 4289178022
-0.3716604412 -0.2074119896 0.6903403401 4289243815
-0.3712918460 -0.2064400166 0.6896556616 4291545279
-0.3709227145 -0.2054692954 0.6889700294 4293716448
-0.3643065691 -0.1995488107 0.6766808629 4289700228
-0.3107714951 -0.1689422876 0.5772421956 4290094970
-0.3090082705 -0.1673460305 0.5739670992 4290160763
-0.3086217046 -0.1664997637 0.5732490420 4290423417
-0.3077753186 -0.1654079705 0.5716769695 4290489210
-0.3069283068 -0.1643193364 0.5701036453 4290555001
-0.3060806096 -0.1632338315 0.5685291290 4290620794
-0.3047725856 -0.1619072855 0.5660995245 4290686587
-0.3039235175 -0.1608289927 0.5645223856 4290752380
-0.3035336733 -0.1599962711 0.5637983084 4290687357
-0.3026833832 -0.1589234173 0.5622189045 4290884736
-0.3022925556 -0.1580943465 0.5614929795 4290950529
-0.3023615181 -0.1575064212 0.5616210699 4291147908
-0.3015096188 -0.1564403921 0.5600386858 4291279494
-0.3011174798 -0.1556155086 0.5593103766 4291411080
-0.3007249236 -0.1547920108 0.5585811734 4291411079
-0.3003319204 -0.1539699137 0.5578512549 4291213700
-0.3003992438 -0.1533844620 0.5579762459 4290555771
-0.2995446324 -0.1523299217 0.5563889146 4289897841
-0.2991503477 -0.1515120417 0.5556564927 4289962864
-0.2992166877 -0.1509281099 0.5557796955 4290028657
-0.2988216281 -0.1501121521 0.5550459027 4290160496
-0.2988874018 -0.1495283544 0.5551680923 4290226289
-0.2984915972 -0.1487143189 0.5544328690 4290226540
-0.2980953455 -0.1479017138 0.5536968708 4290292333
-0.2981602252 -0.1473185718 0.5538173914 4290554992
-0.2982248664 -0.1467350572 0.5539374948 4290752371
-0.2982892990 -0.1461511552 0.5540571809 4290883188
-0.2983534932 -0.1455668807 0.5541763902 4290883188
-0.2984174490 -0.1449822187 0.5542951822 4290817395
-0.2980191410 -0.1441736668 0.5535553694 4290883188
-0.2976204157 -0.1433665603 0.5528147221 4290883439
-0.2976834774 -0.1427825987 0.5529319048 4290949232
-0.2972840071 -0.1419774592 0.5521898270 4291014764
-0.2968840599 -0.1411737651 0.5514470339 4291080557
-0.2969462574 -0.1405905187 0.5515625477 4291080818
-0.2965455949 -0.1397888064 0.5508183241 4291146611
-0.2961444855 -0.1389885694 0.5500732660 4291146613
-0.2962057889 -0.1384060383 0.5501871705 4291146613
-0.2962668538 -0.1378231496 0.5503005981 4291146359
-0.2963277102 -0.1372399032 0.5504135489 4291146359
-0.2963882983 -0.1366562992 0.5505261421 4291015544
-0.2964486778 -0.1360723376 0.5506382585 4291081337
-0.2960455120 -0.1352763176 0.5498894453 4291081337
-0.2961053252 -0.1346925497 0.5500004888 4291212923
-0.2961648703 -0.1341084391 0.5501111746 4291344255
-0.2962242067 -0.1335239708 0.5502213836 4291475841
-0.2962833345 -0.1329391450 0.5503311753 4291607942
-0.2963421941 -0.1323539913 0.5504404902 4291936907
-0.2959369719 -0.1315622628 0.5496878028 4292199825
-0.2959952652 -0.1309773177 0.5497961044 4292397204
-0.2955892980 -0.1301876456 0.5490420461 4292463000
-0.2956470251 -0.1296029389 0.5491492748 4292791965
-0.2957045138 -0.1290178746 0.5492560863 4292989093
-0.2952974737 -0.1282308549 0.5485000014 4293252265
-0.2953543961 -0.1276460439 0.5486057401 4293580978
-0.2954111099 -0.1270608753 0.5487110615 4293383599
-0.2954675555 -0.1264753938 0.5488159060 4292659874
-0.2955237627 -0.1258895546 0.5489203334 4292067737
-0.2951149940 -0.1251063794 0.5481610298 4291278474
-0.2951706350 -0.1245208085 0.5482643843 4291804818
-0.2952260375 -0.1239349097 0.5483673215 4292924067
-0.2952812016 -0.1233486757 0.5484697819 4293253032
-0.2953361273 -0.1227621213 0.5485718250 4293252779
-0.2953908145 -0.1221752316 0.5486733913 4293647537
-0.2954452634 -0.1215880215 0.5487744808 4293844920
-0.2954994738 -0.1210004911 0.5488751531 4293384369
-0.2955534160 -0.1204126328 0.5489754081 4292660903
-0.2956071198 -0.1198244542 0.5490751266 4293253040
-0.2956605852 -0.1192359552 0.5491744876 4294174144
-0.2961795032 -0.1188339815 0.5501383543 4294700488
-0.2966983616 -0.1184298396 0.5511020422 4294503369
-0.2967512608 -0.1178385317 0.5512003303 4294700748
-0.2968038917 -0.1172469109 0.5512980819 4294569164
-0.2968563139 -0.1166549698 0.5513954759 4294569164
-0.2969084680 -0.1160627231 0.5514923334 4294832336
-0.2969603837 -0.1154701635 0.5515887737 4294569164
-0.2970120609 -0.1148772910 0.5516847372 4294437578
-0.2970634699 -0.1142841130 0.5517802238 4294240199
-0.2975810766 -0.1138691008 0.5527416468 4293911231
-0.2976320684 -0.1132743731 0.5528363585 4293713852
-0.2972162366 -0.1125027314 0.5520640016 4293516727
-0.2972666621 -0.1119083315 0.5521576405 4293056176
-0.2977835834 -0.1114883721 0.5531178117 4292924590
-0.2978335619 -0.1108924374 0.5532106757 4292924590
-0.2978833020 -0.1102961972 0.5533030629 4293516473
-0.2979328036 -0.1096996665 0.5533949733 4294305989
-0.2979820669 -0.1091028303 0.5534864664 4294766541
-0.2980310321 -0.1085057035 0.5535774827 4294634955
-0.2980797887 -0.1079082862 0.5536679626 4294503369
-0.2981282771 -0.1073105708 0.5537580252 4294766541
-0.2981764972 -0.1067125723 0.5538476110 4294634955
-0.2982244790 -0.1061142758 0.5539367199 4294569162
-0.2987397015 -0.1056810766 0.5548937917 4294963922
-0.2987872660 -0.1050812751 0.5549820662 4294964436
-0.2988345325 -0.1044811830 0.5550699234 4294832082
-0.2988815606 -0.1038808078 0.5551572442 4294700496
-0.2989283502 -0.1032801419 0.5552441478 4294766291
-0.2994427383 -0.1028398946 0.5561996102 4294897877
-0.2994890809 -0.1022377312 0.5562856793 4294766289
-0.2995351553 -0.1016352922 0.5563712716 4294766289
-0.2995809615 -0.1010325775 0.5564563274 4294766289
-0.3000946939 -0.1005865037 0.5574105382 4294832082
-0.3001400530 -0.0999822915 0.5574948192 4294832082
-0.3011217713 -0.0996878818 0.5593183637 4294766289
-0.3011667728 -0.0990812406 0.5594019294 4294766030
-0.3016799390 -0.0986274779 0.5603550673 4294766030
-0.3017244637 -0.0980193466 0.5604377985 4294700237
-0.3022373319 -0.0975622088 0.5613903999 4294831823
-0.3022814095 -0.0969526023 0.5614722967 4294831823
-0.3027939498 -0.0964920968 0.5624243021 4294766030
-0.3028375506 -0.0958810151 0.5625053048 4294831823
-0.3028809130 -0.0952696651 0.5625858307 4294831823
-0.3029240072 -0.0946580619 0.5626658797 4294568651
-0.3029668331 -0.0940461904 0.5627454519 4294239686
-0.3030093908 -0.0934340656 0.5628244877 4294501829
-0.3035207987 -0.0929653645 0.5637744069 4293712313
-0.3040320575 -0.0924945176 0.5647240877 4293252793
-0.3040739596 -0.0918797255 0.5648018718 4293055414
-0.3041155636 -0.0912646800 0.5648791790 4292398262
-0.3050956726 -0.0909291580 0.5666996837 4292200883
-0.3056063354 -0.0904506519 0.5676481724 4291149745
-0.3065863550 -0.0901079923 0.5694684982 4290097057
-0.3694024682 -0.2050501853 0.6875647306 4293913570
-0.3681176305 -0.2035757154 0.6851732135 4293056453
-0.3654579520 -0.2013490796 0.6802228093 4290029975
-0.3605062962 -0.1978754401 0.6710063219 4289897346
-0.3111079931 -0.1701182127 0.5790618062 4290028932
-0.3153063953 -0.1717618853 0.5868762732 4290159734
-0.3080464303 -0.1671700180 0.5733633637 4290422906
-0.3094944954 -0.1673158109 0.5760586858 4290357622
-0.3068154156 -0.1652329713 0.5710721016 4290423415
-0.3059697151 -0.1641447693 0.5694980621 4290489207
-0.3051233888 -0.1630597264 0.5679227710 4290555000
-0.3042763770 -0.1619778425 0.5663462281 4290620793
-0.3025106490 -0.1604122669 0.5630596876 4290620793
-0.3021212816 -0.1595810056 0.5623349547 4290686586
-0.3012722433 -0.1585094929 0.5607546568 4290883965
-0.3022599816 -0.1584041119 0.5625931621 4290949758
-0.3009505868 -0.1570955217 0.5601559877 4291015551
-0.3005594909 -0.1562698185 0.5594280362 4291213184
-0.3001679778 -0.1554454863 0.5586993098 4291410563
-0.2997759879 -0.1546225548 0.5579697490 4291476356
-0.2998434901 -0.1540372819 0.5580953360 4291081598
-0.2989907861 -0.1529809088 0.5565081835 4290423668
-0.2985975146 -0.1521621794 0.5557762384 4289831531
-0.2986640036 -0.1515784264 0.5558999777 4290028399
