VERSION 0.7
FIELDS x y z rgba
SIZE 4 4 4 4
TYPE F F F U
COUNT 1 1 1 1
WIDTH 920
HEIGHT 1
VIEWPOINT 0.0 0.0 0.0 1.0 0.0 0.0 0.0
POINTS 920
DATA ascii
-0.2705919445 -0.1975513250 0.5109544992 4291062595
-0.2702300847 -0.1967207044 0.5102711916 4291194181
-0.2698677778 -0.1958913058 0.5095870495 4291458129
-0.2699483335 -0.1953839362 0.5097391605 4292050266
-0.2691419125 -0.1942361444 0.5082164407 4292249189
-0.2692218721 -0.1937295347 0.5083674192 4292709740
-0.2688580155 -0.1929041594 0.5076803565 4293304708
-0.2689375281 -0.1923974901 0.5078305006 4293962638
-0.2685729563 -0.1915737242 0.5071420670 4293898132
-0.2682079673 -0.1907511801 0.5064528584 4293832339
-0.2682867050 -0.1902448535 0.5066015720 4293636505
-0.2674766779 -0.1891098022 0.5050719976 4293833884
-0.2675548494 -0.1886042506 0.5052195787 4293702552
-0.2676328719 -0.1880982518 0.5053669214 4293242001
-0.2677106857 -0.1875918210 0.5055139065 4292451455
-0.2673435509 -0.1867741793 0.5048205853 4291530353
-0.2674209177 -0.1862677038 0.5049667358 4290935898
-0.2679432333 -0.1860698909 0.5059529543 4290475347
-0.2675752044 -0.1852534413 0.5052580237 4290735431
-0.2676520944 -0.1847456545 0.5054032207 4290340673
-0.2681742907 -0.1845439821 0.5063892603 4290601526
-0.2678053677 -0.1837287694 0.5056926012 4290338354
-0.2678817511 -0.1832196712 0.5058368444 4290337324
-0.2679579556 -0.1827101409 0.5059807897 4290139945
-0.2680340111 -0.1822001785 0.5061243773 4290072863
-0.2672176659 -0.1810851544 0.5045828819 4289809691
-0.2677393556 -0.1808774769 0.5055679679 4289939987
-0.2673684061 -0.1800664514 0.5048674941 4289808401
-0.2669970393 -0.1792566925 0.5041662455 4289807886
-0.2670718431 -0.1787471175 0.5043075681 4289807886
-0.2671464980 -0.1782371253 0.5044484735 4289742608
-0.2672209740 -0.1777267009 0.5045891404 4289742608
-0.2672952712 -0.1772158444 0.5047294497 4289611281
-0.2673693895 -0.1767045557 0.5048694015 4289677074
-0.2678905725 -0.1764874905 0.5058535337 4289742867
-0.2679644823 -0.1759745032 0.5059930682 4289808660
-0.2680382133 -0.1754610986 0.5061323047 4290005780
-0.2681117654 -0.1749472618 0.5062711835 4290203159
-0.2690805793 -0.1750154197 0.5081006289 4290136853
-0.2691540420 -0.1744990349 0.5082393289 4290005267
-0.2696752548 -0.1742717028 0.5092235208 4289808401
-0.2697484791 -0.1737536043 0.5093618035 4289676815
-0.2693732977 -0.1729473174 0.5086533427 4289677074
-0.2694460452 -0.1724292338 0.5087907314 4289677074
-0.2690701485 -0.1716246903 0.5080808997 4289611281
-0.2695909739 -0.1713918149 0.5090643764 4289545488
-0.2696631849 -0.1708724797 0.5092006922 4289479695
-0.2697351873 -0.1703527272 0.5093367100 4289413902
-0.2702559531 -0.1701151431 0.5103200674 4289217295
-0.2703277171 -0.1695936918 0.5104556084 4289151502
-0.2703993320 -0.1690718234 0.5105907321 4289085966
-0.2704707384 -0.1685495526 0.5107256174 4289085966
-0.2705419362 -0.1680268645 0.5108600855 4289151502
-0.2710625231 -0.1677819937 0.5118430853 4289151502
-0.2711334825 -0.1672576219 0.5119770765 4289020690
-0.2707545161 -0.1664563119 0.5112614632 4288954897
-0.2708249986 -0.1659319699 0.5113945603 4288954899
-0.2717952728 -0.1659567505 0.5132267475 4288954899
-0.2709653974 -0.1648820788 0.5116596818 4288954899
-0.2719357908 -0.1649025530 0.5134920478 4288889106
-0.2724560797 -0.1646469831 0.5144745111 4288954899
-0.2725259960 -0.1641179770 0.5146065354 4288954899
-0.2725957036 -0.1635885835 0.5147381425 4288758033
-0.2726652026 -0.1630587727 0.5148693919 4288758033
-0.2731853426 -0.1627971977 0.5158515573 4288757779
-0.2732546031 -0.1622657031 0.5159823298 4288691986
-0.2733236551 -0.1617338061 0.5161127448 4288692499
-0.2733925283 -0.1612015069 0.5162428021 4288692499
-0.2734611928 -0.1606688052 0.5163724422 4288692499
-0.2739810348 -0.1603999585 0.5173540711 4288626706
-0.2740494311 -0.1598655730 0.5174832344 4288561429
-0.2745692432 -0.1595932692 0.5184647441 4288364050
-0.2746373713 -0.1590572149 0.5185934305 4288364050
-0.2747052908 -0.1585207433 0.5187216997 4288429843
-0.2747730315 -0.1579838842 0.5188495517 4288429843
-0.2752926052 -0.1577055901 0.5198306441 4288429843
-0.2753600478 -0.1571670622 0.5199580193 4288298770
-0.2758795619 -0.1568853110 0.5209389925 4288232977
-0.2759467363 -0.1563450992 0.5210658312 4288167185
-0.2764661610 -0.1560599059 0.5220466852 4288167185
-0.2769856453 -0.1557725519 0.5230275989 4288167185
-0.2770524025 -0.1552293897 0.5231537223 4288167185
-0.2775717974 -0.1549385935 0.5241344571 4288166931
-0.2780912220 -0.1546456218 0.5251152515 4288101138
-0.2786106169 -0.1543504745 0.5260960460 4287970322
-0.2791300714 -0.1540531665 0.5270769000 4287970322
-0.2796494961 -0.1537536830 0.5280577540 4288166420
-0.2801689506 -0.1534520239 0.5290386081 4288166420
-0.2811418474 -0.1533955932 0.5308757424 4287904531
-0.2816614211 -0.1530887038 0.5318568349 4287970324
-0.2821809947 -0.1527796239 0.5328379273 4287971353
-0.2827005982 -0.1524683833 0.5338190198 4287971353
-0.2832201719 -0.1521549523 0.5348001719 4288036376
-0.2837397456 -0.1518393457 0.5357812643 4287970583
-0.2842593193 -0.1515215635 0.5367623568 4288102169
-0.2847788930 -0.1512016058 0.5377435088 4288036376
-0.2852984667 -0.1508794576 0.5387246013 4287774746
-0.2862724364 -0.1507944912 0.5405637026 4287643160
-0.2881556153 -0.1511824578 0.5441196561 4287119126
-0.2891301811 -0.1510877311 0.5459599495 4287053333
-0.2914690673 -0.1516989917 0.5503764153 4286857494
-0.2910798788 -0.1508863121 0.5496415496 4286857494
-0.2929648459 -0.1512493491 0.5532009006 4286663212
-0.2948504090 -0.1516047865 0.5567613840 4286926384
-0.2926405072 -0.1498551071 0.5525884628 4286075713
-0.2936158776 -0.1497391462 0.5544302464 4286931022
-0.2731996477 -0.2061861753 0.5169615149 4290142002
-0.2719613016 -0.2046803534 0.5146182775 4290469939
-0.2716038525 -0.2038408220 0.5139418840 4290338353
-0.2716870010 -0.2033325583 0.5140992403 4290403887
-0.2713288367 -0.2024945766 0.5134214759 4290206508
-0.2709702253 -0.2016577721 0.5127428770 4290205736
-0.2706111670 -0.2008221745 0.5120635033 4290205736
-0.2702517211 -0.1999877542 0.5113833547 4290140715
-0.2703335583 -0.1994804740 0.5115382075 4290140715
-0.2699733675 -0.1986476332 0.5108566284 4290206767
-0.2696127594 -0.1978159845 0.5101742744 4290864697
-0.2692517340 -0.1969855428 0.5094911456 4291062593
-0.2688902915 -0.1961562932 0.5088071823 4291325765
-0.2689707875 -0.1956500560 0.5089594722 4291656020
-0.2686086297 -0.1948224157 0.5082741976 4292116571
-0.2686886787 -0.1943161041 0.5084256530 4292314978
-0.2683257759 -0.1934900433 0.5077390075 4292841322
-0.2684053779 -0.1929836720 0.5078896284 4293370501
-0.2680417895 -0.1921592206 0.5072015524 4293370501
-0.2681209147 -0.1916527748 0.5073513389 4293305737
-0.2677566111 -0.1908299476 0.5066619515 4293305737
-0.2673918605 -0.1900083423 0.5059717894 4293109386
-0.2674702704 -0.1895022392 0.5061200857 4293372558
-0.2671048045 -0.1886822581 0.5054285526 4292977800
-0.2667389214 -0.1878635138 0.5047362447 4291990905
-0.2668165565 -0.1873577684 0.5048831701 4291397738
-0.2668940425 -0.1868515760 0.5050297379 4290805601
-0.2669713497 -0.1863449365 0.5051760674 4290540370
-0.2670485079 -0.1858378500 0.5053220391 4290277198
-0.2671254873 -0.1853303462 0.5054677129 4290603332
-0.2672023177 -0.1848223805 0.5056130886 4290274367
-0.2672789693 -0.1843139976 0.5057581663 4290404665
-0.2673554420 -0.1838051677 0.5059028864 4290207286
-0.2669867873 -0.1829909086 0.5052052736 4290337324
-0.2670628130 -0.1824820638 0.5053491592 4290139945
-0.2671386600 -0.1819727719 0.5054926872 4290072863
-0.2663236558 -0.1808581799 0.5039504170 4289809691
-0.2663989067 -0.1803497225 0.5040928721 4289939987
-0.2664740086 -0.1798408329 0.5042349696 4289808401
-0.2665489316 -0.1793315262 0.5043767095 4289742095
-0.2666236758 -0.1788217723 0.5045181513 4289742095
-0.2666982710 -0.1783116013 0.5046592951 4289742354
-0.2667726576 -0.1778010130 0.5048000813 4289676561
-0.2668468952 -0.1772899777 0.5049405694 4289545490
-0.2669209838 -0.1767785251 0.5050807595 4289611283
-0.2674413323 -0.1765614152 0.5060654283 4289742869
-0.2675151825 -0.1760482490 0.5062051415 4289742869
-0.2680355906 -0.1758277118 0.5071898699 4290005269
-0.2681092024 -0.1753128469 0.5073291659 4290202648
-0.2677356601 -0.1745062321 0.5066223145 4290005526
-0.2682558894 -0.1742818505 0.5076067448 4289808147
-0.2687762082 -0.1740553230 0.5085912943 4289742354
-0.2688492239 -0.1735379100 0.5087294579 4289742354
-0.2684746385 -0.1727321744 0.5080206394 4289611281
-0.2689947784 -0.1725018024 0.5090048313 4289677074
-0.2686195672 -0.1716969609 0.5082948804 4289611283
-0.2686917484 -0.1711787283 0.5084314942 4289479697
-0.2687637806 -0.1706600785 0.5085677505 4289348111
-0.2688356042 -0.1701410115 0.5087037086 4289348111
-0.2693554461 -0.1699042320 0.5096873641 4289151248
-0.2694270313 -0.1693834662 0.5098228455 4289085455
-0.2694984376 -0.1688622832 0.5099579692 4289151248
-0.2695696652 -0.1683406979 0.5100927353 4289151248
-0.2696407139 -0.1678186804 0.5102271438 4289085455
-0.2701603472 -0.1675746292 0.5112104416 4289151248
-0.2702311575 -0.1670509279 0.5113444328 4288954899
-0.2698527575 -0.1662501991 0.5106284022 4288889106
-0.2708213031 -0.1662780493 0.5124611259 4288823315
-0.2708916664 -0.1657522470 0.5125942826 4288757522
-0.2705124915 -0.1649520248 0.5118767619 4288691986
-0.2714813054 -0.1649725437 0.5137100220 4288757779
-0.2720007896 -0.1647168994 0.5146930218 4288823572
-0.2720706463 -0.1641877145 0.5148251653 4288823572
-0.2721402943 -0.1636581272 0.5149569511 4288823572
-0.2722097635 -0.1631281227 0.5150883794 4288757779
-0.2727290690 -0.1628664732 0.5160710812 4288626706
-0.2723481059 -0.1620669216 0.5153502226 4288560913
-0.2728672624 -0.1618027091 0.5163325667 4288626706
-0.2729360759 -0.1612702161 0.5164628029 4288626706
-0.2730046809 -0.1607373208 0.5165926218 4288560913
-0.2735237479 -0.1604683846 0.5175747871 4288560913
-0.2735920846 -0.1599338055 0.5177041292 4288495636
-0.2741110623 -0.1596614271 0.5186861753 4288364050
-0.2741791308 -0.1591251642 0.5188149810 4288298257
-0.2742470205 -0.1585885137 0.5189434290 4288364050
-0.2747658491 -0.1583114117 0.5199251771 4288429843
-0.2748334408 -0.1577730775 0.5200530887 4288429843
-0.2749008536 -0.1572343409 0.5201806426 4288298771
-0.2754195631 -0.1569525152 0.5211621523 4288167185
-0.2754866481 -0.1564120948 0.5212891102 4288035599
-0.2760052979 -0.1561268121 0.5222705007 4288035599
-0.2765239477 -0.1558393687 0.5232519507 4287970320
-0.2770426273 -0.1555497646 0.5242334008 4287970320
-0.2775613070 -0.1552579701 0.5252149105 4287970322
-0.2780800164 -0.1549640149 0.5261964202 4287970322
-0.2785987258 -0.1546678841 0.5271779299 4287904529
-0.2791174650 -0.1543695927 0.5281594992 4287904529
-0.2796362042 -0.1540691257 0.5291410685 4288166420
-0.2792497575 -0.1532696486 0.5284098387 4288100627
-0.2802210152 -0.1532141268 0.5302476883 4287838738
-0.2807396650 -0.1529080272 0.5312291384 4287904531
-0.2808054090 -0.1523540169 0.5313535333 4287970581
-0.2822299898 -0.1525341272 0.5340492129 4288036374
-0.2827487886 -0.1522205919 0.5350308418 4287970581
-0.2832675576 -0.1519048810 0.5360125303 4287970581
-0.2837863266 -0.1515869945 0.5369941592 4288036376
-0.2843050957 -0.1512669176 0.5379757881 4288036376
-0.2848238349 -0.1509446651 0.5389574170 4287774487
-0.2857962549 -0.1508596838 0.5407974124 4287642901
-0.2867688537 -0.1507707238 0.5426378250 4287118611
-0.2877416313 -0.1506777853 0.5444785953 4287052818
-0.2882606685 -0.1503441036 0.5454607606 4286857235
-0.2896878123 -0.1504799575 0.5481612682 4286923028
-0.2906611860 -0.1503750533 0.5500031114 4286794284
-0.2939060330 -0.1514364481 0.5561431646 4286991663
-0.2939715683 -0.1508527249 0.5562672019 4286992957
-0.2714174986 -0.2052720934 0.5146697164 4290272812
-0.2710610032 -0.2044319212 0.5139936805 4290403887
-0.2724647522 -0.2049171180 0.5166555047 4290272301
-0.2707870305 -0.2030853331 0.5134741664 4290403115
-0.2704293728 -0.2022478878 0.5127959847 4290205736
-0.2705118954 -0.2017401904 0.5129524469 4290074150
-0.2701535225 -0.2009042948 0.5122728944 4290139943
-0.2697947323 -0.2000695765 0.5115925670 4290271529
-0.2698765099 -0.1995621473 0.5117475986 4290468908
-0.2695170045 -0.1987290084 0.5110659003 4290338353
-0.2695983052 -0.1982214898 0.5112200975 4290864697
-0.2683553398 -0.1967427433 0.5088631511 4291062593
-0.2684359252 -0.1962368041 0.5090159774 4291457351
-0.2685163617 -0.1957304031 0.5091685057 4291722067
-0.2681548893 -0.1949024647 0.5084830523 4292051032
-0.2682348788 -0.1943959892 0.5086346865 4292248671
-0.2678726614 -0.1935696453 0.5079478621 4292643429
-0.2679521739 -0.1930631101 0.5080986619 4292777079
-0.2675892711 -0.1922383606 0.5074104667 4292513907
-0.2676683366 -0.1917317659 0.5075604320 4292515190
-0.2673046887 -0.1909086406 0.5068708658 4292646776
-0.2669406235 -0.1900867373 0.5061805248 4292582012
-0.2670189738 -0.1895804703 0.5063290596 4292845184
-0.2670971155 -0.1890737563 0.5064772964 4292253047
-0.2667320669 -0.1882538795 0.5057850480 4291068773
-0.2663665414 -0.1874352545 0.5050919652 4290936158
-0.2664439678 -0.1869288981 0.5052387714 4290541400
-0.2665212154 -0.1864220947 0.5053852201 4290408014
-0.2665983140 -0.1859148443 0.5055314302 4290342221
-0.2666752338 -0.1854071617 0.5056772828 4290669126
-0.2667519748 -0.1848990470 0.5058228374 4290405954
-0.2668285668 -0.1843904853 0.5059680343 4290470204
-0.2669049799 -0.1838814914 0.5061129332 4290207032
-0.2669812441 -0.1833720505 0.5062575340 4290271533
-0.2666129768 -0.1825579256 0.5055592060 4290074154
-0.2666887641 -0.1820484698 0.5057029128 4290007071
-0.2667643726 -0.1815385818 0.5058463216 4289809692
-0.2659503818 -0.1804248244 0.5043027997 4289939733
-0.2660253942 -0.1799157709 0.5044450164 4289808147
-0.2661002576 -0.1794062853 0.5045869946 4289742095
-0.2661749423 -0.1788963675 0.5047286153 4289676302
-0.2662494779 -0.1783860326 0.5048699379 4289677076
-0.2663238049 -0.1778752655 0.5050109029 4289545490
-0.2663979828 -0.1773640662 0.5051515698 4289348627
-0.2664719820 -0.1768524349 0.5052918792 4289480213
-0.2665458322 -0.1763403863 0.5054318905 4289742615
-0.2670653462 -0.1761219352 0.5064169765 4289742615
-0.2671389282 -0.1756081730 0.5065565705 4289873942
-0.2672123611 -0.1750939935 0.5066958070 4290005528
-0.2677318454 -0.1748708338 0.5076808333 4289808662
-0.2678050399 -0.1743549556 0.5078196526 4289742869
-0.2678780854 -0.1738386452 0.5079581141 4289546006
-0.2679509223 -0.1733219028 0.5080962777 4289546006
-0.2680235803 -0.1728047431 0.5082340837 4289480213
-0.2680960894 -0.1722871810 0.5083715320 4289414420
-0.2681683898 -0.1717691869 0.5085086823 4289348627
-0.2682405412 -0.1712507606 0.5086454749 4289282834
-0.2683124840 -0.1707319319 0.5087819099 4289151249
-0.2683842778 -0.1702126861 0.5089179873 4289217042
-0.2684558630 -0.1696930230 0.5090537667 4289085969
-0.2685272694 -0.1691729426 0.5091891885 4289020176
-0.2690461874 -0.1689335406 0.5101731420 4289020176
-0.2691173553 -0.1684117615 0.5103080869 4288954383
-0.2691883445 -0.1678895652 0.5104426742 4288954383
-0.2692591250 -0.1673669666 0.5105769634 4289020176
-0.2693297565 -0.1668439507 0.5107108355 4288823572
-0.2698484361 -0.1665972620 0.5116944313 4288757779
-0.2703671753 -0.1663484275 0.5126780272 4288691986
-0.2699889839 -0.1655474454 0.5119609237 4288626193
-0.2705076039 -0.1652960479 0.5129442811 4288626193
-0.2710262239 -0.1650424749 0.5139277577 4288626193
-0.2710960805 -0.1645143926 0.5140602589 4288691986
-0.2707168162 -0.1637143940 0.5133410096 4288757779
-0.2716842890 -0.1637276113 0.5151756406 4288757779
-0.2717536986 -0.1631974280 0.5153071880 4288757779
-0.2718228996 -0.1626668274 0.5154384375 4288626706
-0.2718919516 -0.1621358246 0.5155693293 4288560913
-0.2724103034 -0.1618715376 0.5165522695 4288560913
-0.2724790573 -0.1613388658 0.5166826248 4288560913
-0.2725476027 -0.1608057767 0.5168126225 4288495120
-0.2726159692 -0.1602722853 0.5169422626 4288560913
-0.2726841569 -0.1597383916 0.5170715451 4288429843
-0.2732022107 -0.1594668180 0.5180539489 4288364050
-0.2732701302 -0.1589312404 0.5181826949 4288364050
-0.2737881243 -0.1586562246 0.5191649795 4288364050
-0.2738557458 -0.1581189632 0.5192931890 4288298258
-0.2743737102 -0.1578405052 0.5202753544 4288298258
-0.2744410634 -0.1573015600 0.5204030275 4288167185
-0.2745081782 -0.1567622423 0.5205303431 4288035599
-0.2750259936 -0.1564790457 0.5215122104 4288035599
-0.2750928402 -0.1559380293 0.5216389894 4288035599
-0.2756105959 -0.1556513906 0.5226207376 4287904529
-0.2761283517 -0.1553625613 0.5236025453 4287904529
-0.2766461074 -0.1550715864 0.5245843530 4287904529
-0.2767124772 -0.1545263380 0.5247102380 4287838736
-0.2776817083 -0.1544830799 0.5265480280 4287773456
-0.2781994939 -0.1541855782 0.5275299549 4287773456
-0.2787173390 -0.1538859010 0.5285118818 4288035347
-0.2796869874 -0.1538325697 0.5303505659 4287969554
-0.2806569040 -0.1537752748 0.5321897268 4287707409
-0.2807228863 -0.1532205492 0.5323148966 4287773202
-0.2812408507 -0.1529112607 0.5332970619 4287773972
-0.2817588151 -0.1525998116 0.5342792273 4287773972
-0.2822767794 -0.1522861719 0.5352613926 4287970581
-0.2827947438 -0.1519703567 0.5362435579 4288036374
-0.2837652862 -0.1518946141 0.5380839109 4288036374
-0.2842833400 -0.1515735388 0.5390662551 4288036374
-0.2848013937 -0.1512502730 0.5400485992 4287839765
-0.2857723236 -0.1511643976 0.5418897271 4287642386
-0.2867434621 -0.1510745287 0.5437312722 4287183888
-0.2859024405 -0.1500296295 0.5421364307 4287183888
-0.2877799273 -0.1504091173 0.5456966162 4286988049
-0.2887514532 -0.1503090858 0.5475388169 4286988049
-0.2888163626 -0.1497349441 0.5476619005 4286464801
-0.2911485434 -0.1503312141 0.5520842671 4286925352
-0.2921207249 -0.1502183080 0.5539277196 4287516213
-0.2921856642 -0.1496366858 0.5540509224 4287582006
-0.2945194244 -0.1502119303 0.5584762096 4286930772
-0.2730681896 -0.2075318843 0.5188913941 4290338090
-0.2727133334 -0.2066869438 0.5182170868 4290206504
-0.2710402012 -0.2048471570 0.5150377154 4290271531
-0.2720023394 -0.2050005943 0.5168660283 4290205738
-0.2698879838 -0.2028377652 0.5128482580 4290271529
-0.2695308626 -0.2020008564 0.5121696591 4290205736
-0.2700529993 -0.2018225342 0.5131618381 4290139943
-0.2696953118 -0.2009863406 0.5124821067 4290205736
-0.2693372071 -0.2001513392 0.5118016601 4290271529
-0.2689786553 -0.1993175447 0.5111203194 4290534701
-0.2690600753 -0.1988103241 0.5112749934 4290601266
-0.2687008083 -0.1979780942 0.5105923414 4290996024
-0.2687817514 -0.1974707842 0.5107461810 4291194179
-0.2675402761 -0.1959943473 0.5083870888 4291523144
-0.2676205039 -0.1954886168 0.5085395575 4291590481
-0.2677005827 -0.1949824393 0.5086916685 4291656274
-0.2673393488 -0.1941554248 0.5080052614 4291656533
-0.2674189806 -0.1936491728 0.5081565380 4291919705
-0.2666155994 -0.1925050467 0.5066300035 4291986274
-0.2671361864 -0.1923174411 0.5076192021 4291788895
-0.2667735219 -0.1914936304 0.5069300532 4291789665
-0.2664104104 -0.1906710565 0.5062400699 4291921251
-0.2669307888 -0.1904804409 0.5072289109 4291987816
-0.2665671110 -0.1896586418 0.5065378547 4292250988
-0.2662030160 -0.1888380796 0.5058459640 4291659621
-0.2667231262 -0.1886444390 0.5068343282 4290804312
-0.2663584650 -0.1878246665 0.5061413646 4290869335
-0.2659933567 -0.1870061457 0.5054475665 4290606163
-0.2660705447 -0.1864991784 0.5055942535 4290473289
-0.2661475539 -0.1859917790 0.5057405829 4290407496
-0.2662244141 -0.1854839325 0.5058866143 4290734919
-0.2658579946 -0.1846678555 0.5051903725 4290537540
-0.2663776278 -0.1844669133 0.5061777830 4290536512
-0.2660106122 -0.1836516559 0.5054804087 4290207547
-0.2660866678 -0.1831429154 0.5056248903 4290206255
-0.2661625743 -0.1826337129 0.5057691336 4289943083
-0.2662383020 -0.1821240932 0.5059130192 4289941794
-0.2654261291 -0.1810086519 0.5043697357 4289678622
-0.2663892508 -0.1811035424 0.5061998367 4289808662
-0.2651321292 -0.1796896458 0.5038110614 4289742869
-0.2656510472 -0.1794809848 0.5047971010 4289808147
-0.2657256722 -0.1789709032 0.5049389005 4289676561
-0.2658001184 -0.1784603894 0.5050804019 4289611029
-0.2658743858 -0.1779494435 0.5052215457 4289413650
-0.2659485042 -0.1774380803 0.5053623915 4289282835
-0.2660224438 -0.1769262701 0.5055028796 4289480214
-0.2665411830 -0.1767090559 0.5064886212 4289611800
-0.2666149139 -0.1761955470 0.5066286922 4289611800
-0.2666884661 -0.1756816208 0.5067684054 4289742615
-0.2667618096 -0.1751672626 0.5069078207 4289808408
-0.2668350041 -0.1746524870 0.5070469379 4289677592
-0.2673536241 -0.1744279861 0.5080323815 4289677592
-0.2669808865 -0.1736216545 0.5073240995 4289546006
-0.2674993873 -0.1733945906 0.5083093643 4289480213
-0.2675719857 -0.1728772521 0.5084473491 4289414420
-0.2676444054 -0.1723595113 0.5085849762 4289348627
-0.2672704756 -0.1715549380 0.5078743696 4289151762
-0.2673424184 -0.1710371971 0.5080111027 4289085969
-0.2678606510 -0.1708037257 0.5089958310 4289085969
-0.2679323554 -0.1702843010 0.5091320872 4289020176
-0.2680038810 -0.1697644591 0.5092680454 4289085969
-0.2680752575 -0.1692442000 0.5094036460 4289020176
-0.2681464255 -0.1687235236 0.5095388889 4288823313
-0.2682174146 -0.1682024300 0.5096737742 4288757520
-0.2682882249 -0.1676809341 0.5098083615 4288757520
-0.2683588564 -0.1671590060 0.5099425316 4288757520
-0.2688766718 -0.1669144183 0.5109265447 4288757779
-0.2693945467 -0.1666676551 0.5119106174 4288757779
-0.2699124813 -0.1664187461 0.5128948092 4288691986
-0.2699826956 -0.1658925712 0.5130282640 4288691986
-0.2696049213 -0.1650917530 0.5123103857 4288626193
-0.2705706060 -0.1651123613 0.5141453743 4288626193
-0.2706404030 -0.1645840853 0.5142779946 4288560400
-0.2707099915 -0.1640553921 0.5144102573 4288560400
-0.2707794309 -0.1635262966 0.5145421624 4288691986
-0.2708486617 -0.1629967988 0.5146737099 4288691986
-0.2713662386 -0.1627358794 0.5156572461 4288626706
-0.2714352012 -0.1622046828 0.5157883167 4288626706
-0.2719527483 -0.1619403213 0.5167717338 4288560913
-0.2720214427 -0.1614074558 0.5169022679 4288495120
-0.2716409564 -0.1606086940 0.5161792636 4288495120
-0.2721582353 -0.1603404880 0.5171622634 4288495120
-0.2722263634 -0.1598064005 0.5172917247 4288560915
-0.2727436125 -0.1595347375 0.5182746053 4288560915
-0.2728114724 -0.1589989811 0.5184035301 4288429844
-0.2728791237 -0.1584628075 0.5185320973 4288298258
-0.2729465663 -0.1579262465 0.5186602473 4288166672
-0.2734636068 -0.1576485783 0.5196427703 4288100879
-0.2739806771 -0.1573687345 0.5206252933 4288035599
-0.2740477622 -0.1568292081 0.5207527280 4288035599
-0.2741146386 -0.1562892944 0.5208798647 4288035345
-0.2746315300 -0.1560047269 0.5218620896 4288035345
-0.2751484811 -0.1557179838 0.5228443742 4287838736
-0.2752149701 -0.1551751047 0.5229707360 4287838736
-0.2757318318 -0.1548849195 0.5239529014 4287772943
-0.2762486935 -0.1545925438 0.5249350667 4287772943
-0.2767655849 -0.1542980075 0.5259172320 4287772943
-0.2772824764 -0.1540012956 0.5268994570 4287772943
-0.2782503366 -0.1539519280 0.5287386179 4287838738
-0.2783162892 -0.1534013599 0.5288639665 4287838738
-0.2788332105 -0.1530981213 0.5298461914 4287642386
-0.2798014283 -0.1530395448 0.5316860676 4287642386
-0.2798670828 -0.1524851173 0.5318107605 4287642386
-0.2808355093 -0.1524204016 0.5336510539 4287642386
-0.2813525498 -0.1521075517 0.5346335173 4287773972
-0.2818696201 -0.1517925262 0.5356160402 4287839765
-0.2823866606 -0.1514753103 0.5365985632 4287970581
-0.2829037011 -0.1511559337 0.5375810266 4287970581
-0.2838727534 -0.1510749161 0.5394225121 4287773974
-0.2843898833 -0.1507502645 0.5404051542 4287576595
-0.2862637341 -0.1511397213 0.5439658761 4287183377
-0.2867811620 -0.1508079916 0.5449491143 4287183377
-0.2891083360 -0.1514219493 0.5493712425 4286922258
-0.2878159583 -0.1501379758 0.5469154716 4286988051
-0.2905965745 -0.1509754956 0.5521992445 4286661921
-0.2929254472 -0.1515675485 0.5566246510 4287056679
-0.2916323245 -0.1502833068 0.5541673899 4287581231
-0.2926031053 -0.1501663625 0.5560121536 4287581231
-0.2940271199 -0.1502769887 0.5587180853 4286600517
-0.2954514921 -0.1503817886 0.5614247322 4288113756
-0.2730414867 -0.2079499513 0.5199366808 4290271529
-0.2709338069 -0.2057720423 0.5159232020 4290271529
-0.2701402605 -0.2045983225 0.5144120455 4290205738
-0.2706620097 -0.2044213712 0.5154056549 4290139945
-0.2703062892 -0.2035813332 0.5147282481 4290139945
-0.2695111930 -0.2024128139 0.5132141709 4290074152
-0.2691544592 -0.2015759647 0.5125348568 4290139943
-0.2687973082 -0.2007403076 0.5118547678 4290205736
-0.2684397399 -0.1999058425 0.5111739039 4290337065
-0.2680817544 -0.1990725845 0.5104922056 4290600237
-0.2681629658 -0.1985660344 0.5106468201 4290929463
-0.2682439983 -0.1980590373 0.5108011365 4291258428
-0.2674451172 -0.1969038546 0.5092798471 4291194179
-0.2670855522 -0.1960745752 0.5085951686 4291325765
-0.2671657205 -0.1955686957 0.5087478161 4291195210
-0.2668054402 -0.1947410107 0.5080618262 4291195210
-0.2668851614 -0.1942350417 0.5082135797 4291129677
-0.2665241957 -0.1934089512 0.5075262189 4291195470
-0.2666034400 -0.1929029375 0.5076771379 4290998344
-0.2662417591 -0.1920784414 0.5069883466 4291129930
-0.2663205564 -0.1915723532 0.5071384311 4291130187
-0.2659581304 -0.1907494813 0.5064483285 4291261773
-0.2660365105 -0.1902433336 0.5065975189 4291328338
-0.2661146820 -0.1897367388 0.5067464113 4291328338
-0.2657512724 -0.1889158934 0.5060544014 4290803022
-0.2653874457 -0.1880962700 0.5053615570 4290408264
-0.2654648721 -0.1875900179 0.5055090189 4290737229
-0.2655421495 -0.1870833337 0.5056561828 4290737229
-0.2656192780 -0.1865762025 0.5058030486 4290735946
-0.2656962276 -0.1860686392 0.5059495568 4290670153
-0.2657730281 -0.1855606139 0.5060958266 4290866505
-0.2654072940 -0.1847442538 0.5053993464 4290734919
-0.2654836178 -0.1842362136 0.5055447221 4290537540
-0.2655597925 -0.1837277263 0.5056897402 4290208575
-0.2651930451 -0.1829134375 0.5049914122 4290338100
-0.2652687430 -0.1824049354 0.5051355362 4290074928
-0.2653442919 -0.1818959862 0.5052793622 4290073639
-0.2654196620 -0.1813866198 0.5054228902 4289744674
-0.2654948533 -0.1808768064 0.5055660605 4289874201
-0.2651265264 -0.1800654382 0.5048646927 4289742615
-0.2647577524 -0.1792553663 0.5041624904 4289742869
-0.2648321986 -0.1787459552 0.5043042302 4289677076
-0.2653501928 -0.1785346866 0.5052906275 4289414421
-0.2654244304 -0.1780235618 0.5054320097 4289282835
-0.2654984593 -0.1775120199 0.5055729747 4289283094
-0.2655723393 -0.1770000607 0.5057136416 4289414680
-0.2660902739 -0.1767827868 0.5066999197 4289480214
-0.2661639154 -0.1762691140 0.5068401694 4289480214
-0.2662374079 -0.1757550091 0.5069801211 4289676822
-0.2663107216 -0.1752404720 0.5071197152 4289808408
-0.2663838267 -0.1747255176 0.5072589517 4289743385
-0.2669016421 -0.1745009720 0.5082449317 4289611799
-0.2665295899 -0.1736943275 0.5075364709 4289545236
-0.2666021883 -0.1731781065 0.5076746941 4289479443
-0.2671197951 -0.1729497015 0.5086603761 4289348627
-0.2671921849 -0.1724317819 0.5087982416 4289282834
-0.2668189406 -0.1716268957 0.5080874562 4289085969
-0.2668908238 -0.1711089909 0.5082243681 4289020176
-0.2669625282 -0.1705906689 0.5083609223 4289020176
-0.2674798667 -0.1703558564 0.5093460679 4288888590
-0.2675513327 -0.1698358357 0.5094821453 4288888590
-0.2676226497 -0.1693153828 0.5096179247 4288888590
-0.2676937580 -0.1687945276 0.5097533464 4288888336
-0.2677646875 -0.1682732552 0.5098884106 4288888336
-0.2678354383 -0.1677515805 0.5100231171 4288823313
-0.2679060102 -0.1672294736 0.5101575255 4288757520
-0.2684230208 -0.1669848114 0.5111420155 4288823315
-0.2684933245 -0.1664610207 0.5112759471 4288823315
-0.2690103054 -0.1662129164 0.5122603774 4288691986
-0.2695273757 -0.1659626514 0.5132449865 4288691986
-0.2691502571 -0.1651615202 0.5125268698 4288626193
-0.2687727511 -0.1643617451 0.5118079782 4288626193
-0.2692894638 -0.1641084999 0.5127919316 4288560400
-0.2702536583 -0.1641248465 0.5146279931 4288560400
-0.2703230083 -0.1635955572 0.5147600770 4288626195
-0.2703921795 -0.1630658656 0.5148918033 4288560402
-0.2709089518 -0.1628048718 0.5158758759 4288560913
-0.2709778547 -0.1622734964 0.5160070658 4288560913
-0.2714945972 -0.1620090455 0.5169910789 4288495120
-0.2711151242 -0.1612095237 0.5162684321 4288495120
-0.2711834311 -0.1606769264 0.5163985491 4288495122
-0.2716999352 -0.1604086310 0.5173820853 4288429329
-0.2722164690 -0.1601381749 0.5183656812 4288364051
-0.2722844481 -0.1596026123 0.5184951425 4288429844
-0.2723522186 -0.1590666622 0.5186241865 4288429844
-0.2724198103 -0.1585302949 0.5187529325 4288298258
-0.2729361355 -0.1582538188 0.5197361112 4288166672
-0.2730034292 -0.1577157825 0.5198642612 4288035086
-0.2735196948 -0.1574358642 0.5208473206 4288035599
-0.2735867202 -0.1568961293 0.5209749341 4288101392
-0.2741028965 -0.1566127539 0.5219578743 4287969552
-0.2741696537 -0.1560713649 0.5220850110 4287969552
-0.2746857405 -0.1557845324 0.5230677724 4287772943
-0.2752018869 -0.1554955244 0.5240506530 4287772943
-0.2757180333 -0.1552043557 0.5250334740 4287772945
-0.2762342095 -0.1549110115 0.5260164142 4287772945
-0.2767503858 -0.1546154767 0.5269992948 4287772945
-0.2777166665 -0.1545682997 0.5288394094 4287838738
-0.2773325443 -0.1537682861 0.5281079412 4287773204
-0.2769480050 -0.1529696733 0.5273756385 4287773204
-0.2783647478 -0.1531637907 0.5300735235 4287708181
-0.2788808644 -0.1528582871 0.5310562849 4287708181
-0.2784957290 -0.1520584971 0.5303228498 4287511315
-0.2799131274 -0.1522407234 0.5330219865 4287445522
-0.2808800936 -0.1521729231 0.5348632932 4287642388
-0.2813963294 -0.1518577933 0.5358463526 4287708181
-0.2819125652 -0.1515404731 0.5368294120 4287838997
-0.2824288011 -0.1512209773 0.5378124118 4287904790
-0.2829450369 -0.1508992910 0.5387954116 4287773206
-0.2839126289 -0.1508152038 0.5406379700 4287575827
-0.2848803997 -0.1507271230 0.5424808860 4287248402
-0.2858484089 -0.1506350487 0.5443241596 4287248402
-0.2863648832 -0.1503019184 0.5453076959 4286921747
-0.2886885107 -0.1509112716 0.5497324467 4286987540
-0.2896572948 -0.1508054137 0.5515772104 4286595098
-0.2919821739 -0.1513986439 0.5560043454 4287055649
-0.2934690714 -0.1509289593 0.5588357449 4287581483
-0.2948910296 -0.1510369331 0.5615435243 4286731073
-0.2958610058 -0.1509083509 0.5633905530 4287717968
-0.2700335085 -0.2055224478 0.5152974129 4290271018
-0.2696790397 -0.2046814114 0.5146209598 4290139945
-0.2693241239 -0.2038415372 0.5139437318 4290074152
-0.2689687908 -0.2030028552 0.5132656693 4290074152
-0.2686952055 -0.2016580254 0.5127435327 4290008357
-0.2683387399 -0.2008220851 0.5120633245 4290205736
-0.2679818273 -0.1999873370 0.5113822222 4290402858
-0.2680632472 -0.1994802505 0.5115376115 4290666030
-0.2677056491 -0.1986470670 0.5108551979 4290863670
-0.2677865922 -0.1981399059 0.5110096931 4291192635
-0.2669891715 -0.1969843060 0.5094879270 4290996800
-0.2666302919 -0.1961547434 0.5088031292 4290865214
-0.2667103708 -0.1956487000 0.5089559555 4290734661
-0.2663507760 -0.1948207170 0.5082697868 4290800454
-0.2664304376 -0.1943145990 0.5084217191 4290734406
-0.2660701275 -0.1934882104 0.5077341795 4290668613
-0.2661493123 -0.1929820329 0.5078852773 4290338872
-0.2657882869 -0.1921572536 0.5071963668 4290667837
-0.2658670247 -0.1916510016 0.5073466301 4290668094
-0.2659456134 -0.1911443025 0.5074965954 4290799680
-0.2655836046 -0.1903215349 0.5068057775 4290735170
-0.2652211487 -0.1894999892 0.5061141253 4290537791
-0.2648582757 -0.1886796802 0.5054216981 4290275650
-0.2649358213 -0.1881737262 0.5055696368 4290209857
-0.2650132179 -0.1876673102 0.5057172775 4290868045
-0.2650904059 -0.1871604621 0.5058646202 4291131217
-0.2651674747 -0.1866531670 0.5060116649 4291196497
-0.2652443647 -0.1861454248 0.5061584115 4291130704
-0.2653210759 -0.1856372505 0.5063048005 4291064913
-0.2649560273 -0.1848205924 0.5056082010 4290933327
-0.2650322914 -0.1843123734 0.5057536960 4290670157
-0.2651083767 -0.1838037372 0.5058989525 4290341192
-0.2651843131 -0.1832946390 0.5060438514 4290732860
-0.2652600706 -0.1827851236 0.5061883926 4290403895
-0.2648934424 -0.1819713712 0.5054887533 4290205227
-0.2649687529 -0.1814618111 0.5056324601 4289810469
-0.2650438845 -0.1809518337 0.5057758093 4289874202
-0.2646762431 -0.1801401824 0.5050742626 4289742616
-0.2643081844 -0.1793298125 0.5043718815 4289676822
-0.2643825412 -0.1788202375 0.5045138001 4289611029
-0.2648997307 -0.1786089092 0.5055007339 4289414421
-0.2649738789 -0.1780976206 0.5056422353 4289217042
-0.2650478482 -0.1775859147 0.5057834387 4289217303
-0.2651216686 -0.1770737767 0.5059242845 4289348889
-0.2651953101 -0.1765612066 0.5060648322 4289348374
-0.2657123804 -0.1763426065 0.5070514679 4289348374
-0.2657857835 -0.1758283228 0.5071915984 4289676823
-0.2658590376 -0.1753136218 0.5073313713 4289874202
-0.2659321129 -0.1747984886 0.5074707866 4289874202
-0.2660049796 -0.1742829233 0.5076099038 4289676823
-0.2660776973 -0.1737669557 0.5077486634 4289479444
-0.2661502659 -0.1732505411 0.5078870654 4289413651
-0.2666670680 -0.1730220914 0.5088732839 4289347858
-0.2662948072 -0.1722164750 0.5081629157 4289282065
-0.2663668096 -0.1716988087 0.5083003640 4289085456
-0.2664386332 -0.1711807251 0.5084373951 4288953870
-0.2665103078 -0.1706622243 0.5085741282 4288888336
-0.2665817738 -0.1701433063 0.5087105632 4288822543
-0.2666530609 -0.1696239710 0.5088465810 4288756750
-0.2667241693 -0.1691042036 0.5089823008 4288756750
-0.2667950988 -0.1685840338 0.5091176629 4288756750
-0.2673113942 -0.1683440357 0.5101028681 4288822543
-0.2673820853 -0.1678221673 0.5102377534 4288757522
-0.2674525678 -0.1672998816 0.5103722811 4288757522
-0.2675229013 -0.1667771935 0.5105064511 4288691986
-0.2680390477 -0.1665311754 0.5114914179 4288626193
-0.2681091130 -0.1660067886 0.5116251111 4288560400
-0.2681789994 -0.1654819846 0.5117585063 4288560400
-0.2682487071 -0.1649567783 0.5118914843 4288560400
-0.2692111135 -0.1649783403 0.5137280822 4288560400
-0.2692806721 -0.1644505709 0.5138608217 4288626195
-0.2693500519 -0.1639223844 0.5139932036 4288691988
-0.2698660493 -0.1636647582 0.5149778128 4288495122
-0.2699351609 -0.1631348729 0.5151097178 4288495122
-0.2700040936 -0.1626045853 0.5152412653 4288495122
-0.2700728178 -0.1620738953 0.5153723955 4288495122
-0.2705886066 -0.1618102640 0.5163567066 4288364050
-0.2706570923 -0.1612778753 0.5164873600 4288364050
-0.2711728513 -0.1610107869 0.5174715519 4288364051
-0.2707934380 -0.1602119058 0.5167475939 4288298258
-0.2713090479 -0.1599422544 0.5177314878 4288364051
-0.2718246877 -0.1596704274 0.5187154412 4288429844
-0.2718923986 -0.1591342837 0.5188446641 4288429844
-0.2719599307 -0.1585977226 0.5189735293 4288298258
-0.2720272839 -0.1580607742 0.5191020370 4288101392
-0.2725426853 -0.1577829272 0.5200855732 4288035599
-0.2726097405 -0.1572442949 0.5202135444 4288035345
-0.2731250823 -0.1569630057 0.5211969614 4288101138
-0.2731918693 -0.1564226896 0.5213243961 4287969552
-0.2732584476 -0.1558819711 0.5214514732 4287903759
-0.2737736404 -0.1555959433 0.5224345922 4287772943
-0.2738399208 -0.1550535560 0.5225610733 4287772943
-0.2743550539 -0.1547640711 0.5235440731 4287772945
-0.2748701870 -0.1544724107 0.5245270729 4287772945
-0.2753853202 -0.1541785747 0.5255101323 4287772945
-0.2759004831 -0.1538825631 0.5264931917 4287838738
-0.2768651247 -0.1538341045 0.5283339620 4287576593
-0.2773804069 -0.1535328478 0.5293172598 4287642386
-0.2787950337 -0.1537253112 0.5320167542 4287708179
-0.2784110010 -0.1529238075 0.5312839150 4287642386
-0.2793762088 -0.1528621614 0.5331257582 4287510800
-0.2798916101 -0.1525512934 0.5341093540 4287510800
-0.2804070413 -0.1522382349 0.5350928903 4287576595
-0.2813726366 -0.1521664709 0.5369355679 4287576595
-0.2818881869 -0.1518481523 0.5379193425 4287838484
-0.2824037075 -0.1515276581 0.5389030576 4287772691
-0.2815676928 -0.1504826397 0.5373077393 4287706898
-0.2834347188 -0.1508800834 0.5408705473 4287509519
-0.2839502394 -0.1505530179 0.5418542624 4287182350
-0.2849165499 -0.1504618376 0.5436982512 4287182350
-0.2854321301 -0.1501294971 0.5446821451 4286855441
-0.2863987088 -0.1500312388 0.5465266705 4287052820
-0.2878166437 -0.1501643360 0.5492324233 4286856982
-0.2887836993 -0.1500571817 0.5510778427 4287251740
-0.2902022898 -0.1501795799 0.5537849069 4287186724
-0.2929755449 -0.1509941220 0.5590770245 4287647275
-0.2939436436 -0.1508704275 0.5609244704 4286665019
-0.2953635752 -0.1509735584 0.5636340380 4286730812
-0.2725450695 -0.2084526271 0.5211935043 4289942053
-0.2713186741 -0.2069386989 0.5188483000 4290073639
-0.2696543038 -0.2050968260 0.5156654716 4290008359
-0.2706117332 -0.2052506059 0.5174963474 4289942566
-0.2685083747 -0.2030852884 0.5134740472 4289943336
-0.2681532800 -0.2022475004 0.5127950311 4289877543
-0.2682353854 -0.2017400116 0.5129519701 4290008359
-0.2678795755 -0.2009037733 0.5122715831 4290139945
-0.2675233781 -0.2000687420 0.5115904212 4290533931
-0.2676047087 -0.1995615065 0.5117459893 4290731310
-0.2672477663 -0.1987280399 0.5110633969 4290797362
-0.2668904364 -0.1978957653 0.5103800297 4291126327
-0.2669710219 -0.1973888129 0.5105341673 4290667835
-0.2661744356 -0.1962348223 0.5090108514 4290470456
-0.2662544847 -0.1957286298 0.5091638565 4290405696
-0.2658955753 -0.1949003637 0.5084775090 4290603075
-0.2659751177 -0.1943940818 0.5086296797 4290668098
-0.2651764750 -0.1932474673 0.5071024299 4290536512
-0.2648163140 -0.1924228370 0.5064136386 4290403897
-0.2653343081 -0.1922359914 0.5074042082 4290601276
-0.2649735510 -0.1914121509 0.5067143440 4290207286
-0.2650519311 -0.1909061223 0.5068641901 4290338872
-0.2651301324 -0.1903996617 0.5070137978 4290404924
-0.2652081847 -0.1898927391 0.5071630478 4290273338
-0.2648461461 -0.1890712976 0.5064706802 4290340673
-0.2644836605 -0.1882510930 0.5057775378 4290538052
-0.2645609677 -0.1877445281 0.5059253573 4291130706
-0.2646381259 -0.1872375160 0.5060728788 4291591257
-0.2642746568 -0.1864193529 0.5053778291 4291591516
-0.2643513381 -0.1859122962 0.5055244565 4291394137
-0.2644278705 -0.1854047924 0.5056707859 4291262553
-0.2645042241 -0.1848968565 0.5058168173 4291196760
-0.2645803988 -0.1843884736 0.5059625506 4290999128
-0.2646564245 -0.1838796586 0.5061079264 4290670163
-0.2642910779 -0.1830647886 0.5054092407 4291061825
-0.2643666565 -0.1825559437 0.5055537820 4290601274
-0.2644420564 -0.1820466667 0.5056979656 4290271020
-0.2640756667 -0.1812338829 0.5049973130 4289744676
-0.2637835443 -0.1799135059 0.5044386983 4289676823
-0.2638580203 -0.1794041842 0.5045810938 4289742358
-0.2639323175 -0.1788944453 0.5047231913 4289610772
-0.2640064657 -0.1783842742 0.5048649907 4289479960
-0.2640804350 -0.1778736711 0.5050064325 4289216788
-0.2645967007 -0.1776597351 0.5059936643 4289151510
-0.2646704316 -0.1771474183 0.5061346889 4289217303
-0.2647440135 -0.1766346842 0.5062754154 4289282583
-0.2652602494 -0.1764160246 0.5072626472 4289282583
-0.2653336227 -0.1759015769 0.5074028969 4289676823
-0.2649637163 -0.1750939041 0.5066955090 4289808409
-0.2650365829 -0.1745794564 0.5068349242 4289677339
-0.2651093006 -0.1740645766 0.5069739223 4289479960
-0.2656252682 -0.1738395095 0.5079606771 4289479446
-0.2652541995 -0.1730335653 0.5072510242 4289347860
-0.2657700479 -0.1728059202 0.5082375407 4289085202
-0.2653983831 -0.1720008701 0.5075267553 4289085202
-0.2659141421 -0.1717706621 0.5085130334 4289019924
-0.2655418515 -0.1709665060 0.5078011155 4288888338
-0.2660574913 -0.1707337201 0.5087872148 4288691729
-0.2661288977 -0.1702146083 0.5089237690 4288691729
-0.2662001252 -0.1696950942 0.5090599656 4288625682
-0.2662712038 -0.1691751629 0.5091958642 4288559889
-0.2663420737 -0.1686548144 0.5093314052 4288559889
-0.2668575048 -0.1684147418 0.5103170872 4288625682
-0.2664832771 -0.1676128656 0.5096014142 4288626195
-0.2669985890 -0.1673702300 0.5105868578 4288691988
-0.2675139606 -0.1671254337 0.5115724206 4288560402
-0.2675841749 -0.1666012704 0.5117067099 4288494609
-0.2676541805 -0.1660766900 0.5118405819 4288494607
-0.2681694627 -0.1658271700 0.5128259659 4288494607
-0.2677936554 -0.1650263071 0.5121073127 4288494607
-0.2678631246 -0.1645005047 0.5122401118 4288560400
-0.2683781981 -0.1642471254 0.5132251382 4288560915
-0.2688933313 -0.1639915854 0.5142102242 4288626708
-0.2694084942 -0.1637338996 0.5151953697 4288429074
-0.2694775462 -0.1632038206 0.5153274536 4288494867
-0.2695464194 -0.1626733541 0.5154591203 4288298258
-0.2696150839 -0.1621424705 0.5155904889 4288298258
-0.2701300681 -0.1618787497 0.5165752769 4288298258
-0.2701984942 -0.1613461822 0.5167061090 4288298258
-0.2707134187 -0.1610790193 0.5176908374 4288232724
-0.2703347206 -0.1602798402 0.5169666409 4288298517
-0.2708494961 -0.1600100994 0.5179510713 4288298771
-0.2709172666 -0.1594750285 0.5180806518 4288364564
-0.2714319825 -0.1592018455 0.5190649629 4288364564
-0.2714994848 -0.1586650908 0.5191940069 4288232978
-0.2715667486 -0.1581279486 0.5193226933 4288167185
-0.2720813453 -0.1578500271 0.5203067660 4288035599
-0.2721483409 -0.1573111862 0.5204348564 4287969552
-0.2722151577 -0.1567719579 0.5205626488 4288035345
-0.2727296054 -0.1564892977 0.5215464234 4287772943
-0.2727961242 -0.1559483856 0.5216736197 4287838736
-0.2728624642 -0.1554070860 0.5218004584 4287838738
-0.2733767331 -0.1551196724 0.5227839351 4287838738
-0.2738910317 -0.1548300982 0.5237674713 4287838738
-0.2744053602 -0.1545383483 0.5247510076 4287838738
-0.2749196887 -0.1542444229 0.5257345438 4287772945
-0.2754340470 -0.1539483070 0.5267181396 4287772945
-0.2759484053 -0.1536500305 0.5277017951 4287445259
-0.2764627635 -0.1533495635 0.5286853909 4287576845
-0.2769771218 -0.1530469358 0.5296690464 4287708431
-0.2774915099 -0.1527421176 0.5306527019 4287642638
-0.2780058980 -0.1524351090 0.5316364169 4287445261
-0.2785202861 -0.1521259397 0.5326200724 4287511054
-0.2794840336 -0.1520590335 0.5344630480 4287707663
-0.2799985111 -0.1517445892 0.5354469419 4287641870
-0.2805130184 -0.1514279693 0.5364308357 4287641357
-0.2819268107 -0.1515927017 0.5391344428 4287707150
-0.2824415267 -0.1512698978 0.5401186943 4287772175
-0.2829562128 -0.1509449184 0.5411029458 4287706382
-0.2839208543 -0.1508568227 0.5429476500 4287313421
-0.2848857045 -0.1507647187 0.5447927713 4287181835
-0.2858507335 -0.1506686360 0.5466381907 4286920716
-0.2868159413 -0.1505685598 0.5484840274 4287052302
-0.2855295539 -0.1492871344 0.5460240245 4286724881
-0.2878460288 -0.1498872638 0.5504539013 4287185432
-0.2892621756 -0.1500106454 0.5531619787 4287055649
-0.2906787097 -0.1501282156 0.5558708310 4287581993
-0.2916448414 -0.1500081122 0.5577184558 4286993469
-0.2930620313 -0.1501149386 0.5604285598 4286861883
-0.2729489207 -0.2092053294 0.5230755210 4290335273
-0.2730334401 -0.2086893022 0.5232375264 4290269480
-0.2709363699 -0.2065100819 0.5192186832 4290007587
-0.2697106302 -0.2050020695 0.5168697238 4290139173
-0.2684839368 -0.2034985423 0.5145189166 4290204968
-0.2681296766 -0.2026596367 0.5138400197 4290139175
-0.2673381567 -0.2014926970 0.5123231411 4290074152
-0.2669829130 -0.2006569952 0.5116423368 4290205738
-0.2670643330 -0.2001500726 0.5117983818 4290141744
-0.2667083740 -0.1993159354 0.5111162066 4290404916
-0.2663519979 -0.1984830052 0.5104332566 4290733628
-0.2664326727 -0.1979763508 0.5105878711 4290667835
-0.2660755813 -0.1971450001 0.5099035501 4290602044
-0.2657180727 -0.1963148415 0.5092183948 4290404665
-0.2653601170 -0.1954859048 0.5085324645 4290535481
-0.2650017738 -0.1946581751 0.5078456998 4290469688
-0.2650811374 -0.1941525787 0.5079978108 4290469690
-0.2651603222 -0.1936465204 0.5081496239 4290403897
-0.2648009658 -0.1928207874 0.5074609518 4290404147
-0.2644411922 -0.1919962615 0.5067714453 4290404147
-0.2645196617 -0.1914905310 0.5069218278 4290403893
-0.2641591728 -0.1906676143 0.5062309504 4290469686
-0.2642371953 -0.1901618242 0.5063804984 4290469690
-0.2643150389 -0.1896555871 0.5065296888 4290469690
-0.2639535367 -0.1888346970 0.5058369040 4290602305
-0.2640309334 -0.1883284152 0.5059852600 4291326028
-0.2641081810 -0.1878216714 0.5061332583 4291460184
-0.2641852498 -0.1873144954 0.5062809587 4291986528
-0.2638224661 -0.1864960492 0.5055857301 4291724644
-0.2638990879 -0.1859888285 0.5057325363 4291527265
-0.2639755607 -0.1854811609 0.5058791041 4291461473
-0.2636117637 -0.1846647710 0.5051819086 4291329887
-0.2636877596 -0.1841570735 0.5053275824 4291263581
-0.2637635767 -0.1836489439 0.5054728985 4291329374
-0.2638392448 -0.1831403673 0.5056179166 4291393112
-0.2639147639 -0.1826313585 0.5057625771 4290537803
-0.2635493577 -0.1818178594 0.5050623417 4290272311
-0.2636243999 -0.1813088357 0.5052061677 4289680174
-0.2636992931 -0.1807993650 0.5053496361 4289480475
-0.2637739778 -0.1802894771 0.5054928064 4289348889
-0.2634072900 -0.1794785112 0.5047901273 4289611030
-0.2634815574 -0.1789685935 0.5049324036 4289545237
-0.2635556161 -0.1784582585 0.5050743222 4289545239
-0.2636295259 -0.1779474765 0.5052159429 4289413653
-0.2637032568 -0.1774362773 0.5053572655 4289216788
-0.2637768090 -0.1769246608 0.5054982305 4289216788
-0.2642921507 -0.1767081022 0.5064858198 4289282581
-0.2643654943 -0.1761947572 0.5066263676 4289348374
-0.2644386590 -0.1756809801 0.5067666173 4289479962
-0.2649539709 -0.1754597127 0.5077541471 4289677341
-0.2645844817 -0.1746521741 0.5070460439 4289676825
-0.2650996745 -0.1744283289 0.5080333948 4289676825
-0.2651722729 -0.1739120036 0.5081725121 4289414169
-0.2648018897 -0.1731057614 0.5074626803 4289282583
-0.2653169334 -0.1728780717 0.5084496737 4289150997
-0.2653889954 -0.1723604649 0.5085877776 4288953618
-0.2650177181 -0.1715555638 0.5078762770 4288756752
-0.2650893033 -0.1710379869 0.5080134869 4288690959
-0.2651607096 -0.1705199927 0.5081502795 4288756754
-0.2656754553 -0.1702858657 0.5091367960 4288756754
-0.2657466233 -0.1697661728 0.5092731714 4288559889
-0.2658176422 -0.1692460477 0.5094092488 4288625682
-0.2654445469 -0.1684438437 0.5086942911 4288691475
-0.2659590840 -0.1682045758 0.5096802711 4288625682
-0.2664736509 -0.1679631621 0.5106664300 4288560402
-0.2665440142 -0.1674405038 0.5108013153 4288626195
-0.2670585811 -0.1671956480 0.5117873549 4288560402
-0.2671287358 -0.1666713059 0.5119218230 4288428816
-0.2671986818 -0.1661465466 0.5120558739 4288428816
-0.2677131593 -0.1658969522 0.5130417943 4288428816
-0.2677828372 -0.1653704941 0.5131753683 4288297743
-0.2674074173 -0.1645698100 0.5124558806 4288429329
-0.2683667541 -0.1645893008 0.5142943263 4288626708
-0.2679908276 -0.1637886763 0.5135739446 4288626708
-0.2689503431 -0.1638029665 0.5154127479 4288560660
-0.2694647610 -0.1635430306 0.5163984895 4288363281
-0.2695336640 -0.1630114913 0.5165305734 4288363281
-0.2696023881 -0.1624795496 0.5166622996 4288363281
-0.2696709335 -0.1619471908 0.5167936683 4288166672
-0.2701851428 -0.1616812348 0.5177790523 4288232465
-0.2698074579 -0.1608812660 0.5170552731 4288364051
-0.2703214884 -0.1606127322 0.5180403590 4288364051
-0.2703893781 -0.1600778848 0.5181704760 4288364051
-0.2709033787 -0.1598058939 0.5191555023 4288429844
-0.2709710002 -0.1592693478 0.5192850828 4288364051
-0.2710384130 -0.1587324142 0.5194143057 4288232465
-0.2715522945 -0.1584556848 0.5203990340 4288101392
-0.2716194093 -0.1579170525 0.5205277205 4288167185
-0.2716863751 -0.1573780328 0.5206559896 4288166931
-0.2717531323 -0.1568385959 0.5207839012 4288101138
-0.2722667456 -0.1565558463 0.5217682123 4288035345
-0.2723332047 -0.1560147405 0.5218955874 4287969552
-0.2728467584 -0.1557285339 0.5228797793 4287838736
-0.2729129493 -0.1551857442 0.5230066180 4287838736
-0.2734264433 -0.1548960805 0.5239906311 4287772943
-0.2739399374 -0.1546042264 0.5249747038 4287772943
-0.2744534612 -0.1543102115 0.5259587765 4287772943
-0.2754148245 -0.1542648524 0.5278011560 4287838736
-0.2750325799 -0.1534656882 0.5270686746 4287641616
-0.2750979960 -0.1529169679 0.5271939635 4287641616
-0.2765076458 -0.1531123370 0.5298954248 4287904788
-0.2770211995 -0.1528074145 0.5308796167 4287838995
-0.2770864069 -0.1522539556 0.5310045481 4287575823
-0.2780483365 -0.1521910429 0.5328480005 4287575823
