VERSION 0.7
FIELDS x y z rgba
SIZE 4 4 4 4
TYPE F F F U
COUNT 1 1 1 1
WIDTH 920
HEIGHT 1
VIEWPOINT 0.0 0.0 0.0 1.0 0.0 0.0 0.0
POINTS 920
DATA ascii
-0.2429709435 -0.1897865683 0.5053812265 4288888085
-0.2430446893 -0.1892829984 0.5055345893 4288888085
-0.2427075952 -0.1884600967 0.5048334599 4288757269
-0.2427809089 -0.1879564673 0.5049859285 4288691476
-0.2428540736 -0.1874523759 0.5051380992 4288757269
-0.2421049923 -0.1863151938 0.5035800338 4288625683
-0.2421775907 -0.1858118922 0.5037310123 4288494099
-0.2422500402 -0.1853081584 0.5038817525 4288362513
-0.2423223406 -0.1848039627 0.5040321350 4288296977
-0.2423944920 -0.1842993200 0.5041821599 4288296977
-0.2424664795 -0.1837942302 0.5043319464 4288296977
-0.2425383180 -0.1832886934 0.5044813156 4288296977
-0.2426099926 -0.1827826947 0.5046304464 4288362772
-0.2426815182 -0.1822762638 0.5047792196 4288362772
-0.2427528948 -0.1817693710 0.5049276352 4288362772
-0.2428240925 -0.1812620312 0.5050757527 4288296979
-0.2428951561 -0.1807542592 0.5052235723 4288231699
-0.2433785498 -0.1805520505 0.5062290430 4288165906
-0.2430367768 -0.1797373593 0.5055181384 4288165906
-0.2431073636 -0.1792282462 0.5056649446 4288165906
-0.2435906380 -0.1790221184 0.5066701770 4288034320
-0.2432480305 -0.1782086939 0.5059575438 4288034320
-0.2433181405 -0.1776982546 0.5061033964 4287968527
-0.2433880717 -0.1771873683 0.5062488317 4287902734
-0.2434578538 -0.1766760498 0.5063939691 4287902734
-0.2435274571 -0.1761642843 0.5065387487 4287902734
-0.2435969114 -0.1756520867 0.5066832304 4287771662
-0.2436662018 -0.1751394421 0.5068273544 4287771662
-0.2433215082 -0.1743298918 0.5061103702 4287968012
-0.2433903515 -0.1738172472 0.5062536001 4287968012
-0.2434590310 -0.1733041853 0.5063964725 4288099598
-0.2435275465 -0.1727906764 0.5065389276 4288099598
-0.2435958982 -0.1722767353 0.5066811442 4288033805
-0.2436640859 -0.1717623621 0.5068229437 4288033805
-0.2433175892 -0.1709563136 0.5061022639 4288099598
-0.2433853298 -0.1704419553 0.5062431693 4288033805
-0.2434529066 -0.1699271649 0.5063837171 4288033805
-0.2435203046 -0.1694119573 0.5065239072 4288033805
-0.2435875386 -0.1688963175 0.5066637397 4288033805
-0.2432395220 -0.1680933982 0.5059398413 4287968012
-0.2437215149 -0.1678637415 0.5069423914 4287968014
-0.2433729321 -0.1670617312 0.5062173605 4287902221
-0.2430239469 -0.1662610620 0.5054914355 4287771148
-0.2430901080 -0.1657450646 0.5056290627 4287771148
-0.2431561053 -0.1652286351 0.5057663321 4287442183
-0.2432219386 -0.1647117883 0.5059032440 4287376390
-0.2432875931 -0.1641945243 0.5060397983 4287376904
-0.2433530688 -0.1636768430 0.5061760545 4287508490
-0.2434183806 -0.1631587446 0.5063118935 4287574283
-0.2434835136 -0.1626402289 0.5064473748 4287574283
-0.2435484827 -0.1621212959 0.5065824986 4287574285
-0.2436132729 -0.1616019458 0.5067172647 4287442699
-0.2436778992 -0.1610821784 0.5068516731 4287179527
-0.2437423319 -0.1605620086 0.5069857240 4287113734
-0.2438066155 -0.1600414217 0.5071194172 4287179527
-0.2438707054 -0.1595204175 0.5072526932 4287245320
-0.2439346164 -0.1589990109 0.5073856711 4287245320
-0.2439983636 -0.1584772021 0.5075182319 4287311113
-0.2440619320 -0.1579549760 0.5076504946 4287376906
-0.2441253215 -0.1574323326 0.5077823400 4287442699
-0.2441885322 -0.1569093019 0.5079138279 4287443212
-0.2442515641 -0.1563858539 0.5080448985 4287443212
-0.2443144321 -0.1558620036 0.5081756711 4287443212
-0.2447948456 -0.1556032747 0.5091749430 4287377419
-0.2448574454 -0.1550777256 0.5093051195 4287311626
-0.2445019186 -0.1542880237 0.5085656643 4287311626
-0.2445640564 -0.1537625641 0.5086948872 4287311626
-0.2450441867 -0.1534986347 0.5096935630 4287311626
-0.2451060563 -0.1529714763 0.5098222494 4287245833
-0.2460045069 -0.1529642045 0.5116910338 4287311626
-0.2456477582 -0.1521752030 0.5109490156 4287180556
-0.2461277843 -0.1519042850 0.5119474530 4287180556
-0.2461891472 -0.1513737440 0.5120750666 4287246349
-0.2466691136 -0.1510993242 0.5130734444 4287114763
-0.2467302084 -0.1505670696 0.5132005215 4287048970
-0.2472101152 -0.1502891481 0.5141987205 4286983177
-0.2472709417 -0.1497552097 0.5143252611 4287049222
-0.2473315895 -0.1492208689 0.5144513845 4286983429
-0.2473920435 -0.1486861408 0.5145770907 4286983688
-0.2478717119 -0.1484021246 0.5155748725 4287049481
-0.2483514100 -0.1481159031 0.5165725946 4287115274
-0.2492507249 -0.1480767578 0.5184432268 4287181067
-0.2497305423 -0.1477852166 0.5194412470 4287181837
-0.2502103746 -0.1474914551 0.5204392672 4287181837
-0.2511101365 -0.1474420428 0.5223107934 4286985745
-0.2524301112 -0.1476342529 0.5250563622 4287117331
-0.2516499162 -0.1465969235 0.5234335065 4287052829
-0.2529702187 -0.1467819661 0.5261797309 4287316001
-0.2547112107 -0.1472040564 0.5298010707 4287185705
-0.2539303303 -0.1461664736 0.5281768441 4287448877
-0.2548309267 -0.1460964829 0.5300500393 4287515698
-0.2574141324 -0.1469831169 0.5354231596 4287647284
-0.2566326559 -0.1459443569 0.5337976217 4287648313
-0.2579546273 -0.1461005509 0.5365473628 4287516727
-0.2588560581 -0.1460134387 0.5384223461 4287386945
-0.2601786852 -0.1461587697 0.5411733985 4287650117
-0.2602383792 -0.1455914527 0.5412976146 4287782480
-0.2653522193 -0.1478397399 0.5519344211 4287979859
-0.2641488016 -0.1465593576 0.5494313240 4288243802
-0.2637873888 -0.1457497627 0.5486795306 4288901732
-0.2667973936 -0.1467968822 0.5549404025 4288312687
-0.2685438097 -0.1471377462 0.5585729480 4289233789
-0.2786825597 -0.2323732972 0.5810022950 4290288535
-0.2787714899 -0.2318022996 0.5811877251 4289104261
-0.2780460715 -0.2305556387 0.5796753168 4291000417
-0.2769127190 -0.2289750427 0.5773125291 4290145108
-0.2761858106 -0.2277348042 0.5757970810 4290142782
-0.2750507295 -0.2261623144 0.5734306574 4289813817
-0.2726919055 -0.2235916704 0.5685128570 4290139694
-0.2605456114 -0.2130294442 0.5431900620 4289942315
-0.2606274784 -0.2124932408 0.5433607697 4289744164
-0.2545892894 -0.2069810331 0.5307722092 4289480992
-0.2493633330 -0.2021552473 0.5198770761 4289743645
-0.2494411916 -0.2016410977 0.5200393796 4289677852
-0.2478853762 -0.1998097599 0.5167958140 4289677339
-0.2471454144 -0.1986413449 0.5152531266 4289611546
-0.2464047819 -0.1974758357 0.5137090087 4289479964
-0.2452547550 -0.1959865838 0.5113114119 4289414171
-0.2449215651 -0.1951535344 0.5106167793 4289283094
-0.2441789806 -0.1939967573 0.5090686679 4289217301
-0.2438448817 -0.1931670010 0.5083720684 4289283098
-0.2435103655 -0.1923384666 0.5076746941 4289151512
-0.2431754619 -0.1915111840 0.5069764853 4289151257
-0.2428401560 -0.1906851232 0.5062774420 4289151257
-0.2429140806 -0.1901810169 0.5064315796 4289019671
-0.2425781041 -0.1893565804 0.5057311058 4288953878
-0.2422417253 -0.1885333955 0.5050297976 4288823062
-0.2423149496 -0.1880296171 0.5051824450 4288823062
-0.2423880249 -0.1875253767 0.5053347945 4288888857
-0.2420506924 -0.1867042333 0.5046315193 4288757271
-0.2417129576 -0.1858843416 0.5039274096 4288494358
-0.2417853326 -0.1853804588 0.5040783286 4288296979
-0.2418575436 -0.1848761141 0.5042288899 4288296979
-0.2419296056 -0.1843713075 0.5043790936 4288362772
-0.2420015186 -0.1838660687 0.5045289993 4288428565
-0.2420732677 -0.1833603680 0.5046786070 4288362772
-0.2421448678 -0.1828542203 0.5048279166 4288363031
-0.2422163188 -0.1823476255 0.5049768090 4288297238
-0.2426989526 -0.1821493059 0.5059830546 4288297238
-0.2427702099 -0.1816409528 0.5061315894 4288231445
-0.2428413033 -0.1811321527 0.5062798262 4288231445
-0.2429122329 -0.1806229055 0.5064277053 4288165652
-0.2429830134 -0.1801132113 0.5065752268 4288034836
-0.2430536300 -0.1796030700 0.5067224503 4288034836
-0.2427120060 -0.1787889451 0.5060102940 4287969043
-0.2427821904 -0.1782787889 0.5061565638 4287903250
-0.2428522110 -0.1777681857 0.5063025355 4287837459
-0.2429220676 -0.1772571504 0.5064482093 4287903252
-0.2429917604 -0.1767456532 0.5065935254 4287837459
-0.2430612892 -0.1762337387 0.5067384839 4287837459
-0.2431306690 -0.1757213771 0.5068830848 4287771923
-0.2427869737 -0.1749111116 0.5061665773 4287771923
-0.2432689220 -0.1746953428 0.5071713328 4287968527
-0.2429246753 -0.1738859415 0.5064536333 4287902734
-0.2429932803 -0.1733727008 0.5065966845 4287968527
-0.2430617064 -0.1728590280 0.5067393184 4288034320
-0.2431299835 -0.1723449230 0.5068816543 4287968527
-0.2431980968 -0.1718303859 0.5070236921 4287968527
-0.2432660460 -0.1713154167 0.5071653128 4287903248
-0.2429199815 -0.1705095321 0.5064438581 4287837455
-0.2429874837 -0.1699945778 0.5065845847 4287903250
-0.2430548072 -0.1694791913 0.5067249537 4287903250
-0.2431219667 -0.1689633876 0.5068649650 4288034066
-0.2436032444 -0.1687341183 0.5078683496 4287968273
-0.2432557791 -0.1679304838 0.5071439147 4287968273
-0.2429079264 -0.1671281904 0.5064187050 4287902480
-0.2429742962 -0.1666115671 0.5065571070 4287771662
-0.2430405021 -0.1660944968 0.5066950917 4287771662
-0.2431065291 -0.1655770242 0.5068327785 4287639562
-0.2431723922 -0.1650591195 0.5069701076 4287639562
-0.2432380915 -0.1645408124 0.5071070194 4287705355
-0.2433036119 -0.1640220731 0.5072436333 4287705355
-0.2433689535 -0.1635029018 0.5073798895 4287771148
-0.2434341311 -0.1629833281 0.5075157881 4287771148
-0.2434991449 -0.1624633372 0.5076512694 4287640078
-0.2431483269 -0.1616665721 0.5069199204 4287640078
-0.2432128787 -0.1611466408 0.5070545077 4287311113
-0.2432772517 -0.1606262922 0.5071886778 4287245320
-0.2433414459 -0.1601055264 0.5073225498 4287245320
-0.2438215464 -0.1598571539 0.5083234906 4287311113
-0.2438855022 -0.1593346745 0.5084568262 4287311115
-0.2439492941 -0.1588117927 0.5085898042 4287376908
-0.2435964942 -0.1580183804 0.5078542829 4287376908
-0.2436598092 -0.1574955732 0.5079862475 4287442701
-0.2441395670 -0.1572406739 0.5089864731 4287443212
-0.2442026436 -0.1567161530 0.5091179609 4287509005
-0.2442655414 -0.1561912298 0.5092490911 4287509005
-0.2443282604 -0.1556659043 0.5093798637 4287443212
-0.2439737469 -0.1548754275 0.5086407661 4287377419
-0.2440359890 -0.1543501765 0.5087705255 4287377419
-0.2445153296 -0.1540874839 0.5097698569 4287377419
-0.2445773184 -0.1535605490 0.5098990798 4287377419
-0.2450565994 -0.1532943547 0.5108983517 4287245833
-0.2451183498 -0.1527657062 0.5110270381 4287311626
-0.2455975860 -0.1524960101 0.5120261908 4287246349
-0.2456590533 -0.1519656777 0.5121543407 4287246349
-0.2461382449 -0.1516924798 0.5131533742 4287312142
-0.2461994588 -0.1511604339 0.5132809877 4287246349
-0.2466785908 -0.1508837342 0.5142798424 4287114763
-0.2467395365 -0.1503500044 0.5144069195 4287114763
-0.2468002886 -0.1498158723 0.5145335793 4287049479
-0.2472792715 -0.1495343745 0.5155321956 4287049479
-0.2473397553 -0.1489985436 0.5156583190 4287049481
-0.2478186786 -0.1487135440 0.5166567564 4287115274
-0.2487163246 -0.1486766189 0.5185281634 4286984458
-0.2483577281 -0.1478874981 0.5177806020 4287116044
-0.2484176755 -0.1473482996 0.5179055333 4287116303
-0.2493154556 -0.1473038346 0.5197772384 4287182096
-0.2497943342 -0.1470086873 0.5207756162 4287117333
-0.2506924272 -0.1469570845 0.5226479769 4287248919
-0.2511714101 -0.1466566026 0.5236465931 4287184674
-0.2520698309 -0.1465978175 0.5255196095 4287382053
-0.2525489330 -0.1462920010 0.5265184641 4287186476
-0.2534476519 -0.1462260485 0.5283921361 4287449648
-0.2551859915 -0.1466384232 0.5320162177 4287647286
-0.2552456558 -0.1460820138 0.5321406722 4287778872
-0.2561449707 -0.1460039318 0.5340155363 4287517242
-0.2583044767 -0.1466370821 0.5385177135 4287451449
-0.2604647577 -0.1472606808 0.5430215597 4287320898
-0.2596844137 -0.1462185085 0.5413946509 4287649863
-0.2610049546 -0.1463580281 0.5441477299 4287782480
-0.2619054615 -0.1462568790 0.5460251570 4288111445
-0.2649086118 -0.1473208815 0.5522861481 4288244061
-0.2645482123 -0.1465082318 0.5515347719 4288836198
-0.2662907839 -0.1468570232 0.5551677346 4288246640
-0.2680339515 -0.1471980512 0.5588018894 4290023051
-0.2773322761 -0.2317834795 0.5795276165 4290419608
-0.2770146430 -0.2308754623 0.5788638592 4289366920
-0.2766966224 -0.2299685776 0.5781993270 4290935657
-0.2755652964 -0.2283890992 0.5758352280 4290211934
-0.2748395801 -0.2271501124 0.5743187666 4290341192
-0.2737065256 -0.2255787551 0.5719510317 4290078020
-0.2717588544 -0.2233431935 0.5678811073 4290272311
-0.2673680484 -0.2191144526 0.5587058067 4290009139
-0.2605317533 -0.2129076272 0.5444203615 4289941804
-0.2508405149 -0.2044060528 0.5241690874 4289612839
-0.2545850873 -0.2068669051 0.5319939256 4289547295
-0.2477377504 -0.2007283419 0.5176853538 4289613088
-0.2465922087 -0.1992281824 0.5152915716 4289547038
-0.2462611794 -0.1983895153 0.5145998597 4289481245
-0.2459297627 -0.1975520700 0.5139073133 4289546015
-0.2451899797 -0.1963890493 0.5123614073 4289414429
-0.2448576242 -0.1955548823 0.5116668940 4289218073
-0.2441166490 -0.1943968534 0.5101185441 4289218073
-0.2429666817 -0.1929175109 0.5077155232 4289216537
-0.2426327467 -0.1920895576 0.5070177317 4289216537
-0.2427070141 -0.1915853769 0.5071728826 4289217052
-0.2423724085 -0.1907590330 0.5064737201 4289151259
-0.2420374155 -0.1899339408 0.5057736635 4289151259
-0.2417020053 -0.1891100854 0.5050727725 4289085466
-0.2421844006 -0.1889257431 0.5060808063 4289085466
-0.2418484390 -0.1881026775 0.5053787827 4289019673
-0.2415120900 -0.1872808635 0.5046759248 4288823064
-0.2415848076 -0.1867768764 0.5048278570 4288823064
-0.2416573614 -0.1862724274 0.5049794912 4288625946
-0.2417297810 -0.1857675165 0.5051308274 4288362774
-0.2418020368 -0.1852621734 0.5052818060 4288296981
-0.2418741435 -0.1847563535 0.5054324865 4288362774
-0.2419460863 -0.1842501014 0.5055828094 4288428567
-0.2416076809 -0.1834319532 0.5048756599 4288362774
-0.2416791916 -0.1829256564 0.5050250888 4288100629
-0.2421610057 -0.1827286184 0.5060319304 4288100629
-0.2422323227 -0.1822205484 0.5061809421 4288100629
-0.2423034906 -0.1817120463 0.5063296556 4288100629
-0.2423745096 -0.1812030822 0.5064780712 4288100631
-0.2424453646 -0.1806936860 0.5066261292 4288100631
-0.2425160557 -0.1801838279 0.5067738891 4288100631
-0.2425865978 -0.1796735376 0.5069212914 4288100631
-0.2422456890 -0.1788591295 0.5062088966 4288166169
-0.2423157841 -0.1783488095 0.5063553452 4288100376
-0.2423857301 -0.1778380424 0.5065014958 4288100889
-0.2424555123 -0.1773268431 0.5066473484 4288166682
-0.2425251305 -0.1768151969 0.5067927837 4288166682
-0.2425945848 -0.1763031185 0.5069379210 4288035096
-0.2426638752 -0.1757905930 0.5070827603 4287903512
-0.2427330017 -0.1752776206 0.5072271824 4287903512
-0.2428019792 -0.1747642159 0.5073713064 4287903509
-0.2424584329 -0.1739545465 0.5066534281 4287837716
-0.2425269634 -0.1734411418 0.5067966580 4287903250
-0.2425953150 -0.1729273051 0.5069394708 4287903250
-0.2426635176 -0.1724130362 0.5070819855 4287837457
-0.2427315563 -0.1718983352 0.5072241426 4287837457
-0.2427994162 -0.1713832021 0.5073660016 4287837970
-0.2428671122 -0.1708676219 0.5075074434 4287772177
-0.2425214946 -0.1700619161 0.5067852139 4287903509
-0.2425887436 -0.1695463657 0.5069257617 4287837716
-0.2430692166 -0.1693183482 0.5079298019 4287903252
-0.2431362420 -0.1688010544 0.5080698729 4287837459
-0.2427895069 -0.1679971516 0.5073452592 4287771664
-0.2428560853 -0.1674798876 0.5074843764 4287771664
-0.2425086498 -0.1666777730 0.5067583919 4287706384
-0.2429887354 -0.1664440930 0.5077615976 4287706384
-0.2426407486 -0.1656429023 0.5070344210 4287836941
-0.2427065372 -0.1651248336 0.5071718693 4287902734
-0.2427721471 -0.1646063328 0.5073090196 4287902734
-0.2428376079 -0.1640874296 0.5074457526 4287836941
-0.2429028749 -0.1635680944 0.5075821877 4287836941
-0.2429679781 -0.1630483568 0.5077182055 4287771148
-0.2430329174 -0.1625281870 0.5078539252 4287705871
-0.2430976778 -0.1620076001 0.5079892278 4287771664
-0.2431622595 -0.1614866108 0.5081241727 4287508492
-0.2428116053 -0.1606905013 0.5073914528 4287442699
-0.2428757250 -0.1601695716 0.5075254440 4287376906
-0.2429396808 -0.1596482247 0.5076590776 4287376906
-0.2430034578 -0.1591264606 0.5077923536 4287376908
-0.2430670559 -0.1586042941 0.5079252720 4287376908
-0.2431304902 -0.1580817103 0.5080578327 4287311372
-0.2431937307 -0.1575587243 0.5081899762 4287377165
-0.2436726391 -0.1573037654 0.5091906786 4287509005
-0.2437356412 -0.1567790657 0.5093223453 4287509005
-0.2437984645 -0.1562539637 0.5094536543 4287509005
-0.2438611090 -0.1557284594 0.5095845461 4287443212
-0.2443398237 -0.1554673910 0.5105848908 4287443212
-0.2444022149 -0.1549401730 0.5107153058 4287443212
-0.2444644272 -0.1544125527 0.5108453035 4287443212
-0.2441098988 -0.1536223739 0.5101044178 4287377419
-0.2445883155 -0.1533561051 0.5111041665 4287245833
-0.2450667620 -0.1530876458 0.5121039748 4287377419
-0.2451283634 -0.1525575221 0.5122326612 4287246349
-0.2456067502 -0.1522855461 0.5132323503 4287312142
-0.2456680834 -0.1517537087 0.5133605003 4287377935
-0.2457292229 -0.1512214988 0.5134882927 4287312142
-0.2462074906 -0.1509447098 0.5144876838 4287180556
-0.2462683767 -0.1504107863 0.5146148801 4287180556
-0.2467465699 -0.1501304954 0.5156141520 4286984456
-0.2468071878 -0.1495948881 0.5157408118 4286984456
-0.2472853214 -0.1493110955 0.5167399645 4286984460
-0.2473456562 -0.1487737745 0.5168660283 4286984460
-0.2478237152 -0.1484864652 0.5178650022 4287050253
-0.2483017892 -0.1481969506 0.5188640356 4287116046
-0.2483617663 -0.1476566494 0.5189893246 4287051023
-0.2488397658 -0.1473636180 0.5199881792 4287116816
-0.2493177801 -0.1470683813 0.5209870934 4287183639
-0.2502142191 -0.1470167786 0.5228603482 4287315225
-0.2506923378 -0.1467162073 0.5238594413 4287316262
-0.2515890896 -0.1466574371 0.5257333517 4287447848
-0.2520673275 -0.1463515162 0.5267326832 4287252015
-0.2529643774 -0.1462855637 0.5286071897 4287515187
-0.2538616061 -0.1462155730 0.5304821134 4287713338
-0.2568541169 -0.1473433524 0.5367354155 4287779131
-0.2560757995 -0.1463028938 0.5351089835 4287319863
-0.2582313418 -0.1469354182 0.5396133661 4287385656
-0.2582911551 -0.1463703066 0.5397382975 4287386691
-0.2604477406 -0.1469882876 0.5442448258 4287715656
-0.2613466084 -0.1468893588 0.5461231470 4287783251
-0.2614064515 -0.1463166326 0.5462481976 4288046423
-0.2627251744 -0.1464453489 0.5490038395 4288244574
-0.2657234073 -0.1475002021 0.5552691221 4288836711
-0.2687227428 -0.1485417783 0.5615366697 4288115824
-0.2671034634 -0.1470271200 0.5581529737 4290615958
-0.2756673098 -0.2302864045 0.5773869753 4289497739
-0.2749441862 -0.2290430665 0.5758723617 4291001699
-0.2742203772 -0.2278025299 0.5743563175 4290212183
-0.2739016712 -0.2269009501 0.5736888051 4290472527
-0.2723648250 -0.2249945849 0.5704698563 4290209355
-0.2704207301 -0.2227598876 0.5663979650 4290338369
-0.2664443851 -0.2188648880 0.5580694675 4289943611
-0.2506828308 -0.2053350657 0.5250567794 4289877553
-0.2511679828 -0.2051484883 0.5260729194 4289417002
-0.2488074005 -0.2026419491 0.5211287141 4289416741
-0.2472584993 -0.2008055598 0.5178844929 4289482534
-0.2473356426 -0.2002931535 0.5180460811 4289612578
-0.2465987653 -0.1991230994 0.5165026784 4289480992
-0.2446400821 -0.1969727129 0.5124002099 4289611550
-0.2443087101 -0.1961378902 0.5117061734 4289545757
-0.2435696274 -0.1949782372 0.5101581216 4289479964
-0.2432373315 -0.1941467077 0.5094621181 4289282585
-0.2429046184 -0.1933164001 0.5087652802 4289217052
-0.2425715178 -0.1924873292 0.5080676079 4289348638
-0.2422380149 -0.1916594803 0.5073691010 4289282332
-0.2423120588 -0.1911546886 0.5075241327 4289150746
-0.2419778854 -0.1903284639 0.5068241954 4289151259
-0.2416433096 -0.1895034909 0.5061234236 4289019673
-0.2417166382 -0.1889990121 0.5062770247 4288757019
-0.2417898178 -0.1884940714 0.5064303279 4288954398
-0.2414543033 -0.1876711249 0.5057275891 4288823325
-0.2415270507 -0.1871661246 0.5058799386 4288757532
-0.2415996492 -0.1866606623 0.5060319901 4288691739
-0.2412631810 -0.1858397722 0.5053272843 4288560153
-0.2413353622 -0.1853342652 0.5054784417 4288560153
-0.2414073795 -0.1848282963 0.5056293011 4288494360
-0.2414792478 -0.1843218803 0.5057798028 4288363033
-0.2415509522 -0.1838150173 0.5059300065 4288363033
-0.2416225076 -0.1833077073 0.5060799122 4288166682
-0.2416939139 -0.1827999353 0.5062294602 4288166682
-0.2417651564 -0.1822917163 0.5063786507 4288100889
-0.2418362349 -0.1817830503 0.5065275431 4288100889
-0.2419071645 -0.1812739372 0.5066761374 4288035096
-0.2419779450 -0.1807643771 0.5068243146 4288100889
-0.2420485616 -0.1802543700 0.5069722533 4288100889
-0.2421190143 -0.1797439158 0.5071198344 4288100889
-0.2421893179 -0.1792330146 0.5072670579 4287969819
-0.2422594428 -0.1787216663 0.5074139833 4288035612
-0.2419186980 -0.1779078245 0.5067002773 4287969819
-0.2419883907 -0.1773964614 0.5068462491 4287904026
-0.2420579344 -0.1768846512 0.5069918633 4287904026
-0.2421273142 -0.1763724089 0.5071371794 4287904026
-0.2421965301 -0.1758597195 0.5072821975 4287772440
-0.2422655821 -0.1753465980 0.5074267983 4287772440
-0.2423344702 -0.1748330295 0.5075711012 4287968790
-0.2424031943 -0.1743190289 0.5077150464 4287902997
-0.2424717695 -0.1738045961 0.5078586340 4287837204
-0.2425401658 -0.1732897162 0.5080019236 4287771411
-0.2426083982 -0.1727744043 0.5081448555 4287771411
-0.2426764667 -0.1722586602 0.5082874298 4287902997
-0.2427443713 -0.1717424840 0.5084296465 4287837717
-0.2423998713 -0.1709351689 0.5077080727 4287771924
-0.2424673140 -0.1704190075 0.5078493357 4287771924
-0.2425346076 -0.1699024141 0.5079903007 4287771924
-0.2426017374 -0.1693853885 0.5081309080 4287902997
-0.2426686883 -0.1688679308 0.5082710981 4287837204
-0.2427354753 -0.1683500409 0.5084109902 4287640338
-0.2428020984 -0.1678317338 0.5085505247 4287640338
-0.2424554974 -0.1670284569 0.5078245997 4287771924
-0.2425216734 -0.1665101796 0.5079631805 4287771924
-0.2425876707 -0.1659914851 0.5081014037 4287771664
-0.2426535040 -0.1654723585 0.5082392693 4287771664
-0.2427191585 -0.1649528146 0.5083768368 4287771664
-0.2427846342 -0.1644328386 0.5085139871 4287771664
-0.2428499460 -0.1639124453 0.5086507797 4287771664
-0.2425012738 -0.1631132960 0.5079204440 4287705871
-0.2429800630 -0.1628704220 0.5089232922 4287705871
-0.2430448532 -0.1623487771 0.5090590119 4287640078
-0.2426953316 -0.1615510285 0.5083268881 4287640591
-0.2427596599 -0.1610294431 0.5084616542 4287509005
-0.2428238243 -0.1605074406 0.5085960627 4287443212
-0.2428878248 -0.1599850208 0.5087301135 4287377419
-0.2429516315 -0.1594621986 0.5088637471 4287377419
-0.2430152744 -0.1589389592 0.5089970231 4287377419
-0.2426639199 -0.1581449807 0.5082611442 4287443212
-0.2427271008 -0.1576218158 0.5083934665 4287377419
-0.2427901030 -0.1570982486 0.5085254312 4287574285
-0.2432680577 -0.1568419039 0.5095264912 4287574285
-0.2433308214 -0.1563166231 0.5096579194 4287509005
-0.2433933914 -0.1557909399 0.5097889900 4287509005
-0.2438712418 -0.1555297971 0.5107898712 4287509005
-0.2439335734 -0.1550024003 0.5109204054 4287443212
-0.2439957112 -0.1544746011 0.5110505819 4287443212
-0.2444734424 -0.1542086601 0.5120511651 4287443212
-0.2445353270 -0.1536791623 0.5121808052 4287180556
-0.2450130135 -0.1534097046 0.5131813288 4287377935
-0.2446585596 -0.1526189446 0.5124388933 4287246349
-0.2447199076 -0.1520882398 0.5125674009 4287246349
-0.2451973557 -0.1518148780 0.5135674477 4287377935
-0.2452584356 -0.1512824744 0.5136953592 4287246349
-0.2457358241 -0.1510056108 0.5146952271 4287246349
-0.2457966357 -0.1504715085 0.5148226023 4287312142
-0.2458572686 -0.1499370039 0.5149496198 4287116304
-0.2463345081 -0.1496553272 0.5159491897 4286984718
-0.2463948727 -0.1491191387 0.5160756111 4286984717
-0.2468720526 -0.1488339454 0.5170750618 4287050510
-0.2481834739 -0.1490475535 0.5198218822 4286984717
-0.2487210035 -0.1482138187 0.5209476948 4287248149
-0.2491983324 -0.1479188800 0.5219475031 4287379735
-0.2496756762 -0.1476217359 0.5229473114 4287314973
-0.2509882748 -0.1478142589 0.5256965160 4287446559
-0.2506303787 -0.1470207870 0.5249469280 4287251237
-0.2519433796 -0.1472052187 0.5276970267 4287382823
-0.2528388798 -0.1471405923 0.5295726061 4287252268
-0.2533165216 -0.1468296051 0.5305730700 4287515440
-0.2542123199 -0.1467577815 0.5324493051 4287713338
-0.2546900809 -0.1464414448 0.5334499478 4287779131
-0.2564227581 -0.1468415260 0.5370790958 4287121720
-0.2556455731 -0.1458020955 0.5354512930 4287319099
-0.2577973306 -0.1464299262 0.5399581790 4287387974
-0.2586940527 -0.1463378072 0.5418363214 4287453767
-0.2612657547 -0.1471851170 0.5472227335 4287915349
-0.2634195983 -0.1477860510 0.5517339706 4288046935
-0.2622230947 -0.1465051025 0.5492278934 4288048224
-0.2652156353 -0.1475604326 0.5554957986 4288574568
-0.2665329874 -0.1476736963 0.5582550168 4287593077
-0.2743225098 -0.2296967208 0.5759084821 4289301389
-0.2736006081 -0.2284546345 0.5743929148 4290739298
-0.2728779912 -0.2272153497 0.5728758574 4290081368
-0.2721547484 -0.2259788811 0.5713574290 4290406995
-0.2714307904 -0.2247452289 0.5698376298 4290143823
-0.2694904208 -0.2225105762 0.5657640696 4290338628
-0.2655217350 -0.2186149657 0.5574322343 4289878077
-0.2595227957 -0.2130710185 0.5448381901 4289746483
-0.2600100040 -0.2128650844 0.5458610058 4289417518
-0.2540051639 -0.2073571086 0.5332545638 4289482793
-0.2484022528 -0.2022042871 0.5214918256 4289417000
-0.2460437268 -0.1997110099 0.5165404081 4289547044
-0.2453081012 -0.1985422522 0.5149960518 4289415458
-0.2445718050 -0.1973763704 0.5134502649 4289546015
-0.2438348681 -0.1962134093 0.5119031668 4289546015
-0.2430972755 -0.1950533539 0.5103546977 4289414429
-0.2431723177 -0.1945468783 0.5105122328 4289348636
-0.2428404540 -0.1937154531 0.5098155141 4289020704
-0.2425081730 -0.1928852499 0.5091179013 4289152290
-0.2421755046 -0.1920562834 0.5084195137 4289085982
-0.2414352894 -0.1909066141 0.5068655014 4288954396
-0.2411016971 -0.1900809705 0.5061652064 4288823325
-0.2419898808 -0.1902172714 0.5080298185 4288757532
-0.2412483394 -0.1890721768 0.5064730644 4288691998
-0.2413214296 -0.1885670871 0.5066264868 4288823584
-0.2413943857 -0.1880615354 0.5067796707 4288495389
-0.2410592884 -0.1872387230 0.5060761571 4288495389
-0.2411318123 -0.1867331117 0.5062283874 4288495389
-0.2407960445 -0.1859119385 0.5055235028 4288429596
-0.2408681363 -0.1854062825 0.5056748390 4288363548
-0.2409400642 -0.1849001646 0.5058258772 4288297755
-0.2410118580 -0.1843935996 0.5059765577 4288232475
-0.2410834730 -0.1838865727 0.5061269403 4288232475
-0.2411549538 -0.1833790988 0.5062769651 4288166682
-0.2412262708 -0.1828711778 0.5064266920 4288166682
-0.2412974387 -0.1823627949 0.5065761209 4288166682
-0.2413684428 -0.1818539798 0.5067251921 4288166682
-0.2414392829 -0.1813447028 0.5068739057 4288100889
-0.2415099740 -0.1808349788 0.5070223212 4288100889
-0.2415805161 -0.1803248227 0.5071703792 4288100889
-0.2416508794 -0.1798142046 0.5073181391 4288035096
-0.2417211086 -0.1793031394 0.5074655414 4287904280
-0.2417911589 -0.1787916422 0.5076126456 4287970073
-0.2414511144 -0.1779775172 0.5068987608 4287904280
-0.2415207326 -0.1774659902 0.5070449114 4287838487
-0.2415902019 -0.1769540310 0.5071907640 4287838233
-0.2416594923 -0.1764416248 0.5073361993 4287772440
-0.2417286336 -0.1759287715 0.5074813366 4287772440
-0.2417976111 -0.1754154861 0.5076261759 4287772440
-0.2418664098 -0.1749017686 0.5077706575 4287837459
-0.2419350594 -0.1743875891 0.5079147220 4287837459
-0.2424144149 -0.1741681993 0.5089210868 4287837459
-0.2420718670 -0.1733579487 0.5082019567 4287837459
-0.2421400249 -0.1728424877 0.5083450675 4287771666
-0.2422080189 -0.1723265648 0.5084877610 4287837459
-0.2418645173 -0.1715185344 0.5077666044 4287903252
-0.2419320643 -0.1710026264 0.5079084635 4287903252
-0.2419994324 -0.1704863012 0.5080499053 4287771923
-0.2420666516 -0.1699695438 0.5081909895 4287771923
-0.2421336919 -0.1694523394 0.5083317757 4287903252
-0.2426124811 -0.1692220271 0.5093368888 4287837459
-0.2422672957 -0.1684166789 0.5086122155 4287705873
-0.2419216931 -0.1676126570 0.5078867078 4287705873
-0.2428124547 -0.1676639467 0.5097567439 4287771923
-0.2420540452 -0.1665761918 0.5081645250 4287771923
-0.2421199679 -0.1660573184 0.5083029270 4287705873
-0.2421857268 -0.1655380279 0.5084409714 4287771666
-0.2422513068 -0.1650183052 0.5085786581 4287837459
-0.2423167229 -0.1644981652 0.5087159872 4287837459
-0.2423819602 -0.1639776081 0.5088529587 4287771923
-0.2424470335 -0.1634566188 0.5089895725 4287771923
-0.2425119281 -0.1629352272 0.5091257691 4287771923
-0.2425766438 -0.1624134034 0.5092616677 4287706130
-0.2422278374 -0.1616153866 0.5085293651 4287640337
-0.2422921062 -0.1610936224 0.5086643100 4287640337
-0.2423561960 -0.1605714411 0.5087988377 4287574544
-0.2424201071 -0.1600488573 0.5089330673 4287442958
-0.2424838543 -0.1595258564 0.5090668797 4287377165
-0.2425474226 -0.1590024382 0.5092003345 4287377165
-0.2421967983 -0.1582081765 0.5084642172 4287377165
-0.2426740229 -0.1579543799 0.5094661117 4287442958
-0.2427370697 -0.1574297398 0.5095984340 4287509005
-0.2427999228 -0.1569046825 0.5097304583 4287509005
-0.2428626120 -0.1563792229 0.5098620057 4287509005
-0.2433396727 -0.1561193168 0.5108635426 4287509005
-0.2434020936 -0.1555921435 0.5109946132 4287509005
-0.2438791096 -0.1553287357 0.5119960308 4287509005
-0.2439412922 -0.1547998488 0.5121266246 4287312140
-0.2444182634 -0.1545329392 0.5131279230 4287312140
-0.2444801927 -0.1540023535 0.5132579207 4287443728
-0.2441267520 -0.1532108039 0.5125159621 4287509521
-0.2446034849 -0.1529399753 0.5135167837 4287378448
-0.2446648628 -0.1524081826 0.5136456490 4287378448
-0.2451415509 -0.1521338373 0.5146464109 4287444241
-0.2452026606 -0.1516003460 0.5147746801 4287378448
-0.2456792891 -0.1513224989 0.5157753229 4287378448
-0.2457401454 -0.1507872939 0.5159030557 4287312655
-0.2458008081 -0.1502517015 0.5160304308 4287181584
-0.2462772876 -0.1499690413 0.5170307159 4287181584
-0.2459215671 -0.1491793245 0.5162839293 4287181839
-0.2468140870 -0.1491455734 0.5181577206 4287313425
-0.2477068305 -0.1491077840 0.5200319290 4287313682
-0.2473505437 -0.1483168900 0.5192839503 4287313682
-0.2482434213 -0.1482737660 0.5211583972 4287314196
-0.2487198859 -0.1479787380 0.5221586823 4287445782
-0.2496130764 -0.1479284614 0.5240338445 4287380764
-0.2500896752 -0.1476280838 0.5250343680 4287446557
-0.2509831786 -0.1475706249 0.5269101858 4287382053
-0.2514598668 -0.1472648978 0.5279109478 4287513639
-0.2531878948 -0.1476868838 0.5315387845 4287383854
-0.2524132431 -0.1466467977 0.5299125314 4287647026
-0.2524726391 -0.1460929364 0.5300371647 4287713338
-0.2558710873 -0.1474631727 0.5371718407 4287647545
-0.2559308708 -0.1469011903 0.5372973084 4287122233
-0.2572432458 -0.1470550001 0.5400525331 4287319612
-0.2593914270 -0.1476785243 0.5445623398 4287125318
-0.2581979632 -0.1463973671 0.5420568585 4287585869
-0.2586753070 -0.1460651904 0.5430589914 4287783508
-0.2620785534 -0.1473761499 0.5502036810 4287849301
-0.2633927166 -0.1475013196 0.5529626012 4287982947
-0.2621981502 -0.1462213397 0.5504547358 4288509291
-0.2647672892 -0.1470370591 0.5558483601 4288317315
-0.2725764513 -0.2287674993 0.5735787153 4289040274
-0.2722595632 -0.2278655916 0.5729118586 4290608484
-0.2719422579 -0.2269648015 0.5722441673 4290016347
-0.2712203264 -0.2257287502 0.5707250237 4290276437
-0.2704977393 -0.2244955152 0.5692045093 4290013265
-0.2681566179 -0.2219261825 0.5642781258 4290273865
-0.2650046349 -0.2186985910 0.5576454401 4289813314
-0.2541608810 -0.2091559619 0.5348271132 4289615927
-0.2505972683 -0.2056379914 0.5273281932 4289286962
-0.2486510575 -0.2034601569 0.5232328773 4289483309
-0.2483238280 -0.2026123405 0.5225442648 4289285930
-0.2467805296 -0.2007766962 0.5192967057 4289415973
-0.2456414253 -0.1992761493 0.5168997049 4289350180
-0.2449068725 -0.1981081963 0.5153540373 4289414947
-0.2441716790 -0.1969431341 0.5138069391 4289414947
-0.2438415587 -0.1961072981 0.5131123066 4289349408
-0.2422934920 -0.1942963004 0.5098546743 4289283615
-0.2419621944 -0.1934654564 0.5091575384 4289020963
-0.2416304946 -0.1926358342 0.5084595680 4289086756
-0.2417046279 -0.1921303421 0.5086155534 4289020963
-0.2417786121 -0.1916244030 0.5087712407 4288823584
-0.2410394996 -0.1904755682 0.5072159767 4288626205
-0.2411129326 -0.1899704039 0.5073704720 4288626205
-0.2407795042 -0.1891452670 0.5066688061 4288561182
-0.2408525050 -0.1886400282 0.5068224669 4288561182
-0.2409253716 -0.1881343275 0.5069757700 4288364061
-0.2409980744 -0.1876281649 0.5071287751 4288364061
-0.2410706282 -0.1871215552 0.5072814822 4288429854
-0.2411430329 -0.1866144836 0.5074338317 4288364061
-0.2412152886 -0.1861069500 0.5075858235 4288298268
-0.2408798039 -0.1852854490 0.5068798661 4288232475
-0.2409516126 -0.1847778708 0.5070310235 4288101659
-0.2410232872 -0.1842698306 0.5071818233 4288101659
-0.2410947978 -0.1837613434 0.5073323250 4288166682
-0.2411661446 -0.1832524091 0.5074824691 4288166682
-0.2412373424 -0.1827430129 0.5076322556 4288166682
-0.2413083911 -0.1822331697 0.5077818036 4288166682
-0.2413792759 -0.1817228794 0.5079309344 4288166682
-0.2414500117 -0.1812121421 0.5080797672 4288100889
-0.2415205836 -0.1807009429 0.5082283020 4288100889
-0.2415909916 -0.1801893115 0.5083764195 4288035096
-0.2416612506 -0.1796772182 0.5085242987 4287838487
-0.2417313308 -0.1791646928 0.5086717606 4287904280
-0.2418012768 -0.1786517203 0.5088189244 4287838487
-0.2418710440 -0.1781382859 0.5089657903 4287772694
-0.2415312827 -0.1773238778 0.5082508326 4287772694
-0.2416006178 -0.1768104434 0.5083966851 4287772694
-0.2416697890 -0.1762965620 0.5085422397 4287706901
-0.2417387962 -0.1757822335 0.5086874962 4287706901
-0.2418076545 -0.1752674729 0.5088323355 4287837204
-0.2418763340 -0.1747522801 0.5089768767 4287837204
-0.2419448644 -0.1742366403 0.5091210604 4287837204
-0.2420132160 -0.1737205535 0.5092649460 4287837204
-0.2416711003 -0.1729104817 0.5085450411 4287837204
-0.2417390198 -0.1723944098 0.5086879134 4287837204
-0.2418067604 -0.1718778908 0.5088304877 4287837459
-0.2418743521 -0.1713609546 0.5089727044 4287903252
-0.2419417650 -0.1708435714 0.5091145635 4287837459
-0.2420090139 -0.1703257710 0.5092560649 4287903252
-0.2420760989 -0.1698075235 0.5093972683 4287903252
-0.2421430200 -0.1692888588 0.5095380545 4287837459
-0.2422097623 -0.1687697619 0.5096785426 4287705873
-0.2418650091 -0.1679645777 0.5089530349 4287705873
-0.2419313043 -0.1674455106 0.5090925694 4287771666
-0.2419974357 -0.1669260114 0.5092317462 4287837459
-0.2416517287 -0.1661230773 0.5085042715 4287771666
-0.2417173982 -0.1656036079 0.5086424351 4287837459
-0.2417829037 -0.1650837213 0.5087803006 4287837716
-0.2418482453 -0.1645634174 0.5089178085 4287903509
-0.2419134080 -0.1640426815 0.5090548992 4287903509
-0.2419784069 -0.1635215282 0.5091916919 4287903509
-0.2420432270 -0.1629999578 0.5093280673 4287837716
-0.2421078682 -0.1624779701 0.5094641447 4287837716
-0.2421723455 -0.1619555652 0.5095998049 4287771923
-0.2418239862 -0.1611577272 0.5088667274 4287771923
-0.2418880016 -0.1606353819 0.5090014338 4287509521
-0.2419518530 -0.1601126194 0.5091357827 4287377935
-0.2420155257 -0.1595894396 0.5092697740 4287312142
-0.2420790195 -0.1590658426 0.5094034076 4287312142
-0.2421423346 -0.1585418433 0.5095366240 4287312142
-0.2422054708 -0.1580174416 0.5096694827 4287377935
-0.2422684431 -0.1574926078 0.5098019838 4287443726
-0.2427447736 -0.1572352499 0.5108042955 4287443726
-0.2428074926 -0.1567087173 0.5109363198 4287443726
-0.2428700328 -0.1561817676 0.5110679269 4287377933
-0.2429323941 -0.1556544155 0.5111991167 4287377933
-0.2429945767 -0.1551266611 0.5113300085 4287377933
-0.2434706390 -0.1548618674 0.5123317838 4287378448
-0.2435325682 -0.1543324143 0.5124620795 4287378448
-0.2440086007 -0.1540641189 0.5134637952 4287510034
-0.2440702766 -0.1535329372 0.5135935545 4287444241
-0.2441317588 -0.1530013680 0.5137229562 4287510034
-0.2446076572 -0.1527282596 0.5147243738 4287444241
-0.2446688861 -0.1521949768 0.5148532391 4287247632
-0.2447299212 -0.1516612917 0.5149816871 4287313425
-0.2447907925 -0.1511272192 0.5151097178 4287313170
-0.2452664673 -0.1508479863 0.5161107183 4287247377
-0.2453270555 -0.1503122002 0.5162382126 4287313170
-0.2458026707 -0.1500294507 0.5172390342 4287378963
-0.2458629906 -0.1494919807 0.5173659325 4287379218
-0.2463385463 -0.1492057145 0.5183666348 4287379218
-0.2472296208 -0.1491679400 0.5202417374 4287576597
-0.2468740642 -0.1483767629 0.5194935203 4287642390
-0.2469338328 -0.1478358805 0.5196192861 4287445782
-0.2478250414 -0.1477905512 0.5214946866 4287511575
-0.2483005524 -0.1474941373 0.5224952698 4287446557
-0.2491920739 -0.1474416405 0.5243713260 4287512350
-0.2496677041 -0.1471398622 0.5253721476 4287382053
-0.2505595386 -0.1470801979 0.5272488594 4287579432
-0.2514515817 -0.1470164806 0.5291259289 4287449647
-0.2527602315 -0.1471911967 0.5318797231 4287712819
-0.2524032295 -0.1463937312 0.5311285257 4287647799
-0.2537122667 -0.1465603411 0.5338830948 4287516213
-0.2546049953 -0.1464813203 0.5357616544 4287121979
-0.2550811172 -0.1461594105 0.5367634892 4287450944
-0.2580585778 -0.1472626925 0.5430289507 4287191111
-0.2589522600 -0.1471678019 0.5449094772 4287651662
-0.2594290078 -0.1468327641 0.5459127426 4287717717
-0.2603229582 -0.1467306465 0.5477938056 4287980889
-0.2628861666 -0.1475613415 0.5531876087 4288114793
-0.2641982138 -0.1476806849 0.5559484959 4288443758
-0.2671804726 -0.1487236023 0.5622240305 4289107606
-0.2712375224 -0.2281764448 0.5720967650 4288910489
-0.2709210515 -0.2272759229 0.5714293122 4290609000
-0.2710074782 -0.2267138958 0.5716115236 4290016863
-0.2702868879 -0.2254782617 0.5700917244 4290408023
-0.2695656419 -0.2242454439 0.5685704350 4290079058
-0.2672290504 -0.2216760218 0.5636420846 4290339658
-0.2640831769 -0.2184481025 0.5570067167 4289879107
-0.2593193948 -0.2139003873 0.5469589233 4289681466
-0.2541483641 -0.2090400010 0.5360521078 4289286708
-0.2501863837 -0.2051954716 0.5276955366 4289483824
-0.2506691217 -0.2050044835 0.5287137032 4289220652
-0.2462987453 -0.2008536160 0.5194956660 4289415719
-0.2451619208 -0.1993525475 0.5170978308 4289349926
-0.2444288731 -0.1981841773 0.5155516863 4289480740
-0.2436951697 -0.1970187277 0.5140041709 4289414947
-0.2433657497 -0.1961826086 0.5133093596 4289349154
-0.2430359274 -0.1953477114 0.5126137137 4289349154
-0.2423005253 -0.1941893101 0.5110625625 4289020961
-0.2415644825 -0.1930338293 0.5095100999 4289152547
-0.2412332147 -0.1922043115 0.5088114142 4289152547
-0.2413071096 -0.1916982234 0.5089672804 4288823582
-0.2409751713 -0.1908703297 0.5082671642 4288495387
-0.2406428456 -0.1900436729 0.5075661540 4288495387
-0.2411219627 -0.1898575127 0.5085767508 4288561182
-0.2403830290 -0.1887128800 0.5070182085 4288495389
-0.2404558063 -0.1882070154 0.5071716905 4288495389
-0.2405284345 -0.1877007186 0.5073248744 4288429596
-0.2406008989 -0.1871939451 0.5074777007 4288364060
-0.2406732142 -0.1866867244 0.5076302290 4288364060
-0.2407453805 -0.1861790419 0.5077824593 4288298267
-0.2404106110 -0.1853572577 0.5070763230 4288232474
-0.2404823452 -0.1848495305 0.5072276592 4288166682
-0.2405539304 -0.1843413413 0.5073786378 4288166682
-0.2406253517 -0.1838326901 0.5075293183 4288035866
-0.2406966239 -0.1833235919 0.5076796412 4288035866
-0.2407677472 -0.1828140467 0.5078296065 4288035866
-0.2408387065 -0.1823040545 0.5079792738 4288035866
-0.2409095019 -0.1817936003 0.5081286430 4287970073
-0.2409801483 -0.1812826991 0.5082776546 4287970073
-0.2410506308 -0.1807713509 0.5084263086 4287904280
-0.2411209643 -0.1802595556 0.5085746646 4287904280
-0.2411911339 -0.1797473133 0.5087226629 4287838487
-0.2412611544 -0.1792346239 0.5088703036 4287838487
-0.2413310111 -0.1787214875 0.5090176463 4287838487
-0.2414007038 -0.1782079041 0.5091646314 4287772694
-0.2414702326 -0.1776938736 0.5093113184 4287772694
-0.2415395975 -0.1771794111 0.5094576478 4287772694
-0.2412000000 -0.1763655692 0.5087413192 4287706901
-0.2412689328 -0.1758510917 0.5088867545 4287706901
-0.2413377017 -0.1753361672 0.5090317726 4287772694
-0.2414063066 -0.1748207957 0.5091764927 4287706901
-0.2414747477 -0.1743049920 0.5093208551 4287771924
-0.2415430248 -0.1737887561 0.5094648600 4287771924
-0.2416111380 -0.1732720733 0.5096085072 4287771924
-0.2416790873 -0.1727549583 0.5097518563 4287771924
-0.2413371354 -0.1719454825 0.5090305805 4287771924
-0.2414046377 -0.1714283675 0.5091729760 4287837717
-0.2414719760 -0.1709108353 0.5093150139 4287837716
-0.2419492304 -0.1706821471 0.5103216171 4287837716
-0.2416061610 -0.1698744446 0.5095980167 4287837716
-0.2416729927 -0.1693556160 0.5097389817 4287771923
-0.2421500981 -0.1691229939 0.5107452869 4287706130
-0.2418061644 -0.1683166474 0.5100198984 4287640337
-0.2418725044 -0.1677965224 0.5101597905 4287706130
-0.2419386655 -0.1672759801 0.5102993250 4287771923
-0.2415937930 -0.1664718837 0.5095719099 4287771923
-0.2412485182 -0.1656691283 0.5088436604 4287837716
-0.2413139492 -0.1651490778 0.5089817047 4287903509
-0.2413792163 -0.1646285951 0.5091193318 4287969302
-0.2414443046 -0.1641076952 0.5092566013 4287969302
-0.2415092289 -0.1635863632 0.5093935728 4287903509
-0.2415739745 -0.1630646288 0.5095301270 4287772693
-0.2416385412 -0.1625424623 0.5096663237 4287706900
-0.2417029440 -0.1620198786 0.5098021626 4287641107
-0.2413552999 -0.1612217575 0.5090689063 4287641107
-0.2414192557 -0.1606992334 0.5092037916 4287378448
-0.2414830178 -0.1601762921 0.5093383193 4287246862
-0.2415466160 -0.1596529484 0.5094724298 4287246862
-0.2416100502 -0.1591291875 0.5096061826 4287312655
-0.2416732907 -0.1586050093 0.5097396374 4287378448
-0.2417363673 -0.1580804139 0.5098726153 4287378448
-0.2417992651 -0.1575554162 0.5100052953 4287509521
-0.2422747165 -0.1572979838 0.5110081434 4287443728
-0.2423373610 -0.1567712724 0.5111402869 4287378448
-0.2423998266 -0.1562441438 0.5112720132 4287378448
-0.2424621135 -0.1557166129 0.5114034414 4287378448
-0.2425242364 -0.1551886797 0.5115344524 4287444241
-0.2429994345 -0.1549238265 0.5125367045 4287510034
-0.2430612892 -0.1543941796 0.5126671791 4287510034
-0.2435364425 -0.1541258097 0.5136693716 4287313170
-0.2435980439 -0.1535944492 0.5137993097 4287313170
-0.2440731525 -0.1533225626 0.5148013830 4287444756
-0.2441344857 -0.1527895033 0.5149307847 4287313170
-0.2441956401 -0.1522560418 0.5150597692 4287247379
-0.2446706146 -0.1519793272 0.5160616040 4287378965
-0.2447315156 -0.1514441669 0.5161900520 4287247892
-0.2452064157 -0.1511639357 0.5171917081 4287313685
-0.2452670485 -0.1506270766 0.5173196197 4287378963
-0.2453274876 -0.1500898004 0.5174470544 4287378963
-0.2453877330 -0.1495521367 0.5175741911 4287444756
-0.2458624095 -0.1492657810 0.5185753703 4287444756
-0.2459224015 -0.1487264186 0.5187018514 4287576342
-0.2468118072 -0.1486864537 0.5205778480 4287642135
-0.2472865283 -0.1483934522 0.5215790868 4287511321
-0.2477612495 -0.1480982453 0.5225803852 4287511321
-0.2486511022 -0.1480479836 0.5244572759 4287380766
-0.2499563545 -0.1482399106 0.5272103548 4287512352
-0.2491854876 -0.1471993178 0.5255843997 4287317030
-0.2509064674 -0.1476284862 0.5292143226 4287514409
-0.2522125244 -0.1478064358 0.5319690704 4287449905
-0.2522721887 -0.1472507417 0.5320948958 4287581491
-0.2535787225 -0.1474196762 0.5348507166 4287450936
-0.2553014755 -0.1478234679 0.5384843349 4287319350
-0.2545294166 -0.1467805058 0.5368558764 4286991163
-0.2554207742 -0.1466964930 0.5387359262 4287517507
-0.2563122809 -0.1466084123 0.5406163335 4287387976
-0.2588687241 -0.1474645883 0.5460084081 4287716941
-0.2601772845 -0.1476008445 0.5487684011 4287717717
-0.2602370679 -0.1470254660 0.5488945246 4288375647
-0.2615460753 -0.1471526474 0.5516554713 4288049261
-0.2628554404 -0.1472739130 0.5544171929 4288509812
-0.2641651630 -0.1473892331 0.5571796894 4289634978
-0.2699011564 -0.2275847793 0.5706133246 4288780962
-0.2695851326 -0.2266856283 0.5699451566 4290806381
-0.2696711719 -0.2261251211 0.5701270700 4290214244
-0.2689518034 -0.2248907536 0.5686062574 4290539355
-0.2682317793 -0.2236592025 0.5670840144 4290210390
-0.2667053342 -0.2217604965 0.5638568401 4290339658
-0.2635656893 -0.2185314000 0.5572191477 4289879107
-0.2592144310 -0.2143152952 0.5480198860 4289681979
-0.2540537119 -0.2094522715 0.5371093750 4289287221
-0.2476793975 -0.2036157548 0.5236330032 4289483569
-0.2505816817 -0.2054136395 0.5297688842 4289286190
-0.2462200522 -0.2012603730 0.5205477476 4289481512
-0.2450856268 -0.1997579336 0.5181493759 4289415719
-0.2443542033 -0.1985883266 0.5166030526 4289546535
-0.2436221242 -0.1974216253 0.5150552988 4289480742
-0.2432935238 -0.1965843886 0.5143606067 4289349669
-0.2425602674 -0.1954226643 0.5128104091 4289349669
-0.2422307581 -0.1945887208 0.5121137500 4289086754
-0.2414963245 -0.1934320033 0.5105610490 4289284133
-0.2411658913 -0.1926013529 0.5098624825 4289087526
-0.2412398309 -0.1920942664 0.5100187659 4288758561
-0.2409087270 -0.1912652403 0.5093187690 4288495389
-0.2401722074 -0.1901168674 0.5077616572 4288495389
-0.2402453125 -0.1896109283 0.5079162121 4288495389
-0.2403182834 -0.1891045272 0.5080704689 4288429596
-0.2403910905 -0.1885976791 0.5082244277 4288495389
-0.2404637486 -0.1880903542 0.5083780289 4288429596
-0.2405362576 -0.1875825822 0.5085313320 4288298267
-0.2406086028 -0.1870743483 0.5086842775 4288232474
-0.2402749360 -0.1862510443 0.5079788566 4288232475
-0.2403468639 -0.1857427508 0.5081309080 4288166682
-0.2404186428 -0.1852339953 0.5082826614 4288166681
-0.2404902577 -0.1847247928 0.5084340572 4288166681
-0.2405617237 -0.1842151284 0.5085851550 4287969819
-0.2406330258 -0.1837050170 0.5087358952 4287969819
-0.2407041788 -0.1831944585 0.5088863373 4287969819
-0.2407751679 -0.1826834381 0.5090364218 4287904026
-0.2408460081 -0.1821719706 0.5091862082 4287904026
-0.2409166992 -0.1816600412 0.5093356371 4287838233
-0.2409872264 -0.1811476797 0.5094847083 4287838233
-0.2410575897 -0.1806348562 0.5096334815 4287838233
-0.2411277890 -0.1801215857 0.5097818971 4287838233
-0.2411978394 -0.1796078682 0.5099300146 4287772440
-0.2412677258 -0.1790937036 0.5100777745 4287772440
-0.2413374633 -0.1785790920 0.5102251768 4287772440
-0.2414070368 -0.1780640334 0.5103722811 4287772440
-0.2410685420 -0.1772486120 0.5096566081 4287706647
-0.2411376685 -0.1767335385 0.5098027587 4287772440
-0.2407985032 -0.1759198606 0.5090857148 4287706647
-0.2412754446 -0.1757020652 0.5100940466 4287707160
-0.2413440794 -0.1751856655 0.5102391839 4287641367
-0.2410040796 -0.1743732840 0.5095203519 4287575574
-0.2410722822 -0.1738568693 0.5096645355 4287575574
-0.2411403060 -0.1733400375 0.5098083615 4287575574
-0.2412081808 -0.1728227437 0.5099518895 4287575574
-0.2412758917 -0.1723050326 0.5100950003 4287706647
-0.2413434237 -0.1717868894 0.5102378130 4287772440
-0.2414108068 -0.1712682992 0.5103802681 4287772694
-0.2414780110 -0.1707492769 0.5105223060 4287772694
-0.2415450513 -0.1702298224 0.5106640458 4287772694
-0.2416119277 -0.1697099358 0.5108054280 4287706901
-0.2416786402 -0.1691896170 0.5109465122 4287575315
-0.2413354367 -0.1683829874 0.5102208853 4287575315
-0.2418115437 -0.1681476980 0.5112274885 4287641108
-0.2414677888 -0.1673419774 0.5105007291 4287706901
-0.2415336967 -0.1668208241 0.5106400847 4287903510
-0.2411892712 -0.1660169065 0.5099118948 4287903510
-0.2412547320 -0.1654957980 0.5100502968 4287772694
-0.2413200289 -0.1649742573 0.5101883411 4287838487
-0.2413851619 -0.1644522995 0.5103260279 4287838487
-0.2414501160 -0.1639299095 0.5104633570 4287838487
-0.2411041558 -0.1631292105 0.5097319484 4287772694
-0.2411686629 -0.1626068801 0.5098683238 4287772694
-0.2412329763 -0.1620841175 0.5100042820 4287641365
-0.2412971407 -0.1615609527 0.5101399422 4287509779
-0.2413611263 -0.1610373557 0.5102751851 4287443986
-0.2410136461 -0.1602399051 0.5095405579 4287312400
-0.2410771698 -0.1597163826 0.5096748471 4287115791
-0.2411405146 -0.1591924429 0.5098087788 4287247377
-0.2412036955 -0.1586680859 0.5099423528 4287378963
-0.2412666827 -0.1581433266 0.5100755692 4287378963
-0.2417413294 -0.1578871310 0.5110790133 4287378193
-0.2418040931 -0.1573606431 0.5112116933 4287378193
