VERSION 0.7
FIELDS x y z rgba
SIZE 4 4 4 4
TYPE F F F U
COUNT 1 1 1 1
WIDTH 920
HEIGHT 1
VIEWPOINT 0.0 0.0 0.0 1.0 0.0 0.0 0.0
POINTS 920
DATA ascii
-0.2837953269 -0.1799618304 0.5174581409 4289810718
-0.2831050158 -0.1778050810 0.5161994696 4290073890
-0.2829477489 -0.1754155755 0.5159127116 4290271012
-0.2831731141 -0.1738358587 0.5163236260 4290139424
-0.2833967805 -0.1722523868 0.5167314410 4290336033
-0.2836187482 -0.1706651598 0.5171361566 4290007322
-0.2833766937 -0.1687988639 0.5166948438 4289810459
-0.2826696038 -0.1666613072 0.5154055953 4289876252
-0.2827416956 -0.1661315411 0.5155370235 4289810711
-0.2828136086 -0.1656013876 0.5156681538 4289942297
-0.2829568386 -0.1645398438 0.5159293413 4290008088
-0.2830281854 -0.1640084833 0.5160593390 4289810708
-0.2826359570 -0.1632091552 0.5153442621 4289679122
-0.2831702530 -0.1629445255 0.5163183808 4289744148
-0.2823138535 -0.1618803293 0.5147568583 4289678355
-0.2833818793 -0.1613456160 0.5167042613 4289612564
-0.2840558589 -0.1600045711 0.5179331899 4289283347
-0.2851932347 -0.1589135528 0.5200070143 4289481494
-0.2863301337 -0.1578084677 0.5220800042 4289613340
-0.2870014012 -0.1564357579 0.5233039856 4289481754
-0.2881369889 -0.1553051621 0.5253745317 4289482013
-0.2956744432 -0.1503911763 0.5391179323 4287851346
-0.2760486603 -0.1882809252 0.5043534636 4289292622
-0.2784101069 -0.1893269271 0.5086680055 4289358415
-0.2807727158 -0.1903641373 0.5129845738 4290798391
-0.2803964317 -0.1895403415 0.5122970939 4290601012
-0.2823037207 -0.1902570724 0.5157817602 4290731563
-0.2810133696 -0.1888175160 0.5134242177 4290797356
-0.2810932398 -0.1883011013 0.5135701299 4290601264
-0.2816300988 -0.1880895793 0.5145510435 4290601264
-0.2817097604 -0.1875714362 0.5146965981 4290863149
-0.2817892432 -0.1870528609 0.5148417950 4290797356
-0.2827836871 -0.1871394664 0.5166587234 4290599977
-0.2824053466 -0.1863163561 0.5159674883 4290665770
-0.2824844420 -0.1857956201 0.5161119699 4290534184
-0.2834792435 -0.1858749986 0.5179295540 4290402598
-0.2835582197 -0.1853516996 0.5180737972 4290402596
-0.2831788063 -0.1845293790 0.5173805952 4290336803
-0.2837156355 -0.1843037903 0.5183613896 4290337055
-0.2837940753 -0.1837791800 0.5185047388 4290402848
-0.2838723361 -0.1832541376 0.5186476707 4290337053
-0.2839503884 -0.1827286482 0.5187903047 4290139674
-0.2840282917 -0.1822027415 0.5189326406 4290008090
-0.2836470306 -0.1813828945 0.5182360411 4290008090
-0.2832653224 -0.1805643290 0.5175386667 4290204447
-0.2833424211 -0.1800388247 0.5176795125 4290336033
-0.2834193408 -0.1795128882 0.5178200603 4290401826
-0.2830365896 -0.1786964387 0.5171207786 4290401826
-0.2831130028 -0.1781705022 0.5172603726 4290271010
-0.2831892371 -0.1776441485 0.5173996687 4290336803
-0.2828054428 -0.1768298447 0.5166984200 4290271010
-0.2824212313 -0.1760168076 0.5159964561 4290139424
-0.2824966609 -0.1754909009 0.5161342621 4290205217
-0.2825719118 -0.1749645621 0.5162717700 4290205217
-0.2821866274 -0.1741537005 0.5155678391 4290205217
-0.2827218473 -0.1739106178 0.5165457129 4290336803
-0.2827965319 -0.1733830273 0.5166821480 4290402080
-0.2824103236 -0.1725734919 0.5159765482 4290336287
-0.2829453349 -0.1723265797 0.5169540644 4290336287
-0.2830194533 -0.1717977375 0.5170894861 4290336287
-0.2830933928 -0.1712684780 0.5172245502 4290270494
-0.2831671536 -0.1707388014 0.5173592567 4290270494
-0.2832407057 -0.1702087075 0.5174936652 4290270494
-0.2833140492 -0.1696782112 0.5176277161 4290204701
-0.2833872437 -0.1691472977 0.5177614093 4290007322
-0.2834602296 -0.1686159670 0.5178947449 4290007322
-0.2830712199 -0.1678104848 0.5171840191 4290007322
-0.2826817930 -0.1670063138 0.5164725184 4290007322
-0.2827539742 -0.1664755046 0.5166044235 4289941525
-0.2828259468 -0.1659442782 0.5167359114 4290073111
-0.2824354768 -0.1651423723 0.5160225034 4290139157
-0.2825069427 -0.1646112055 0.5161530375 4290073364
-0.2825782001 -0.1640796363 0.5162832737 4290007571
-0.2817240953 -0.1630123258 0.5147227645 4289941778
-0.2822574675 -0.1627485007 0.5156972408 4289875732
-0.2823280394 -0.1622166038 0.5158261657 4289744146
-0.2819354534 -0.1614192575 0.5151089430 4289678355
-0.2829316556 -0.1614158005 0.5169290304 4289612562
-0.2830017507 -0.1608818322 0.5170571208 4289546769
-0.2826083601 -0.1600850374 0.5163383484 4289546769
-0.2831413448 -0.1598127186 0.5173121691 4289415183
-0.2836743593 -0.1595382541 0.5182859898 4289349390
-0.2832801640 -0.1587420255 0.5175657868 4289349390
-0.2842767537 -0.1587239504 0.5193865895 4289283597
-0.2843458951 -0.1581858695 0.5195128918 4289349390
-0.2844147980 -0.1576473862 0.5196388364 4289546769
-0.2849476337 -0.1573648155 0.5206122994 4289613078
-0.2854804397 -0.1570800990 0.5215858221 4289613078
-0.2855489850 -0.1565386951 0.5217110515 4289547287
-0.2860817611 -0.1562505513 0.5226843953 4289547287
-0.2861500084 -0.1557074785 0.5228090882 4289547287
-0.2862180471 -0.1551640332 0.5229334235 4289613080
-0.2867506146 -0.1548711956 0.5239064693 4289547800
-0.2872832119 -0.1545762122 0.5248795748 4289547800
-0.2887457609 -0.1547775418 0.5275517106 4289481753
-0.2883484662 -0.1539797634 0.5268257856 4289415960
-0.2893462777 -0.1539257914 0.5286488533 4289547289
-0.2903442979 -0.1538678706 0.5304722786 4289547289
-0.2899463773 -0.1530689448 0.5297452211 4289089316
-0.2909445167 -0.1530058235 0.5315688848 4289023523
-0.2919428945 -0.1529387832 0.5333929658 4288434735
-0.2915443182 -0.1521386951 0.5326647758 4288632114
-0.2925427854 -0.1520664394 0.5344890356 4288436792
-0.2935414910 -0.1519902349 0.5363136530 4288436792
-0.2931422591 -0.1511889994 0.5355842710 4287977529
-0.2941410542 -0.1511075795 0.5374091268 4288174908
-0.2937412858 -0.1503064632 0.5366787314 4287388225
-0.2947401702 -0.1502198279 0.5385037065 4287059260
-0.2948063016 -0.1496556550 0.5386245847 4287063896
-0.2786331177 -0.1915621310 0.5101093650 4289358668
-0.2805353701 -0.1922998428 0.5135919452 4289029703
-0.2797052562 -0.1911623925 0.5120722055 4289880892
-0.2806971371 -0.1912698597 0.5138880610 4290144064
-0.2807777524 -0.1907541901 0.5140357018 4290863666
-0.2804022729 -0.1899292618 0.5133482814 4290797873
-0.2818506360 -0.1903375089 0.5159998536 4290797101
-0.2814747989 -0.1895117015 0.5153117776 4290862894
-0.2810985446 -0.1886871159 0.5146229267 4290863155
-0.2816347480 -0.1884746999 0.5156046152 4290863155
-0.2812578976 -0.1876509190 0.5149146914 4290993966
-0.2817940116 -0.1874359548 0.5158962011 4290862380
-0.2823302448 -0.1872188598 0.5168778896 4290664998
-0.2819525898 -0.1863954365 0.5161864758 4290730791
-0.2824887037 -0.1861757785 0.5171679854 4290599975
-0.2830248773 -0.1859539896 0.5181496143 4290534182
-0.2826464474 -0.1851309538 0.5174567699 4290468902
-0.2827250361 -0.1846078783 0.5176007152 4290403109
-0.2832610905 -0.1843822449 0.5185820460 4290337316
-0.2833394706 -0.1838574558 0.5187255144 4290337316
-0.2829597890 -0.1830360442 0.5180304646 4290468902
-0.2834956646 -0.1828065664 0.5190114975 4290337316
-0.2831153870 -0.1819859892 0.5183153152 4290271010
-0.2831929326 -0.1814603209 0.5184572339 4290205217
-0.2828119099 -0.1806414425 0.5177596807 4290402080
-0.2828889489 -0.1801157594 0.5179007053 4290467873
-0.2825071812 -0.1792985648 0.5172018409 4290533153
-0.2821249664 -0.1784826666 0.5165021420 4290401567
-0.2826600969 -0.1782467663 0.5174817443 4290533666
-0.2822772861 -0.1774317175 0.5167809129 4290533666
-0.2823531330 -0.1769056022 0.5169198513 4290467873
-0.2819696069 -0.1760922670 0.5162176490 4290336287
-0.2815856040 -0.1752802283 0.5155146718 4290402080
-0.2816606760 -0.1747545600 0.5156521201 4290402080
-0.2812759578 -0.1739442497 0.5149477720 4290402080
-0.2822699845 -0.1739853323 0.5167676210 4290467873
-0.2818847895 -0.1731750518 0.5160623789 4290402080
-0.2819591165 -0.1726476997 0.5161984563 4290402080
-0.2820332348 -0.1721199453 0.5163341761 4290467873
-0.2825674117 -0.1718716919 0.5173120499 4290467873
-0.2821809649 -0.1710631847 0.5166046023 4290467871
-0.2827149630 -0.1708123833 0.5175822377 4290467871
-0.2827884555 -0.1702820957 0.5177168250 4290467871
-0.2824010849 -0.1694749445 0.5170075893 4290402078
-0.2829349041 -0.1692202985 0.5179848671 4290138908
-0.2825469077 -0.1684140414 0.5172745585 4290007322
-0.2826195061 -0.1678829938 0.5174074769 4290007320
-0.2822307646 -0.1670785099 0.5166957974 4290007320
-0.2818416059 -0.1662753671 0.5159833431 4290007318
-0.2819134295 -0.1657448262 0.5161147714 4290007318
-0.2819850147 -0.1652138680 0.5162459016 4290073364
-0.2820564508 -0.1646825075 0.5163766146 4290073364
-0.2816659212 -0.1638820916 0.5156616569 4290073364
-0.2817368209 -0.1633507907 0.5157914758 4290139157
-0.2813455760 -0.1625521928 0.5150752068 4290007573
-0.2818780541 -0.1622870117 0.5160501003 4289810194
-0.2814861834 -0.1614893526 0.5153326392 4289744148
-0.2820185125 -0.1612216383 0.5163072348 4289612562
-0.2820884585 -0.1606883407 0.5164352655 4289612562
-0.2821581960 -0.1601546556 0.5165629387 4289612562
-0.2822277248 -0.1596205831 0.5166901946 4289744148
-0.2827598453 -0.1593469083 0.5176643729 4289480976
-0.2823662162 -0.1585512459 0.5169437528 4289217804
-0.2833611667 -0.1585340649 0.5187652707 4289020425
-0.2838932574 -0.1582548320 0.5197393894 4289020425
-0.2834988832 -0.1574588716 0.5190173984 4289217804
-0.2844941616 -0.1574334949 0.5208395123 4289480978
-0.2845627367 -0.1568931490 0.5209650397 4289612564
-0.2841675580 -0.1560977846 0.5202415586 4289481492
-0.2851629853 -0.1560650617 0.5220639706 4289481492
-0.2852310538 -0.1555226743 0.5221886039 4289547285
-0.2848350406 -0.1547279060 0.5214635730 4289547285
-0.2858306468 -0.1546878517 0.5232862830 4289547285
-0.2863623202 -0.1543936580 0.5242596865 4289547285
-0.2868940532 -0.1540973037 0.5252330899 4289481494
-0.2874257863 -0.1537987888 0.5262065530 4289415701
-0.2874930501 -0.1532505453 0.5263297558 4289350167
-0.2880246937 -0.1529486030 0.5273030400 4289350167
-0.2885563374 -0.1526445150 0.5282763243 4289088286
-0.2895527482 -0.1525831819 0.5301005244 4289154079
-0.2900845110 -0.1522738785 0.5310740471 4288761641
-0.2906162441 -0.1519624144 0.5320475698 4288893227
-0.2911480069 -0.1516487896 0.5330210924 4288500785
-0.2916797698 -0.1513330042 0.5339946151 4288632371
-0.2922115326 -0.1510150582 0.5349681377 4288304436
-0.2927432656 -0.1506949514 0.5359416008 4288436022
-0.2923439741 -0.1498953104 0.5352106094 4287780153
-0.2938067317 -0.1500482410 0.5378885865 4287451188
-0.2943384647 -0.1497216374 0.5388620496 4287060040
-0.2944043577 -0.1491568536 0.5389826894 4287849556
-0.2807000577 -0.1916611195 0.5149393082 4290667318
-0.2807807624 -0.1911444515 0.5150873661 4290666287
-0.2813969553 -0.1904179007 0.5162177682 4291059759
-0.2810218036 -0.1895917654 0.5155295134 4290993966
-0.2815574110 -0.1893797666 0.5165120959 4290862896
-0.2811816335 -0.1885544360 0.5158227682 4290862896
-0.2812612951 -0.1880351007 0.5159688592 4290731563
-0.2813407779 -0.1875153333 0.5161147118 4290599977
-0.2818762064 -0.1872981936 0.5170968771 4290534184
-0.2819554508 -0.1867766976 0.5172423124 4290599977
-0.2820345461 -0.1862547547 0.5173873901 4290599977
-0.2822706997 -0.1846863180 0.5178206563 4290534695
-0.2823490798 -0.1841626316 0.5179644227 4290403109
-0.2824272811 -0.1836385131 0.5181078315 4290403109
-0.2820481658 -0.1828176528 0.5174123645 4290402855
-0.2825831175 -0.1825889647 0.5183937550 4290402855
-0.2817460001 -0.1814743429 0.5168580413 4290402598
-0.2818232179 -0.1809501797 0.5169997215 4290402598
-0.2819002569 -0.1804255992 0.5171410441 4290402596
-0.2815193534 -0.1796085387 0.5164422989 4290468389
-0.2815959156 -0.1790839434 0.5165827274 4290599459
-0.2812142670 -0.1782685816 0.5158826113 4290533666
-0.2812903225 -0.1777439862 0.5160221457 4290598946
-0.2809079587 -0.1769303381 0.5153206587 4290598946
-0.2805251479 -0.1761179864 0.5146183968 4290533151
-0.2806003988 -0.1755938381 0.5147564411 4290533151
-0.2806754708 -0.1750692576 0.5148941875 4290598944
-0.2808250785 -0.1740188450 0.5151686072 4290533151
-0.2808995843 -0.1734930128 0.5153053403 4290467358
-0.2809739411 -0.1729667634 0.5154417157 4290533151
-0.2815813720 -0.1721939147 0.5165560842 4290598944
-0.2817289829 -0.1711367816 0.5168268681 4290533664
-0.2818025053 -0.1706075966 0.5169616938 4290533664
-0.2818758190 -0.1700779796 0.5170962214 4290467871
-0.2815618515 -0.1687418073 0.5165202022 4290269983
-0.2816344798 -0.1682118326 0.5166534781 4290138397
-0.2817069292 -0.1676814556 0.5167863369 4290138395
-0.2813187540 -0.1668775380 0.5160742402 4290138395
-0.2809301615 -0.1660749465 0.5153613687 4290072854
-0.2806835771 -0.1642144620 0.5149090290 4290073366
-0.2809661627 -0.1620912105 0.5154274702 4290007318
-0.2815678716 -0.1612915993 0.5165312886 4289678355
-0.2817074358 -0.1602242291 0.5167872906 4289678357
-0.2822388411 -0.1599517465 0.5177621841 4289678873
-0.2823774517 -0.1588802487 0.5180164576 4289349906
-0.2829087377 -0.1586030722 0.5189910531 4289152527
-0.2825152576 -0.1578071862 0.5182692409 4289020943
-0.2835088670 -0.1577848643 0.5200919509 4289020943
-0.2840400934 -0.1575021148 0.5210664868 4289086736
-0.2836458981 -0.1567059308 0.5203434229 4289152529
-0.2841769457 -0.1564206332 0.5213176012 4289153042
-0.2847080231 -0.1561331898 0.5222918391 4289284628
-0.2843130231 -0.1553376019 0.5215671659 4289416214
-0.2848438919 -0.1550476253 0.5225411057 4289416214
-0.2853747904 -0.1547554731 0.5235149860 4289415960
-0.2859057188 -0.1544611752 0.5244889855 4289415960
-0.2864366174 -0.1541647315 0.5254629254 4289415960
-0.2865039706 -0.1536175460 0.5255864859 4289350167
-0.2870348096 -0.1533176601 0.5265602469 4289350168
-0.2875656486 -0.1530156285 0.5275340676 4289284375
-0.2880964875 -0.1527114213 0.5285079479 4289153052
-0.2890913785 -0.1526500881 0.5303330421 4289153052
-0.2896223366 -0.1523406953 0.5313071012 4288825892
-0.2896890640 -0.1517858803 0.5314294696 4288891685
-0.2902199328 -0.1514730304 0.5324033499 4288434220
-0.2907508016 -0.1511580348 0.5333771706 4288500013
-0.2922107875 -0.1513220221 0.5360555053 4288500787
-0.2918125093 -0.1505215466 0.5353248715 4288369201
-0.2932729125 -0.1506776363 0.5380039811 4288107577
-0.2942688465 -0.1505900919 0.5398309827 4288107577
-0.2938700020 -0.1497875750 0.5390993357 4287386434
-0.2948660254 -0.1496947855 0.5409265161 4287320641
-0.2949318588 -0.1491276324 0.5410472751 4287521880
-0.2748519778 -0.1908549666 0.5052393079 4289947459
-0.2781077921 -0.1925482899 0.5112242103 4289881666
-0.2777347565 -0.1917233020 0.5105385184 4290994482
-0.2805389166 -0.1930866092 0.5156931877 4290994482
-0.2792577744 -0.1916350126 0.5133382082 4290732852
-0.2802467346 -0.1917418242 0.5151561499 4290601266
-0.2803273797 -0.1912249774 0.5153043270 4290601266
-0.2808623016 -0.1910167783 0.5162876844 4290667059
-0.2809427083 -0.1904982030 0.5164355040 4291125551
-0.2814776897 -0.1902866066 0.5174189210 4291059758
-0.2811030447 -0.1894597262 0.5167301893 4290863149
-0.2811829448 -0.1889398247 0.5168770552 4290797356
-0.2812626660 -0.1884194762 0.5170236230 4290666279
-0.2813422084 -0.1878986955 0.5171698332 4290600486
-0.2809662223 -0.1870742589 0.5164786577 4290665515
-0.2810452878 -0.1865534335 0.5166240335 4290665515
-0.2815797925 -0.1863336712 0.5176066160 4290731561
-0.2812028825 -0.1855104566 0.5169137120 4290731561
-0.2812814116 -0.1849883050 0.5170581341 4290796838
-0.2813597918 -0.1844657362 0.5172021389 4290731045
-0.2814379632 -0.1839427203 0.5173458457 4290731045
-0.2815159857 -0.1834192574 0.5174892545 4290731045
-0.2815937996 -0.1828953773 0.5176323056 4290599205
-0.2816714346 -0.1823710501 0.5177750587 4290664998
-0.2817489207 -0.1818462908 0.5179174542 4290599205
-0.2813694179 -0.1810272336 0.5172198415 4290599205
-0.2809894979 -0.1802094430 0.5165215135 4290665252
-0.2810661793 -0.1796851009 0.5166624188 4290731045
-0.2811426520 -0.1791603267 0.5168030262 4290534180
-0.2807617188 -0.1783446521 0.5161027312 4290468387
-0.2808377147 -0.1778198779 0.5162424445 4290663967
-0.2804560065 -0.1770059317 0.5155408382 4290598174
-0.2805315256 -0.1764811575 0.5156795979 4290729760
-0.2796913385 -0.1753818840 0.5141351223 4290795553
-0.2797662318 -0.1748579890 0.5142728090 4290795553
-0.2798409462 -0.1743336618 0.5144101977 4290795553
-0.2799154520 -0.1738089323 0.5145471692 4290598944
-0.2799898088 -0.1732837707 0.5146838427 4290533151
-0.2800639570 -0.1727581918 0.5148201585 4290598944
-0.2805964351 -0.1725140810 0.5157989264 4290598944
-0.2806703448 -0.1719868183 0.5159347653 4290664737
-0.2807440460 -0.1714591235 0.5160703063 4290664737
-0.2808175683 -0.1709310263 0.5162054300 4290664737
-0.2808909118 -0.1704025120 0.5163402557 4290598944
-0.2809640765 -0.1698735803 0.5164747238 4290467358
-0.2810370326 -0.1693442315 0.5166088343 4290335772
-0.2806504667 -0.1685386300 0.5158982873 4290204190
-0.2811823785 -0.1682843119 0.5168760419 4290204190
-0.2807952166 -0.1674796194 0.5161643624 4290138395
-0.2804076076 -0.1666762680 0.5154518485 4290138395
-0.2809391916 -0.1664189845 0.5164290071 4290072854
-0.2805509567 -0.1656165421 0.5157153606 4290072854
-0.2806223333 -0.1650860757 0.5158465505 4290007318
-0.2806935310 -0.1645551920 0.5159774423 4290073111
-0.2807645500 -0.1640239209 0.5161079764 4290073366
-0.2799145877 -0.1629561931 0.5145455599 4290139159
-0.2804454565 -0.1626930088 0.5155214071 4290204697
-0.2800551355 -0.1618951261 0.5148039460 4290138904
-0.2805858552 -0.1616293937 0.5157794952 4289941527
-0.2806557715 -0.1610969752 0.5159080029 4289809941
-0.2807255089 -0.1605641842 0.5160361528 4289744150
-0.2807950079 -0.1600309759 0.5161639452 4289678357
-0.2813255191 -0.1597592831 0.5171391964 4289613080
-0.2809334695 -0.1589633822 0.5164184570 4289547287
-0.2810023725 -0.1584289968 0.5165451765 4289613080
-0.2819941640 -0.1584127545 0.5183683038 4289613080
-0.2820629179 -0.1578758359 0.5184946656 4289481496
-0.2812079787 -0.1568234861 0.5169230700 4289284117
-0.2826617062 -0.1570574343 0.5195953250 4289021202
-0.2827299535 -0.1565184444 0.5197208524 4288955409
-0.2827980220 -0.1559790671 0.5198459625 4289021202
-0.2833280861 -0.1556932926 0.5208203197 4289152788
-0.2838581502 -0.1554053724 0.5217947364 4289350167
-0.2839258313 -0.1548630595 0.5219191313 4289350167
-0.2844558358 -0.1545717120 0.5228933692 4289350167
-0.2845231891 -0.1540277451 0.5230172276 4289350167
-0.2850531042 -0.1537329704 0.5239912868 4289350167
-0.2855830491 -0.1534360349 0.5249654651 4289284374
-0.2861129642 -0.1531369388 0.5259395838 4289481243
-0.2866429090 -0.1528356820 0.5269137621 4289283864
-0.2871728837 -0.1525322795 0.5278878808 4289086746
-0.2877028286 -0.1522267014 0.5288621187 4289086746
-0.2882328033 -0.1519189775 0.5298362970 4288824863
-0.2887627482 -0.1516090780 0.5308104753 4288956449
-0.2888291180 -0.1510545611 0.5309324265 4288630055
-0.2893589735 -0.1507412344 0.5319064260 4288761641
-0.2898888290 -0.1504257321 0.5328804255 4288500274
-0.2904186845 -0.1501080841 0.5338544250 4288500274
-0.2909485400 -0.1497882605 0.5348284245 4288106807
-0.2919425070 -0.1497042775 0.5366555452 4287843635
-0.2929366827 -0.1496163458 0.5384830832 4287320381
-0.2930023670 -0.1490520239 0.5386038423 4287517760
-0.2953900993 -0.1496639252 0.5429930091 4287126090
-0.2949913144 -0.1488599330 0.5422599316 4287586641
-0.2774951458 -0.1936514974 0.5111404657 4289031510
-0.2784818113 -0.1937706620 0.5129578710 4290405176
-0.2776570916 -0.1926290840 0.5114387274 4290405176
-0.2790970504 -0.1930574179 0.5140911341 4291059759
-0.2791779935 -0.1925425828 0.5142402053 4291125552
-0.2792587578 -0.1920273006 0.5143890381 4290666805
-0.2797928452 -0.1918224692 0.5153727531 4290535219
-0.2803270221 -0.1916155070 0.5163567066 4290732080
-0.2808612883 -0.1914064288 0.5173408389 4290797873
-0.2804878950 -0.1905784607 0.5166530609 4291125549
-0.2810220718 -0.1903668195 0.5176370144 4291059756
-0.2811022103 -0.1898463368 0.5177845955 4290797867
-0.2807279229 -0.1890195608 0.5170952082 4290732074
-0.2808075845 -0.1884990335 0.5172418952 4290666792
-0.2808870673 -0.1879780740 0.5173883438 4290600999
-0.2805117667 -0.1871533394 0.5166969895 4290665770
-0.2805907726 -0.1866323352 0.5168425441 4290731563
-0.2806695998 -0.1861108840 0.5169877410 4290863147
-0.2812032700 -0.1858897954 0.5179707408 4290863147
-0.2808267176 -0.1850666851 0.5172771811 4290993704
-0.2809050381 -0.1845439225 0.5174214244 4290993704
-0.2805277407 -0.1837224811 0.5167264342 4291124520
-0.2810610831 -0.1834971011 0.5177088976 4291124520
-0.2811388671 -0.1829730272 0.5178521276 4291058729
-0.2807606757 -0.1821528226 0.5171554685 4291058729
-0.2808379531 -0.1816287488 0.5172978044 4290862118
-0.2809150517 -0.1811042279 0.5174398422 4290862118
-0.2805358171 -0.1802861243 0.5167412758 4290862631
-0.2801561356 -0.1794693023 0.5160419345 4290796838
-0.2802324593 -0.1789452136 0.5161825418 4290534180
-0.2803085744 -0.1784206778 0.5163227320 4290402594
-0.2799278498 -0.1776059866 0.5156214833 4290467360
-0.2800034881 -0.1770814657 0.5157607794 4290533153
-0.2796220481 -0.1762684882 0.5150581598 4290664739
-0.2796972096 -0.1757439673 0.5151966214 4290796325
-0.2793150246 -0.1749327183 0.5144926310 4290664739
-0.2793896794 -0.1744082123 0.5146301389 4290598946
-0.2794641554 -0.1738832891 0.5147672892 4290598946
-0.2795384228 -0.1733579487 0.5149041414 4290533153
-0.2796125412 -0.1728321910 0.5150406361 4290533151
-0.2796864510 -0.1723060012 0.5151767731 4290533151
-0.2797601819 -0.1717794091 0.5153126121 4290598944
-0.2802917063 -0.1715326756 0.5162916780 4290664737
-0.2803651989 -0.1710043848 0.5164270401 4290862116
-0.2799802423 -0.1701971292 0.5157179236 4290730530
-0.2800532281 -0.1696688682 0.5158523917 4290467358
-0.2801260054 -0.1691402048 0.5159864426 4290204186
-0.2797400057 -0.1683351696 0.5152754784 4290138908
-0.2802710235 -0.1680816263 0.5162535310 4290138908
-0.2803432345 -0.1675517261 0.5163865685 4290073113
-0.2799563110 -0.1667480618 0.5156738758 4290007320
-0.2800280154 -0.1662182063 0.5158059597 4290007318
-0.2796403766 -0.1654163301 0.5150919557 4289941525
-0.2792522907 -0.1646157950 0.5143771172 4289941780
-0.2802420259 -0.1646262258 0.5162001848 4290007573
-0.2798534334 -0.1638257504 0.5154843926 4290007573
-0.2799240947 -0.1632947475 0.5156145096 4290007573
-0.2795347571 -0.1624960750 0.5148974061 4290139159
-0.2796049118 -0.1619651467 0.5150265694 4290204952
-0.2796748281 -0.1614338160 0.5151554346 4290073111
-0.2802046835 -0.1611667275 0.5161314011 4289941525
-0.2802743614 -0.1606337279 0.5162597299 4289809943
-0.2803438306 -0.1601003259 0.5163876414 4289678357
-0.2804130912 -0.1595665365 0.5165152550 4289744150
-0.2804821730 -0.1590323448 0.5166425109 4289744150
-0.2810117304 -0.1587580144 0.5176179409 4289743896
-0.2815412879 -0.1584815383 0.5185933709 4289809689
-0.2811490893 -0.1576859206 0.5178709626 4289613080
-0.2812174857 -0.1571492702 0.5179969668 4289481494
-0.2817468047 -0.1568689793 0.5189719200 4289349908
-0.2818149030 -0.1563306749 0.5190973878 4289349908
-0.2818827927 -0.1557919830 0.5192224383 4289218322
-0.2824119627 -0.1555069983 0.5201971531 4289284115
-0.2829411328 -0.1552198678 0.5211718678 4289284374
-0.2825469673 -0.1544259191 0.5204458237 4289284374
-0.2835377455 -0.1543876827 0.5222707987 4289350167
-0.2836049497 -0.1538444012 0.5223945975 4289350167
-0.2841339707 -0.1535504013 0.5233690739 4289284374
-0.2846629918 -0.1532542557 0.5243434906 4289218581
-0.2851920426 -0.1529559493 0.5253179669 4289349657
-0.2857210934 -0.1526554823 0.5262924433 4289218071
-0.2862501442 -0.1523528546 0.5272669792 4289086744
-0.2867791951 -0.1520480663 0.5282415152 4289086744
-0.2873082459 -0.1517411321 0.5292159915 4288890395
-0.2878373265 -0.1514320225 0.5301905274 4288956188
-0.2879035175 -0.1508781761 0.5303124785 4288695076
-0.2884324789 -0.1505656242 0.5312868357 4288826662
-0.2889614403 -0.1502509266 0.5322611332 4288368427
-0.2894904017 -0.1499340534 0.5332354903 4288500013
-0.2895560563 -0.1493760049 0.5333564281 4287975989
-0.2910116911 -0.1495319158 0.5360376835 4287712817
-0.2920042574 -0.1494448632 0.5378659368 4287254586
-0.2916061878 -0.1486448944 0.5371326804 4287386172
-0.2935262024 -0.1490234584 0.5406693816 4286993216
-0.2940554321 -0.1486908942 0.5416441560 4287059009
-0.2945846319 -0.1483561695 0.5426189899 4286539611
-0.2779479027 -0.1943646371 0.5130227804 4289882181
-0.2790958285 -0.1934519112 0.5151416063 4290797356
-0.2796293199 -0.1932487637 0.5161262751 4290863149
-0.2797103226 -0.1927316338 0.5162757635 4290732082
-0.2802438438 -0.1925250888 0.5172605515 4290666289
-0.2803246081 -0.1920062304 0.5174096227 4290862894
-0.2804052234 -0.1914869249 0.5175583959 4290928687
-0.2800325155 -0.1906586587 0.5168704391 4291125549
-0.2801126242 -0.1901392937 0.5170183182 4291059756
-0.2801925838 -0.1896194816 0.5171658993 4290732333
-0.2802723646 -0.1890992373 0.5173131227 4290666540
-0.2803519368 -0.1885785311 0.5174600482 4290732331
-0.2799775898 -0.1877530962 0.5167691112 4290798124
-0.2800567150 -0.1872323602 0.5169151425 4290798127
-0.2801356614 -0.1867111772 0.5170608759 4290863920
-0.2802144289 -0.1861895621 0.5172062516 4291127092
-0.2798387408 -0.1853665859 0.5165128112 4291324471
-0.2799170315 -0.1848449260 0.5166573524 4291390012
-0.2799951434 -0.1843228340 0.5168015361 4291390012
-0.2800731063 -0.1838003099 0.5169453621 4291455294
-0.2801508605 -0.1832773536 0.5170888901 4291455294
-0.2797735035 -0.1824572831 0.5163924098 4291257913
-0.2803058326 -0.1822301298 0.5173749328 4291257913
-0.2799278796 -0.1814108789 0.5166773200 4291192372
-0.2795495093 -0.1805929095 0.5159789324 4291258165
-0.2796261013 -0.1800694913 0.5161203742 4291323957
-0.2792470157 -0.1792532206 0.5154206157 4291126578
-0.2793231308 -0.1787297875 0.5155611038 4290863406
-0.2789432704 -0.1779152155 0.5148600340 4290731820
-0.2794748247 -0.1776816398 0.5158411264 4290796584
-0.2790943682 -0.1768679321 0.5151388645 4290730791
-0.2787134945 -0.1760555059 0.5144358873 4290730791
-0.2783321738 -0.1752443761 0.5137320161 4290730791
-0.2784068286 -0.1747209728 0.5138698220 4290599205
-0.2784813046 -0.1741971374 0.5140073299 4290467619
-0.2790122330 -0.1739576012 0.5149872899 4290467873
-0.2786296904 -0.1731482148 0.5142812133 4290402080
-0.2787036300 -0.1726231277 0.5144176483 4290467873
-0.2792343795 -0.1723797619 0.5153973103 4290467873
-0.2793080509 -0.1718529761 0.5155332685 4290598946
-0.2793815434 -0.1713257730 0.5156689286 4290796325
-0.2794548273 -0.1707981527 0.5158042312 4291059495
-0.2790704668 -0.1699914485 0.5150947571 4290927909
-0.2791432440 -0.1694638729 0.5152291059 4290467358
-0.2787581384 -0.1686589420 0.5145182610 4290138393
-0.2792882919 -0.1684074849 0.5154967904 4290269981
-0.2789025605 -0.1676034480 0.5147848725 4290269981
-0.2789745033 -0.1670750976 0.5149176121 4290138393
-0.2790462375 -0.1665463299 0.5150499940 4290072600
-0.2786594629 -0.1657445580 0.5143361092 4290007060
-0.2791891396 -0.1654875875 0.5153138041 4290007060
-0.2788017392 -0.1646867245 0.5145987272 4289941267
-0.2788725793 -0.1641572118 0.5147295594 4290007060
-0.2789432406 -0.1636272967 0.5148599744 4290007060
-0.2785548270 -0.1628287137 0.5141429901 4290007060
-0.2786249816 -0.1622988582 0.5142725110 4290072853
-0.2791540623 -0.1620351225 0.5152490735 4290138646
-0.2792239785 -0.1615035981 0.5153780580 4290138647
-0.2792936563 -0.1609716713 0.5155067444 4290072854
-0.2793631554 -0.1604393423 0.5156350136 4289941016
-0.2794324458 -0.1599066257 0.5157629251 4289809430
-0.2795015574 -0.1593735069 0.5158904791 4289678357
-0.2795704603 -0.1588400006 0.5160176158 4289678357
-0.2800991237 -0.1585664749 0.5169934034 4289612310
-0.2806963325 -0.1577543467 0.5180956721 4289612310
-0.2812931836 -0.1569371223 0.5191973448 4289481494
-0.2818896770 -0.1561148167 0.5202983618 4289349910
-0.2824181616 -0.1558288485 0.5212737918 4289284117
-0.2825532854 -0.1547455937 0.5215231776 4289218582
-0.2826205492 -0.1542033702 0.5216473341 4289218582
-0.2831487656 -0.1539114416 0.5226222873 4289218582
-0.2836769819 -0.1536173522 0.5235972404 4289218582
-0.2842052281 -0.1533211023 0.5245722532 4289218582
-0.2847334743 -0.1530227065 0.5255472660 4289152276
-0.2852617204 -0.1527221352 0.5265222788 4289152276
-0.2857899666 -0.1524194181 0.5274972916 4288955669
-0.2863182425 -0.1521145254 0.5284723639 4288955669
-0.2868465185 -0.1518074721 0.5294474363 4288890648
-0.2873747945 -0.1514982581 0.5304225087 4288890648
-0.2879030704 -0.1511868834 0.5313975215 4288694045
-0.2884313464 -0.1508733332 0.5323725939 4288825631
-0.2894219458 -0.1507985294 0.5342010260 4288433193
-0.2881005704 -0.1495197564 0.5317620635 4288433193
-0.2900161445 -0.1499197185 0.5352977514 4287910196
-0.2914697230 -0.1500739306 0.5379806757 4287910196
-0.2896843851 -0.1485611796 0.5346854329 4287451449
-0.2925266325 -0.1494194269 0.5399314761 4287188277
-0.2921291292 -0.1486178637 0.5391978025 4287057209
-0.2931204140 -0.1485216171 0.5410274863 4287517760
-0.2936487198 -0.1481876522 0.5420026183 4286536525
-0.2946403027 -0.1480843574 0.5438327789 4287194455
-0.2774133384 -0.1949584484 0.5130867958 4290406205
-0.2788483500 -0.1953944266 0.5157408714 4290340412
-0.2784785926 -0.1945635974 0.5150569677 4290798124
-0.2794628143 -0.1946774870 0.5168773532 4290666538
-0.2795442045 -0.1941602677 0.5170278549 4290731559
-0.2796254158 -0.1936425865 0.5171780586 4290797352
-0.2797064781 -0.1931244433 0.5173279643 4290862896
-0.2793353498 -0.1922947019 0.5166415572 4290928689
-0.2798680365 -0.1920868307 0.5176268220 4291387440
-0.2799485624 -0.1915673465 0.5177757740 4291453233
-0.2800289392 -0.1910474300 0.5179243684 4291257135
-0.2801091075 -0.1905270517 0.5180727243 4291125549
-0.2797364891 -0.1896992624 0.5173835158 4290601262
-0.2798161805 -0.1891788393 0.5175309181 4290601262
-0.2798957229 -0.1886579692 0.5176780224 4290995506
-0.2799750865 -0.1881366521 0.5178248286 4291258678
-0.2796011269 -0.1873113215 0.5171331167 4290997051
-0.2796800137 -0.1867899597 0.5172790289 4291062844
-0.2797587216 -0.1862681657 0.5174246430 4291326018
-0.2798372507 -0.1857459247 0.5175698400 4291654983
-0.2794619203 -0.1849230528 0.5168756843 4291786577
-0.2795399725 -0.1844007820 0.5170200467 4291983956
-0.2796178460 -0.1838780791 0.5171641111 4291852887
-0.2792415023 -0.1830572933 0.5164679885 4291721301
-0.2793188989 -0.1825345606 0.5166111588 4291589970
-0.2793961167 -0.1820114106 0.5167539716 4291589970
-0.2794731557 -0.1814878136 0.5168964267 4291721036
-0.2790954411 -0.1806695312 0.5161978602 4291655243
-0.2787173092 -0.1798525304 0.5154985189 4291654981
-0.2787935734 -0.1793293506 0.5156395435 4291326016
-0.2788696289 -0.1788057387 0.5157802105 4291062328
-0.2784904540 -0.1779908687 0.5150789618 4290930742
-0.2785660326 -0.1774672568 0.5152187347 4291060785
-0.2781861424 -0.1766541004 0.5145160556 4290863406
-0.2782612443 -0.1761305034 0.5146549940 4290666281
-0.2778806090 -0.1753190607 0.5139509439 4290468902
-0.2784108520 -0.1750820130 0.5149317384 4290336803
-0.2775738239 -0.1739857644 0.5133836269 4290271010
-0.2776479423 -0.1734621823 0.5135206580 4290271010
-0.2781779170 -0.1732221693 0.5145008564 4290271010
-0.2782517672 -0.1726968884 0.5146374702 4290336287
-0.2778691947 -0.1718889624 0.5139298439 4290467873
-0.2779425681 -0.1713637114 0.5140655637 4290599459
-0.2784722745 -0.1711185724 0.5150452852 4290862631
-0.2785453796 -0.1705916375 0.5151805282 4291125290
-0.2786183059 -0.1700642854 0.5153154135 4290993704
-0.2786910534 -0.1695365161 0.5154499412 4290467358
-0.2783066332 -0.1687312722 0.5147389174 4290138393
-0.2783788741 -0.1682035476 0.5148725510 4290335776
-0.2784509361 -0.1676754057 0.5150058270 4290335776
-0.2785228193 -0.1671468616 0.5151388049 4290204186
-0.2785944939 -0.1666179001 0.5152713656 4290006807
-0.2786659896 -0.1660885364 0.5154035687 4290007060
-0.2782796025 -0.1652869135 0.5146889091 4290007060
-0.2788084149 -0.1650286019 0.5156669617 4289941267
-0.2784214020 -0.1642279029 0.5149511695 4289941267
-0.2784920037 -0.1636977941 0.5150817633 4289941267
-0.2781042457 -0.1628989130 0.5143646002 4290007060
-0.2781743705 -0.1623688638 0.5144942999 4290007060
-0.2782442868 -0.1618384123 0.5146235824 4290072853
-0.2783139944 -0.1613075733 0.5147525668 4290335256
-0.2783835232 -0.1607763320 0.5148811340 4290203670
-0.2784528434 -0.1602446884 0.5150093436 4290071832
-0.2785219848 -0.1597126424 0.5151372552 4290006039
-0.2785909176 -0.1591802090 0.5152647495 4289480726
-0.2786596715 -0.1586473882 0.5153918862 4289546519
-0.2791874111 -0.1583746523 0.5163679719 4289546520
-0.2797151804 -0.1580997556 0.5173440576 4289546520
-0.2793241143 -0.1573052704 0.5166208148 4289546520
-0.2798517048 -0.1570278257 0.5175966620 4289480727
-0.2803793252 -0.1567482501 0.5185724497 4289283862
-0.2804472148 -0.1562104225 0.5186980367 4289283862
-0.2809747756 -0.1559274048 0.5196737647 4289218582
-0.2815023363 -0.1556422412 0.5206494927 4289218582
-0.2815698385 -0.1551014781 0.5207743645 4289218330
-0.2807167768 -0.1540552378 0.5191965699 4289218330
-0.2821645439 -0.1542704701 0.5218743086 4289153050
-0.2822315693 -0.1537276655 0.5219982266 4289087257
-0.2827588618 -0.1534343660 0.5229735374 4289087257
-0.2832862139 -0.1531389058 0.5239488482 4289153050
-0.2833528221 -0.1525931656 0.5240720510 4289152276
-0.2838800550 -0.1522942781 0.5250471830 4289218069
-0.2844073176 -0.1519932300 0.5260223746 4288824851
-0.2849345803 -0.1516900212 0.5269975662 4288759058
-0.2854618430 -0.1513846517 0.5279727578 4288759319
-0.2859891057 -0.1510771066 0.5289479494 4288759319
-0.2865163684 -0.1507674158 0.5299231410 4288758811
-0.2870436311 -0.1504555494 0.5308983922 4288890397
-0.2880325019 -0.1503825039 0.5327273011 4288497959
-0.2885598838 -0.1500654221 0.5337026715 4288563752
-0.2886254489 -0.1495069563 0.5338239670 4287843889
-0.2900764942 -0.1496630460 0.5365077853 4287712303
-0.2910659611 -0.1495759785 0.5383378267 4287581752
-0.2906692922 -0.1487753689 0.5376041532 4287581752
-0.2930454910 -0.1493899673 0.5419990420 4287581243
-0.2912616432 -0.1478825957 0.5386997461 4287647036
-0.2955537140 -0.1488482356 0.5466380715 4286337602
-0.2785968781 -0.1973390728 0.5163352489 4290341443
-0.2777786255 -0.1961880028 0.5148187280 4290078271
-0.2792113721 -0.1966255009 0.5174740553 4290797873
-0.2788428664 -0.1957923174 0.5167911053 4290534701
-0.2789244950 -0.1952758282 0.5169424415 4290533929
-0.2794567347 -0.1950735152 0.5179288387 4290599722
-0.2795381844 -0.1945552826 0.5180797577 4290797356
-0.2796194553 -0.1940365881 0.5182304382 4290994735
-0.2797005773 -0.1935174465 0.5183807611 4290994735
-0.2793302536 -0.1926865727 0.5176944137 4290863149
-0.2794108987 -0.1921673715 0.5178438425 4290797613
-0.2794913650 -0.1916477233 0.5179929733 4290929199
-0.2795716524 -0.1911276132 0.5181418061 4290666541
-0.2796517611 -0.1906070709 0.5182902813 4290666541
-0.2797317207 -0.1900860667 0.5184384584 4290667316
-0.2793594599 -0.1892583817 0.5177485347 4290864695
-0.2794389427 -0.1887373477 0.5178958178 4291128897
-0.2795182467 -0.1882158518 0.5180428028 4291523655
-0.2791449428 -0.1873902082 0.5173509717 4291262802
-0.2792237699 -0.1868686825 0.5174970627 4291525974
-0.2793024182 -0.1863467097 0.5176427960 4291593058
-0.2793808877 -0.1858242899 0.5177882314 4291922023
-0.2790062428 -0.1850011200 0.5170938969 4291989365
-0.2790842354 -0.1844786704 0.5172384381 4292252537
-0.2787088454 -0.1836571693 0.5165427327 4292187262
-0.2787863612 -0.1831346899 0.5166863799 4292121469
-0.2788636982 -0.1826117933 0.5168297291 4292253309
-0.2784872949 -0.1817923784 0.5161321163 4292187516
-0.2781104445 -0.1809742302 0.5154337287 4292515190
-0.2781870067 -0.1804517359 0.5155755877 4292449397
-0.2782633603 -0.1799287945 0.5157170892 4292250214
-0.2778854966 -0.1791127622 0.5150167942 4291592284
-0.2779613733 -0.1785898358 0.5151574016 4291393359
-0.2780370712 -0.1780664623 0.5152977109 4290932808
-0.2781125903 -0.1775426716 0.5154376626 4291260223
-0.2777333856 -0.1767292172 0.5147348642 4290865465
-0.2778083980 -0.1762054265 0.5148739219 4290667057
-0.2778832614 -0.1756812185 0.5150126219 4290140713
-0.2775030136 -0.1748699099 0.5143078566 4290138654
-0.2771223187 -0.1740598977 0.5136023760 4290204447
-0.2771963775 -0.1735361367 0.5137395859 4290466590
-0.2772702575 -0.1730119586 0.5138764977 4290598176
-0.2773439288 -0.1724873632 0.5140131116 4290402080
-0.2774174511 -0.1719623506 0.5141493082 4290665252
-0.2774907649 -0.1714369208 0.5142852068 4290797356
-0.2775638998 -0.1709110737 0.5144207478 4290797356
-0.2776368260 -0.1703848094 0.5145559311 4290928172
-0.2777096033 -0.1698581427 0.5146907568 4290928172
-0.2777821720 -0.1693310440 0.5148252845 4290729764
-0.2778545618 -0.1688035429 0.5149594545 4290532385
-0.2774703801 -0.1679993123 0.5142474174 4290467108
-0.2779987454 -0.1677473038 0.5152266622 4290467108
-0.2780705690 -0.1672185659 0.5153597593 4290204190
-0.2776854634 -0.1664157212 0.5146460533 4289941018
-0.2777568102 -0.1658870280 0.5147782564 4290006807
-0.2778279185 -0.1653579324 0.5149101019 4290006807
-0.2783559263 -0.1650995463 0.5158886909 4289875475
-0.2779695988 -0.1642985344 0.5151726604 4289875475
-0.2780401707 -0.1637682319 0.5153034329 4289809681
-0.2776530981 -0.1629690379 0.5145860910 4289875474
-0.2777231634 -0.1624388099 0.5147159100 4290007061
-0.2777930200 -0.1619081646 0.5148453712 4290007061
-0.2778626978 -0.1613771319 0.5149745345 4290006807
-0.2779321671 -0.1608456820 0.5151032805 4290072600
-0.2780014277 -0.1603138447 0.5152316689 4290006807
-0.2780705094 -0.1597816199 0.5153596997 4289875221
-0.2781394124 -0.1592489928 0.5154873729 4289612564
-0.2782081068 -0.1587159634 0.5156146884 4289612564
-0.2782765925 -0.1581825465 0.5157416463 4289546771
-0.2788034379 -0.1579084545 0.5167180896 4289415185
-0.2788716555 -0.1573733687 0.5168445110 4289152527
-0.2789396644 -0.1568378806 0.5169705153 4289284113
-0.2794663906 -0.1565590948 0.5179467201 4289284117
-0.2795341015 -0.1560219526 0.5180722475 4289152531
-0.2800607383 -0.1557397246 0.5190482736 4289152791
-0.2810466290 -0.1557097882 0.5208754539 4289152791
-0.2806547582 -0.1549152732 0.5201491714 4289087257
-0.2811813354 -0.1546274722 0.5211251378 4289087257
-0.2817079425 -0.1543375105 0.5221011043 4289087259
-0.2817749083 -0.1537944973 0.5222252011 4289087259
-0.2823014259 -0.1535011083 0.5232010484 4288956441
-0.2828279734 -0.1532055587 0.5241768956 4288890648
-0.2824345231 -0.1524113864 0.5234476924 4289283096
-0.2820406854 -0.1516185999 0.5227177739 4289283096
-0.2834872305 -0.1518130153 0.5253987312 4288890394
-0.2840135992 -0.1515105963 0.5263742208 4288890394
-0.2845399380 -0.1512060165 0.5273497701 4288628250
-0.2850663066 -0.1508992612 0.5283252597 4288562457
-0.2855926752 -0.1505903453 0.5293008089 4288496668
-0.2861190438 -0.1502792686 0.5302763581 4288496668
-0.2866454124 -0.1499660313 0.5312519073 4288562467
-0.2871717811 -0.1496506184 0.5322274566 4288694053
-0.2872371078 -0.1490937173 0.5323485136 4288235822
-0.2886856794 -0.1492516994 0.5350331664 4288170029
-0.2892121375 -0.1489288956 0.5360088944 4287843123
-0.2892771959 -0.1483672857 0.5361295342 4287843123
-0.2911879420 -0.1487482190 0.5396707654 4287581495
-0.2917145789 -0.1484171003 0.5406467915 4287647288
-0.2913178504 -0.1476159245 0.5399115086 4286796090
-0.2936913669 -0.1482144296 0.5443104506 4287190848
-0.2946800292 -0.1481071264 0.5461428165 4286077520
-0.2794878185 -0.1983780414 0.5190536976 4290471485
-0.2795703113 -0.1978602409 0.5192068815 4290142520
-0.2787534297 -0.1967074573 0.5176897645 4290666287
-0.2792850435 -0.1965068430 0.5186770558 4290468908
-0.2789170444 -0.1956729144 0.5179936290 4290402856
-0.2789985836 -0.1951549649 0.5181450844 4290534442
-0.2790799737 -0.1946365684 0.5182962418 4290797613
-0.2796114385 -0.1944307983 0.5192832351 4290929199
-0.2787918448 -0.1932861358 0.5177611113 4290863920
-0.2788725793 -0.1927672178 0.5179110765 4290863920
-0.2789531648 -0.1922478378 0.5180606842 4290469678
-0.2790335715 -0.1917280257 0.5182100534 4290601264
-0.2786628902 -0.1908988506 0.5175216198 4290273328
-0.2787428200 -0.1903789639 0.5176700354 4290470707
-0.2788225710 -0.1898586452 0.5178181529 4290800702
-0.2784508467 -0.1890314966 0.5171278715 4291195460
-0.2785301507 -0.1885111183 0.5172750950 4291590992
-0.2781576812 -0.1876856238 0.5165833831 4292117336
-0.2782365084 -0.1871652007 0.5167297721 4291790954
-0.2787669301 -0.1869473308 0.5177148581 4292185712
-0.2783935964 -0.1861230433 0.5170214772 4292450173
-0.2780198157 -0.1853000075 0.5163273215 4292910724
-0.2780977786 -0.1847786754 0.5164721608 4292978579
-0.2777232528 -0.1839572936 0.5157765746 4293241751
-0.2778007686 -0.1834359318 0.5159205198 4293045659
-0.2778780758 -0.1829141378 0.5160641074 4293045659
-0.2779552341 -0.1823919117 0.5162073970 4293242268
-0.2775793672 -0.1815730333 0.5155093670 4293176475
-0.2772030830 -0.1807554364 0.5148105621 4293372819
-0.2772794664 -0.1802336127 0.5149523616 4293307026
-0.2769024372 -0.1794176996 0.5142521858 4293304706
-0.2770540118 -0.1783736050 0.5145336986 4292053350
-0.2771295309 -0.1778509170 0.5146739483 4291461213
-0.2772048712 -0.1773277968 0.5148138404 4291721289
-0.2768262029 -0.1765148938 0.5141106248 4291194945
-0.2769010663 -0.1759917885 0.5142496228 4290864436
-0.2765216827 -0.1751805991 0.5135450363 4290338092
-0.2761418521 -0.1743707061 0.5128396749 4290205219
-0.2762159109 -0.1738480479 0.5129772425 4290205219
-0.2762897909 -0.1733249575 0.5131143928 4290533153
-0.2763634920 -0.1728014648 0.5132513046 4290664739
-0.2764370143 -0.1722775400 0.5133877993 4290796584
-0.2765103281 -0.1717531979 0.5135239959 4290862377
-0.2765834630 -0.1712284535 0.5136598349 4290862894
-0.2766564190 -0.1707032770 0.5137953162 4290862894
-0.2767291963 -0.1701776981 0.5139304399 4291125551
-0.2768017650 -0.1696517020 0.5140652657 4291059758
-0.2768741846 -0.1691252887 0.5141996741 4290796327
-0.2769463956 -0.1685984582 0.5143337846 4290664741
-0.2765627801 -0.1677947938 0.5136213899 4290532901
-0.2770902216 -0.1675435901 0.5146009326 4290467108
-0.2771618664 -0.1670155227 0.5147340298 4290204190
-0.2772333324 -0.1664870530 0.5148667097 4290006811
-0.2773045897 -0.1659581810 0.5149990916 4290006809
-0.2773756683 -0.1654289067 0.5151310563 4290006809
-0.2774465680 -0.1648992151 0.5152627230 4289941268
-0.2775172591 -0.1643691212 0.5153939724 4289941268
-0.2775877416 -0.1638386250 0.5155249238 4289809681
-0.2767446935 -0.1627705246 0.5139592886 4289875474
-0.2768145800 -0.1622409672 0.5140890479 4289875475
-0.2768842876 -0.1617110074 0.5142184496 4289875475
-0.2769537866 -0.1611806601 0.5143475533 4289875221
-0.2770230770 -0.1606498957 0.5144762397 4289941014
-0.2770921886 -0.1601187438 0.5146046281 4289875221
-0.2771611214 -0.1595871896 0.5147325993 4289809428
-0.2772298455 -0.1590552479 0.5148602128 4289612049
-0.2772983611 -0.1585229039 0.5149874687 4289612049
-0.2778244019 -0.1582508683 0.5159643888 4289612049
-0.2778926492 -0.1577168703 0.5160911679 4289480463
-0.2779606879 -0.1571824551 0.5162175298 4289283599
-0.2780285478 -0.1566476673 0.5163435340 4289349392
-0.2785543203 -0.1563696712 0.5173200369 4289414931
-0.2790801525 -0.1560895145 0.5182965398 4289283345
-0.2791476250 -0.1555517763 0.5184218884 4289086738
-0.2801318765 -0.1555227339 0.5202497840 4289086738
-0.2801991701 -0.1549824625 0.5203747153 4289152276
-0.2798075676 -0.1541890204 0.5196474791 4289152276
-0.2807919681 -0.1541526169 0.5214756727 4289086998
-0.2808587551 -0.1536102891 0.5215997100 4289086998
-0.2813843787 -0.1533176899 0.5225758553 4289086998
-0.2819100022 -0.1530229300 0.5235520601 4289152791
-0.2824356556 -0.1527259946 0.5245282650 4289217303
-0.2830274999 -0.1518791020 0.5256274343 4288890394
-0.2835530639 -0.1515765786 0.5266034603 4288890394
-0.2840786278 -0.1512718946 0.5275795460 4288628250
-0.2846041918 -0.1509650350 0.5285555720 4288562457
-0.2851297557 -0.1506560296 0.5295316577 4288496666
-0.2856553495 -0.1503448337 0.5305077434 4288430873
-0.2871011198 -0.1505139023 0.5331927538 4288431136
-0.2853258848 -0.1489950269 0.5298958421 4288431136
-0.2881526649 -0.1498771161 0.5351457000 4288038184
-0.2891388535 -0.1497939974 0.5369771719 4288103977
-0.2878226638 -0.1485187560 0.5345327854 4287777329
-0.2883481085 -0.1481954604 0.5355086327 4287777329
-0.2920986116 -0.1495208442 0.5424739122 4287581493
-0.2912422717 -0.1484820992 0.5408835411 4287581493
-0.2917680740 -0.1481486857 0.5418601036 4286861368
-0.2932159603 -0.1482793838 0.5445489883 4286992954
-0.2942030728 -0.1481720656 0.5463822484 4286733904
-0.2947291732 -0.1478294283 0.5473592877 4286733904
-0.2788626254 -0.1994950622 0.5189617872 4289032797
-0.2762545943 -0.1970586181 0.5141082406 4288835418
-0.2776821554 -0.1975033283 0.5167649984 4290732852
-0.2800078392 -0.1985790431 0.5210930705 4290338094
-0.2787437737 -0.1971067488 0.5187406540 4290534955
-0.2788257301 -0.1965887100 0.5188931227 4290469162
-0.2789075077 -0.1960702091 0.5190453529 4290468649
-0.2785398662 -0.1952363551 0.5183611512 4290600235
-0.2786211967 -0.1947177798 0.5185124874 4290863407
-0.2787023485 -0.1941987574 0.5186635256 4290929200
-0.2783336639 -0.1933668852 0.5179774165 4290732850
-0.2784143388 -0.1928478032 0.5181275606 4290732850
-0.2784948647 -0.1923282593 0.5182774067 4290207535
-0.2781251669 -0.1914983988 0.5175893903 4290404914
-0.2786553502 -0.1912878156 0.5185760856 4290274360
-0.2787353694 -0.1907669157 0.5187249780 4290866497
-0.2779143155 -0.1896308959 0.5171970129 4291394129
-0.2784442604 -0.1894172877 0.5181832314 4291920473
-0.2780729234 -0.1885902435 0.5174921751 4292184675
-0.2777011693 -0.1877644360 0.5168003440 4292711019
-0.2777799070 -0.1872438490 0.5169468522 4292647556
-0.2778584659 -0.1867228150 0.5170930624 4293108107
-0.2779368758 -0.1862013340 0.5172389746 4293306774
-0.2780150771 -0.1856794208 0.5173845291 4293701532
-0.2771902382 -0.1845559031 0.5158494711 4293506723
-0.2772678435 -0.1840348095 0.5159939528 4293638309
-0.2773452699 -0.1835132688 0.5161380172 4293507754
-0.2774225473 -0.1829912961 0.5162818432 4293639340
-0.2770476639 -0.1821717024 0.5155841708 4293705133
-0.2771244645 -0.1816497147 0.5157271028 4293441961
-0.2762966454 -0.1805363297 0.5141865611 4293702560
-0.2763728201 -0.1800151765 0.5143283010 4293505181
-0.2764488161 -0.1794936061 0.5144697428 4293634447
-0.2765246332 -0.1789715886 0.5146108270 4293042310
-0.2761475742 -0.1781570911 0.5139091015 4292711286
-0.2762229145 -0.1776350737 0.5140492916 4292053356
-0.2762980461 -0.1771126240 0.5141891837 4292248150
-0.2763730288 -0.1765897572 0.5143287182 4291524427
-0.2764478326 -0.1760664731 0.5144678950 4291127867
-0.2765224278 -0.1755427569 0.5146067142 4290601523
-0.2761434317 -0.1747317016 0.5139014125 4290599977
-0.2757639885 -0.1739219427 0.5131952763 4290468391
-0.2753841281 -0.1731134802 0.5124883652 4290533412
-0.2754576504 -0.1725906581 0.5126251578 4290664998
-0.2755309641 -0.1720674187 0.5127616525 4290993965
-0.2756041288 -0.1715437621 0.5128977299 4290993965
-0.2756770849 -0.1710196882 0.5130335093 4290928689
-0.2757498622 -0.1704951972 0.5131689906 4290994482
-0.2758224607 -0.1699702889 0.5133040547 4291060273
-0.2758948803 -0.1694449633 0.5134388208 4290994480
-0.2759670913 -0.1689192355 0.5135732293 4290862120
-0.2760391235 -0.1683930904 0.5137072802 4290796327
-0.2761109769 -0.1678665429 0.5138409734 4290861097
-0.2761826217 -0.1673395634 0.5139743686 4290597925
-0.2762540877 -0.1668121964 0.5141073465 4290400545
-0.2763253748 -0.1662844121 0.5142400265 4290203166
-0.2763964832 -0.1657562107 0.5143722892 4290137625
-0.2764673829 -0.1652276069 0.5145042539 4290137625
-0.2765380740 -0.1646986008 0.5146358609 4289941268
-0.2766086161 -0.1641691923 0.5147671103 4289875475
-0.2766789496 -0.1636393815 0.5148979425 4289743889
-0.2767490745 -0.1631091535 0.5150284767 4289809682
-0.2763629854 -0.1623106897 0.5143099427 4289743889
-0.2759764493 -0.1615135819 0.5135906339 4289743889
-0.2760457695 -0.1609839052 0.5137196779 4289809428
-0.2761149108 -0.1604538262 0.5138483644 4289743635
-0.2761838734 -0.1599233598 0.5139766335 4289677842
-0.2762526274 -0.1593924910 0.5141046047 4289743635
-0.2763211727 -0.1588612199 0.5142321587 4289612303
