VERSION 0.7
FIELDS x y z rgba
SIZE 4 4 4 4
TYPE F F F U
COUNT 1 1 1 1
WIDTH 920
HEIGHT 1
VIEWPOINT 0.0 0.0 0.0 1.0 0.0 0.0 0.0
POINTS 920
DATA ascii
-0.3079677820 -0.1365272999 0.6193069816 4286678406
-0.3080258667 -0.1358648241 0.6194238067 4286875785
-0.3080836833 -0.1352019757 0.6195400357 4287204750
-0.3085783124 -0.1347295940 0.6205347180 4287665301
-0.3086356819 -0.1340650618 0.6206501126 4288125852
-0.3086928129 -0.1334001571 0.6207649708 4288586403
-0.3091869950 -0.1329228878 0.6217586994 4289046954
-0.3092436492 -0.1322562993 0.6218726635 4289375921
-0.3097375333 -0.1317754835 0.6228658557 4289639093
-0.3102313280 -0.1312924027 0.6238588095 4289968315
-0.3107249737 -0.1308070719 0.6248515844 4290428866
-0.3112185597 -0.1303194910 0.6258441210 4290428866
-0.3121497929 -0.1300120056 0.6277167797 4290823624
-0.3130810857 -0.1297003776 0.6295895576 4291284175
-0.3131365180 -0.1290237010 0.6297010183 4291613140
-0.3140677512 -0.1287056655 0.6315736771 4292271070
-0.3119511008 -0.1560666114 0.6287214756 4292336866
-0.3124507368 -0.1556168944 0.6297284365 4291021006
-0.3125162125 -0.1549496949 0.6298604608 4291217870
-0.3121473193 -0.1540677994 0.6291169524 4293520625
-0.3113437593 -0.1529739946 0.6274974346 4294770687
-0.3105396032 -0.1518834680 0.6258766651 4294639359
-0.3093003929 -0.1505847722 0.6233791113 4294770175
-0.3084948957 -0.1495018005 0.6217556596 4294901759
-0.3076888025 -0.1484221369 0.6201310158 4294901759
-0.3073167503 -0.1475545019 0.6193811893 4294901759
-0.3069443107 -0.1466883272 0.6186305285 4294967293
-0.3065714240 -0.1458236128 0.6178789735 4294440949
-0.3066330254 -0.1451662779 0.6180031896 4292993505
-0.3066943884 -0.1445085406 0.6181268692 4290888129
-0.3067555130 -0.1438504159 0.6182500124 4289374890
-0.3068163693 -0.1431919038 0.6183726788 4288782753
-0.3064416945 -0.1423308253 0.6176175475 4288125336
-0.3060665727 -0.1414712220 0.6168615222 4287270027
-0.3061265051 -0.1408134103 0.6169822812 4286875269
-0.3061861694 -0.1401552111 0.6171025634 4286546304
-0.3058099449 -0.1392981857 0.6163442731 4286283132
-0.3058690131 -0.1386401653 0.6164633632 4286217339
-0.3059278131 -0.1379817426 0.6165818572 4286283132
-0.3059863746 -0.1373229623 0.6166998744 4286151546
-0.3060446680 -0.1366637945 0.6168173552 4285756788
-0.3061026931 -0.1360042542 0.6169343591 4285362030
-0.3065966070 -0.1355371326 0.6179297566 4285098858
-0.3066542149 -0.1348759085 0.6180458665 4284967272
-0.3067115545 -0.1342142969 0.6181614399 4284967272
-0.3067686260 -0.1335523278 0.6182764769 4285098858
-0.3072618842 -0.1330790222 0.6192706227 4285230444
-0.3073185384 -0.1324153692 0.6193847656 4285362030
-0.3073748946 -0.1317513585 0.6194983721 4285362544
-0.3078677058 -0.1312731653 0.6204916239 4285362544
-0.3079236448 -0.1306074858 0.6206043363 4285362546
-0.3084161580 -0.1301257461 0.6215969324 4285823097
-0.3097824156 -0.1300084889 0.6243506074 4285888890
-0.3102748692 -0.1295203716 0.6253430843 4286152062
-0.3107672036 -0.1290299892 0.6263353825 4286481027
-0.3112594187 -0.1285373569 0.6273274422 4286744199
-0.3117515445 -0.1280424595 0.6283192635 4288586403
-0.3126808405 -0.1277239621 0.6301922798 4292468190
-0.3104520738 -0.1563618779 0.6271040440 4290560201
-0.3105177283 -0.1556980461 0.6272366643 4288191394
-0.3105831444 -0.1550337821 0.6273688078 4288651945
-0.3106483221 -0.1543691158 0.6275004148 4290033851
-0.3094131649 -0.1530609131 0.6250054836 4292073434
-0.3086106777 -0.1519713104 0.6233844757 4294178038
-0.3078075647 -0.1508850008 0.6217622161 4294901759
-0.3065702021 -0.1495904177 0.6192628145 4294901759
-0.3061995208 -0.1487223208 0.6185139418 4294901759
-0.3058283627 -0.1478556842 0.6177642941 4294967295
-0.3054567873 -0.1469904929 0.6170137525 4294506744
-0.3050847948 -0.1461267769 0.6162623167 4294112238
-0.3051464558 -0.1454714537 0.6163868308 4293059806
-0.3052078187 -0.1448157281 0.6165108085 4291809229
-0.3052689731 -0.1441596001 0.6166343093 4290427576
-0.3053298593 -0.1435030997 0.6167572737 4289243302
-0.3053904772 -0.1428461969 0.6168797612 4288322200
-0.3050163388 -0.1419866383 0.6161240339 4287269512
-0.3050763905 -0.1413298845 0.6162452698 4286282617
-0.3051361740 -0.1406727582 0.6163660288 4286217337
-0.3047609329 -0.1398157924 0.6156080961 4286019958
-0.3048201203 -0.1391588151 0.6157276630 4285756788
-0.3048790395 -0.1385014653 0.6158466935 4285493616
-0.3049377203 -0.1378437430 0.6159651875 4285362030
-0.3049961329 -0.1371856332 0.6160831451 4285427823
-0.3050542772 -0.1365271509 0.6162006259 4285427823
-0.3051121831 -0.1358682811 0.6163175702 4285427823
-0.3051698208 -0.1352090538 0.6164340377 4285427310
-0.3052271903 -0.1345494390 0.6165499091 4285295724
-0.3052843213 -0.1338894665 0.6166653037 4285164651
-0.3057767451 -0.1334191710 0.6176600456 4285230444
-0.3058334291 -0.1327575147 0.6177745461 4285427823
-0.3058898449 -0.1320954859 0.6178885102 4285493616
-0.3059460223 -0.1314330995 0.6180019379 4285493616
-0.3060019016 -0.1307703406 0.6181148291 4285427823
-0.3064935207 -0.1302925497 0.6191079021 4285624948
-0.3074210882 -0.1299969107 0.6209815145 4285953913
-0.3079125881 -0.1295136809 0.6219742894 4286020476
-0.3084039390 -0.1290282011 0.6229668856 4286217855
-0.3093315065 -0.1287220269 0.6248404980 4286415234
-0.3098227382 -0.1282310933 0.6258327961 4286283648
-0.3103138506 -0.1277379096 0.6268247962 4287928473
-0.3108048439 -0.1272424757 0.6278166175 4292599776
-0.3085236251 -0.1564339846 0.6246099472 4288059808
-0.3090213835 -0.1559912711 0.6256176829 4285757053
-0.3090868294 -0.1553290337 0.6257501245 4285428086
-0.3091519773 -0.1546663940 0.6258820891 4287401876
-0.3083519638 -0.1535725445 0.6242623925 4289243563
-0.3071187437 -0.1522675306 0.6217657924 4291151560
-0.3063174188 -0.1511812061 0.6201434135 4292927712
-0.3055154681 -0.1500981897 0.6185199022 4293454056
-0.3047128916 -0.1490184814 0.6168950796 4293059296
-0.3043426573 -0.1481528282 0.6161454916 4292730331
-0.3044049740 -0.1474984437 0.6162717342 4292203987
-0.3040339649 -0.1466347873 0.6155205965 4291348678
-0.3040957153 -0.1459805369 0.6156455874 4291085247
-0.3041571975 -0.1453258991 0.6157700419 4290427317
-0.3042184412 -0.1446708441 0.6158940792 4289835693
-0.3042794168 -0.1440154165 0.6160175204 4289572521
-0.3043401539 -0.1433595866 0.6161404848 4289374888
-0.3044006526 -0.1427033544 0.6162629128 4289374888
-0.3040271699 -0.1418444067 0.6155068278 4289309095
-0.3040870726 -0.1411883384 0.6156280637 4289045923
-0.3041467071 -0.1405318826 0.6157488227 4289111716
-0.3042060733 -0.1398750395 0.6158689857 4288980130
-0.3038311601 -0.1390192211 0.6151099801 4288849059
-0.3038899302 -0.1383625567 0.6152290106 4288914852
-0.3039484620 -0.1377055049 0.6153475046 4288914852
-0.3040067255 -0.1370480806 0.6154654622 4288783266
-0.3040647507 -0.1363902837 0.6155828834 4288388508
-0.3041225076 -0.1357320994 0.6156998277 4288059543
-0.3041800261 -0.1350735575 0.6158162355 4287401100
-0.3042372465 -0.1344146281 0.6159321666 4287335307
-0.3042942286 -0.1337553263 0.6160475016 4287203721
-0.3047857583 -0.1332858056 0.6170426011 4287137928
-0.3048422933 -0.1326248199 0.6171570420 4287006342
-0.3048985898 -0.1319634765 0.6172710061 4286677377
-0.3049546182 -0.1313017607 0.6173844337 4286283132
-0.3050103784 -0.1306396872 0.6174973249 4286151546
-0.3050658703 -0.1299772561 0.6176096797 4285690995
-0.3059916496 -0.1296834052 0.6194839478 4285690995
-0.3064821362 -0.1292018741 0.6204769015 4285756534
-0.3069725037 -0.1287181079 0.6214696765 4285624948
-0.3074627519 -0.1282320768 0.6224622130 4285756534
-0.3079529107 -0.1277437955 0.6234545112 4286151292
-0.3084429502 -0.1272532642 0.6244466305 4288191645
-0.3061684072 -0.1562798917 0.6212387085 4285954432
-0.3070964217 -0.1560612470 0.6231217384 4284112226
-0.3075931668 -0.1556202322 0.6241295934 4284704363
-0.3076583445 -0.1549596041 0.6242618561 4285690743
-0.3072916567 -0.1540821493 0.6235178709 4286546052
-0.3064928949 -0.1529906541 0.6218971014 4288059289
-0.3052617311 -0.1516879052 0.6193989515 4289046184
-0.3044616282 -0.1506039351 0.6177754998 4288980132
-0.3036609292 -0.1495232731 0.6161507964 4288585374
-0.3032916486 -0.1486576945 0.6154015660 4289177252
-0.3033540845 -0.1480043977 0.6155282259 4289769389
-0.3029840589 -0.1471408010 0.6147773862 4289966766
-0.3030458987 -0.1464876384 0.6149028540 4289966766
-0.3031075001 -0.1458340585 0.6150278449 4290032561
-0.3031688333 -0.1451801062 0.6151523590 4290164147
-0.3032299280 -0.1445257366 0.6152762771 4290361783
-0.3032907844 -0.1438709795 0.6153997183 4290164404
-0.3033513725 -0.1432158351 0.6155226827 4289769646
-0.3034116924 -0.1425603032 0.6156451106 4289835439
-0.3034717739 -0.1419043690 0.6157670021 4290032818
-0.3030986190 -0.1410465539 0.6150098443 4290032818
-0.3031581044 -0.1403907835 0.6151305437 4290295992
-0.3032173514 -0.1397346258 0.6152507663 4290295992
-0.3032763302 -0.1390780807 0.6153703928 4290164919
-0.3029017150 -0.1382234246 0.6146103144 4290099126
-0.3029600978 -0.1375670582 0.6147288084 4290033333
-0.3030182421 -0.1369103193 0.6148467660 4290033333
-0.3030761182 -0.1362531930 0.6149641871 4290230199
-0.3035674095 -0.1357896924 0.6159610152 4290361785
-0.3036248386 -0.1351308674 0.6160776019 4290427576
-0.3036820292 -0.1344716847 0.6161936522 4290559162
-0.3037389517 -0.1338121295 0.6163091660 4290624955
-0.3037956357 -0.1331522167 0.6164241433 4290624955
-0.3038520515 -0.1324919164 0.6165385842 4290493369
-0.3039081991 -0.1318312585 0.6166525483 4290295990
-0.3043983281 -0.1313576102 0.6176469922 4290098611
-0.3044540286 -0.1306952834 0.6177600622 4290032818
-0.3049438596 -0.1302180737 0.6187539697 4289835441
-0.3049991429 -0.1295540780 0.6188661456 4289572269
-0.3054886758 -0.1290733069 0.6198594570 4289572782
-0.3059781194 -0.1285903007 0.6208525896 4289506989
-0.3060327470 -0.1279233247 0.6209634542 4289638575
-0.3065218925 -0.1274367422 0.6219559312 4289572782
-0.3070109487 -0.1269479245 0.6229482293 4290099126
-0.3042497933 -0.1563387960 0.6187400222 4284967537
-0.3047455251 -0.1559049338 0.6197481751 4282993747
-0.3052411675 -0.1554688066 0.6207562089 4284375398
-0.3061673939 -0.1552487612 0.6226398349 4285493879
-0.3062323332 -0.1545897424 0.6227718592 4286085501
-0.3054353893 -0.1534973085 0.6211512089 4286875017
-0.3046378791 -0.1524081677 0.6195292473 4287335309
-0.3034087420 -0.1511076838 0.6170296669 4286874758
-0.3030409813 -0.1502397805 0.6162817478 4285756275
-0.3026727736 -0.1493733376 0.6155329347 4286019447
-0.3018728793 -0.1482964903 0.6139062643 4287992978
-0.3019350767 -0.1476448029 0.6140327454 4289506217
-0.3019970357 -0.1469927281 0.6141586900 4289900973
-0.3020587265 -0.1463402361 0.6142841578 4289900973
-0.3021201789 -0.1456873566 0.6144091487 4290361526
-0.3021813631 -0.1450340748 0.6145336032 4290295733
-0.3022423089 -0.1443803906 0.6146575212 4290164404
-0.3023030162 -0.1437263191 0.6147809625 4290032818
-0.3023634553 -0.1430718601 0.6149038672 4289835439
-0.3024236262 -0.1424169987 0.6150262952 4289901232
-0.3024835885 -0.1417617500 0.6151481867 4289835182
-0.3025432527 -0.1411061138 0.6152695417 4289440424
-0.3026026785 -0.1404500902 0.6153904200 4289966514
-0.3026618659 -0.1397936791 0.6155107617 4289834928
-0.3027207851 -0.1391368955 0.6156306267 4289835441
-0.3027794659 -0.1384797096 0.6157498956 4289901234
-0.3024052382 -0.1376252621 0.6149889231 4289901234
-0.3024633229 -0.1369682699 0.6151069999 4289901234
-0.3025211394 -0.1363108903 0.6152245998 4289966514
-0.3025787175 -0.1356531382 0.6153416634 4289966514
-0.3030689657 -0.1351881474 0.6163386703 4290164147
-0.3031260967 -0.1345286965 0.6164548397 4290229940
-0.3031829596 -0.1338688880 0.6165705323 4290361526
-0.3032395840 -0.1332087070 0.6166856289 4290361526
-0.3032959402 -0.1325481534 0.6168002486 4290229940
-0.3037853837 -0.1320756376 0.6177956462 4290229940
-0.3038413227 -0.1314134002 0.6179093719 4290295479
-0.3038969636 -0.1307508051 0.6180225611 4290229686
-0.3039523661 -0.1300878525 0.6181352139 4290230199
-0.3044411540 -0.1296091527 0.6191292405 4290164406
-0.3044961095 -0.1289445311 0.6192409992 4290164406
-0.3049846292 -0.1284622699 0.6202344894 4289967027
-0.3050391376 -0.1277959794 0.6203452945 4290098613
-0.3055273592 -0.1273101717 0.6213381886 4290098613
-0.3060154617 -0.1268221140 0.6223308444 4290559164
-0.3027651012 -0.1566137522 0.6171146035 4285559672
-0.3028303981 -0.1559617072 0.6172477007 4282533196
-0.3033250868 -0.1555295587 0.6182559729 4283783263
-0.3038196862 -0.1550951302 0.6192641258 4285756537
-0.3047440946 -0.1548768729 0.6211482882 4285624951
-0.3048087656 -0.1542194486 0.6212801337 4285559157
-0.3035831749 -0.1529118568 0.6187820435 4285559157
-0.3027868867 -0.1518250555 0.6171590090 4285690484
-0.3019900024 -0.1507415771 0.6155347228 4285295726
-0.3016227782 -0.1498752087 0.6147862673 4285492590
-0.3016854823 -0.1492231488 0.6149140596 4286874243
-0.3013175130 -0.1483587474 0.6141639948 4288519068
-0.3013796210 -0.1477068216 0.6142906547 4289440170
-0.3014415205 -0.1470544934 0.6144167781 4289966768
-0.3015031517 -0.1464017630 0.6145424247 4290098354
-0.3015645444 -0.1457486302 0.6146675348 4290295479
-0.3016256690 -0.1450950950 0.6147921085 4290163893
-0.3016865551 -0.1444411576 0.6149162054 4290098100
-0.3017471731 -0.1437868476 0.6150398254 4290098100
-0.3018075526 -0.1431321204 0.6151629090 4290032307
-0.3018676937 -0.1424770206 0.6152854562 4289900721
-0.3019275665 -0.1418215185 0.6154075265 4289703342
-0.3019872010 -0.1411656290 0.6155290604 4289637549
-0.3020465672 -0.1405093521 0.6156500578 4289703342
-0.3021056950 -0.1398526877 0.6157705784 4289637549
-0.3021645546 -0.1391956359 0.6158905625 4289703596
-0.3022231758 -0.1385382116 0.6160100102 4289703596
-0.3022815287 -0.1378803849 0.6161289215 4289572010
-0.3023396134 -0.1372222006 0.6162473559 4289637803
-0.3023974597 -0.1365636289 0.6163652539 4290031791
-0.3024550676 -0.1359046698 0.6164826751 4290163377
-0.3025123775 -0.1352453530 0.6165995002 4289966000
-0.3025694489 -0.1345856488 0.6167158484 4289900207
-0.3030585945 -0.1341169029 0.6177128553 4289966000
-0.3031152487 -0.1334555149 0.6178282499 4290031793
-0.3031716049 -0.1327937543 0.6179431677 4289900721
-0.3032277524 -0.1321316361 0.6180575490 4290098100
-0.3032836020 -0.1314691454 0.6181714535 4290229686
-0.3033391833 -0.1308062822 0.6182847619 4290163893
-0.3033945262 -0.1301430613 0.6183975339 4289900721
-0.3038824797 -0.1296641827 0.6193921566 4290032307
-0.3039373755 -0.1289992929 0.6195040345 4290098102
-0.3039920330 -0.1283340454 0.6196153760 4289900723
-0.3044795096 -0.1278503090 0.6206089854 4290032822
-0.3045336902 -0.1271833926 0.6207194328 4290098615
-0.3050208688 -0.1266960949 0.6217124462 4290624959
-0.3008545637 -0.1566614658 0.6146118641 4288124825
-0.3009197712 -0.1560123861 0.6147450209 4283190350
-0.3009847105 -0.1553628743 0.6148777008 4282992717
-0.3014782667 -0.1549333483 0.6158859730 4284440163
-0.3019717634 -0.1545015424 0.6168941259 4286413953
-0.3028942049 -0.1542860121 0.6187785864 4286413953
-0.3029585481 -0.1536311209 0.6189100146 4286216828
-0.3021642268 -0.1525424719 0.6172872782 4285756277
-0.3013692796 -0.1514571011 0.6156632900 4285624689
-0.3010031283 -0.1505898833 0.6149153113 4285361517
-0.3006365299 -0.1497240961 0.6141663790 4285690484
-0.3006990850 -0.1490727216 0.6142942309 4287730067
-0.3003317416 -0.1482089311 0.6135437489 4289440942
-0.3003937304 -0.1475576758 0.6136704087 4289309356
-0.3004554510 -0.1469060332 0.6137964725 4288914852
-0.3005169332 -0.1462539732 0.6139221191 4288849059
-0.3005781770 -0.1456015259 0.6140471697 4288322200
-0.3006391525 -0.1449486762 0.6141718030 4287730063
-0.3006998897 -0.1442954391 0.6142958403 4287203719
-0.3007603884 -0.1436417997 0.6144194007 4286940547
-0.3008206189 -0.1429877728 0.6145424843 4286743683
-0.3008806109 -0.1423333436 0.6146650314 4286677890
-0.3009403348 -0.1416785270 0.6147870421 4286612097
-0.3009998202 -0.1410233229 0.6149085760 4286480511
-0.3010590374 -0.1403677315 0.6150295734 4286612097
-0.3011180162 -0.1397117525 0.6151500344 4286612097
-0.3011767566 -0.1390553862 0.6152700186 4286743683
-0.3012352288 -0.1383986473 0.6153894663 4286875269
-0.3012934327 -0.1377415210 0.6155083776 4287072648
-0.3017825186 -0.1372801214 0.6165074706 4287467406
-0.3018403053 -0.1366212964 0.6166255474 4287927957
-0.3018978238 -0.1359620839 0.6167430878 4288322715
-0.3019551039 -0.1353024989 0.6168600917 4288716960
-0.3024435639 -0.1348349005 0.6178579330 4288980132
-0.3025003970 -0.1341736168 0.6179740429 4289309097
-0.3025569916 -0.1335119754 0.6180896759 4289703855
-0.3026133180 -0.1328499615 0.6182047129 4290164406
-0.3026693761 -0.1321875751 0.6183192730 4290295992
-0.3027251661 -0.1315248311 0.6184332371 4290164406
-0.3027807176 -0.1308617145 0.6185467243 4290164406
-0.3028360009 -0.1301982254 0.6186596751 4290164406
-0.3028910160 -0.1295343786 0.6187720895 4290164406
-0.3029457927 -0.1288701743 0.6188839078 4290164406
-0.3030002713 -0.1282056123 0.6189952493 4290032820
-0.3034868538 -0.1277226359 0.6199892759 4290098613
-0.3035408854 -0.1270564049 0.6200996637 4290164406
-0.3035946786 -0.1263898164 0.6202095747 4290756543
-0.2990136445 -0.1560569406 0.6122401953 4285098093
-0.2990784943 -0.1554103941 0.6123729944 4282992717
-0.2991431057 -0.1547634304 0.6125052571 4283453268
-0.2996355295 -0.1543365270 0.6135134697 4284834921
-0.3001278639 -0.1539073437 0.6145215631 4286216574
-0.3006201684 -0.1534758955 0.6155295968 4286874504
-0.3006840646 -0.1528244913 0.6156604290 4286085242
-0.3003193140 -0.1519558877 0.6149135828 4285822070
-0.2999541461 -0.1510887295 0.6141658425 4285953913
-0.3000171185 -0.1504379362 0.6142948270 4286085499
-0.3000798821 -0.1497867256 0.6144233346 4286480257
-0.2997136116 -0.1489220560 0.6136733294 4287138187
-0.2997757494 -0.1482709795 0.6138006449 4287072394
-0.2998376787 -0.1476194859 0.6139274240 4286282878
-0.2998993397 -0.1469675899 0.6140536666 4285888374
-0.2999607623 -0.1463152915 0.6141794324 4285625202
-0.3000219464 -0.1456625909 0.6143046618 4285098858
-0.3000828624 -0.1450094879 0.6144294143 4284901479
-0.3001435399 -0.1443559974 0.6145536900 4284769893
-0.3002039492 -0.1437021047 0.6146773696 4284704100
-0.3002641499 -0.1430478245 0.6148005724 4284704100
-0.2998944223 -0.1421894431 0.6140435934 4284572514
-0.2999539971 -0.1415353119 0.6141656041 4284375135
-0.3000133336 -0.1408807933 0.6142870784 4284243549
-0.3000724316 -0.1402258873 0.6144080162 4284309342
-0.3005612493 -0.1397705525 0.6154088974 4284177756
-0.3006199002 -0.1391139328 0.6155290604 4284177502
-0.3006783128 -0.1384569407 0.6156486273 4284111709
-0.3007364571 -0.1377995461 0.6157677174 4284045916
-0.3007943630 -0.1371417940 0.6158862710 4284045916
-0.3012824059 -0.1366789043 0.6168855429 4284111709
-0.3013398945 -0.1360194385 0.6170032024 4284111709
-0.3013971150 -0.1353596002 0.6171203852 4284045916
-0.3018847108 -0.1348918080 0.6181187630 4284045916
-0.3019414842 -0.1342302859 0.6182350516 4284243038
-0.3019980192 -0.1335683763 0.6183508039 4284572003
-0.3020542860 -0.1329061091 0.6184659600 4285098347
-0.3021102846 -0.1322434694 0.6185806394 4285558898
-0.3021660447 -0.1315804571 0.6186947823 4285822327
-0.3022215366 -0.1309170723 0.6188084483 4286085499
-0.3018455505 -0.1300675273 0.6180385947 4286414718
-0.3019004464 -0.1294043660 0.6181510091 4286743683
-0.3019550741 -0.1287408471 0.6182628274 4287269514
-0.3020094335 -0.1280769706 0.6183741689 4287730065
-0.3020635545 -0.1274127364 0.6184849143 4288190616
-0.3021173775 -0.1267481446 0.6185951829 4289111718
-0.3021709621 -0.1260831952 0.6187049150 4290691263
-0.2966851890 -0.1558711231 0.6088572145 4288322982
-0.2967498302 -0.1552284509 0.6089898944 4283321682
-0.2968142331 -0.1545853615 0.6091220379 4283387475
-0.2968783975 -0.1539418548 0.6092537045 4284045405
-0.2973695993 -0.1535185128 0.6102617383 4285032300
-0.2978607118 -0.1530928910 0.6112696528 4286019195
-0.2983517945 -0.1526650041 0.6122773886 4286874504
-0.2984152734 -0.1520170569 0.6124076843 4285953402
-0.2984784842 -0.1513686925 0.6125374436 4286677125
-0.2985414863 -0.1507199258 0.6126667261 4287532945
-0.2981764376 -0.1498557478 0.6119175553 4286809222
-0.2982388437 -0.1492070854 0.6120456457 4286611843
-0.2983010113 -0.1485580206 0.6121731997 4286743429
-0.2983629405 -0.1479085386 0.6123002768 4286875015
-0.2984246016 -0.1472586691 0.6124268174 4287467152
-0.2984860539 -0.1466083825 0.6125528812 4288322461
-0.2985472083 -0.1459577084 0.6126784682 4288651426
-0.2986081541 -0.1453066319 0.6128035188 4288980391
-0.2986688316 -0.1446551532 0.6129280329 4289111977
-0.2987292707 -0.1440032870 0.6130520701 4289177770
-0.2987894714 -0.1433510184 0.6131756306 4289309356
-0.2988494039 -0.1426983625 0.6132986546 4289375149
-0.2989090979 -0.1420453042 0.6134211421 4289177770
-0.2989685535 -0.1413918585 0.6135430932 4288914598
-0.2990277410 -0.1407380253 0.6136645675 4288717219
-0.2990866899 -0.1400838047 0.6137855649 4288585633
-0.2995745540 -0.1396292448 0.6147867441 4288322461
-0.2996330857 -0.1389733106 0.6149068475 4288125082
-0.2992619872 -0.1381188482 0.6141452789 4287927703
-0.2993199229 -0.1374630928 0.6142641902 4287598738
-0.2998071015 -0.1370032281 0.6152639985 4287401359
-0.2998646200 -0.1363457739 0.6153820157 4287138187
-0.3007812500 -0.1360767335 0.6172631383 4286809222
-0.3008384109 -0.1354166418 0.6173804402 4286348671
-0.3008953035 -0.1347561628 0.6174972057 4286085499
-0.3009519577 -0.1340953261 0.6176134348 4285756534
-0.3010083437 -0.1334341019 0.6177291870 4285559155
-0.3010644615 -0.1327725202 0.6178443432 4285427569
-0.3011203408 -0.1321105659 0.6179590225 4285361776
-0.3007456958 -0.1312604547 0.6171901822 4285295983
-0.3008009791 -0.1305987090 0.6173036098 4285230190
-0.3008559942 -0.1299366057 0.6174165010 4284967788
-0.3009107411 -0.1292741299 0.6175288558 4284901995
-0.3009652495 -0.1286112964 0.6176407337 4285230190
-0.3010194600 -0.1279481053 0.6177520156 4285493362
-0.3010734618 -0.1272845566 0.6178627610 4286152062
-0.3011271656 -0.1266206652 0.6179730296 4288191645
-0.3011806011 -0.1259564012 0.6180827022 4291152330
-0.2947890460 -0.1559024304 0.6063479781 4291283667
-0.2948535681 -0.1552627236 0.6064807177 4285757055
-0.2949178815 -0.1546225995 0.6066129804 4283190609
-0.2949819267 -0.1539820433 0.6067447662 4283716953
-0.2950457633 -0.1533410847 0.6068760157 4284309090
-0.2951093316 -0.1526996940 0.6070067883 4285295985
-0.2955992520 -0.1522776335 0.6080144644 4286414466
-0.2960890830 -0.1518533081 0.6090220213 4286809224
-0.2965788543 -0.1514267176 0.6100294590 4286743431
-0.2966417670 -0.1507809013 0.6101588011 4288848807
-0.2967044115 -0.1501346678 0.6102876663 4289440942
-0.2967668176 -0.1494880319 0.6104160547 4288783012
-0.2968289852 -0.1488409936 0.6105439663 4289243563
-0.2968909144 -0.1481935531 0.6106713414 4290362044
-0.2969526052 -0.1475456953 0.6107981801 4291151560
-0.2974413931 -0.1471088082 0.6118035913 4291875283
-0.2975026667 -0.1464592069 0.6119295955 4292335834
-0.2975637019 -0.1458092183 0.6120551825 4292335834
-0.2976244986 -0.1451588273 0.6121801734 4292401627
-0.2976850271 -0.1445080489 0.6123046875 4292270041
-0.2977453172 -0.1438568532 0.6124287248 4292072662
-0.2978053689 -0.1432052702 0.6125522256 4291941076
-0.2978651524 -0.1425532997 0.6126751900 4292006869
-0.2979246974 -0.1419009417 0.6127976775 4292006869
-0.2979840040 -0.1412481815 0.6129196286 4291941078
-0.2980430424 -0.1405950338 0.6130411029 4291875285
-0.2981018424 -0.1399415135 0.6131620407 4291744469
-0.2981603742 -0.1392875910 0.6132824421 4291744469
-0.2986471355 -0.1388324797 0.6142836809 4291744469
-0.2991338372 -0.1383750886 0.6152847409 4291744469
-0.2987631261 -0.1375208348 0.6145222783 4291678676
-0.2992494702 -0.1370608062 0.6155226231 4291612883
-0.2993069291 -0.1364030987 0.6156407595 4291547090
-0.2997930050 -0.1359394938 0.6166405678 4291349711
-0.2998500168 -0.1352800876 0.6167578697 4291414732
-0.2999067903 -0.1346203089 0.6168746352 4291348939
-0.2999632955 -0.1339601427 0.6169908643 4291217353
-0.3000195324 -0.1332996190 0.6171065569 4291085767
-0.3000755310 -0.1326387227 0.6172217131 4290954181
-0.3001312613 -0.1319774538 0.6173363328 4290822595
-0.3001867533 -0.1313158125 0.6174504757 4290494400
-0.2998124361 -0.1304668933 0.6166805625 4290362814
-0.2998673022 -0.1298054755 0.6167934537 4289902263
-0.2999219298 -0.1291436851 0.6169057488 4289704884
-0.2999762893 -0.1284815520 0.6170175672 4289507505
-0.3000304103 -0.1278190464 0.6171288490 4289375919
-0.3000842333 -0.1271561831 0.6172395945 4289573298
-0.3001378179 -0.1264929771 0.6173498034 4290823365
-0.3001911342 -0.1258293986 0.6174594760 4292797666
-0.2933225334 -0.1561539471 0.6047130227 4292270819
-0.2933870554 -0.1555162668 0.6048460603 4288981169
-0.2934513390 -0.1548781693 0.6049785614 4283717729
-0.2935153842 -0.1542396396 0.6051105857 4283585367
-0.2935791910 -0.1536007077 0.6052421331 4284177504
-0.2936427593 -0.1529613584 0.6053732038 4285361778
-0.2937061191 -0.1523215920 0.6055037975 4286217087
-0.2941949666 -0.1519012451 0.6065115929 4287335568
-0.2946837544 -0.1514786184 0.6075193286 4286743431
-0.2947465479 -0.1508357674 0.6076487899 4288125084
-0.2952351272 -0.1504095346 0.6086560488 4290954183
-0.2952975631 -0.1497649252 0.6087847352 4291414732
-0.2953597307 -0.1491199136 0.6089128852 4291677904
-0.2954216301 -0.1484744847 0.6090405583 4292599006
-0.2983205318 -0.1362648755 0.6150168777 4292599778
-0.2983775735 -0.1356074661 0.6151344776 4292533985
-0.2984343767 -0.1349496990 0.6152516007 4292664801
-0.2984909117 -0.1342915446 0.6153681278 4292664801
-0.2985472083 -0.1336330175 0.6154841781 4292533985
-0.2986032367 -0.1329741329 0.6155996919 4292468192
-0.2986589968 -0.1323148608 0.6157146692 4292402399
-0.2987145185 -0.1316552311 0.6158291698 4292336606
-0.2987698019 -0.1309952289 0.6159430742 4292336606
-0.2988247871 -0.1303348541 0.6160564423 4292336606
-0.2988795340 -0.1296741366 0.6161693335 4292139227
-0.2989340127 -0.1290130317 0.6162816882 4292205020
-0.2985592782 -0.1281674355 0.6155090928 4292205277
-0.2986131907 -0.1275065690 0.6156201959 4292402656
-0.2986668050 -0.1268453598 0.6157307625 4292665828
-0.2922830284 -0.1566286832 0.6039528847 4292533991
-0.2919233143 -0.1557657123 0.6032096148 4290823373
-0.2919875681 -0.1551296562 0.6033424139 4286349449
-0.2920516133 -0.1544931680 0.6034746766 4282796627
-0.2921154201 -0.1538562626 0.6036065221 4283914332
-0.2921789587 -0.1532189399 0.6037378907 4285230192
-0.2918175161 -0.1523594409 0.6029909849 4287072396
-0.2923053801 -0.1519430578 0.6039990783 4287203982
-0.2927931845 -0.1515244246 0.6050070524 4287532947
-0.2932809293 -0.1511035115 0.6060148478 4286875017
-0.2933434844 -0.1504622698 0.6061441302 4289572530
-0.2934058011 -0.1498206258 0.6062728763 4292006871
-0.2934678793 -0.1491785645 0.6064011455 4292796385
-0.2908211946 -0.1568730325 0.6023145914 4292599784
-0.2908857763 -0.1562384963 0.6024483442 4291810011
-0.2905265987 -0.1553770453 0.6017044783 4288717740
-0.2905906141 -0.1547425985 0.6018370390 4284112741
-0.2906543911 -0.1541077346 0.6019691229 4282928467
-0.2907179296 -0.1534724385 0.6021007299 4284243298
-0.2907812595 -0.1528367400 0.6022318602 4286151295
-0.2904203534 -0.1519787610 0.6014844179 4287861912
-0.2904830873 -0.1513431519 0.6016143560 4287335568
-0.2909697592 -0.1509271562 0.6026222706 4287006603
-0.2918806076 -0.1507279724 0.6045086980 4287401361
-0.2923672497 -0.1503064930 0.6055166125 4291151562
-0.2894267440 -0.1564807892 0.6008085608 4292336355
-0.2890684307 -0.1556203514 0.6000647545 4291086288
-0.2891324162 -0.1549879313 0.6001976132 4287138708
-0.2891961932 -0.1543551087 0.6003299952 4283191126
-0.2892597020 -0.1537218541 0.6004618406 4283914849
-0.2893230021 -0.1530881822 0.6005932093 4284506470
-0.2889629602 -0.1522312164 0.5998458862 4286677639
-0.2890256941 -0.1515976489 0.5999760628 4287796119
-0.2890881896 -0.1509636641 0.6001058221 4287072396
-0.2891504467 -0.1503292769 0.6002350450 4286480259
-0.2900593877 -0.1501328200 0.6021218300 4288059291
-0.2905448675 -0.1497139931 0.6031296849 4292204765
-0.2876130641 -0.1558595598 0.5984233618 4292138974
-0.2876770198 -0.1552291811 0.5985564590 4290165184
-0.2873188555 -0.1543717086 0.5978112221 4284967537
-0.2873822749 -0.1537414193 0.5979431272 4283848540
-0.2874454558 -0.1531107128 0.5980746150 4284243298
-0.2875083983 -0.1524795890 0.5982055664 4285098093
-0.2875711024 -0.1518480480 0.5983360410 4286348160
-0.2872112095 -0.1509940475 0.5975872278 4286809222
-0.2872733772 -0.1503626257 0.5977165699 4286348671
-0.2877578437 -0.1499509811 0.5987246037 4285823097
-0.2882422507 -0.1495370716 0.5997325182 4289441712
-0.2883038819 -0.1489025503 0.5998607278 4292533215
-0.2862244546 -0.1554663330 0.5969135761 4291546837
-0.2862881720 -0.1548375636 0.5970464349 4288454566
-0.2863516510 -0.1542083919 0.5971788168 4283914849
-0.2864148915 -0.1535788029 0.5973107219 4283519575
-0.2864778936 -0.1529487818 0.5974420905 4284111712
-0.2865406871 -0.1523183584 0.5975730419 4285164140
-0.2861817777 -0.1514644474 0.5968245268 4286019449
-0.2858224213 -0.1506119817 0.5960751176 4286217085
-0.2858843207 -0.1499821842 0.5962042212 4286019706
-0.2863677442 -0.1495722532 0.5972123742 4286677636
-0.2868511081 -0.1491600573 0.5982204676 4290691009
-0.2851947248 -0.1559290141 0.5961468816 4292336353
-0.2852584720 -0.1553013772 0.5962802172 4290823114
-0.2849018276 -0.1544455141 0.5955346823 4286611846
-0.2849650383 -0.1538179517 0.5956668258 4283322196
-0.2850280404 -0.1531899869 0.5957984924 4283585368
-0.2850908041 -0.1525615901 0.5959296823 4284309091
-0.2851533294 -0.1519327909 0.5960603952 4285164140
-0.2852156460 -0.1513035744 0.5961906314 4285756277
-0.2852776945 -0.1506739557 0.5963203907 4286019706
-0.2844978273 -0.1496013105 0.5946902037 4285888120
-0.2854011357 -0.1494134665 0.5965784192 4287796117
-0.2858835459 -0.1490020603 0.5975868106 4291677904
-0.2838106155 -0.1555333585 0.5946342349 4292007388
-0.2838741541 -0.1549073458 0.5947673321 4289638840
-0.2835180163 -0.1540530175 0.5940212011 4284901228
-0.2840004861 -0.1536540389 0.5950320363 4283256403
-0.2840633392 -0.1530267745 0.5951637030 4283716954
-0.2841259241 -0.1523990780 0.5952948928 4284572263
-0.2841883004 -0.1517709792 0.5954255462 4284900968
-0.2838305831 -0.1509191990 0.5946760178 4285493105
-0.2838923931 -0.1502912045 0.5948055387 4286414207
-0.2835339308 -0.1494413912 0.5940545201 4286414207
-0.2840153277 -0.1490339786 0.5950631499 4289309356
-0.2849169374 -0.1488438100 0.5969521403 4292335834
-0.2823656201 -0.1557612419 0.5929865837 4292534245
-0.2824290991 -0.1551372707 0.5931199193 4291415249
-0.2824923694 -0.1545128673 0.5932527781 4287862427
-0.2821367979 -0.1536600739 0.5925060511 4283716954
-0.2826181948 -0.1532628238 0.5935170054 4283453782
-0.2826807797 -0.1526371688 0.5936484337 4284045919
-0.2827431262 -0.1520111114 0.5937793851 4284901228
-0.2828052342 -0.1513846219 0.5939098597 4285229933
-0.2824480534 -0.1505343914 0.5931597352 4285493105
-0.2825096250 -0.1499080211 0.5932890177 4286545539
-0.2821517289 -0.1490597427 0.5925374031 4287137676
-0.2826320827 -0.1486540437 0.5935462117 4290822597
-0.2809868753 -0.1553630829 0.5914707780 4292270560
-0.2810501158 -0.1547407359 0.5916038752 4290428354
-0.2811131179 -0.1541179568 0.5917364955 4286086016
-0.2811758816 -0.1534947604 0.5918686390 4283519575
-0.2812384367 -0.1528711617 0.5920003057 4283716954
-0.2813007534 -0.1522471309 0.5921314955 4284506470
-0.2813628614 -0.1516226977 0.5922622085 4285164400
-0.2814247310 -0.1509978473 0.5923924446 4285756536
-0.2810681164 -0.1501491517 0.5916417241 4285493364
-0.2807110846 -0.1493019015 0.5908902287 4286019708
-0.2807720900 -0.1486776769 0.5910186172 4288125084
-0.2808328569 -0.1480530500 0.5911465287 4291677906
-0.2791940272 -0.1547335386 0.5890740752 4291875802
-0.2792569101 -0.1541137248 0.5892066956 4289243566
-0.2793195546 -0.1534935087 0.5893388987 4284638056
-0.2793819606 -0.1528728604 0.5894706249 4283716953
-0.2794441879 -0.1522518098 0.5896018744 4283716953
-0.2795061469 -0.1516303420 0.5897325873 4284901228
-0.2795678973 -0.1510084569 0.5898628831 4285164400
-0.2796294093 -0.1503861696 0.5899927020 4286151292
-0.2796907127 -0.1497634649 0.5901220441 4285756534
-0.2793342471 -0.1489177495 0.5893698931 4285624950
-0.2793949842 -0.1482951641 0.5894981027 4289835702
-0.2790378034 -0.1474514306 0.5887444019 4292270043
-0.2781741917 -0.1551841050 0.5883009434 4292665318
-0.2782371342 -0.1545654237 0.5884340405 4291283665
-0.2778838575 -0.1537162066 0.5876868963 4287927706
-0.2779462337 -0.1530976146 0.5878188610 4283387989
-0.2780084312 -0.1524786055 0.5879503489 4283716953
-0.2780703604 -0.1518591791 0.5880813599 4283585367
-0.2781320810 -0.1512393355 0.5882118940 4285361779
-0.2781935930 -0.1506190896 0.5883419514 4285361779
-0.2782548368 -0.1499984264 0.5884715319 4286349441
-0.2778992653 -0.1491537392 0.5877194405 4286217855
-0.2779599726 -0.1485331804 0.5878478885 4285888122
-0.2780204713 -0.1479122341 0.5879758596 4291612113
-0.2776638269 -0.1470700502 0.5872215629 4292468192
-0.2768034339 -0.1547829807 0.5867802501 4291941597
-0.2768661082 -0.1541659236 0.5869131088 4290296772
-0.2765133679 -0.1533182412 0.5861653686 4285493881
-0.2765755057 -0.1527012736 0.5862970948 4283717470
-0.2766374350 -0.1520838886 0.5864283442 4283716954
-0.2766991258 -0.1514661014 0.5865591168 4284638056
-0.2767605782 -0.1508478969 0.5866894126 4285295732
-0.2768218219 -0.1502292752 0.5868192315 4286282627
-0.2768828571 -0.1496102363 0.5869486332 4286480257
-0.2765278220 -0.1487670988 0.5861959457 4285888120
-0.2761723697 -0.1479254067 0.5854424834 4287861912
-0.2762325108 -0.1473070234 0.5855700374 4291743699
-0.2757867277 -0.1552294791 0.5860046744 4292533991
-0.2758494616 -0.1546135545 0.5861380100 4291481044
-0.2754976749 -0.1537659764 0.5853905082 4288586152
-0.2755598724 -0.1531501263 0.5855226517 4284243812
-0.2752073705 -0.1523044854 0.5847736597 4283256917
-0.2756835818 -0.1519171894 0.5857855678 4283980126
-0.2753304541 -0.1510725766 0.5850352049 4284901228
-0.2753916681 -0.1504560113 0.5851652622 4285427572
-0.2754526734 -0.1498390287 0.5852949023 4286019709
-0.2755134404 -0.1492216289 0.5854240060 4285822327
-0.2751589417 -0.1483800262 0.5846707821 4285888120
-0.2748040557 -0.1475398839 0.5839167237 4289440944
-0.2744487822 -0.1467011869 0.5831617713 4292270043
-0.2740072906 -0.1545927525 0.5836009383 4292139233
-0.2740696669 -0.1539793760 0.5837337971 4290888907
-0.2741318047 -0.1533655822 0.5838661790 4286480776
-0.2741937637 -0.1527513564 0.5839981437 4283453782
-0.2742554545 -0.1521367282 0.5841295719 4283387989
-0.2739032209 -0.1512931585 0.5833793283 4284374884
-0.2739644051 -0.1506786197 0.5835096240 4285032814
-0.2740253508 -0.1500636786 0.5836394429 4285493365
-0.2740860879 -0.1494483352 0.5837687850 4285690744
-0.2741465867 -0.1488325745 0.5838977098 4285361776
-0.2737926841 -0.1479925215 0.5831438899 4286546050
-0.2734383643 -0.1471539289 0.5823892355 4291348941
-0.2725822031 -0.1547999680 0.5819423795 4292533991
-0.2726445496 -0.1541886479 0.5820754170 4291612889
-0.2727066576 -0.1535768956 0.5822080374 4289638840
-0.2727685571 -0.1529647410 0.5823401809 4284770158
-0.2728302181 -0.1523521543 0.5824718475 4283256403
-0.2728917003 -0.1517391652 0.5826030970 4283848540
-0.2729529142 -0.1511257589 0.5827338099 4284638056
-0.2726009190 -0.1502842307 0.5819823146 4285098607
-0.2726616263 -0.1496709287 0.5821118951 4285821817
-0.2727220953 -0.1490572095 0.5822409987 4285821817
-0.2723690569 -0.1482181847 0.5814872980 4285361776
-0.2724289894 -0.1476045847 0.5816152692 4288125082
-0.2720752358 -0.1467675418 0.5808600187 4292467422
-0.2712223232 -0.1543937922 0.5804153681 4292139233
-0.2712844014 -0.1537840962 0.5805482268 4291086545
-0.2713462412 -0.1531739831 0.5806806087 4287796636
-0.2714078724 -0.1525634527 0.5808125138 4283520091
-0.2714692950 -0.1519525051 0.5809439421 4283190356
-0.2715305090 -0.1513411403 0.5810748935 4284177251
-0.2715914845 -0.1507293731 0.5812054276 4284703849
-0.2712400258 -0.1498893946 0.5804532766 4285230193
-0.2713004649 -0.1492777318 0.5805826187 4285953403
-0.2713606954 -0.1486656517 0.5807115436 4285690231
-0.2710082233 -0.1478281766 0.5799572468 4285756536
-0.2710679173 -0.1472162157 0.5800849795 4290033081
-0.2707147300 -0.1463807225 0.5793291330 4292665571
-0.2698650360 -0.1539871544 0.5788866878 4292073694
-0.2699268460 -0.1533790976 0.5790193081 4290428869
-0.2699884474 -0.1527706087 0.5791514516 4285888639
-0.2700498104 -0.1521617174 0.5792831182 4282927954
-0.2701109946 -0.1515524089 0.5794143081 4283256149
-0.2701719403 -0.1509426832 0.5795450211 4284440423
-0.2702326477 -0.1503325552 0.5796752572 4284703849
-0.2702931464 -0.1497220099 0.5798050761 4285164400
-0.2703534365 -0.1491110623 0.5799344182 4285230193
-0.2704135180 -0.1484996974 0.5800632238 4284769642
-0.2700616717 -0.1476628333 0.5793085098 4286612615
-0.2697094381 -0.1468274146 0.5785529613 4291415504
-0.2684485912 -0.1541860700 0.5772235394 4292403175
-0.2685103714 -0.1535800695 0.5773563385 4291678936
-0.2685719132 -0.1529736370 0.5774887204 4288849837
-0.2686332464 -0.1523668021 0.5776205659 4284375400
-0.2686943710 -0.1517595500 0.5777519941 4283059540
-0.2687552571 -0.1511518657 0.5778829455 4283322712
-0.2688159645 -0.1505437940 0.5780134797 4284572779
-0.2688764334 -0.1499352902 0.5781434774 4284506470
-0.2689366639 -0.1493263841 0.5782729983 4284835435
-0.2689967155 -0.1487170756 0.5784021020 4284572262
-0.2690565288 -0.1481073499 0.5785307288 4284572262
-0.2691161335 -0.1474972367 0.5786588788 4288389026
-0.2687645257 -0.1466624439 0.5779029131 4292336606
-0.2670967877 -0.1537768990 0.5756917000 4292140003
-0.2671582997 -0.1531725377 0.5758243203 4291021006
-0.2672196031 -0.1525677443 0.5759564042 4287007633
-0.2672806680 -0.1519625336 0.5760880709 4283388503
-0.2673415244 -0.1513569206 0.5762192011 4283256917
-0.2674021721 -0.1507508904 0.5763499141 4283454296
-0.2674626112 -0.1501444429 0.5764802098 4284506984
-0.2675228119 -0.1495375931 0.5766099691 4284177505
-0.2675828040 -0.1489303261 0.5767392516 4284572263
-0.2676425874 -0.1483226568 0.5768681169 4284638055
-0.2677021623 -0.1477145851 0.5769965053 4285493364
-0.2677614987 -0.1471061110 0.5771244168 4290033851
-0.2656861544 -0.1539696008 0.5740254521 4292599784
-0.2657476068 -0.1533672810 0.5741582513 4291744475
-0.2658088505 -0.1527645439 0.5742905736 4290231490
-0.2658698857 -0.1521614045 0.5744224191 4284704878
-0.2659307122 -0.1515578330 0.5745537877 4282993747
-0.2659913003 -0.1509538591 0.5746847391 4282664782
-0.2660517097 -0.1503494680 0.5748152137 4283520091
-0.2661118805 -0.1497446746 0.5749452114 4284441193
-0.2661718428 -0.1491394639 0.5750747323 4283848286
-0.2662315667 -0.1485338360 0.5752038360 4284703595
-0.2662910819 -0.1479278058 0.5753324628 4283914333
-0.2663504183 -0.1473213732 0.5754605532 4287401362
-0.2660002708 -0.1464891732 0.5747041106 4291679185
-0.2643398643 -0.1535578817 0.5724905133 4292468198
-0.2644010782 -0.1529572159 0.5726230741 4291349717
-0.2644620538 -0.1523561180 0.5727550983 4288323493
-0.2649303973 -0.1519884318 0.5737694502 4283191639
-0.2649910450 -0.1513855904 0.5739008188 4283059540
-0.2650514841 -0.1507823169 0.5740317106 4283125333
-0.2651117146 -0.1501786411 0.5741621256 4283980642
-0.2651717365 -0.1495745629 0.5742920637 4284046435
-0.2652315199 -0.1489700675 0.5744215846 4283716954
-0.2652910948 -0.1483651549 0.5745506287 4284111712
-0.2653504610 -0.1477598548 0.5746791959 4284177505
-0.2650012970 -0.1469277442 0.5739229321 4289046187
-0.2646517158 -0.1460970938 0.5731658936 4292337117
-0.2629962265 -0.1531457305 0.5709539056 4291876315
-0.2630571723 -0.1525466889 0.5710861683 4290889420
-0.2631178796 -0.1519472301 0.5712180138 4286152324
-0.2635851502 -0.1515812874 0.5722324252 4282731088
-0.2636455595 -0.1509800851 0.5723635554 4282927952
-0.2637057304 -0.1503784657 0.5724942088 4283454296
-0.2637656927 -0.1497764289 0.5726243854 4284375398
-0.2638254464 -0.1491739899 0.5727540851 4283914847
-0.2638849616 -0.1485711336 0.5728833675 4284177505
-0.2639442980 -0.1479678750 0.5730121136 4283848540
-0.2640033960 -0.1473642141 0.5731404424 4285295985
-0.2636547983 -0.1465336680 0.5723836422 4291019976
-0.2616552114 -0.1527331173 0.5694156289 4291349971
-0.2617158890 -0.1521357149 0.5695476532 4289902525
-0.2617763281 -0.1515379101 0.5696792006 4284178534
-0.2618365884 -0.1509396881 0.5698103309 4282796881
-0.2618966401 -0.1503410488 0.5699409842 4283322710
-0.2619564533 -0.1497420073 0.5700711608 4283849054
-0.2620160580 -0.1491425484 0.5702009201 4284112226
-0.2620754838 -0.1485426873 0.5703302026 4283717468
-0.2621346712 -0.1479424089 0.5704590082 4284045919
-0.2626001537 -0.1475701630 0.5714719892 4283585368
-0.2626589835 -0.1469681561 0.5716000199 4287203982
-0.2623109519 -0.1461391598 0.5708426237 4292533215
-0.2606609762 -0.1531531960 0.5686263442 4292402659
-0.2607216835 -0.1525569409 0.5687587857 4291218385
-0.2607822120 -0.1519602537 0.5688908100 4287862942
-0.2612475157 -0.1515982002 0.5699058771 4282730575
-0.2609025836 -0.1507656574 0.5691533685 4282533196
-0.2609624565 -0.1501677483 0.5692839622 4283059538
-0.2610220909 -0.1495694071 0.5694141388 4283717468
-0.2606761456 -0.1487393528 0.5686594248 4283848540
-0.2607353032 -0.1481411308 0.5687884688 4284111712
-0.2607942224 -0.1475425214 0.5689170361 4284111712
-0.2608529329 -0.1469434798 0.5690451264 4284045919
-0.2609114647 -0.1463440508 0.5691727400 4289375152
-0.2597286403 -0.1529760361 0.5679686069 4291810522
-0.2597891986 -0.1523804963 0.5681009889 4290757834
-0.2598495185 -0.1517845392 0.5682329535 4285691773
-0.2599096596 -0.1511881649 0.5683644414 4282730575
-0.2599695623 -0.1505913734 0.5684954524 4282993747
-0.2600292563 -0.1499941796 0.5686259866 4283059538
-0.2600887716 -0.1493965685 0.5687561035 4283783261
-0.2601480484 -0.1487985402 0.5688857436 4283782747
-0.2598024309 -0.1479696333 0.5681299567 4284374884
-0.2598612010 -0.1473717391 0.5682585239 4284309090
-0.2599197626 -0.1467734277 0.5683865547 4285690743
-0.2595731616 -0.1459470242 0.5676286221 4291283149
-0.2583942115 -0.1525606215 0.5664262176 4291481557
-0.2584545016 -0.1519667208 0.5665583611 4288915628
-0.2585145533 -0.1513724029 0.5666900277 4283520602
-0.2585744262 -0.1507776827 0.5668212771 4282270024
-0.2590375543 -0.1504168361 0.5678365231 4282796368
-0.2586935163 -0.1495869905 0.5670823455 4283454296
-0.2587527633 -0.1489910334 0.5672122240 4283849054
-0.2588117719 -0.1483946592 0.5673415661 4283651160
-0.2588706017 -0.1477978826 0.5674705505 4283914332
-0.2585252523 -0.1469710618 0.5667135119 4284440676
-0.2585835755 -0.1463744044 0.5668413043 4288059291
-0.2578333914 -0.1453217864 0.5651968718 4292467422
-0.2566000223 -0.1524975598 0.5638660192 4292271071
-0.2566601634 -0.1519066393 0.5639981627 4291152590
-0.2567200661 -0.1513153166 0.5641298294 4287139217
-0.2571822703 -0.1509598196 0.5651454926 4283652188
-0.2572418749 -0.1503667533 0.5652764440 4284638570
-0.2573012710 -0.1497732550 0.5654069781 4286546567
-0.2573604584 -0.1491793543 0.5655370355 4287599255
-0.2574194074 -0.1485850513 0.5656666160 4286875532
-0.2574781775 -0.1479903311 0.5657957792 4285361778
-0.2575367391 -0.1473952085 0.5659244657 4284177504
-0.2575950921 -0.1467996687 0.5660526752 4284835432
-0.2568468153 -0.1457461417 0.5644083619 4289967286
-0.2556132376 -0.1529083699 0.5630718470 4292468968
-0.2556733787 -0.1523185968 0.5632043481 4292007899
-0.2553318739 -0.1514902264 0.5624520779 4290034109
-0.2553915381 -0.1509005427 0.5625835061 4287467152
-0.2558526397 -0.1505467892 0.5635992289 4287730324
-0.2559119761 -0.1499553621 0.5637299418 4289440685
-0.2559711039 -0.1493635327 0.5638601780 4290295994
-0.2560300231 -0.1487712711 0.5639899969 4290295992
-0.2560887635 -0.1481786221 0.5641193390 4289901234
-0.2561472654 -0.1475855559 0.5642482638 4288453788
-0.2562055588 -0.1469920874 0.5643766522 4286216826
-0.2562636733 -0.1463982165 0.5645046234 4286414464
-0.2555167675 -0.1453461498 0.5628593564 4291283146
-0.2542873323 -0.1524883062 0.5615249276 4292337382
-0.2543472350 -0.1519001722 0.5616571903 4291349969
-0.2544068992 -0.1513116360 0.5617890358 4289441972
-0.2544664145 -0.1507226825 0.5619204044 4289309356
-0.2545256913 -0.1501333117 0.5620512962 4290230458
-0.2549856901 -0.1497790366 0.5630670786 4290493371
-0.2550446391 -0.1491879225 0.5631973147 4290361785
-0.2551034093 -0.1485964060 0.5633270741 4290164406
-0.2551619709 -0.1480044723 0.5634563565 4290493371
-0.2548190057 -0.1471803486 0.5626990199 4290032820
-0.2548770607 -0.1465885341 0.5628272295 4289309097
-0.2545334399 -0.1457663924 0.5620684028 4289441712
-0.2545909584 -0.1451747119 0.5621954799 4292665569
-0.2529641092 -0.1520677656 0.5599763989 4292073440
-0.2530237436 -0.1514813006 0.5601083636 4290757319
-0.2530831695 -0.1508944035 0.5602399111 4289441459
-0.2531423867 -0.1503071040 0.5603710413 4290230458
-0.2532014251 -0.1497193873 0.5605016947 4290296251
-0.2536603212 -0.1493668556 0.5615175962 4289901234
-0.2537190318 -0.1487773955 0.5616475344 4290032820
-0.2537775338 -0.1481875330 0.5617769957 4289967027
-0.2538358271 -0.1475972533 0.5619060397 4290295992
-0.2538939118 -0.1470065713 0.5620346665 4289901747
-0.2539517879 -0.1464154720 0.5621627569 4290230712
-0.2532081604 -0.1453639716 0.5605166554 4290757572
-0.2516435683 -0.1516467780 0.5584261417 4291547350
-0.2517029345 -0.1510619670 0.5585578680 4289902010
-0.2517620921 -0.1504767239 0.5586891770 4289309873
-0.2518210709 -0.1498910785 0.5588200092 4290493630
-0.2522790134 -0.1495416313 0.5598362088 4290098872
-0.2523376644 -0.1489542425 0.5599663854 4290032820
-0.2523961067 -0.1483664364 0.5600960851 4289835441
-0.2524543405 -0.1477782130 0.5602253079 4289967027
-0.2525123656 -0.1471895874 0.5603541136 4290164406
-0.2525702119 -0.1466005743 0.5604824424 4289835954
-0.2526278198 -0.1460111439 0.5606102943 4290362298
-0.2522854209 -0.1451912075 0.5598505139 4291283916
-0.2506643236 -0.1520494521 0.5576274395 4292336866
-0.2503257394 -0.1512253433 0.5568742156 4290955213
-0.2503848374 -0.1506421715 0.5570057034 4289046701
-0.2508418858 -0.1502971649 0.5580224991 4289178287
-0.2509006858 -0.1497122347 0.5581532717 4290559423
-0.2513576448 -0.1493636221 0.5591697693 4289835700
-0.2510176599 -0.1485411674 0.5584135056 4290230199
-0.2514743805 -0.1481898725 0.5594295263 4290098613
-0.2515324652 -0.1476023793 0.5595586896 4290032818
-0.2515903413 -0.1470144838 0.5596874356 4290164404
-0.2516480088 -0.1464261860 0.5598157644 4290164919
-0.2513065636 -0.1456063539 0.5590561628 4290296505
-0.2513637245 -0.1450181901 0.5591833591 4291481295
-0.2493486106 -0.1516260058 0.5560745001 4291876315
-0.2494077384 -0.1510439664 0.5562063456 4290560455
-0.2494666725 -0.1504615247 0.5563377738 4288191392
-0.2495253980 -0.1498786807 0.5564687252 4288454564
-0.2499813586 -0.1495331377 0.5574855804 4290164665
-0.2500397861 -0.1489485353 0.5576158762 4289572528
-0.2500979900 -0.1483635157 0.5577456951 4289901234
-0.2505537271 -0.1480130404 0.5587620139 4289901234
-0.2506116331 -0.1474262774 0.5588911176 4289901232
-0.2506693304 -0.1468391120 0.5590198040 4290098611
-0.2503288388 -0.1460193992 0.5582605004 4290428091
-0.2503860593 -0.1454323530 0.5583881140 4290493884
-0.2500448823 -0.1446146369 0.5576272607 4291876053
-0.2479765564 -0.1517820507 0.5543878078 4292206309
-0.2480356097 -0.1512020975 0.5545198321 4291350485
-0.2480944842 -0.1506217271 0.5546514392 4289771453
-0.2481531501 -0.1500409395 0.5547826290 4287402389
-0.2486081123 -0.1496984959 0.5557997823 4287139217
-0.2486664802 -0.1491159499 0.5559301972 4288914598
-0.2491213232 -0.1487699002 0.5569471121 4289704114
-0.2491793782 -0.1481856108 0.5570768714 4289835439
-0.2496341020 -0.1478359550 0.5580934882 4289309095
-0.2492948771 -0.1470158249 0.5573350787 4289769646
-0.2493523210 -0.1464303136 0.5574635267 4289638060
-0.2494095564 -0.1458444148 0.5575914979 4289967027
-0.2494665980 -0.1452580988 0.5577189922 4290559164
-0.2491261065 -0.1444410086 0.5569577813 4292336604
