VERSION 0.7
FIELDS x y z rgba
SIZE 4 4 4 4
TYPE F F F U
COUNT 1 1 1 1
WIDTH 920
HEIGHT 1
VIEWPOINT 0.0 0.0 0.0 1.0 0.0 0.0 0.0
POINTS 920
DATA ascii
-0.2906385660 -0.1353730857 0.6019363403 4284572514
-0.2902687788 -0.1345329136 0.6011704803 4284309342
-0.2903248966 -0.1338908523 0.6012867093 4284243549
-0.2903807759 -0.1332484186 0.6014024019 4284309342
-0.2904363871 -0.1326056123 0.6015176177 4284177756
-0.2909183502 -0.1321562082 0.6025157571 4284308831
-0.2909735441 -0.1315117329 0.6026301384 4284308831
-0.2910284996 -0.1308668852 0.6027439237 4284308831
-0.2910832167 -0.1302216649 0.6028572321 4284045659
-0.2911376953 -0.1295760870 0.6029700637 4284177502
-0.2916188538 -0.1291191876 0.6039665937 4285164397
-0.2920999527 -0.1286600381 0.6049630046 4286743431
-0.2921538055 -0.1280114949 0.6050745249 4288190877
-0.2922074199 -0.1273625791 0.6051855683 4290296253
-0.2931153476 -0.1270838082 0.6070659757 4291414734
-0.2931686342 -0.1264322847 0.6071763039 4292599776
-0.2932216227 -0.1257804185 0.6072860360 4293520878
-0.2932743728 -0.1251281798 0.6073952913 4294113017
-0.2899457812 -0.1601051092 0.6018860340 4293586679
-0.2900114357 -0.1594724655 0.6020223498 4293257714
-0.2900768816 -0.1588394046 0.6021581888 4292929003
-0.2901420891 -0.1582059264 0.6022934914 4292468452
-0.2902070284 -0.1575720012 0.6024283767 4292205280
-0.2902717888 -0.1569376588 0.6025627255 4291942108
-0.2903362811 -0.1563028991 0.6026966572 4291613143
-0.2899778485 -0.1554411203 0.6019525528 4291547350
-0.2900417745 -0.1548064351 0.6020852923 4291349456
-0.2901054919 -0.1541713327 0.6022175550 4290691526
-0.2901689708 -0.1535358131 0.6023493409 4290492860
-0.2902322114 -0.1528998762 0.6024805903 4289703344
-0.2902952135 -0.1522635221 0.6026114225 4288584861
-0.2903579772 -0.1516267508 0.6027417183 4287334794
-0.2904205322 -0.1509895772 0.6028715372 4286216313
-0.2904828191 -0.1503519863 0.6030008197 4285361004
-0.2901213467 -0.1494957507 0.6022504568 4284506210
-0.2901830673 -0.1488582790 0.6023786068 4283782487
-0.2902445793 -0.1482203901 0.6025062799 4283848278
-0.2903058231 -0.1475821137 0.6026334167 4284243036
-0.2899429500 -0.1467289031 0.6018801332 4285032552
-0.2895796597 -0.1458771527 0.6011260152 4286085240
-0.2896400094 -0.1452395320 0.6012513041 4286808961
-0.2897001505 -0.1446015090 0.6013761163 4287927442
-0.2897600234 -0.1439630836 0.6015004516 4288387995
-0.2898196578 -0.1433242708 0.6016242504 4288914339
-0.2894546390 -0.1424761564 0.6008664966 4289045664
-0.2895137072 -0.1418374926 0.6009891033 4288979871
-0.2895725369 -0.1411984414 0.6011112332 4288848285
-0.2896311283 -0.1405589879 0.6012328863 4288387734
-0.2896894813 -0.1399191618 0.6013540030 4288453529
-0.2897475958 -0.1392789483 0.6014745831 4288519322
-0.2898054421 -0.1386383474 0.6015947461 4289177509
-0.2894380391 -0.1377950162 0.6008320451 4289111716
-0.2894953489 -0.1371545941 0.6009509563 4288980130
-0.2895523906 -0.1365137845 0.6010693908 4288782751
-0.2896091938 -0.1358726025 0.6011872888 4288322715
-0.2896657288 -0.1352310330 0.6013047099 4287533199
-0.2892965972 -0.1343914717 0.6005384326 4286743683
-0.2893525958 -0.1337501109 0.6006546617 4286019960
-0.2889827192 -0.1329126209 0.5998868346 4285099372
-0.2890381217 -0.1322714537 0.6000018716 4284375649
-0.2895190418 -0.1318237782 0.6010001898 4284308831
-0.2895740271 -0.1311809421 0.6011143327 4284177245
-0.2896287739 -0.1305377334 0.6012279987 4284308829
-0.2896832824 -0.1298941672 0.6013410687 4284506208
-0.2897375226 -0.1292502284 0.6014537215 4284637794
-0.2902176678 -0.1287950575 0.6024504304 4284572001
-0.2902714908 -0.1281494498 0.6025621891 4284308831
-0.2903250754 -0.1275034994 0.6026734114 4284308831
-0.2903783917 -0.1268571764 0.6027840972 4284703846
-0.2908579409 -0.1263958365 0.6037795544 4285822327
-0.2913374007 -0.1259322315 0.6047748327 4287138187
-0.2909635007 -0.1250995249 0.6039986610 4288454047
-0.2910158932 -0.1244508475 0.6041073799 4290033079
-0.2914947867 -0.1239833385 0.6051015854 4291677904
-0.2915467620 -0.1233330145 0.6052094102 4292993764
-0.2920253873 -0.1228619590 0.6062030196 4293651694
-0.2886840999 -0.1584420651 0.6006518006 4293587449
-0.2887490392 -0.1578101814 0.6007869244 4293390070
-0.2888137400 -0.1571778804 0.6009215713 4293323507
-0.2884564996 -0.1563166231 0.6001782417 4293060335
-0.2885206640 -0.1556843966 0.6003117561 4292665577
-0.2885845900 -0.1550517529 0.6004447341 4292402405
-0.2886482775 -0.1544186920 0.6005772352 4292205026
-0.2891338170 -0.1540100425 0.6015875340 4291941854
-0.2891971469 -0.1533752084 0.6017192602 4291546320
-0.2892602086 -0.1527399570 0.6018505096 4291217355
-0.2893230617 -0.1521043032 0.6019812822 4290954181
-0.2893856764 -0.1514682323 0.6021115184 4290559423
-0.2894480526 -0.1508317441 0.6022413373 4289901493
-0.2895101905 -0.1501948535 0.6023706198 4289046184
-0.2891493440 -0.1493392140 0.6016198397 4287861910
-0.2892109454 -0.1487024277 0.6017479897 4286743429
-0.2892722785 -0.1480652392 0.6018756032 4285427569
-0.2889103591 -0.1472121179 0.6011226177 4284243295
-0.2889711559 -0.1465750486 0.6012490392 4283322447
-0.2886084914 -0.1457239091 0.6004945040 4282927689
-0.2886687219 -0.1450869888 0.6006197929 4283058762
-0.2887286842 -0.1444496512 0.6007446051 4283519313
-0.2887884080 -0.1438119262 0.6008688807 4284440417
-0.2888478935 -0.1431738138 0.6009926200 4285690484
-0.2884835303 -0.1423262954 0.6002345085 4286941062
-0.2885424495 -0.1416883320 0.6003571153 4287467406
-0.2890249491 -0.1412570924 0.6013609767 4288125334
-0.2890834510 -0.1406174004 0.6014827490 4288322713
-0.2887177765 -0.1397720873 0.6007218957 4288191127
-0.2887757421 -0.1391325593 0.6008424759 4288191127
-0.2888334692 -0.1384926587 0.6009625793 4288256407
-0.2888909280 -0.1378523707 0.6010821462 4288124821
-0.2889481485 -0.1372116953 0.6012012362 4288848544
-0.2885807455 -0.1363701075 0.6004368067 4288848544
-0.2886373997 -0.1357296258 0.6005546451 4289308836
-0.2886938155 -0.1350887567 0.6006720662 4289440422
-0.2887499928 -0.1344475150 0.6007888913 4289243042
-0.2883811891 -0.1336091310 0.6000215411 4289243042
-0.2880119979 -0.1327722669 0.5992533565 4289045664
-0.2880672514 -0.1321318001 0.5993683934 4288585113
-0.2881222665 -0.1314909756 0.5994828343 4287729804
-0.2881770432 -0.1308497787 0.5995967984 4286677116
-0.2882315814 -0.1302082092 0.5997102261 4285690223
-0.2882858515 -0.1295662820 0.5998231769 4284834914
-0.2883398831 -0.1289239973 0.5999355912 4284637281
-0.2888190150 -0.1284705549 0.6009325385 4284966246
-0.2888726294 -0.1278265864 0.6010440588 4284900707
-0.2889259756 -0.1271822751 0.6011551023 4284769121
-0.2889790833 -0.1265376061 0.6012656093 4284242523
-0.2890319526 -0.1258925796 0.6013755798 4283979351
-0.2890845537 -0.1252472103 0.6014850140 4283453522
-0.2891369164 -0.1246014759 0.6015939713 4283716694
-0.2891890407 -0.1239553988 0.6017023921 4284835175
-0.2892408669 -0.1233089641 0.6018102765 4285822070
-0.2892924845 -0.1226621941 0.6019176245 4287137930
-0.2893438339 -0.1220150739 0.6020244956 4288914341
-0.2898211181 -0.1215463504 0.6030175686 4290692292
-0.2898720503 -0.1208975911 0.6031234860 4292139738
-0.2899227142 -0.1202484891 0.6032289267 4293193196
-0.2903995514 -0.1197749302 0.6042210460 4293785333
-0.2878048420 -0.1529903561 0.6002094150 4292862695
-0.2878676653 -0.1523567289 0.6003404260 4292665316
-0.2883518338 -0.1519448310 0.6013501287 4292336606
-0.2884142697 -0.1513094604 0.6014803648 4291941848
-0.2880547345 -0.1504533887 0.6007305980 4291612883
-0.2881166339 -0.1498181075 0.6008596420 4291283918
-0.2881782949 -0.1491824389 0.6009882689 4290757574
-0.2882397175 -0.1485463381 0.6011163592 4290297023
-0.2883009017 -0.1479098499 0.6012439132 4289572530
-0.2879396379 -0.1470573246 0.6004905701 4288651428
-0.2880002558 -0.1464209557 0.6006169915 4287532945
-0.2876382768 -0.1455704272 0.5998620391 4286414464
-0.2876983285 -0.1449341923 0.5999872684 4285295983
-0.2877581418 -0.1442975551 0.6001120210 4284177502
-0.2882403731 -0.1438714862 0.6011176705 4283190607
-0.2882997990 -0.1432331204 0.6012416482 4282795849
-0.2879361808 -0.1423852891 0.6004832983 4283059021
-0.2879950404 -0.1417470872 0.6006060243 4283453779
-0.2880536616 -0.1411084831 0.6007282734 4284440928
-0.2881120443 -0.1404694915 0.6008500457 4285690995
-0.2881701589 -0.1398301125 0.6009712815 4286875269
-0.2882280648 -0.1391903460 0.6010920405 4287862164
-0.2878623903 -0.1383467466 0.6003293991 4288716960
-0.2879197001 -0.1377071589 0.6004489660 4289177511
-0.2879768014 -0.1370671839 0.6005679965 4289045923
-0.2880336344 -0.1364268363 0.6006865501 4288980130
-0.2880902290 -0.1357861012 0.6008045673 4288848798
-0.2877228260 -0.1349462569 0.6000384092 4288585626
-0.2873550355 -0.1341079175 0.5992713571 4288585626
-0.2874107361 -0.1334679425 0.5993875265 4288914591
-0.2870422006 -0.1326316893 0.5986189246 4289374631
-0.2870973051 -0.1319919229 0.5987339020 4289440424
-0.2871522009 -0.1313517988 0.5988483429 4290032561
-0.2872068286 -0.1307113022 0.5989622474 4289769389
-0.2872612178 -0.1300704330 0.5990756750 4289243045
-0.2873153389 -0.1294292063 0.5991885662 4288124564
-0.2873692513 -0.1287876219 0.5993009806 4287137415
-0.2874228954 -0.1281456649 0.5994128585 4286282106
-0.2874762714 -0.1275033653 0.5995242000 4285032293
-0.2875294387 -0.1268606931 0.5996350646 4284045398
-0.2875823379 -0.1262176782 0.5997453928 4283781972
-0.2876349688 -0.1255742908 0.5998551846 4283716179
-0.2876873612 -0.1249305680 0.5999644399 4283781974
-0.2877395153 -0.1242864951 0.6000732183 4283979353
-0.2877914310 -0.1236420646 0.6001814008 4284243038
-0.2878430784 -0.1229972914 0.6002891064 4284045659
-0.2878944576 -0.1223521680 0.6003963351 4283650899
-0.2879455984 -0.1217067018 0.6005029678 4283716692
-0.2879965007 -0.1210608855 0.6006090641 4284770407
-0.2880471349 -0.1204147339 0.6007146835 4286086267
-0.2885230482 -0.1199451536 0.6017072201 4287665812
-0.2885732651 -0.1192973703 0.6018119454 4289573809
-0.2890489101 -0.1188242435 0.6028038859 4291481808
-0.2890986800 -0.1181748286 0.6029076576 4292731875
-0.2899998724 -0.1178712547 0.6047871113 4293521391
-0.2870229483 -0.1509291232 0.5999684930 4292863210
-0.2870849371 -0.1502949595 0.6000980735 4292534243
-0.2871466577 -0.1496603936 0.6002271175 4292139485
-0.2872081697 -0.1490253955 0.6003556252 4291744727
-0.2872694135 -0.1483900100 0.6004837155 4291547348
-0.2873304486 -0.1477542073 0.6006112695 4291283663
-0.2873912454 -0.1471180171 0.6007383466 4291020491
-0.2870303094 -0.1462666243 0.5999838710 4290428609
-0.2870905399 -0.1456305534 0.6001098156 4289770679
-0.2871505320 -0.1449940801 0.6002351642 4289112749
-0.2872102857 -0.1443572044 0.6003600955 4288323233
-0.2872698009 -0.1437199414 0.6004844904 4287270545
-0.2869071662 -0.1428721696 0.5997264385 4286349443
-0.2869661152 -0.1422350556 0.5998497009 4285098604
-0.2870248258 -0.1415975392 0.5999724269 4284243295
-0.2870832980 -0.1409596354 0.6000946164 4283453779
-0.2871415317 -0.1403213441 0.6002163291 4283124814
-0.2871995270 -0.1396826655 0.6003375649 4283190607
-0.2872572541 -0.1390435994 0.6004582644 4283716951
-0.2873147726 -0.1384041458 0.6005784869 4284769639
-0.2869494259 -0.1375617236 0.5998148322 4285756534
-0.2870063782 -0.1369224489 0.5999338031 4287927957
-0.2870630622 -0.1362827867 0.6000523567 4288585887
-0.2871195078 -0.1356427521 0.6001703143 4288914337
-0.2871757150 -0.1350023448 0.6002877951 4288782751
-0.2868086696 -0.1341636777 0.5995205641 4288782751
-0.2864412069 -0.1333265305 0.5987524390 4288651165
-0.2860733271 -0.1324909031 0.5979834795 4288651165
-0.2861283123 -0.1318518370 0.5980983973 4288848544
-0.2861830294 -0.1312123984 0.5982128382 4289374631
-0.2862375379 -0.1305726022 0.5983267426 4289637803
-0.2862917781 -0.1299324334 0.5984401107 4289769389
-0.2863457799 -0.1292919070 0.5985530019 4289572010
-0.2863995433 -0.1286510229 0.5986653566 4289374377
-0.2864530385 -0.1280097812 0.5987772346 4289045412
-0.2865062952 -0.1273681670 0.5988885164 4288453529
-0.2865593135 -0.1267262101 0.5989993811 4287992978
-0.2861880958 -0.1258973628 0.5982233882 4286742657
-0.2862405479 -0.1252556443 0.5983330011 4285097832
-0.2862927318 -0.1246135682 0.5984420776 4283979351
-0.2863446772 -0.1239711493 0.5985506773 4283913558
-0.2863963544 -0.1233283728 0.5986586809 4283979351
-0.2864477932 -0.1226852536 0.5987662077 4283913558
-0.2864989936 -0.1220417842 0.5988731980 4283913558
-0.2865499258 -0.1213979721 0.5989797115 4284045144
-0.2866005898 -0.1207538173 0.5990856290 4284440415
-0.2866510451 -0.1201093197 0.5991910696 4283848278
-0.2871259451 -0.1196414754 0.6001837850 4283322447
-0.2871759534 -0.1189953461 0.6002883315 4283782998
-0.2872257233 -0.1183488816 0.6003923416 4285559409
-0.2872751951 -0.1177020818 0.6004957557 4287401613
-0.2877494693 -0.1172281057 0.6014871597 4289440942
-0.2882236540 -0.1167518795 0.6024783254 4291612111
-0.2886976898 -0.1162734106 0.6034692526 4292797155
-0.2891716361 -0.1157926917 0.6044599414 4294113015
-0.2858186364 -0.1486495286 0.5988414288 4293061103
-0.2858796716 -0.1480157673 0.5989692211 4292929517
-0.2859404385 -0.1473815888 0.5990965962 4292402659
-0.2855803967 -0.1465312093 0.5983422399 4292402659
-0.2860612869 -0.1461120397 0.5993497968 4291876313
-0.2861213684 -0.1454766691 0.5994756818 4291415762
-0.2861812115 -0.1448408961 0.5996010303 4291152590
-0.2862408161 -0.1442047209 0.5997259617 4290889418
-0.2863001823 -0.1435681432 0.5998502970 4290560453
-0.2859381735 -0.1427209973 0.5990918875 4289902523
-0.2859969735 -0.1420845687 0.5992150903 4289375151
-0.2860555351 -0.1414477527 0.5993377566 4288190877
-0.2861138582 -0.1408105493 0.5994599462 4286940810
-0.2861719429 -0.1401729584 0.5995816588 4286019708
-0.2862297893 -0.1395349801 0.5997028351 4285032811
-0.2862873971 -0.1388966143 0.5998235345 4284177502
-0.2863447666 -0.1382578611 0.5999436975 4283585365
-0.2859800756 -0.1374160498 0.5991796255 4283256400
-0.2860368788 -0.1367774755 0.5992985964 4283059021
-0.2860934138 -0.1361385137 0.5994170904 4284045916
-0.2861497104 -0.1354991794 0.5995350480 4285230444
-0.2857836485 -0.1346605718 0.5987681150 4286546304
-0.2858393788 -0.1340214312 0.5988848805 4287862164
-0.2854726017 -0.1331848949 0.5981163383 4288256922
-0.2851053774 -0.1323498785 0.5973470211 4288191129
-0.2851602137 -0.1317115128 0.5974618793 4288388508
-0.2852148116 -0.1310727894 0.5975763202 4288585115
-0.2852691710 -0.1304336935 0.5976901650 4288650908
-0.2853232920 -0.1297942251 0.5978035331 4288585115
-0.2853771448 -0.1291543990 0.5979164243 4288716701
-0.2854307592 -0.1285142154 0.5980287194 4288848287
-0.2854841352 -0.1278736740 0.5981405377 4289045666
-0.2855372727 -0.1272327602 0.5982518792 4289374631
-0.2855901420 -0.1265915036 0.5983626246 4289572010
-0.2852196097 -0.1257632971 0.5975862741 4289374631
-0.2848486602 -0.1249366328 0.5968090892 4288782494
-0.2849006355 -0.1242962107 0.5969179869 4288124564
-0.2849523425 -0.1236554384 0.5970263481 4287071876
-0.2850038409 -0.1230143160 0.5971342325 4285756016
-0.2850550711 -0.1223728508 0.5972415805 4285032293
-0.2851060331 -0.1217310429 0.5973483920 4284505949
-0.2851567864 -0.1210888922 0.5974546671 4284111191
-0.2856310308 -0.1206253618 0.5984483361 4283979605
-0.2856813371 -0.1199815720 0.5985537767 4283979605
-0.2857314050 -0.1193374395 0.5986586213 4284111448
-0.2857812047 -0.1186929718 0.5987629890 4283979862
-0.2858307362 -0.1180481687 0.5988667607 4283716692
-0.2858800590 -0.1174030229 0.5989700556 4283453520
-0.2859290838 -0.1167575568 0.5990728140 4283782744
-0.2859778702 -0.1161117479 0.5991750360 4285230190
-0.2864507735 -0.1156369299 0.6001658440 4287335566
-0.2873480320 -0.1153302193 0.6020457149 4290098872
-0.2878207862 -0.1148499474 0.6030362248 4292797157
-0.2882934213 -0.1143674254 0.6040264964 4294376189
-0.2887659371 -0.1138826609 0.6050165296 4294310141
-0.2846733332 -0.1457422674 0.5978329778 4293061103
-0.2847331762 -0.1451085210 0.5979586244 4292666345
-0.2847927809 -0.1444743872 0.5980837941 4292468452
-0.2848521471 -0.1438398361 0.5982084870 4292073694
-0.2849112451 -0.1432049125 0.5983326435 4291810520
-0.2849701345 -0.1425695717 0.5984562635 4291415762
-0.2846083939 -0.1417245120 0.5976966023 4291415504
-0.2846667171 -0.1410893351 0.5978190899 4291086539
-0.2847248018 -0.1404537708 0.5979410410 4290823367
-0.2847826481 -0.1398178190 0.5980625749 4290231230
-0.2848402560 -0.1391814798 0.5981835127 4289178542
-0.2848976254 -0.1385447532 0.5983040333 4288060061
-0.2849547565 -0.1379076391 0.5984239578 4287007371
-0.2850116491 -0.1372701526 0.5985434651 4286020476
-0.2850683033 -0.1366322786 0.5986624360 4285033581
-0.2851246893 -0.1359940171 0.5987808704 4284507237
-0.2851808667 -0.1353553832 0.5988988280 4283586135
-0.2848154604 -0.1345173866 0.5981314182 4283191377
-0.2848710716 -0.1338789463 0.5982481837 4283388756
-0.2845049202 -0.1330430359 0.5974792838 4283980893
-0.2845599353 -0.1324048042 0.5975948572 4285033579
-0.2841930687 -0.1315709800 0.5968244076 4286283646
-0.2842475474 -0.1309329569 0.5969387889 4287664270
-0.2847235799 -0.1304878742 0.5979384780 4287993235
-0.2847776115 -0.1298481673 0.5980519652 4288256407
-0.2844094634 -0.1290166825 0.5972787738 4288519579
-0.2844629288 -0.1283771843 0.5973911285 4288651165
-0.2845161557 -0.1277373433 0.5975028872 4288848544
-0.2841469347 -0.1269085705 0.5967274904 4289045923
-0.2841995955 -0.1262689680 0.5968381166 4288980130
-0.2842520177 -0.1256290078 0.5969482064 4289506474
-0.2843042016 -0.1249886826 0.5970577598 4289638060
-0.2839336097 -0.1241632476 0.5962794423 4289703853
-0.2839851975 -0.1235231832 0.5963878036 4289440681
-0.2840365469 -0.1228827685 0.5964956284 4289309095
-0.2845104039 -0.1224239171 0.5974907875 4289177509
-0.2845613062 -0.1217818558 0.5975977182 4288387993
-0.2837661803 -0.1207794547 0.5959278941 4287532684
-0.2842394412 -0.1203176603 0.5969217420 4286479739
-0.2842895389 -0.1196755245 0.5970270038 4285361258
-0.2843393981 -0.1190330535 0.5971316695 4284506206
-0.2843889892 -0.1183902472 0.5972358584 4284045655
-0.2844383419 -0.1177471057 0.5973394513 4283979864
-0.2844874561 -0.1171036288 0.5974425673 4283848278
-0.2845362723 -0.1164598167 0.5975451469 4283519572
-0.2845848799 -0.1158156767 0.5976471901 4283782744
-0.2846332192 -0.1151712090 0.5977486968 4283453779
-0.2851049304 -0.1146968380 0.5987393260 4284045916
-0.2855765522 -0.1142202169 0.5997297764 4287138959
-0.2860480249 -0.1137413606 0.6007199287 4291612883
-0.2869432569 -0.1134277955 0.6025999784 4293915383
-0.2874145806 -0.1129434779 0.6035897732 4294639103
-0.2878858149 -0.1124569178 0.6045793891 4294441727
-0.2834660113 -0.1434745491 0.5966892838 4293324275
-0.2835249007 -0.1428412497 0.5968132019 4293061357
-0.2835835516 -0.1422075629 0.5969366431 4292863978
-0.2832223773 -0.1413640529 0.5961763859 4292797415
-0.2832804620 -0.1407305151 0.5962986946 4292402657
-0.2833383083 -0.1400965899 0.5964204669 4292139485
-0.2833959162 -0.1394622773 0.5965417027 4291942106
-0.2834532857 -0.1388275772 0.5966625214 4291613141
-0.2835104167 -0.1381924897 0.5967827439 4291415762
-0.2835673392 -0.1375570148 0.5969025493 4290823367
-0.2836239934 -0.1369211674 0.5970218182 4289836472
-0.2836804092 -0.1362849325 0.5971405506 4288389024
-0.2837365866 -0.1356483251 0.5972588062 4287402129
-0.2837925255 -0.1350113451 0.5973765254 4286152062
-0.2834276855 -0.1341749132 0.5966086388 4285165167
-0.2834830582 -0.1335381120 0.5967251658 4284309858
-0.2835381925 -0.1329009533 0.5968412161 4283586135
-0.2835930884 -0.1322634220 0.5969567299 4283388756
-0.2836477160 -0.1316255182 0.5970717669 4283520342
-0.2832812071 -0.1307929009 0.5963002443 4283979862
-0.2837562859 -0.1303486079 0.5973002911 4284900964
-0.2838101983 -0.1297096014 0.5974137783 4285822066
-0.2838638425 -0.1290702373 0.5975267291 4286479996
-0.2839172781 -0.1284305006 0.5976392031 4287335305
-0.2835491300 -0.1276008040 0.5968642235 4288453786
-0.2836019993 -0.1269613057 0.5969755054 4288914337
-0.2832331061 -0.1261337548 0.5961990356 4288848544
-0.2832854092 -0.1254944950 0.5963090658 4289243817
-0.2833374441 -0.1248548850 0.5964186192 4289441196
-0.2829675078 -0.1240300760 0.5956399441 4289375401
-0.2830189764 -0.1233907193 0.5957482457 4289178022
-0.2830701768 -0.1227510050 0.5958560705 4289506989
-0.2835431099 -0.1222929358 0.5968515277 4289901747
-0.2835938931 -0.1216515824 0.5969584584 4289967540
-0.2836444378 -0.1210098788 0.5970648527 4290099126
-0.2832725644 -0.1201887205 0.5962820649 4289703853
-0.2833225429 -0.1195472926 0.5963872671 4288848544
-0.2833722532 -0.1189055294 0.5964919329 4287927444
-0.2834217250 -0.1182634309 0.5965960622 4286808963
-0.2834709585 -0.1176209897 0.5966997147 4285690482
-0.2830973864 -0.1168038845 0.5959133506 4284769380
-0.2831460536 -0.1161617413 0.5960157514 4283914330
-0.2827717662 -0.1153468490 0.5952278972 4283585365
-0.2832425833 -0.1148764640 0.5962189436 4283190607
-0.2837132812 -0.1144038290 0.5972098112 4283124814
-0.2837609947 -0.1137594134 0.5973101854 4282532679
-0.2842314243 -0.1132832468 0.5983004570 4285624950
-0.2847017348 -0.1128048375 0.5992904305 4291020746
-0.2851719260 -0.1123241782 0.6002801657 4293586673
-0.2860651612 -0.1120069697 0.6021603942 4294310396
-0.2865351737 -0.1115208641 0.6031498313 4294705151
-0.2823156118 -0.1405798495 0.5956603289 4293258736
-0.2819543481 -0.1397389919 0.5948981047 4293257968
-0.2820117474 -0.1391063184 0.5950191617 4292797417
-0.2820688784 -0.1384732574 0.5951397419 4292336866
-0.2821257710 -0.1378398240 0.5952597857 4292205280
-0.2821824551 -0.1372060031 0.5953793526 4292073692
-0.2822388709 -0.1365717947 0.5954984426 4291547348
-0.2827145159 -0.1361391991 0.5965020061 4291349711
-0.2827705443 -0.1355032921 0.5966202021 4290889160
-0.2824067175 -0.1346669048 0.5958525538 4290428609
-0.2824621797 -0.1340311915 0.5959696174 4289704886
-0.2825174332 -0.1333951056 0.5960860848 4288454819
-0.2825724185 -0.1327586472 0.5962021351 4287336338
-0.2826271355 -0.1321218163 0.5963176489 4286415234
-0.2826816440 -0.1314846128 0.5964326262 4285691511
-0.2823157907 -0.1306526214 0.5956606865 4284572001
-0.2827899158 -0.1302091032 0.5966610909 4284243036
-0.2828437090 -0.1295708120 0.5967745185 4283782483
-0.2828972340 -0.1289321482 0.5968874693 4283387725
-0.2829505205 -0.1282931268 0.5969998837 4283782485
-0.2825830281 -0.1274640560 0.5962245464 4284900966
-0.2826357484 -0.1268252581 0.5963357687 4285822068
-0.2822675705 -0.1259983331 0.5955589414 4286414205
-0.2823196948 -0.1253597885 0.5956689715 4288124825
-0.2823716104 -0.1247208789 0.5957784653 4289177513
-0.2820023596 -0.1238966957 0.5949993730 4289440942
-0.2820536792 -0.1232580468 0.5951076746 4288980391
-0.2825258374 -0.1228020564 0.5961038470 4289046184
-0.2825767398 -0.1221617535 0.5962112546 4289440942
-0.2826274037 -0.1215211004 0.5963181853 4289506737
-0.2826778293 -0.1208801046 0.5964245796 4289704116
-0.2823066413 -0.1200595796 0.5956413746 4289506474
-0.2823564708 -0.1194188595 0.5957465768 4289374888
-0.2824060619 -0.1187778041 0.5958511829 4289243302
-0.2824554145 -0.1181364059 0.5959553123 4289177509
-0.2825045288 -0.1174946800 0.5960589051 4288651167
-0.2825533748 -0.1168526113 0.5961619616 4287335307
-0.2821801603 -0.1160367653 0.5953745246 4285362030
-0.2818065584 -0.1152225137 0.5945862532 4283914584
-0.2822764516 -0.1147529036 0.5955776572 4282861642
-0.2823242247 -0.1141104847 0.5956784487 4282795849
-0.2823717296 -0.1134677306 0.5957787037 4282466884
-0.2828411460 -0.1129933074 0.5967691541 4282137919
-0.2833104432 -0.1125166342 0.5977593064 4285361778
-0.2837796211 -0.1120377183 0.5987492800 4289835702
-0.2842487097 -0.1115565598 0.5997389555 4292928743
-0.2847176492 -0.1110731512 0.6007283926 4294113017
-0.2806870341 -0.1381185502 0.5936152339 4293718519
-0.2807436883 -0.1374867558 0.5937350988 4293455347
-0.2808001339 -0.1368545890 0.5938544273 4293126380
-0.2808563411 -0.1362220198 0.5939732790 4292665829
-0.2813309431 -0.1357911527 0.5949770212 4292205278
-0.2813867331 -0.1351568997 0.5950950384 4291876313
-0.2810235023 -0.1343220770 0.5943267941 4291810007
-0.2810787261 -0.1336880177 0.5944436789 4291546835
-0.2815527320 -0.1332518756 0.5954460502 4291152077
-0.2816075683 -0.1326161176 0.5955620408 4290954698
-0.2816621661 -0.1319799870 0.5956774950 4290362816
-0.2812972963 -0.1311480403 0.5949059129 4289441714
-0.2813513279 -0.1305121332 0.5950201750 4288782240
-0.2818245292 -0.1300694048 0.5960208774 4287532173
-0.2818781435 -0.1294317991 0.5961343050 4286282106
-0.2819315493 -0.1287938505 0.5962471962 4285163625
-0.2819846869 -0.1281555295 0.5963596106 4284308829
-0.2816178799 -0.1273270845 0.5955839157 4283650899
-0.2812506855 -0.1265002042 0.5948073268 4283256143
-0.2813029587 -0.1258627027 0.5949178338 4283716694
-0.2813549638 -0.1252248585 0.5950278044 4284966507
-0.2818267345 -0.1247726083 0.5960255861 4285953402
-0.2810381651 -0.1237631068 0.5943578482 4286875015
-0.2810893655 -0.1231251583 0.5944660902 4287993496
-0.2815605402 -0.1226699576 0.5954626203 4289309358
-0.2816113234 -0.1220303550 0.5955700278 4289704116
-0.2820822597 -0.1215715930 0.5965659618 4289375152
-0.2817121446 -0.1207501292 0.5957832336 4289440945
-0.2817621827 -0.1201095060 0.5958890915 4288914850
-0.2818119824 -0.1194685325 0.5959943533 4288914850
-0.2818615139 -0.1188272238 0.5960991383 4288980130
-0.2819108069 -0.1181855798 0.5962033868 4289374888
-0.2815390229 -0.1173681617 0.5954170823 4289374890
-0.2815877199 -0.1167268082 0.5955201387 4288124823
-0.2812152207 -0.1159116030 0.5947322845 4285954167
-0.2812633514 -0.1152705401 0.5948340893 4284243549
-0.2813112736 -0.1146291494 0.5949354172 4282401345
-0.2813588977 -0.1139874384 0.5950361490 4281809208
-0.2814062834 -0.1133453995 0.5951364040 4282137919
-0.2814534307 -0.1127030328 0.5952360630 4283124814
-0.2819217145 -0.1122281030 0.5962264538 4284309088
-0.2819684446 -0.1115841419 0.5963252187 4284967018
-0.2828579843 -0.1112715080 0.5982065201 4288849575
-0.2833259404 -0.1107898429 0.5991961360 4292797155
-0.2793641984 -0.1371333003 0.5922086835 4293719548
-0.2794204056 -0.1365027726 0.5923278332 4293719033
-0.2794763744 -0.1358718574 0.5924464464 4293587447
-0.2795321047 -0.1352405697 0.5925645828 4293258482
-0.2800055146 -0.1348101199 0.5935681462 4293126896
-0.2796428502 -0.1339768618 0.5927993655 4292863724
-0.2801159322 -0.1335437745 0.5938022733 4292468966
-0.2801707983 -0.1329100430 0.5939185619 4291942876
-0.2802254260 -0.1322759390 0.5940343142 4291482325
-0.2802797854 -0.1316414624 0.5941495895 4291481555
-0.2803339362 -0.1310066134 0.5942643881 4291284176
-0.2803878486 -0.1303714067 0.5943786502 4290889671
-0.2804414928 -0.1297358274 0.5944923759 4290363327
-0.2804948986 -0.1290998906 0.5946056247 4289770675
-0.2805480659 -0.1284635961 0.5947183371 4288849573
-0.2806009948 -0.1278269291 0.5948305130 4287665299
-0.2802348137 -0.1270000786 0.5940542221 4286744197
-0.2802871764 -0.1263636500 0.5941652656 4285823097
-0.2803393006 -0.1257268637 0.5942757130 4284770409
-0.2803911567 -0.1250897199 0.5943856835 4284178272
-0.2800236046 -0.1242661998 0.5936065316 4283388756
-0.2804941833 -0.1238143817 0.5946040750 4283585619
-0.2805453241 -0.1231761873 0.5947124958 4283717205
-0.2805962265 -0.1225376502 0.5948203802 4284243549
-0.2806468606 -0.1218987554 0.5949277282 4285756788
-0.2811168432 -0.1214407831 0.5959240198 4287335566
-0.2811670899 -0.1208002493 0.5960305333 4288388254
-0.2807973325 -0.1199800298 0.5952467322 4288980134
-0.2808469832 -0.1193397716 0.5953519940 4288585376
-0.2808963954 -0.1186991706 0.5954567194 4288651169
-0.2809455693 -0.1180582345 0.5955609679 4289177513
-0.2809944749 -0.1174169630 0.5956646204 4288980134
-0.2806230485 -0.1166008040 0.5948772430 4287993239
-0.2806713879 -0.1159598231 0.5949797630 4286282621
-0.2802992463 -0.1151458845 0.5941908360 4284308831
-0.2807673216 -0.1146768779 0.5951830745 4282203455
-0.2808149159 -0.1140349135 0.5952839851 4282466627
-0.2804418206 -0.1132228747 0.5944930315 4283650386
-0.2804888189 -0.1125812158 0.5945926905 4285755762
-0.2805355787 -0.1119392440 0.5946918726 4285887348
-0.2805821002 -0.1112969518 0.5947904587 4283913558
-0.2810491025 -0.1108202338 0.5957803726 4284768867
-0.2815159857 -0.1103412732 0.5967701077 4289834928
-0.2824036181 -0.1100240424 0.5986517668 4293718517
-0.2782647610 -0.1336312592 0.5912701488 4293784826
-0.2787368298 -0.1331999004 0.5922732353 4293784826
-0.2787914574 -0.1325678229 0.5923892856 4293455861
-0.2788458467 -0.1319353729 0.5925049186 4292995310
-0.2788999975 -0.1313025504 0.5926199555 4292666345
-0.2789539397 -0.1306693554 0.5927345157 4292271587
-0.2790076137 -0.1300358027 0.5928485990 4291942105
-0.2790610492 -0.1294018924 0.5929621458 4291744726
-0.2791142464 -0.1287676096 0.5930751562 4291547347
-0.2791672051 -0.1281329691 0.5931876898 4291218382
-0.2792198956 -0.1274979562 0.5932996869 4290691781
-0.2788543105 -0.1266726851 0.5925228596 4290165437
-0.2789064348 -0.1260379106 0.5926336646 4289441714
-0.2793765962 -0.1255908012 0.5936326385 4288520612
-0.2794283330 -0.1249543652 0.5937425494 4287270545
-0.2794798315 -0.1243175864 0.5938519835 4286086271
-0.2795310616 -0.1236804500 0.5939608812 4285295983
-0.2791635394 -0.1228587702 0.5931799412 4284506467
-0.2792142332 -0.1222218871 0.5932876468 4283848537
-0.2796833515 -0.1217669547 0.5942844748 4283782744
-0.2797336280 -0.1211284250 0.5943912864 4283980123
-0.2797836661 -0.1204895601 0.5944975615 4284111709
-0.2798334360 -0.1198503524 0.5946033597 4285624689
-0.2798829675 -0.1192108020 0.5947086215 4287006342
-0.2799322605 -0.1185709089 0.5948132873 4287861651
-0.2799812853 -0.1179306805 0.5949174762 4288256409
-0.2800300717 -0.1172901243 0.5950211883 4288651167
-0.2800786197 -0.1166492254 0.5951243043 4287861651
-0.2797075510 -0.1158343330 0.5943358541 4285887861
-0.2797555029 -0.1151937321 0.5944377780 4284243036
-0.2798032165 -0.1145528033 0.5945391655 4284440417
-0.2798506916 -0.1139115542 0.5946400166 4286414207
-0.2798978984 -0.1132699698 0.5947403312 4287795860
-0.2795251608 -0.1124592125 0.5939483047 4287269516
-0.2791520357 -0.1116500497 0.5931554437 4287269516
-0.2796182036 -0.1111763641 0.5941460133 4286019449
-0.2800842524 -0.1107004285 0.5951362848 4284637796
-0.2805502117 -0.1102222502 0.5961263776 4288124825
-0.2805959582 -0.1095777825 0.5962236524 4293586930
-0.2775228024 -0.1309632510 0.5910885930 4293653240
-0.2775765061 -0.1303317249 0.5912029743 4293390068
-0.2776299715 -0.1296998262 0.5913168192 4293455861
-0.2781001031 -0.1292613596 0.5923181772 4292995310
-0.2781531811 -0.1286277920 0.5924311876 4292600036
-0.2782059908 -0.1279938519 0.5925436616 4292073692
-0.2778413892 -0.1271686107 0.5917671323 4291678934
-0.2778936327 -0.1265349090 0.5918784142 4291547348
-0.2779456377 -0.1259008497 0.5919891596 4291481555
-0.2784148455 -0.1254545301 0.5929884911 4290955211
-0.2784664333 -0.1248188019 0.5930984020 4290559940
-0.2785178125 -0.1241827309 0.5932077765 4289836217
-0.2781512737 -0.1233610809 0.5924271345 4289177772
-0.2782020569 -0.1227252558 0.5925353169 4288190877
-0.2782526314 -0.1220890880 0.5926430225 4286875017
-0.2783029377 -0.1214525774 0.5927501321 4285756536
-0.2787709534 -0.1209971234 0.5937469602 4284835434
-0.2788208425 -0.1203589663 0.5938532352 4284309090
-0.2788704932 -0.1197204664 0.5939589739 4283782485
-0.2789198756 -0.1190816239 0.5940641761 4284045657
-0.2789690495 -0.1184424460 0.5941689014 4284572001
-0.2790179551 -0.1178029329 0.5942730308 4285822068
-0.2790665925 -0.1171630844 0.5943766832 4287137928
-0.2791150212 -0.1165228933 0.5944797993 4287335307
-0.2787446380 -0.1157086417 0.5936909318 4287466893
-0.2787924707 -0.1150687560 0.5937928557 4288453788
-0.2788400650 -0.1144285426 0.5938941836 4289835443
-0.2788874209 -0.1137879938 0.5939950347 4289703857
-0.2789345086 -0.1131471246 0.5940953493 4289506478
-0.2785624564 -0.1123370081 0.5933029056 4288387997
-0.2781900167 -0.1115284935 0.5925096869 4287927703
-0.2782362103 -0.1108885854 0.5926080942 4286611843
-0.2791203856 -0.1105804294 0.5944911838 4285361776
-0.2791662216 -0.1099379584 0.5945888162 4289375149
-0.2796310186 -0.1094592810 0.5955788493 4293784309
-0.2767768502 -0.1282948256 0.5908976197 4293784826
-0.2768294513 -0.1276625544 0.5910099149 4293521654
-0.2768818140 -0.1270299107 0.5911216736 4293257968
-0.2769339383 -0.1263969243 0.5912329555 4292863210
-0.2769857943 -0.1257635802 0.5913437009 4292534245
-0.2770374417 -0.1251298785 0.5914539695 4291942108
-0.2770888209 -0.1244958192 0.5915636420 4292007386
-0.2771399915 -0.1238614097 0.5916728973 4291678421
-0.2771908939 -0.1232266501 0.5917815566 4291414735
-0.2772415578 -0.1225915402 0.5918897390 4290954184
-0.2772919834 -0.1219560802 0.5919973850 4290296253
-0.2773421407 -0.1213202775 0.5921044946 4289506737
-0.2773920894 -0.1206841320 0.5922110677 4288322463
-0.2774417698 -0.1200476438 0.5923171639 4287138189
-0.2774912119 -0.1194108129 0.5924227238 4286348412
-0.2775404155 -0.1187736467 0.5925277472 4284900966
-0.2775893509 -0.1181361377 0.5926322341 4284572001
-0.2780555785 -0.1176749840 0.5936275721 4286019447
-0.2781040967 -0.1170358434 0.5937311649 4288453788
-0.2781523764 -0.1163963675 0.5938342810 4290756543
-0.2777827084 -0.1155827567 0.5930449963 4292006610
-0.2778304219 -0.1149435788 0.5931469202 4292664540
-0.2778778672 -0.1143040806 0.5932482481 4292138198
-0.2775071561 -0.1134933233 0.5924567580 4290822338
-0.2775540650 -0.1128541306 0.5925568938 4289309356
-0.2771826386 -0.1120456159 0.5917639136 4288256668
-0.2763926983 -0.1110706702 0.5900774598 4287203980
-0.2772750556 -0.1107675508 0.5919612050 4286546050
-0.2777391672 -0.1102941409 0.5929520726 4287861910
-0.2777848244 -0.1096533462 0.5930495262 4291677904
-0.2782486379 -0.1091764197 0.5940397382 4294179067
-0.2759232223 -0.1268910021 0.5904752612 4293784826
-0.2755595744 -0.1260685772 0.5896970630 4293653240
-0.2756112218 -0.1254368871 0.5898076296 4293652726
-0.2756626308 -0.1248048544 0.5899176598 4293257968
-0.2757138312 -0.1241724640 0.5900272131 4293191660
-0.2757647634 -0.1235397235 0.5901361704 4292928488
-0.2758154571 -0.1229066253 0.5902447104 4292467937
-0.2758659124 -0.1222731844 0.5903526545 4291875800
-0.2759161294 -0.1216394007 0.5904601216 4291612114
-0.2759660780 -0.1210052669 0.5905670524 4291546321
-0.2760158181 -0.1203707904 0.5906734467 4291151562
-0.2760652900 -0.1197359711 0.5907793641 4290296253
-0.2761145532 -0.1191008091 0.5908847451 4289243304
-0.2761635184 -0.1184653118 0.5909895897 4287795858
-0.2762122750 -0.1178294793 0.5910938978 4288387995
-0.2762607932 -0.1171933040 0.5911976695 4290690750
-0.2763090432 -0.1165568009 0.5913009644 4292532954
-0.2763570547 -0.1159199625 0.5914037228 4293388263
-0.2764048278 -0.1152827889 0.5915059447 4293519849
-0.2760353684 -0.1144723669 0.5907152891 4293519849
-0.2760825753 -0.1138355061 0.5908163190 4292335577
-0.2761295140 -0.1131983101 0.5909167528 4290953924
-0.2757590413 -0.1123907641 0.5901239514 4289243306
-0.2753881514 -0.1115848199 0.5893303156 4288256411
-0.2754342258 -0.1109485924 0.5894288421 4287795860
-0.2754800618 -0.1103120446 0.5895269513 4288914341
-0.2759430707 -0.1098413467 0.5905178189 4291019974
-0.2759884894 -0.1092032045 0.5906149745 4292927971
-0.2742904425 -0.1244794652 0.5883796215 4293915896
-0.2743414044 -0.1238487437 0.5884889960 4294244861
-0.2743921280 -0.1232176647 0.5885977745 4294047482
-0.2744426131 -0.1225862429 0.5887060761 4293784310
-0.2744928598 -0.1219544709 0.5888138413 4293521138
-0.2745428681 -0.1213223562 0.5889211297 4293323246
-0.2745926380 -0.1206898913 0.5890278816 4293060074
-0.2746421397 -0.1200570911 0.5891340971 4292205020
-0.2746914327 -0.1194239408 0.5892397761 4291086539
-0.2747404575 -0.1187904552 0.5893449783 4290756543
-0.2747892439 -0.1181566268 0.5894496441 4291480266
-0.2748377919 -0.1175224632 0.5895537734 4292796126
-0.2748861015 -0.1168879718 0.5896573663 4293848814
-0.2749341726 -0.1162531376 0.5897604823 4294177779
-0.2749819756 -0.1156179756 0.5898630619 4293783021
-0.2746134698 -0.1148085296 0.5890725255 4293256677
-0.2742445469 -0.1140006781 0.5882812142 4293125091
-0.2742914855 -0.1133664548 0.5883818865 4292467163
-0.2743381560 -0.1127319038 0.5884820223 4290559166
-0.2739682496 -0.1119269282 0.5876885056 4289243306
-0.2740143538 -0.1112926975 0.5877874494 4289440685
-0.2740602493 -0.1106581464 0.5878858566 4290361787
-0.2741058767 -0.1100232750 0.5879837275 4291414475
-0.2745679021 -0.1095543355 0.5889747739 4292203991
-0.2746130824 -0.1089178696 0.5890717506 4293519851
-0.2728698552 -0.1247824132 0.5867302418 4294179838
-0.2729208469 -0.1241537109 0.5868399143 4293916666
-0.2733858228 -0.1237121001 0.5878396630 4294508031
-0.2730221152 -0.1228952482 0.5870576501 4294442239
-0.2730723917 -0.1222654954 0.5871657729 4294573823
-0.2731224298 -0.1216353998 0.5872733593 4294179068
-0.2731722295 -0.1210049540 0.5873804092 4293455345
-0.2732217908 -0.1203741655 0.5874869227 4292731622
-0.2728564143 -0.1195613295 0.5867013335 4292073434
-0.2729054093 -0.1189308092 0.5868067145 4291810262
-0.2729541659 -0.1182999611 0.5869114995 4293125604
-0.2730026841 -0.1176687703 0.5870158672 4293849327
-0.2730509639 -0.1170372441 0.5871196389 4294046706
-0.2730989754 -0.1164053828 0.5872228742 4293783534
-0.2731467783 -0.1157731861 0.5873256326 4293454569
-0.2731943130 -0.1151406616 0.5874278545 4293059811
-0.2728263438 -0.1143337861 0.5866366625 4292730333
-0.2724579871 -0.1135285050 0.5858446360 4292401368
-0.2725046575 -0.1128969193 0.5859449506 4291217096
-0.2725510895 -0.1122650132 0.5860447884 4290559166
-0.2725972533 -0.1116327867 0.5861440897 4290559166
-0.2726431787 -0.1110002398 0.5862427950 4291282889
-0.2726888657 -0.1103673726 0.5863410234 4291940819
-0.2727343142 -0.1097341850 0.5864387751 4291940819
-0.2731953263 -0.1092669964 0.5874300599 4292006612
-0.2736562192 -0.1087975577 0.5884211063 4293717230
-0.2715031207 -0.1244546175 0.5851889253 4294245631
-0.2715538740 -0.1238275841 0.5852984190 4294114045
-0.2716044188 -0.1232002005 0.5854073167 4294508031
-0.2716547251 -0.1225724742 0.5855157375 4294244861
-0.2717047930 -0.1219443902 0.5856236815 4294048252
-0.2717546225 -0.1213159636 0.5857310295 4293587701
-0.2713904977 -0.1205035001 0.5849462152 4292994794
-0.2714397609 -0.1198753417 0.5850524306 4292600036
-0.2714888155 -0.1192468405 0.5851581097 4292928488
-0.2711236775 -0.1184371784 0.5843710899 4293915383
-0.2711721361 -0.1178089604 0.5844755769 4294441210
-0.2712203860 -0.1171804070 0.5845795870 4294375417
-0.2712683678 -0.1165515184 0.5846830010 4294112245
-0.2709018886 -0.1157453209 0.5838931203 4293651694
-0.2709493339 -0.1151167229 0.5839954019 4292796385
-0.2709965408 -0.1144878045 0.5840970874 4292138455
-0.2706290483 -0.1136844605 0.5833050609 4291809490
-0.2706756890 -0.1130558476 0.5834055543 4291348939
-0.2711366713 -0.1125990823 0.5843991637 4291019974
-0.2711828947 -0.1119688526 0.5844987631 4291480525
-0.2712288797 -0.1113383099 0.5845978856 4291612365
-0.2712745965 -0.1107074469 0.5846964717 4291875537
-0.2713201046 -0.1100762635 0.5847945213 4291940817
-0.2713653445 -0.1094447598 0.5848920345 4292006610
-0.2718253434 -0.1089793295 0.5858834982 4292730333
-0.2722852528 -0.1085116491 0.5868747234 4294440951
-0.2697265446 -0.1239369512 0.5827548504 4294244863
-0.2701895237 -0.1235010922 0.5837551951 4294376447
-0.2702398598 -0.1228753850 0.5838639140 4293850103
-0.2698772848 -0.1220626831 0.5830805898 4293718517
-0.2699270844 -0.1214372367 0.5831881166 4294113017
-0.2699766159 -0.1208114401 0.5832951665 4293784052
-0.2700259089 -0.1201853007 0.5834016800 4293651694
-0.2696620226 -0.1193760112 0.5826154351 4294046452
-0.2697107792 -0.1187501475 0.5827207565 4294112247
-0.2693461776 -0.1179430485 0.5819330812 4294375419
-0.2689811885 -0.1171375364 0.5811445117 4294441464
-0.2690290809 -0.1165125817 0.5812479258 4294112499
-0.2690767050 -0.1158872917 0.5813508630 4293848812
-0.2691241205 -0.1152616739 0.5814533234 4293256675
-0.2687578201 -0.1144596338 0.5806618929 4292730074
-0.2688046694 -0.1138343140 0.5807631016 4292203730
-0.2684376538 -0.1130345091 0.5799701810 4291480266
-0.2684839666 -0.1124095023 0.5800701976 4291085508
-0.2685300410 -0.1117841825 0.5801697373 4291349193
-0.2694035172 -0.1115010828 0.5820569396 4291086021
-0.2694492340 -0.1108731925 0.5821557045 4291086021
-0.2694946826 -0.1102449745 0.5822539330 4291546572
-0.2699539661 -0.1097848266 0.5832462311 4291612365
-0.2699990273 -0.1091550142 0.5833435655 4291546572
-0.2704580128 -0.1086913347 0.5843352079 4292862178
-0.2709169090 -0.1082254127 0.5853266716 4294441210
-0.2682645917 -0.1248527467 0.5809904337 4294244861
-0.2683153450 -0.1242307201 0.5811003447 4294310654
-0.2683658600 -0.1236083433 0.5812097192 4293981689
-0.2688277960 -0.1231742352 0.5822101831 4293257966
-0.2688779235 -0.1225502044 0.5823187232 4292534243
-0.2685159743 -0.1217391044 0.5815348625 4291942106
-0.2685655355 -0.1211153269 0.5816422105 4293059557
-0.2682028711 -0.1203064099 0.5808567405 4294770175
-0.2682518959 -0.1196829006 0.5809629560 4294901759
-0.2683006823 -0.1190590560 0.5810685754 4294901759
-0.2679370046 -0.1182529479 0.5802809596 4294901759
-0.2679852545 -0.1176293865 0.5803854465 4294046452
-0.2676208615 -0.1168254763 0.5795962811 4293914607
-0.2676685452 -0.1162022054 0.5796995759 4293256677
-0.2677159905 -0.1155785993 0.5798023343 4292861917
-0.2673506141 -0.1147775352 0.5790110230 4292598745
-0.2673975229 -0.1141542345 0.5791125894 4292138194
-0.2674441636 -0.1135305986 0.5792136192 4291743436
-0.2674905956 -0.1129066497 0.5793141127 4291480779
-0.2675367594 -0.1122823656 0.5794141293 4291546572
-0.2679956257 -0.1118300706 0.5804079175 4291086021
-0.2684544027 -0.1113755330 0.5814015269 4291151814
-0.2685000002 -0.1107483581 0.5815002322 4291151814
-0.2685453594 -0.1101208702 0.5815984607 4291086021
-0.2685904503 -0.1094930619 0.5816961527 4291086021
-0.2690486014 -0.1090324223 0.5826883912 4291875537
-0.2695066631 -0.1085695326 0.5836803913 4293323499
-0.2674185634 -0.1234690249 0.5805546641 4293126380
-0.2674687207 -0.1228470132 0.5806635022 4291284176
-0.2671076953 -0.1220369041 0.5798797011 4290494402
-0.2671572864 -0.1214151531 0.5799873471 4290494402
-0.2667955458 -0.1206072196 0.5792020559 4291348939
-0.2668446004 -0.1199857444 0.5793085694 4293585901
-0.2668933868 -0.1193639189 0.5794144869 4294967295
-0.2669419646 -0.1187417507 0.5795199871 4294967295
-0.2665789127 -0.1179372445 0.5787317753 4294769916
-0.2662154734 -0.1171343252 0.5779427886 4293651435
-0.2662631869 -0.1165130660 0.5780463815 4292664538
-0.2663106918 -0.1158914790 0.5781494379 4291875022
-0.2663579285 -0.1152695566 0.5782520175 4291611850
-0.2659931779 -0.1144701093 0.5774601698 4291743436
-0.2660398483 -0.1138484925 0.5775614977 4291743436
-0.2660863101 -0.1132265478 0.5776623487 4291677643
-0.2665444911 -0.1127785891 0.5786570907 4291546572
-0.2665905654 -0.1121550277 0.5787570477 4291349193
-0.2666363716 -0.1115311533 0.5788565278 4291414986
-0.2670941055 -0.1110783666 0.5798502564 4291020228
-0.2675517797 -0.1106233373 0.5808438063 4290757056
-0.2675969899 -0.1099965721 0.5809419751 4290493884
-0.2676419914 -0.1093694866 0.5810396671 4290954951
-0.2680991888 -0.1089096367 0.5820322037 4292533983
-0.2681437433 -0.1082809567 0.5821290016 4294047222
-0.2655519843 -0.1241877228 0.5778958201 4293981689
-0.2656523883 -0.1229500175 0.5781142712 4292928743
-0.2657022178 -0.1223306358 0.5782227516 4290494402
-0.2657518387 -0.1217109114 0.5783306956 4290362814
-0.2658012211 -0.1210908443 0.5784381628 4290560193
-0.2654401064 -0.1202845126 0.5776523352 4290427578
-0.2654889226 -0.1196647137 0.5777586102 4291480266
-0.2655375302 -0.1190445721 0.5778643489 4293454054
-0.2655858994 -0.1184240878 0.5779696107 4294638328
-0.2652234733 -0.1176211908 0.5771808624 4294375156
-0.2652713060 -0.1170009971 0.5772849321 4292664538
-0.2649081647 -0.1162003055 0.5764946938 4291808972
-0.2649554312 -0.1155804023 0.5765975714 4291611593
-0.2650024891 -0.1149601713 0.5766999722 4291546057
-0.2650492787 -0.1143396050 0.5768018365 4291480264
-0.2655068636 -0.1138950214 0.5777975917 4291546570
-0.2655532658 -0.1132728383 0.5778985620 4291809742
-0.2655994296 -0.1126503274 0.5779989958 4291875537
-0.2656453252 -0.1120274961 0.5780989528 4291678158
-0.2656910121 -0.1114043444 0.5781983733 4291085767
-0.2661478221 -0.1109523550 0.5791924596 4290427837
-0.2661930919 -0.1103276014 0.5792909861 4290296251
-0.2666496336 -0.1098720804 0.5802844763 4290954181
-0.2666944861 -0.1092457175 0.5803821087 4292270811
-0.2671507597 -0.1087866649 0.5813750625 4293849843
-0.2645582259 -0.1246639714 0.5771281123 4293850873
-0.2646086216 -0.1240463704 0.5772380829 4293915895
-0.2642996013 -0.1226202995 0.5765639544 4292731362
-0.2643492520 -0.1220026016 0.5766721964 4290231228
-0.2643986344 -0.1213845611 0.5767799616 4290428091
-0.2644478083 -0.1207661703 0.5768872499 4290428091
-0.2644967437 -0.1201474369 0.5769940019 4290427576
-0.2641359270 -0.1193433329 0.5762068629 4290427576
-0.2641843259 -0.1187248677 0.5763124824 4291282885
-0.2642324865 -0.1181060746 0.5764175057 4292796124
-0.2638706863 -0.1173047870 0.5756282210 4292993244
-0.2639182806 -0.1166862771 0.5757321119 4291611591
-0.2635557950 -0.1158872023 0.5749412775 4291743179
-0.2636028528 -0.1152689829 0.5750439763 4291677386
-0.2636497021 -0.1146504357 0.5751461983 4291546057
-0.2636962831 -0.1140315607 0.5752478242 4291480264
-0.2641528249 -0.1135887355 0.5762437582 4291612365
-0.2641990483 -0.1129682437 0.5763445497 4291546572
-0.2646553218 -0.1125218794 0.5773399472 4291086021
-0.2647011280 -0.1118997708 0.5774398446 4290822849
-0.2647466660 -0.1112773418 0.5775392056 4290098872
-0.2652025223 -0.1108261570 0.5785336494 4290362044
-0.2652476728 -0.1102021188 0.5786321163 4291152330
-0.2652925849 -0.1095777676 0.5787301064 4292468190
-0.2657479942 -0.1091217622 0.5797235966 4293981942
-0.2631068528 -0.1255597174 0.5753560066 4293981689
-0.2631575167 -0.1249445006 0.5754667521 4293981689
-0.2632079124 -0.1243289262 0.5755770206 4293915896
-0.2632580996 -0.1237130091 0.5756867528 4293981688
-0.2633080781 -0.1230967343 0.5757960081 4293850102
-0.2633577883 -0.1224801093 0.5759047866 4292401627
-0.2634072900 -0.1218631342 0.5760129690 4289967286
-0.2630481124 -0.1210578382 0.5752274990 4289835441
-0.2630970478 -0.1204411313 0.5753345490 4289967027
-0.2631457746 -0.1198240817 0.5754411221 4290164406
-0.2631942630 -0.1192066893 0.5755471587 4289967027
-0.2632425427 -0.1185889542 0.5756527185 4290032561
-0.2628817260 -0.1177876964 0.5748636723 4290624698
-0.2629294395 -0.1171702445 0.5749680400 4291019454
-0.2629769146 -0.1165524647 0.5750718713 4291282626
-0.2626151145 -0.1157540381 0.5742806792 4291414471
-0.2630711794 -0.1153158918 0.5752780437 4291546057
-0.2631179690 -0.1146971062 0.5753803253 4291612365
-0.2631645203 -0.1140780002 0.5754820704 4291612365
-0.2632108331 -0.1134585589 0.5755833983 4291217607
-0.2632569075 -0.1128387898 0.5756841302 4290230712
-0.2637122273 -0.1123932227 0.5766798258 4289506989
-0.2637579143 -0.1117718443 0.5767797232 4289638575
-0.2642129660 -0.1113227382 0.5777748227 4290625984
-0.2642582357 -0.1106997505 0.5778738260 4291941844
-0.2643032670 -0.1100764498 0.5779722929 4293389292
-0.2643480599 -0.1094528213 0.5780702233 4294178808
-0.2617090046 -0.1258341223 0.5736925602 4294112762
-0.2617596686 -0.1252209395 0.5738036036 4293981176
-0.2622172534 -0.1248011887 0.5748067498 4293850103
-0.2618602812 -0.1239935160 0.5740242004 4293850103
-0.2619102597 -0.1233792678 0.5741337538 4293915383
-0.2619599998 -0.1227646768 0.5742427707 4293652211
-0.2616020441 -0.1219597682 0.5734580755 4292204250
-0.2616512477 -0.1213454381 0.5735659599 4290098874
-0.2617002130 -0.1207307577 0.5736733079 4290032822
-0.2617489696 -0.1201157346 0.5737801790 4289967029
-0.2617974877 -0.1195003688 0.5738865137 4289638064
-0.2618457675 -0.1188846603 0.5739923716 4289638064
-0.2618938088 -0.1182686165 0.5740976930 4290164406
-0.2619416118 -0.1176522300 0.5742025375 4290427578
-0.2619892061 -0.1170355082 0.5743068457 4290822077
