VERSION 0.7
FIELDS x y z rgba
SIZE 4 4 4 4
TYPE F F F U
COUNT 1 1 1 1
WIDTH 920
HEIGHT 1
VIEWPOINT 0.0 0.0 0.0 1.0 0.0 0.0 0.0
POINTS 920
DATA ascii
-0.2829197645 -0.1975321174 0.5859500766 4280690994
-0.2821660042 -0.1963565499 0.5843889713 4280756787
-0.2822441757 -0.1957614720 0.5845508575 4280887603
-0.2823221385 -0.1951658875 0.5847123265 4280953396
-0.2819833755 -0.1942828447 0.5840107203 4280953394
-0.2820608616 -0.1936871558 0.5841711760 4281084980
-0.2813046277 -0.1925205439 0.5826049447 4281348152
-0.2817983329 -0.1922099739 0.5836274624 4281479738
-0.2799420059 -0.1890112758 0.5797829032 4281742910
-0.2796002924 -0.1881371737 0.5790752172 4281808703
-0.2792581618 -0.1872643530 0.5783666372 4281940291
-0.2793331742 -0.1866718531 0.5785219073 4281874498
-0.2798255980 -0.1863570213 0.5795418024 4281808705
-0.2794825435 -0.1854854375 0.5788313150 4281742912
-0.2803926766 -0.1854442507 0.5807162523 4281545533
-0.2787951529 -0.1837461591 0.5774076581 4281348154
-0.2788689435 -0.1831530631 0.5775604248 4281150775
-0.2776878774 -0.1817383915 0.5751144290 4281084982
-0.2769243121 -0.1806014180 0.5735329390 4280953398
-0.2738635838 -0.1760845333 0.5671939254 4280558640
-0.2827470899 -0.2050402015 0.5869425535 4284638831
-0.2824139595 -0.2041472495 0.5862510204 4284046694
-0.2824946046 -0.2035539895 0.5864184499 4283849315
-0.2825750411 -0.2029602230 0.5865854621 4283520604
-0.2826553285 -0.2023659497 0.5867520571 4283389018
-0.2827354074 -0.2017711699 0.5869182944 4282927702
-0.2824006081 -0.2008809149 0.5862233043 4282664530
-0.2824801803 -0.2002860010 0.5863884687 4282203979
-0.2825595737 -0.1996905804 0.5865532756 4281809221
-0.2814722955 -0.1976238042 0.5842962861 4281217084
-0.2807202339 -0.1964483112 0.5827351213 4280888373
-0.2816290259 -0.1964347363 0.5846216679 4280822580
-0.2817071080 -0.1958394647 0.5847837329 4280821810
-0.2817849815 -0.1952436864 0.5849453807 4280821810
-0.2810312212 -0.1940732449 0.5833806992 4280756017
-0.2811084986 -0.1934782416 0.5835410953 4280821810
-0.2807696164 -0.1925974190 0.5828375816 4281019187
-0.2808463573 -0.1920023263 0.5829969645 4281150773
-0.2805067599 -0.1911231726 0.5822919607 4281282359
-0.2801667154 -0.1902453005 0.5815860629 4281413945
-0.2798262537 -0.1893687099 0.5808793306 4281611324
-0.2794853449 -0.1884934157 0.5801716447 4281742910
-0.2795606852 -0.1878994256 0.5803280473 4281808703
-0.2792190611 -0.1870258152 0.5796188712 4281808703
-0.2797107399 -0.1867100149 0.5806395411 4281874498
-0.2793684900 -0.1858372241 0.5799291134 4281940291
-0.2798599899 -0.1855186969 0.5809493661 4281874498
-0.2795171440 -0.1846467406 0.5802376866 4281742912
-0.2795911729 -0.1840507835 0.5803913474 4281545533
-0.2788301706 -0.1829067171 0.5788115859 4281545533
-0.2776510119 -0.1814928353 0.5763638616 4281413949
-0.2745262384 -0.1775507331 0.5698772669 4280821812
-0.2737617195 -0.1764248759 0.5682902336 4280690226
-0.2734146416 -0.1755705923 0.5675697327 4280690226
-0.2743216455 -0.1755203158 0.5694525838 4280623920
-0.2815412879 -0.2033358812 0.5857900977 4284376431
-0.2812079787 -0.2024450898 0.5850965977 4283850087
-0.2812879384 -0.2018523663 0.5852629542 4283323743
-0.2813676894 -0.2012591511 0.5854288936 4283322973
-0.2814472616 -0.2006654143 0.5855944157 4282994008
-0.2811126113 -0.1997769624 0.5848981738 4282665043
-0.2811916769 -0.1991831064 0.5850626826 4282401871
-0.2812705636 -0.1985887438 0.5852267742 4281941320
-0.2813492417 -0.1979938895 0.5853905082 4281612355
-0.2814277112 -0.1973985285 0.5855538249 4281217597
-0.2806768417 -0.1962229908 0.5839914680 4280888632
-0.2803400159 -0.1953394413 0.5832906365 4280954166
-0.2804175913 -0.1947452277 0.5834520459 4280625201
-0.2804949582 -0.1941505224 0.5836130381 4280625201
-0.2805721164 -0.1935553402 0.5837736130 4280625201
-0.2802339494 -0.1926742047 0.5830699801 4280559408
-0.2803106308 -0.1920789182 0.5832294822 4280493615
-0.2799717188 -0.1911994517 0.5825243592 4280559408
-0.2796323895 -0.1903212667 0.5818182826 4280493615
-0.2797082365 -0.1897262931 0.5819761753 4281019959
-0.2793681622 -0.1888497919 0.5812686086 4281217338
-0.2790277004 -0.1879745871 0.5805601478 4281217338
-0.2791027427 -0.1873799264 0.5807163119 4281348924
-0.2791775763 -0.1867847741 0.5808720589 4281546303
-0.2788360715 -0.1859116852 0.5801614523 4281612096
-0.2789103985 -0.1853164732 0.5803161263 4281677119
-0.2785681486 -0.1844450831 0.5796040297 4281742912
-0.2786419690 -0.1838498265 0.5797576308 4281940291
-0.2757993042 -0.1813366264 0.5738430023 4281742912
-0.2762886882 -0.1810196787 0.5748612285 4281545533
-0.2771949172 -0.1809726208 0.5767468214 4281479740
-0.2751827836 -0.1790228039 0.5725602508 4281413434
-0.2752546370 -0.1784332246 0.5727097392 4281216055
-0.2749091387 -0.1775737256 0.5719908476 4281084469
-0.2741459310 -0.1764469892 0.5704029202 4280952883
-0.2803359330 -0.2016351819 0.5846332312 4284310383
-0.2804155052 -0.2010426372 0.5847991109 4283981673
-0.2800817490 -0.2001543939 0.5841031075 4283521122
-0.2801607847 -0.1995617151 0.5842679739 4283322973
-0.2802396715 -0.1989685446 0.5844324231 4283191387
-0.2803183198 -0.1983748674 0.5845964551 4282862422
-0.2803967893 -0.1977806985 0.5847601295 4282533457
-0.2804750800 -0.1971860230 0.5849233866 4282138697
-0.2801393867 -0.1963008940 0.5842233300 4281612353
-0.2798032761 -0.1954170316 0.5835223198 4282006854
-0.2798807323 -0.1948226243 0.5836839080 4281546303
-0.2795438766 -0.1939404160 0.5829814076 4281151545
-0.2792066038 -0.1930594593 0.5822780132 4280822580
-0.2796976566 -0.1927509010 0.5833020806 4280625201
-0.2789452672 -0.1915860623 0.5817330480 4280427822
-0.2786068618 -0.1907080710 0.5810272694 4280362029
-0.2786827087 -0.1901142597 0.5811854601 4280362029
-0.2775139213 -0.1886738837 0.5787479281 4280822580
-0.2784188986 -0.1886440367 0.5806353092 4280954166
-0.2784940600 -0.1880496591 0.5807920098 4281085752
-0.2781538665 -0.1871754378 0.5800825357 4281151545
-0.2782285213 -0.1865809858 0.5802382231 4281283131
-0.2778876126 -0.1857084632 0.5795272589 4281283131
-0.2775462568 -0.1848372370 0.5788154006 4281414717
-0.2776201069 -0.1842431426 0.5789693594 4281546303
-0.2776937187 -0.1836485565 0.5791229606 4281677119
-0.2773513496 -0.1827794760 0.5784089565 4281742912
-0.2757607698 -0.1810922921 0.5750917792 4281940291
-0.2762492895 -0.1807730049 0.5761106014 4282006084
-0.2754893899 -0.1796374023 0.5745258927 4281940291
-0.2759776413 -0.1793162972 0.5755441189 4281742912
-0.2756331563 -0.1784538031 0.5748257041 4281545533
-0.2757047415 -0.1778613031 0.5749750137 4281413947
-0.2745263875 -0.1764650196 0.5725175738 4281150775
-0.2725839317 -0.1739532053 0.5684666038 4280756017
-0.2698045075 -0.1709291488 0.5626701713 4280492845
-0.2715417445 -0.1714005321 0.5662931800 4280492845
-0.2711935341 -0.1705523431 0.5655669570 4280624431
-0.2792099416 -0.1993461400 0.5836368203 4284179052
-0.2792885900 -0.1987536550 0.5838012099 4283652708
-0.2793670595 -0.1981606632 0.5839652419 4283257950
-0.2794453204 -0.1975671798 0.5841288567 4283060571
-0.2795234025 -0.1969731897 0.5842920542 4282994008
-0.2787753046 -0.1957985610 0.5827282667 4282665043
-0.2788527608 -0.1952053457 0.5828902125 4282533455
-0.2789300382 -0.1946116239 0.5830517411 4282270283
-0.2785937786 -0.1937299818 0.5823488832 4282006854
-0.2786705494 -0.1931361556 0.5825093389 4281743682
-0.2783335745 -0.1922561824 0.5818049312 4281348924
-0.2775824666 -0.1910926849 0.5802348852 4280822580
-0.2780721188 -0.1907839477 0.5812584162 4280427820
-0.2777339816 -0.1899069250 0.5805516243 4280296234
-0.2778094411 -0.1893133074 0.5807093978 4280690994
-0.2774705887 -0.1884379685 0.5800010562 4280690994
-0.2771312892 -0.1875639111 0.5792918205 4280756787
-0.2772059441 -0.1869706362 0.5794478655 4280822580
-0.2772804201 -0.1863768697 0.5796034932 4280822580
-0.2773546875 -0.1857826412 0.5797587633 4280954166
-0.2770140469 -0.1849111021 0.5790467262 4281151545
-0.2770878077 -0.1843167990 0.5792008638 4281283131
-0.2771613598 -0.1837220341 0.5793546438 4281414717
-0.2768196762 -0.1828526407 0.5786404610 4281546303
-0.2752321959 -0.1811648160 0.5753220916 4281809475
-0.2765503526 -0.1813901514 0.5780774355 4281875268
-0.2762075365 -0.1805238128 0.5773608685 4281809475
-0.2746179402 -0.1788470745 0.5740380883 4281677889
-0.2755206525 -0.1787950993 0.5759250522 4281546303
-0.2755922675 -0.1782015115 0.5760747790 4281414717
-0.2756636739 -0.1776074618 0.5762240291 4281611326
-0.2732395530 -0.1754110157 0.5711568594 4281413947
-0.2728939056 -0.1745553315 0.5704343319 4281150775
-0.2721317708 -0.1734358072 0.5688412189 4280887603
-0.2734500468 -0.1736408919 0.5715968013 4280690224
-0.2714382112 -0.1717329621 0.5673914552 4280624431
-0.2681758702 -0.1690461189 0.5605721474 4280756017
-0.2784167230 -0.1979461461 0.5833330750 4284573810
-0.2784948051 -0.1973533332 0.5834966302 4283981673
-0.2785726786 -0.1967600435 0.5836597681 4283652708
-0.2786503732 -0.1961662471 0.5838225484 4283257950
-0.2783155441 -0.1952826381 0.5831210613 4283520352
-0.2779802978 -0.1944003105 0.5824186206 4283257180
-0.2780571580 -0.1938067824 0.5825797319 4282927956
-0.2777211964 -0.1929261088 0.5818758011 4282533198
-0.2777975798 -0.1923324764 0.5820358396 4282072647
-0.2774608731 -0.1914534718 0.5813304186 4281546303
-0.2775367498 -0.1908597499 0.5814893842 4281151545
-0.2771993279 -0.1899824142 0.5807824135 4281085752
-0.2768614888 -0.1891063601 0.5800745487 4280954166
-0.2765232325 -0.1882316023 0.5793658495 4280756787
-0.2765979767 -0.1876385957 0.5795224905 4280625201
-0.2762590051 -0.1867655367 0.5788122416 4280625201
-0.2763332725 -0.1861724705 0.5789678097 4280690994
-0.2764073312 -0.1855789125 0.5791230202 4280756787
-0.2764811814 -0.1849848926 0.5792777538 4280888373
-0.2765548527 -0.1843903959 0.5794321299 4280954166
-0.2762142122 -0.1835202724 0.5787184238 4281151545
-0.2767015994 -0.1831999719 0.5797395706 4281283131
-0.2747753561 -0.1806453317 0.5757037401 4281480510
-0.2745047510 -0.1791893840 0.5751367807 4281612096
-0.2746478021 -0.1780040711 0.5754364729 4281612096
-0.2743040323 -0.1771427095 0.5747162104 4281808707
-0.2739598751 -0.1762827039 0.5739951134 4281742914
-0.2736152709 -0.1754240245 0.5732731223 4281677121
-0.2736855745 -0.1748319864 0.5734204054 4281413949
-0.2729248405 -0.1737106889 0.5718265772 4281216568
-0.2721634805 -0.1725925356 0.5702313781 4281019189
-0.2714015245 -0.1714775264 0.5686349273 4280953396
-0.2689760029 -0.1693188846 0.5635530353 4280953396
-0.2687634230 -0.1673081070 0.5631076694 4280492845
-0.2772889733 -0.1956631541 0.5823252797 4283849832
-0.2769546211 -0.1947810054 0.5816231370 4284112489
-0.2770314813 -0.1941886693 0.5817846060 4283717731
-0.2771081626 -0.1935958415 0.5819455981 4283388766
-0.2767727971 -0.1927157342 0.5812413096 4283125594
-0.2760250270 -0.1915509999 0.5796709657 4282927702
-0.2765128911 -0.1912443638 0.5806954503 4282467151
-0.2761763632 -0.1903672069 0.5799887180 4282072393
-0.2758394182 -0.1894913316 0.5792811513 4281809221
-0.2759144902 -0.1888990998 0.5794388056 4281677635
-0.2759893537 -0.1883063912 0.5795960426 4281348670
-0.2760640383 -0.1877132058 0.5797528625 4280953912
-0.2753129900 -0.1865601242 0.5781756639 4280822326
-0.2757999301 -0.1862465590 0.5791982412 4280822326
-0.2750479579 -0.1850969642 0.5776190162 4280822326
-0.2751215100 -0.1845045239 0.5777735114 4280690740
-0.2751948833 -0.1839116067 0.5779275894 4280690740
-0.2752680480 -0.1833182126 0.5780812502 4280888119
-0.2753410339 -0.1827243567 0.5782344937 4280953912
-0.2750002742 -0.1818565577 0.5775188804 4281085498
-0.2754863799 -0.1815352142 0.5785397291 4281151291
-0.2751449943 -0.1806682497 0.5778228045 4281348670
-0.2752170563 -0.1800734103 0.5779741406 4281480256
-0.2748749554 -0.1792082042 0.5772557259 4281611842
-0.2749465108 -0.1786133200 0.5774059892 4281611842
-0.2741895020 -0.1774817705 0.5758162141 4281742914
-0.2742604613 -0.1768877506 0.5759652257 4281808707
-0.2743311822 -0.1762932688 0.5761137605 4281742914
-0.2739872336 -0.1754329205 0.5753914118 4281677121
-0.2740574479 -0.1748384237 0.5755389333 4281545535
-0.2728833258 -0.1734526604 0.5730731487 4281479742
-0.2696342766 -0.1707583070 0.5662499070 4281348156
-0.2705325782 -0.1706959605 0.5681364536 4281216570
-0.2693559527 -0.1693250686 0.5656654239 4281216568
-0.2690087557 -0.1684791297 0.5649363399 4280953396
-0.2690764070 -0.1678936481 0.5650783777 4280690224
-0.2687285244 -0.1670495421 0.5643478036 4280558638
-0.2696265578 -0.1669786721 0.5662337542 4280624431
-0.2761601508 -0.1933845729 0.5813105702 4284178283
-0.2758253515 -0.1925050467 0.5806058645 4283915111
-0.2754901648 -0.1916267872 0.5799002647 4283717731
-0.2755658329 -0.1910349429 0.5800595880 4283454559
-0.2748185098 -0.1898741275 0.5784865022 4283059801
-0.2753050923 -0.1895664334 0.5795107484 4282796629
-0.2749684453 -0.1886915267 0.5788021088 4282401358
-0.2750431299 -0.1880995184 0.5789592862 4282072393
-0.2747057378 -0.1872263104 0.5782491565 4281611842
-0.2747799158 -0.1866342127 0.5784052610 4281348670
-0.2748539150 -0.1860416532 0.5785610080 4281217084
-0.2749277055 -0.1854486018 0.5787163377 4281019705
-0.2750012875 -0.1848550737 0.5788712502 4280756533
-0.2750746906 -0.1842610687 0.5790257454 4280559154
-0.2747353613 -0.1833912283 0.5783114433 4280559154
-0.2748082578 -0.1827971637 0.5784648657 4280624947
-0.2744682133 -0.1819290519 0.5777490735 4280756533
-0.2745406032 -0.1813349426 0.5779014826 4280756533
-0.2741998136 -0.1804685593 0.5771841407 4281084984
-0.2742716968 -0.1798744053 0.5773354769 4281216570
-0.2743433714 -0.1792797893 0.5774863362 4281282363
-0.2744148374 -0.1786847115 0.5776367784 4281413949
-0.2736593485 -0.1775527447 0.5760465264 4281611328
-0.2724897563 -0.1761565953 0.5735844970 4281611328
-0.2733872831 -0.1760974228 0.5754737854 4281611328
-0.2734576464 -0.1755031943 0.5756219029 4281611328
-0.2722863555 -0.1741146594 0.5731563568 4281677121
-0.2715281546 -0.1729947776 0.5715603828 4281742914
-0.2715973854 -0.1724036634 0.5717060566 4281742914
-0.2700099051 -0.1707644761 0.5683644414 4281677121
-0.2709067464 -0.1706980914 0.5702522993 4281545535
-0.2701464891 -0.1695872247 0.5686519742 4281282363
-0.2693855762 -0.1684795320 0.5670502782 4281019189
-0.2690386176 -0.1676333249 0.5663199425 4280821810
-0.2691729665 -0.1664579511 0.5666027665 4280756017
-0.2688249648 -0.1656140387 0.5658702254 4280756017
-0.2701364160 -0.1657901704 0.5686307549 4280756017
-0.2685428262 -0.1641840935 0.5652763247 4280756015
-0.2745442688 -0.1914163679 0.5792635083 4284178797
-0.2742092609 -0.1905399710 0.5785566568 4283784039
-0.2738738358 -0.1896648556 0.5778489113 4283651939
-0.2743594050 -0.1893579662 0.5788734555 4283586146
-0.2740233541 -0.1884836555 0.5781644583 4283256667
-0.2740978301 -0.1878923327 0.5783215761 4282927702
-0.2737610638 -0.1870197058 0.5776110291 4282598737
-0.2738350630 -0.1864283085 0.5777671337 4282269772
-0.2734975815 -0.1855573952 0.5770550370 4281940807
-0.2735710442 -0.1849659234 0.5772100687 4281677635
-0.2740558386 -0.1846512407 0.5782329440 4281348670
-0.2737174332 -0.1837815642 0.5775189400 4280953912
-0.2737903297 -0.1831886619 0.5776727200 4280624947
-0.2734511793 -0.1823207289 0.5769571662 4280624947
-0.2735235691 -0.1817277819 0.5771099329 4280493361
-0.2735957801 -0.1811343580 0.5772622228 4280427568
-0.2736677527 -0.1805404723 0.5774141550 4280624433
-0.2733272910 -0.1796751171 0.5766957998 4280756019
-0.2733987868 -0.1790811867 0.5768465996 4280887605
-0.2723739743 -0.1764943898 0.5746843815 4281413949
-0.2724443376 -0.1759012938 0.5748328567 4281413949
-0.2725145221 -0.1753077507 0.5749809146 4281479742
-0.2717584670 -0.1741843224 0.5733857155 4281611328
-0.2718280256 -0.1735916585 0.5735324621 4281742914
-0.2718973756 -0.1729985476 0.5736787915 4281742914
-0.2715531886 -0.1721429676 0.5729525685 4281874500
-0.2703817487 -0.1707665324 0.5704809427 4281874500
-0.2712771297 -0.1706960797 0.5723701119 4281742914
-0.2705181837 -0.1695843637 0.5707688332 4281611328
-0.2705861032 -0.1689926237 0.5709121227 4281348156
-0.2698261440 -0.1678854376 0.5693086386 4281150777
-0.2698934376 -0.1672946215 0.5694506764 4281019191
-0.2695464790 -0.1664476693 0.5687186122 4280887603
-0.2675425112 -0.1645830125 0.5644904375 4280756017
-0.2851409018 -0.0751422644 0.6016213894 4287862682
-0.2733399272 -0.1897397488 0.5780770779 4284376176
-0.2730047703 -0.1888656169 0.5773683190 4283981418
-0.2730792463 -0.1882754564 0.5775257945 4283849317
-0.2731535435 -0.1876848340 0.5776829123 4283586145
-0.2732276320 -0.1870937198 0.5778396130 4283388766
-0.2720704377 -0.1856620163 0.5753923059 4283059801
-0.2721438110 -0.1850726157 0.5755474567 4282730836
-0.2730381489 -0.1850392371 0.5774388909 4282467664
-0.2727006376 -0.1841697395 0.5767251253 4282072906
-0.2731843591 -0.1838544905 0.5777480602 4281546562
-0.2728462517 -0.1829858124 0.5770330429 4281414463
-0.2729187310 -0.1823931485 0.5771863461 4281151291
-0.2729910612 -0.1817999929 0.5773392916 4280756533
-0.2726519108 -0.1809334904 0.5766220689 4280493361
-0.2731350660 -0.1806122959 0.5776438713 4280427568
-0.2727953196 -0.1797466427 0.5769253373 4280427568
-0.2728667259 -0.1791525185 0.5770763755 4280493361
-0.2725262642 -0.1782886088 0.5763562918 4280624947
-0.2730089426 -0.1779628694 0.5773771405 4280953396
-0.2726678550 -0.1770998240 0.5766558051 4281084982
-0.2719143629 -0.1759714931 0.5750622749 4281150775
-0.2723965645 -0.1756434739 0.5760819912 4281282361
-0.2712299228 -0.1742539108 0.5736147761 4281479740
-0.2712994218 -0.1736610532 0.5737617016 4281479740
-0.2709562480 -0.1728047132 0.5730359554 4281479740
-0.2710252106 -0.1722118407 0.5731818080 4281545533
-0.2702687383 -0.1710961014 0.5715819597 4281874498
-0.2695116401 -0.1699835211 0.5699808002 4281940291
-0.2699924111 -0.1696523279 0.5709975362 4281940291
-0.2700602412 -0.1690603793 0.5711410046 4281808705
-0.2693690360 -0.1673617512 0.5696792006 4281611326
-0.2687425911 -0.1650780886 0.5683543086 4280887603
-0.2683952451 -0.1642340571 0.5676197410 4280821810
-0.2680474818 -0.1633914262 0.5668842793 4280756017
-0.2693543434 -0.1635551155 0.5696480870 4280690224
-0.2669368982 -0.1614599675 0.5645355582 4280624431
-0.2661738396 -0.1603729874 0.5629218221 4280558638
-0.2658242583 -0.1595377326 0.5621824861 4280624431
-0.2833506465 -0.0741800815 0.5992484689 4287928473
-0.2722101808 -0.1874770224 0.5770432949 4283718501
-0.2722840905 -0.1868866086 0.5771999359 4283521122
-0.2719482183 -0.1860155612 0.5764879584 4283257950
-0.2720216215 -0.1854250729 0.5766435266 4283060571
-0.2720948160 -0.1848341078 0.5767987370 4282731606
-0.2721678317 -0.1842426658 0.5769534707 4282533457
-0.2718306184 -0.1833741516 0.5762386918 4282072906
-0.2723132372 -0.1830583513 0.5772617459 4281875527
-0.2719754577 -0.1821906865 0.5765456557 4281546562
-0.2720475495 -0.1815982312 0.5766985416 4281217597
-0.2721194625 -0.1810053140 0.5768510103 4280888632
-0.2721911967 -0.1804119349 0.5770030022 4280559665
-0.2722627223 -0.1798180789 0.5771546364 4280296493
-0.2723340392 -0.1792237461 0.5773058534 4280230443
-0.2719942927 -0.1783595383 0.5765856504 4280033064
-0.2720651031 -0.1777651757 0.5767357349 4280559154
-0.2721357346 -0.1771703660 0.5768854618 4280493361
-0.2717949450 -0.1763083488 0.5761630535 4280559154
-0.2710424662 -0.1751818359 0.5745679140 4280756533
-0.2707007825 -0.1743234098 0.5738435388 4280887605
-0.2703586519 -0.1734663248 0.5731183290 4280821812
-0.2708393633 -0.1731368303 0.5741373301 4280953398
-0.2704966366 -0.1722806394 0.5734108090 4281150777
-0.2689180374 -0.1706418395 0.5700644255 4281545535
-0.2689861059 -0.1700514853 0.5702087283 4281677121
-0.2690539658 -0.1694606841 0.5703525543 4281677119
-0.2691216171 -0.1688694358 0.5704959631 4281611326
-0.2691890597 -0.1682777554 0.5706389546 4281742399
-0.2688439786 -0.1674288213 0.5699074268 4281873985
-0.2689109147 -0.1668371409 0.5700493455 4281742399
-0.2689776719 -0.1662450284 0.5701908469 4281676606
-0.2686315477 -0.1653984040 0.5694571733 4281479742
-0.2686977983 -0.1648063213 0.5695975423 4281216570
-0.2683509588 -0.1639615446 0.5688623190 4281150777
-0.2684167027 -0.1633695066 0.5690016747 4281019191
-0.2676560879 -0.1622761637 0.5673893094 4280887605
-0.2664817572 -0.1609365344 0.5648999214 4280756019
-0.2633039355 -0.1577770412 0.5581634641 4280624433
-0.2641942501 -0.1576882601 0.5600507259 4280756019
-0.2638440728 -0.1568578333 0.5593084097 4280558640
-0.2651481032 -0.1570085883 0.5620727539 4280492847
-0.2823808789 -0.0741002485 0.5986035466 4282336070
-0.2841082811 -0.0738843828 0.6022653580 4288652198
-0.2710062563 -0.1858087331 0.5758469701 4284178797
-0.2710794508 -0.1852189302 0.5760024786 4283521122
-0.2704071105 -0.1834827513 0.5745738149 4283125594
-0.2712979019 -0.1834466904 0.5764666200 4282994008
-0.2713703215 -0.1828549951 0.5766205192 4282994008
-0.2714425325 -0.1822628230 0.5767739415 4282665043
-0.2715145648 -0.1816701740 0.5769270062 4282270283
-0.2711767554 -0.1808039546 0.5762092471 4281875525
-0.2712482810 -0.1802112609 0.5763612390 4281480767
-0.2713196278 -0.1796181053 0.5765128136 4281151802
-0.2701608837 -0.1782131940 0.5740506649 4280954166
-0.2714616954 -0.1784303933 0.5768146515 4280690994
-0.2703019083 -0.1770299226 0.5743502975 4280559154
-0.2711926699 -0.1769730747 0.5762430429 4280493361
-0.2708525360 -0.1761116534 0.5755202770 4280427568
-0.2705119550 -0.1752515733 0.5747966170 4280427568
-0.2701709867 -0.1743928343 0.5740721226 4280493361
-0.2698296010 -0.1735354364 0.5733466744 4280493361
-0.2698985934 -0.1729426235 0.5734933019 4280624947
-0.2699674070 -0.1723493636 0.5736395121 4280888119
-0.2692139745 -0.1712327898 0.5720385909 4281150777
-0.2688710392 -0.1703799069 0.5713099241 4281348156
-0.2685277164 -0.1695283800 0.5705804229 4281479740
-0.2685952783 -0.1689369380 0.5707240105 4281479740
-0.2686626613 -0.1683450341 0.5708671808 4281545533
-0.2683182955 -0.1674958020 0.5701354742 4281611326
-0.2683851719 -0.1669039279 0.5702775717 4281545533
-0.2684518397 -0.1663116068 0.5704191923 4281545533
-0.2685182989 -0.1657188535 0.5705603957 4281611328
-0.2685845494 -0.1651256531 0.5707011819 4281611328
-0.2682385743 -0.1642796546 0.5699660182 4281611328
-0.2683043182 -0.1636864990 0.5701057315 4281611328
-0.2647241056 -0.1602523327 0.5624983311 4281216570
-0.2656131983 -0.1601634920 0.5643875003 4280953398
-0.2656774223 -0.1595749855 0.5645239949 4280887605
-0.2640908659 -0.1579985619 0.5611528158 4280427054
-0.2649797499 -0.1579047889 0.5630415678 4280624433
-0.2638046443 -0.1565817147 0.5605446100 4280690226
-0.2619888484 -0.1530298740 0.5566863418 4280624433
-0.2600446939 -0.1506664306 0.5525553226 4280361261
-0.2640928328 -0.0850519314 0.5611569881 4279638563
-0.2792649269 -0.0741148442 0.5933954120 4282467401
-0.2801424861 -0.0736863613 0.5952600241 4281414968
-0.2814431787 -0.0733640343 0.5980237722 4284178274
-0.2698029280 -0.1841443330 0.5746461749 4284441969
-0.2698754370 -0.1835551709 0.5748006105 4284178282
-0.2699477375 -0.1829655319 0.5749546289 4283717731
-0.2696113586 -0.1820995212 0.5742381811 4283651938
-0.2700917721 -0.1817848533 0.5752614141 4283257180
-0.2701635063 -0.1811937988 0.5754141808 4282994006
-0.2702350318 -0.1806022823 0.5755665302 4282796627
-0.2703063786 -0.1800102890 0.5757184625 4282467662
-0.2699684501 -0.1791463941 0.5749987960 4282072904
-0.2700392902 -0.1785543710 0.5751496553 4281677889
-0.2701099217 -0.1779618710 0.5753000975 4281283131
-0.2701803744 -0.1773689240 0.5754501224 4281283388
-0.2702506185 -0.1767755002 0.5755997300 4281151802
-0.2703206539 -0.1761816144 0.5757489204 4280822837
-0.2699808180 -0.1753212214 0.5750250816 4280559665
-0.2696405649 -0.1744621843 0.5743003488 4280559408
-0.2697097659 -0.1738687158 0.5744478106 4280427822
-0.2697788179 -0.1732748002 0.5745948553 4280427822
-0.2686173320 -0.1718931347 0.5721210241 4280559408
-0.2686856389 -0.1713010222 0.5722665191 4280888373
-0.2687537372 -0.1707084477 0.5724115968 4281019959
-0.2680008411 -0.1695960015 0.5708079934 4281151291
-0.2680683434 -0.1690043509 0.5709517598 4281217084
-0.2681356370 -0.1684122533 0.5710951090 4281479742
-0.2677920163 -0.1675627083 0.5703632236 4281479742
-0.2682696283 -0.1672267169 0.5713804364 4281545535
-0.2675144672 -0.1661229283 0.5697720647 4281611328
-0.2672356665 -0.1646850109 0.5691782832 4281677121
-0.2673014402 -0.1640929878 0.5693184137 4281742914
-0.2669556737 -0.1632490009 0.5685819387 4281742914
-0.2666095197 -0.1624063849 0.5678446293 4281677121
-0.2658514082 -0.1613154560 0.5662299395 4281348156
-0.2655043006 -0.1604765505 0.5654907227 4280953398
-0.2659803033 -0.1601348072 0.5665044785 4280756019
-0.2652207613 -0.1590499133 0.5648868084 4281282363
-0.2648725510 -0.1582142860 0.5641451478 4281150777
-0.2645870745 -0.1567915082 0.5635371208 4280492847
-0.2630010843 -0.1552292854 0.5601591468 4280624433
-0.2606509924 -0.1526085734 0.5551537275 4280558640
-0.2611248493 -0.1522680670 0.5561629534 4280492847
-0.2615986764 -0.1519253105 0.5571721792 4280558640
-0.2608343363 -0.1508641839 0.5555442572 4280492847
-0.2608950436 -0.1502819061 0.5556735992 4280427054
-0.2597168386 -0.1489886194 0.5531641245 4280361261
-0.2630873621 -0.0861737058 0.5603428483 4279901735
-0.2627380788 -0.0848157853 0.5595989823 4279770149
-0.2631946504 -0.0843403414 0.5605713725 4279901735
-0.2636510730 -0.0838626921 0.5615435243 4279770149
-0.2778475881 -0.0745706335 0.5917803049 4283191126
-0.2787235379 -0.0741461366 0.5936459899 4283125333
-0.2795993984 -0.0737174824 0.5955114961 4282270022
-0.2804751992 -0.0732846633 0.5973767638 4282993745
-0.2813508809 -0.0728476718 0.5992419124 4290362816
-0.2690077424 -0.1827607751 0.5743111968 4285297278
-0.2682642937 -0.1816193312 0.5727239251 4284902005
-0.2691514194 -0.1815814823 0.5746178627 4284309868
-0.2692229450 -0.1809911281 0.5747705698 4283849317
-0.2692942619 -0.1804003119 0.5749228597 4283586145
-0.2693654299 -0.1798090190 0.5750747919 4283322971
-0.2690281272 -0.1789457202 0.5743546486 4283059799
-0.2686904371 -0.1780837476 0.5736337304 4282730577
-0.2691692114 -0.1777625978 0.5746558905 4282270026
-0.2692394555 -0.1771703362 0.5748058558 4282072904
-0.2693095207 -0.1765776128 0.5749554038 4281809732
-0.2689706087 -0.1757173836 0.5742318630 4281414974
-0.2686312795 -0.1748584956 0.5735074282 4281020216
-0.2687005103 -0.1742662042 0.5736552477 4280888373
-0.2687695622 -0.1736734360 0.5738026500 4280756787
-0.2688384056 -0.1730802208 0.5739496350 4280559408
-0.2684977353 -0.1722240150 0.5732223392 4280493615
-0.2685660720 -0.1716307998 0.5733682513 4280690994
-0.2674056888 -0.1702549458 0.5708909035 4280690994
-0.2674733400 -0.1696635336 0.5710352659 4280756533
-0.2675407529 -0.1690716892 0.5711792111 4280822326
-0.2671981454 -0.1682213694 0.5704478025 4281084984
-0.2672650814 -0.1676295400 0.5705906749 4281216570
-0.2673317790 -0.1670372486 0.5707331300 4281282363
-0.2673982978 -0.1664445251 0.5708751082 4281348156
-0.2670543790 -0.1655969918 0.5701408386 4281611328
-0.2671203613 -0.1650042832 0.5702817440 4281611328
-0.2667757571 -0.1641585976 0.5695459843 4281545535
-0.2660201788 -0.1630626619 0.5679329634 4281545535
-0.2660852671 -0.1624713838 0.5680719018 4281479742
-0.2657394111 -0.1616298556 0.5673335195 4281019191
-0.2649823427 -0.1605408341 0.5657172203 4280427054
-0.2658683658 -0.1604469866 0.5676088333 4280032296
-0.2651104927 -0.1593607515 0.5659908056 4280887605
-0.2647631168 -0.1585239172 0.5652492046 4281150777
-0.2631816864 -0.1569527686 0.5618729591 4281216570
-0.2648898065 -0.1573431194 0.5655196905 4281019191
-0.2624843419 -0.1552916467 0.5603842139 4280887605
-0.2621350884 -0.1544632167 0.5596385598 4280821812
-0.2621970177 -0.1538777798 0.5597708225 4280756019
-0.2618470490 -0.1530512720 0.5590236187 4280690226
-0.2619085014 -0.1524659097 0.5591548085 4280624433
-0.2611459196 -0.1514025480 0.5575267673 4280690226
-0.2592068911 -0.1490486711 0.5533871055 4280624433
-0.2573830485 -0.1455578059 0.5494933128 4280229675
-0.2595259547 -0.0870555714 0.5540682077 4280296236
-0.2604022622 -0.0867318287 0.5559390783 4280230443
-0.2608584762 -0.0862650201 0.5569130778 4280098857
-0.2626466453 -0.0849873200 0.5607306957 4280164650
-0.2622618377 -0.0842407048 0.5599091053 4280164650
-0.2751686573 -0.0746794716 0.5874642134 4283915108
-0.2760428488 -0.0742619336 0.5893305540 4283783776
-0.2769169807 -0.0738402307 0.5911967754 4283454811
-0.2790865898 -0.0730947480 0.5958287120 4283388503
-0.2808037698 -0.0728784055 0.5994947553 4289968058
-0.2678762674 -0.1805138290 0.5732548237 4285296763
-0.2679472864 -0.1799246073 0.5734068155 4284507247
-0.2680181265 -0.1793349087 0.5735584497 4283849315
-0.2680887878 -0.1787447482 0.5737096071 4283520350
-0.2681592405 -0.1781541109 0.5738604069 4283322971
-0.2686371207 -0.1778328717 0.5748831034 4282994006
-0.2682995498 -0.1769714653 0.5741606355 4282928213
-0.2683694065 -0.1763794571 0.5743101239 4282599248
-0.2676231563 -0.1752526611 0.5727131367 4282204490
-0.2681004703 -0.1749277711 0.5737346411 4281809732
-0.2673532665 -0.1738045812 0.5721356273 4281612096
-0.2674220204 -0.1732134223 0.5722827911 4281414717
-0.2670821846 -0.1723582745 0.5715555549 4281151545
-0.2671504617 -0.1717671156 0.5717015862 4280756787
-0.2676270902 -0.1714372337 0.5727216005 4280756787
-0.2672863305 -0.1705834419 0.5719923973 4280625201
-0.2673539817 -0.1699909270 0.5721371770 4280559408
-0.2674214244 -0.1693979651 0.5722814798 4280559408
-0.2670796812 -0.1685464382 0.5715501308 4280821812
-0.2671466172 -0.1679534912 0.5716933608 4280887605
-0.2668041289 -0.1671037972 0.5709604621 4281084984
-0.2664612532 -0.1662554890 0.5702267289 4281150777
-0.2665273845 -0.1656630188 0.5703682303 4281413949
-0.2665933073 -0.1650701314 0.5705093145 4281348156
-0.2662494183 -0.1642241329 0.5697733760 4281348156
-0.2663148344 -0.1636312604 0.5699133277 4281413949
-0.2651505768 -0.1622854769 0.5674218535 4281348156
-0.2648053765 -0.1614445597 0.5666831136 4281019191
-0.2652797997 -0.1611030549 0.5676983595 4280492847
-0.2653440833 -0.1605111808 0.5678359866 4279966503
-0.2643044889 -0.1579970121 0.5656112432 4280295468
-0.2635466456 -0.1569173634 0.5639894605 4280558640
-0.2631988227 -0.1560844481 0.5632451177 4280690226
-0.2624398768 -0.1550103724 0.5616209507 4280756019
-0.2633235455 -0.1549062133 0.5635120273 4280887605
-0.2625637949 -0.1538349837 0.5618861318 4280756019
-0.2622144520 -0.1530068368 0.5611385703 4280756019
-0.2618647218 -0.1521801203 0.5603901148 4280756019
-0.2595188916 -0.1495827585 0.5553700924 4280624433
-0.2587562203 -0.1485279202 0.5537379384 4280624433
-0.2600502968 -0.1486524045 0.5565072298 4280624433
-0.2580522001 -0.1468966752 0.5522313118 4280558640
-0.2576995790 -0.1460832208 0.5514767766 4280492847
-0.2573466003 -0.1452712268 0.5507213473 4280427054
-0.2572695017 -0.0877272040 0.5505563617 4280362029
-0.2585996389 -0.0869510323 0.5534029007 4280427822
-0.2603125870 -0.0869080350 0.5570685267 4280690994
-0.2607679963 -0.0864400640 0.5580431819 4280625201
-0.2612233162 -0.0859698802 0.5590174794 4280625201
-0.2608397603 -0.0852234587 0.5581967235 4280624947
-0.2612946928 -0.0847508162 0.5591702461 4280493361
-0.2609105408 -0.0840058550 0.5583481789 4280296236
-0.2733069062 -0.0756501779 0.5848763585 4284244073
-0.2742111087 -0.0745964870 0.5868114233 4283915108
-0.2755042017 -0.0742931962 0.5895786285 4283586397
-0.2767973244 -0.0739837587 0.5923458934 4283060053
-0.2776697278 -0.0735567287 0.5942128301 4282927952
-0.2772797942 -0.0727941468 0.5933784246 4284112226
-0.2777311206 -0.0722522736 0.5943441987 4289836472
-0.2670799494 -0.1791329384 0.5729124546 4285428349
-0.2671504319 -0.1785434783 0.5730636120 4284770419
-0.2672206759 -0.1779535413 0.5732142925 4284309868
-0.2672907412 -0.1773631573 0.5733646154 4283849317
-0.2665467262 -0.1762341857 0.5717686415 4283586143
-0.2674302757 -0.1761809886 0.5736639500 4283322971
-0.2674997449 -0.1755892038 0.5738129616 4283059799
-0.2671617866 -0.1747306138 0.5730879307 4282796627
-0.2668233812 -0.1738733649 0.5723620653 4282598991
-0.2672995329 -0.1735465527 0.5733834505 4282270026
-0.2673681080 -0.1729538441 0.5735305548 4281743682
-0.2666211128 -0.1718351990 0.5719282031 4281217338
-0.2670968473 -0.1715052277 0.5729486942 4281019959
-0.2667568326 -0.1706511229 0.5722193718 4280888373
-0.2668244243 -0.1700583994 0.5723642707 4280690994
-0.2668917775 -0.1694652438 0.5725088120 4280625201
-0.2669589520 -0.1688716263 0.5726528764 4280624431
-0.2658010125 -0.1675056517 0.5701689720 4280624431
-0.2662758529 -0.1671702713 0.5711876154 4280756017
-0.2659337223 -0.1663216501 0.5704536438 4280887603
-0.2655911744 -0.1654744148 0.5697188377 4280887605
-0.2652482092 -0.1646285504 0.5689831376 4280887605
-0.2657224536 -0.1642895788 0.5700004697 4281084984
-0.2649699748 -0.1631928235 0.5683863163 4281216570
-0.2646259069 -0.1623502225 0.5676482320 4281216570
-0.2646905184 -0.1617590189 0.5677868724 4281150777
-0.2647549510 -0.1611673832 0.5679250956 4280887605
-0.2648191750 -0.1605753154 0.5680628419 4280624433
-0.2644737661 -0.1597355455 0.5673219562 4280098089
-0.2641279697 -0.1588971913 0.5665801764 4279834917
-0.2633721828 -0.1578148007 0.5649589300 4279834917
-0.2638448775 -0.1574692130 0.5659729242 4279966503
-0.2630881965 -0.1563905627 0.5643497109 4280163882
-0.2623308897 -0.1553151608 0.5627252460 4280624433
-0.2632129490 -0.1552100629 0.5646173954 4281084984
-0.2624548674 -0.1541375220 0.5629912019 4281282363
-0.2625165284 -0.1535480618 0.5631234646 4281019191
-0.2601163387 -0.1515242159 0.5579748154 4280953398
-0.2622289062 -0.1521298587 0.5625064373 4280821812
-0.2598270476 -0.1501171738 0.5573542118 4280690226
-0.2594766617 -0.1492963135 0.5566025972 4280690226
-0.2611791790 -0.1496534050 0.5602546930 4280624433
-0.2587746978 -0.1476589143 0.5550968647 4280558640
-0.2580122650 -0.1466089338 0.5534613729 4280492847
-0.2581882775 -0.1448628753 0.5538389087 4280427054
-0.2559286952 -0.0874779150 0.5489919186 4280822580
-0.2572197616 -0.0873061642 0.5517613888 4281283131
-0.2589292526 -0.0872692838 0.5554283857 4281875268
-0.2572920918 -0.0861042738 0.5519165397 4282270026
-0.2598384023 -0.0863371268 0.5573785901 4282335565
-0.2602927685 -0.0858677328 0.5583533049 4282138186
-0.2607470453 -0.0853961334 0.5593277216 4281611842
-0.2607825696 -0.0847862288 0.5594038963 4281282877
-0.2612364888 -0.0843111947 0.5603776574 4280888373
-0.2719325125 -0.0754490867 0.5833216310 4284046694
-0.2728034556 -0.0750405416 0.5851898789 4283849315
-0.2724150717 -0.0742844492 0.5843567848 4283783522
-0.2741253078 -0.0740974694 0.5880253911 4283060053
-0.2745761275 -0.0735649243 0.5889924765 4282928467
-0.2754466832 -0.0731416717 0.5908598900 4283389016
-0.2758972347 -0.0726037472 0.5918263197 4284968048
-0.2780275047 -0.0725017041 0.5963960290 4289968058
-0.2663529813 -0.1771629900 0.5727175474 4285100154
-0.2664226592 -0.1765728444 0.5728673339 4284573038
-0.2664921582 -0.1759822220 0.5730167627 4284178280
-0.2657487392 -0.1748564243 0.5714182854 4283717729
-0.2658176124 -0.1742666960 0.5715663433 4283454557
-0.2650731802 -0.1731453836 0.5699656606 4283257178
-0.2659547925 -0.1730858535 0.5718612671 4282994006
-0.2656162977 -0.1722310036 0.5711334944 4282467662
-0.2652774155 -0.1713774949 0.5704048276 4281875525
-0.2657520771 -0.1710492373 0.5714254379 4281612096
-0.2654125690 -0.1701966375 0.5706954002 4281414717
-0.2650726736 -0.1693454087 0.5699645877 4281217338
-0.2655469179 -0.1690139920 0.5709843040 4280954166
-0.2660211921 -0.1686803102 0.5720040798 4280625201
-0.2652730048 -0.1675721407 0.5703952909 4280493615
-0.2649317980 -0.1667236686 0.5696616173 4280427822
-0.2649978697 -0.1661321521 0.5698037148 4280427822
-0.2650637329 -0.1655401886 0.5699453354 4280756019
-0.2647214830 -0.1646940261 0.5692094564 4280821812
-0.2647868693 -0.1641021073 0.5693500042 4280887605
-0.2644439340 -0.1632578075 0.5686126351 4280887605
-0.2645087838 -0.1626659185 0.5687520504 4280887605
-0.2641651332 -0.1618234813 0.5680131316 4280953398
-0.2642294765 -0.1612316370 0.5681515336 4280887605
-0.2638851404 -0.1603910923 0.5674110651 4280756019
-0.2639489770 -0.1597992927 0.5675483346 4280953398
-0.2636038959 -0.1589606404 0.5668063760 4280756019
-0.2628496587 -0.1578778476 0.5651845932 4280492847
-0.2625037134 -0.1570429057 0.5644407272 4280163882
-0.2621573508 -0.1562093943 0.5636959672 4279834917
-0.2630378306 -0.1561056226 0.5655891895 4279966503
-0.2626909614 -0.1552721858 0.5648433566 4280690226
-0.2608290315 -0.1523022354 0.5608397722 4281282363
-0.2617090344 -0.1521908492 0.5627320409 4281084984
-0.2601312995 -0.1506518871 0.5593395233 4280953398
-0.2597818375 -0.1498288810 0.5585881472 4280953398
-0.2602517009 -0.1494781077 0.5595983863 4280821812
-0.2594916821 -0.1484216601 0.5579642057 4280690226
-0.2566809356 -0.1462007612 0.5519204736 4280624433
-0.2571496964 -0.1458534151 0.5529283881 4280756019
-0.2580286264 -0.1457355022 0.5548183322 4280690226
-0.2589077353 -0.1456134766 0.5567086339 4280624433
-0.2589662075 -0.1450276822 0.5568343401 4280492847
-0.2578507364 -0.1431709528 0.5544357896 4280427054
-0.2583189905 -0.1428138018 0.5554426312 4280295468
-0.2540263236 -0.0894625559 0.5462124944 4280362029
-0.2549714148 -0.0879679844 0.5482446551 4281677889
-0.2558789849 -0.0870584846 0.5501961112 4281941061
-0.2571675479 -0.0868825093 0.5529667735 4281612096
-0.2580386698 -0.0865603536 0.5548399091 4281348924
-0.2580746114 -0.0859558508 0.5549172163 4281019705
-0.2691766620 -0.0774351209 0.5787889957 4283849315
-0.2700462937 -0.0770401433 0.5806589723 4283980901
-0.2709478438 -0.0760027245 0.5825974941 4283717731
-0.2710110247 -0.0747255310 0.5827333331 4282730834
-0.2739746571 -0.0748881549 0.5891057849 4282599248
-0.2731679976 -0.0740150437 0.5873712897 4282533455
-0.2744559348 -0.0737083331 0.5901407003 4283191385
-0.2744867206 -0.0730608329 0.5902068615 4283915360
-0.2761937082 -0.0728553385 0.5938771963 4285691771
-0.2762241364 -0.0722034574 0.5939426422 4290691781
-0.2643387318 -0.1749780625 0.5697470903 4285494910
-0.2644074857 -0.1743903905 0.5698953271 4284508015
-0.2648817301 -0.1740688384 0.5709174275 4283850085
-0.2645444572 -0.1732136905 0.5701905489 4283849315
-0.2650185227 -0.1728894114 0.5712122321 4283717729
-0.2650865912 -0.1722990125 0.5713590384 4283322971
-0.2651545107 -0.1717081666 0.5715053678 4282862420
-0.2644098699 -0.1705927551 0.5699004531 4282599248
-0.2648834288 -0.1702639610 0.5709211230 4282336076
-0.2645442784 -0.1694124192 0.5701901317 4282072904
-0.2646111548 -0.1688215733 0.5703343153 4281678146
-0.2650844455 -0.1684887111 0.5713543296 4281283131
-0.2647443712 -0.1676385552 0.5706213713 4280954166
-0.2648106515 -0.1670463681 0.5707642436 4280756785
-0.2648767531 -0.1664537489 0.5709066987 4280625199
-0.2649426460 -0.1658606678 0.5710487366 4280558640
-0.2646012306 -0.1650132984 0.5703129172 4280690226
-0.2642594576 -0.1641672999 0.5695762038 4280690226
-0.2639172375 -0.1633226871 0.5688386559 4280690226
-0.2639820278 -0.1627306044 0.5689782500 4280821812
-0.2636391222 -0.1618878692 0.5682391524 4280821812
-0.2632957995 -0.1610465199 0.5674992204 4280756019
-0.2629520893 -0.1602065861 0.5667583942 4280756019
-0.2630157471 -0.1596155018 0.5668956041 4280756019
-0.2630791962 -0.1590240002 0.5670323372 4280821812
-0.2627345026 -0.1581864357 0.5662893653 4280887605
-0.2627974451 -0.1575950086 0.5664250255 4280953398
-0.2620438337 -0.1565155536 0.5648007393 4280821812
-0.2625144422 -0.1561679840 0.5658150911 4280492847
-0.2625766993 -0.1555761844 0.5659492612 4280427054
-0.2618218064 -0.1545019150 0.5643221736 4280690226
-0.2618834078 -0.1539111286 0.5644549727 4281677121
-0.2607188821 -0.1526023597 0.5619450212 4281545535
-0.2615973055 -0.1524900496 0.5638383031 4281348156
-0.2604316771 -0.1511869133 0.5613259673 4281282363
-0.2609010339 -0.1508345902 0.5623375773 4281282363
-0.2605523169 -0.1500090212 0.5615859628 4281150777
-0.2597940564 -0.1489503235 0.5599516630 4280887605
-0.2578075826 -0.1471939981 0.5556700230 4280887605
-0.2578665018 -0.1466101110 0.5557970405 4280887605
-0.2575742304 -0.1452102810 0.5551670790 4280690226
-0.2588612139 -0.1453159153 0.5579410195 4280558640
-0.2581579983 -0.1436847001 0.5564253330 4280558640
-0.2573959529 -0.1426441520 0.5547828078 4280492847
-0.2586830854 -0.1427379847 0.5575571060 4280361261
-0.2571002543 -0.1412488967 0.5541454554 4280492334
-0.2563367188 -0.1402155608 0.5524998307 4280360748
-0.2535248995 -0.0894997120 0.5464392900 4281743682
-0.2535619438 -0.0889055580 0.5465191007 4282270026
-0.2535987198 -0.0883111507 0.5465984344 4282861909
-0.2540517449 -0.0878605098 0.5475748777 4283190874
-0.2545046806 -0.0874076709 0.5485510826 4282664784
-0.2570404410 -0.0876630098 0.5540165901 4281743682
-0.2583989799 -0.0862699226 0.5569447875 4280493361
-0.2588871717 -0.0851929560 0.5579969287 4280624947
-0.2673603594 -0.0777370110 0.5762598515 4284244073
-0.2678105235 -0.0772265568 0.5772300959 4284112487
-0.2690962255 -0.0769528821 0.5800012946 4283455327
-0.2699640989 -0.0765545592 0.5818718076 4282731604
-0.2699959874 -0.0759170204 0.5819405317 4282138699
-0.2713131309 -0.0749879107 0.5847794414 4282138699
-0.2722116411 -0.0739324912 0.5867161155 4282862420
-0.2726606727 -0.0734014809 0.5876839161 4283586143
-0.2731095254 -0.0728682801 0.5886513591 4284178534
-0.2748130560 -0.0726646855 0.5923230648 4286678668
-0.2631371617 -0.1733373404 0.5685182214 4285560705
-0.2640151083 -0.1732819080 0.5704150796 4284508015
-0.2640832365 -0.1726926714 0.5705622435 4283718499
-0.2637459934 -0.1718390137 0.5698336363 4283520350
-0.2638136148 -0.1712497771 0.5699797273 4283322971
-0.2634756863 -0.1703979373 0.5692496300 4283191385
-0.2635427713 -0.1698087007 0.5693945885 4282928213
-0.2640152574 -0.1694793552 0.5704153776 4282599248
-0.2640820742 -0.1688883156 0.5705597401 4282204490
-0.2641486824 -0.1682968140 0.5707036257 4281743939
-0.2638092339 -0.1674472690 0.5699702501 4281480767
-0.2626574636 -0.1660856903 0.5674818158 4281152056
-0.2639412582 -0.1662638783 0.5702555180 4280757298
-0.2636007965 -0.1654166430 0.5695199370 4280954166
-0.2632599473 -0.1645707786 0.5687835217 4280756787
-0.2629186809 -0.1637263149 0.5680462122 4280625201
-0.2625769973 -0.1628832221 0.5673080087 4280493615
-0.2622349262 -0.1620415300 0.5665689707 4280362029
-0.2627058029 -0.1617018580 0.5675862432 4280427822
-0.2627699077 -0.1611105353 0.5677247643 4280296236
-0.2628337741 -0.1605187654 0.5678627491 4280362029
-0.2620835304 -0.1594314426 0.5662418604 4280427822
-0.2621468306 -0.1588406563 0.5663785934 4280625201
-0.2622098923 -0.1582494378 0.5665148497 4280756017
-0.2622727752 -0.1576577872 0.5666506886 4280887603
-0.2619280815 -0.1568218321 0.5659059882 4280953396
-0.2619904578 -0.1562302560 0.5660407543 4280953396
-0.2620526254 -0.1556382626 0.5661750436 4280098087
-0.2617069185 -0.1548047215 0.5654281378 4280163880
-0.2617685795 -0.1542128026 0.5655613542 4281479740
-0.2618300021 -0.1536204666 0.5656940937 4281545533
-0.2614833117 -0.1527893692 0.5649450421 4281611326
-0.2595041096 -0.1510099471 0.5606688857 4281742912
-0.2603805959 -0.1508949399 0.5625625849 4281611328
-0.2604408264 -0.1503046453 0.5626927018 4281413949
-0.2585186660 -0.1479541659 0.5585397482 4281150777
-0.2577607930 -0.1469016820 0.5569024086 4281019191
-0.2578195333 -0.1463162601 0.5570293069 4280756019
-0.2582867444 -0.1459613889 0.5580387115 4280624433
-0.2583451569 -0.1453742385 0.5581649542 4280624433
-0.2592211068 -0.1452448815 0.5600574613 4280558640
-0.2584613860 -0.1441987455 0.5584160089 4280492847
-0.2577010691 -0.1431559473 0.5567733049 4280558640
-0.2593950033 -0.1434742808 0.5604332089 4280624433
-0.2574064136 -0.1417564452 0.5561367273 4280362029
-0.2542446554 -0.1387946159 0.5493056774 4280362029
-0.2551194131 -0.1386597306 0.5511955619 4280296236
-0.2539463639 -0.1374125481 0.5486611128 4280230443
-0.2548209429 -0.1372741014 0.5505507588 4280164650
-0.2521548271 -0.0898349434 0.5447904468 4282730577
-0.2526073754 -0.0893897936 0.5457682610 4283256921
-0.2526443005 -0.0887963846 0.5458480120 4283454300
-0.2527174354 -0.0876087844 0.5460060239 4283191128
-0.2659653723 -0.0781554282 0.5746287107 4283388766
-0.2664147615 -0.0776479542 0.5755996704 4282928215
-0.2676979601 -0.0773793384 0.5783720613 4282204492
-0.2685641944 -0.0769850314 0.5802435279 4281678148
-0.2690132856 -0.0764679909 0.5812138319 4281480769
-0.2694621980 -0.0759487525 0.5821837187 4281283909
-0.2699109614 -0.0754273087 0.5831533074 4281415495
-0.2699423432 -0.0747880787 0.5832211375 4282007113
-0.2708080113 -0.0743778348 0.5850914121 4282467664
-0.2712562978 -0.0738497972 0.5860599279 4283388764
-0.2729564905 -0.0736574456 0.5897333026 4283849315
-0.2729871571 -0.0730104148 0.5897995234 4284638831
-0.2721826434 -0.0721418709 0.5880613327 4288389032
-0.2615993619 -0.1708503962 0.5665553212 4285034359
-0.2616664767 -0.1702645868 0.5667006373 4284310636
-0.2629469931 -0.1704650819 0.5694739223 4283323741
-0.2630140185 -0.1698756516 0.5696190596 4283323741
-0.2626761198 -0.1690253168 0.5688872337 4283388764
-0.2627426386 -0.1684359014 0.5690313578 4282994006
-0.2632139027 -0.1681046486 0.5700519681 4282599502
-0.2628751099 -0.1672556996 0.5693181753 4282270537
-0.2629410326 -0.1666649431 0.5694609880 4282007365
-0.2626014948 -0.1658178419 0.5687256455 4281744193
-0.2630722821 -0.1654820889 0.5697452426 4281809732
-0.2627321482 -0.1646359265 0.5690086484 4281546560
-0.2627971768 -0.1640443057 0.5691494346 4281151802
-0.2620507181 -0.1629477590 0.5675327778 4280757044
-0.2625208795 -0.1626084298 0.5685510635 4280624947
-0.2621793449 -0.1617659926 0.5678113699 4280559154
-0.2622433603 -0.1611744612 0.5679500103 4280230443
-0.2619011104 -0.1603339165 0.5672088265 4280164650
-0.2615584731 -0.1594947577 0.5664667487 4280427822
-0.2616216838 -0.1589037627 0.5666036606 4280625201
-0.2616846859 -0.1583123505 0.5667400956 4280690226
-0.2617474794 -0.1577204913 0.5668761134 4280756019
-0.2614035308 -0.1568842381 0.5661311746 4280821812
-0.2614658177 -0.1562924534 0.5662661195 4280821812
-0.2611211836 -0.1554581076 0.5655196905 4280163880
-0.2611829638 -0.1548664123 0.5656535029 4280295466
-0.2612445354 -0.1542742848 0.5657868385 4281282361
-0.2608988881 -0.1534423679 0.5650382638 4281479740
-0.2605528235 -0.1526118815 0.5642887950 4281677119
-0.2610208094 -0.1522578895 0.5653023124 4281677119
-0.2594522238 -0.1507185996 0.5619052052 4281479740
-0.2595123053 -0.1501290351 0.5620352626 4281216568
-0.2591646612 -0.1493043005 0.5612823963 4280821810
-0.2588166296 -0.1484810114 0.5605286360 4280295466
-0.2580605149 -0.1474262774 0.5588911176 4280690224
-0.2581193745 -0.1468387842 0.5590185523 4281216568
-0.2581780255 -0.1462509036 0.5591455698 4281413949
-0.2586444318 -0.1458927244 0.5601556897 4281084984
-0.2591107786 -0.1455322951 0.5611656904 4280690226
-0.2587608695 -0.1447130889 0.5604078174 4280558640
-0.2584105134 -0.1438953578 0.5596491098 4280492847
-0.2584681213 -0.1433054805 0.5597738624 4280427054
-0.2573002577 -0.1420388371 0.5572445989 4280164650
-0.2557231486 -0.1405528784 0.5538290143 4280427822
-0.2541451156 -0.1390739977 0.5504114032 4280559408
-0.2550182641 -0.1389381438 0.5523023605 4280427822
-0.2554827631 -0.1385764480 0.5533083677 4280296236
-0.2551295161 -0.1377709359 0.5525432825 4280427822
-0.2535490394 -0.1363073438 0.5491203666 4280296236
-0.2512392402 -0.0897240639 0.5441180468 4284309609
-0.2516908944 -0.0892797187 0.5450961590 4283849058
-0.2517277002 -0.0886870474 0.5451759100 4283191128
-0.2518006563 -0.0875009373 0.5453338623 4282335819
-0.2614961863 -0.0808023736 0.5663318038 4283388766
-0.2649561465 -0.0793212652 0.5738252401 4283125594
-0.2658210397 -0.0789405480 0.5756983161 4282533457
-0.2662698328 -0.0784331039 0.5766702890 4282072906
-0.2663023770 -0.0778018907 0.5767407417 4281809734
-0.2667508125 -0.0772910193 0.5777119398 4281743941
-0.2667828798 -0.0766583607 0.5777814388 4281875527
-0.2676472068 -0.0762626827 0.5796533227 4282138699
-0.2689277530 -0.0759804398 0.5824266672 4281678665
-0.2698234022 -0.0749349445 0.5843663812 4282862422
