VERSION 0.7
FIELDS x y z rgba
SIZE 4 4 4 4
TYPE F F F U
COUNT 1 1 1 1
WIDTH 920
HEIGHT 1
VIEWPOINT 0.0 0.0 0.0 1.0 0.0 0.0 0.0
POINTS 920
DATA ascii
-0.2870370746 -0.0803521946 0.6056221724 4281677635
-0.2874962986 -0.0798067749 0.6065911055 4281743428
-0.2871046662 -0.0790250152 0.6057647467 4281481539
-0.2875634134 -0.0784771666 0.6067327261 4281152574
-0.2875965834 -0.0778120086 0.6068027020 4280691505
-0.2880549431 -0.0772607476 0.6077697873 4281152056
-0.2880876064 -0.0765941590 0.6078386903 4282994258
-0.2889711559 -0.0761516392 0.6097028852 4284310118
-0.2890033424 -0.0754826292 0.6097708344 4284573808
-0.2894609272 -0.0749235749 0.6107363105 4285100152
-0.2894926071 -0.0742531270 0.6108031273 4286415245
-0.2716607451 -0.2090010196 0.5745258927 4285889668
-0.2717416584 -0.2084247172 0.5746969581 4284902773
-0.2718223631 -0.2078479081 0.5748676658 4285165429
-0.2714964747 -0.2069607675 0.5741784573 4284836464
-0.2715767324 -0.2063837945 0.5743481517 4284244327
-0.2716567814 -0.2058063149 0.5745174885 4284178534
-0.2709231079 -0.2046138644 0.5729658604 4283389018
-0.2710025609 -0.2040370852 0.5731338859 4282467916
-0.2710818648 -0.2034598142 0.5733016133 4282598989
-0.2707538307 -0.2025773972 0.5726078749 4282927954
-0.2704253793 -0.2016962171 0.5719132423 4283783263
-0.2700965106 -0.2008162737 0.5712177157 4284046435
-0.2697672248 -0.1999375671 0.5705213547 4283980642
-0.2702527940 -0.1996623874 0.5715482235 4283520091
-0.2691074312 -0.1981838644 0.5691259503 4283059540
-0.2691847682 -0.1976082921 0.5692895055 4282598989
-0.2688539326 -0.1967336982 0.5685898662 4282072645
-0.2685227096 -0.1958603412 0.5678893328 4281677887
-0.2681910396 -0.1949882507 0.5671879053 4281742910
-0.2678589821 -0.1941174269 0.5664856434 4281216566
-0.2664516270 -0.1912192255 0.5635092854 4280953396
-0.2665265799 -0.1906467378 0.5636678338 4280492845
-0.2657835484 -0.1894907206 0.5620964170 4280361259
-0.2658579051 -0.1889190227 0.5622536540 4279966501
-0.2664152980 -0.1880630851 0.5634324551 4280098087
-0.2619523704 -0.1775263697 0.5539940000 4280953398
-0.2624332905 -0.1772356331 0.5550110936 4280821812
-0.2616818547 -0.1761132479 0.5534218550 4280756019
-0.2676926553 -0.1166279987 0.5661338568 4286546830
-0.2719536424 -0.1120941490 0.5751453042 4281678149
-0.2736844122 -0.1121644452 0.5788056254 4281217598
-0.2720465064 -0.1108539402 0.5753417015 4280822839
-0.2729349732 -0.1105746403 0.5772206783 4280362288
-0.2721384168 -0.1096124649 0.5755360723 4280033323
-0.2734480202 -0.1094974130 0.5783057213 4280164909
-0.2726507485 -0.1085374951 0.5766196251 4280493361
-0.2731173933 -0.1080814973 0.5776064992 4280690740
-0.2735839486 -0.1076232642 0.5785931945 4280953912
-0.2744719982 -0.1073276624 0.5804712772 4281282877
-0.2745167017 -0.1067000926 0.5805658102 4281282877
-0.2745611668 -0.1060722172 0.5806598663 4281151291
-0.2758708298 -0.1059299558 0.5834296346 4281151291
-0.2768901587 -0.1037188545 0.5855853558 4281217338
-0.2773556113 -0.1032414883 0.5865697265 4281217338
-0.2778209448 -0.1027618796 0.5875538588 4281217338
-0.2778638601 -0.1021248400 0.5876446366 4281217338
-0.2783288658 -0.1016417444 0.5886280537 4281348924
-0.2792161703 -0.1013096794 0.5905045867 4281414717
-0.2796809971 -0.1008211523 0.5914876461 4281414717
-0.2801457047 -0.1003303975 0.5924704075 4281414717
-0.2797650695 -0.0995366871 0.5916653872 4281414717
-0.2802293897 -0.0990434140 0.5926473737 4281414717
-0.2802708149 -0.0983994901 0.5927349925 4281414974
-0.2811576128 -0.0980501696 0.5946104527 4281546560
-0.2807757854 -0.0972572640 0.5938029885 4281546560
-0.2812394500 -0.0967570245 0.5947835445 4281480767
-0.2812799811 -0.0961100236 0.5948692560 4281546560
-0.2808972299 -0.0953191966 0.5940597653 4281546560
-0.2817833722 -0.0949577764 0.5959338546 4281480767
-0.2822463512 -0.0944505781 0.5969129801 4281349181
-0.2818627357 -0.0936598927 0.5961017013 4281480767
-0.2814787328 -0.0928708911 0.5952895880 4281546560
-0.2819410563 -0.0923609287 0.5962672830 4281480767
-0.2828266025 -0.0919864476 0.5981401205 4281480767
-0.2832886577 -0.0914710686 0.5991173387 4281546560
-0.2833270729 -0.0908177122 0.5991985798 4281612353
-0.2825180888 -0.0898945481 0.5974876881 4281612353
-0.2838267088 -0.0896440148 0.6002552509 4281678146
-0.2842880487 -0.0891217217 0.6012309194 4281809734
-0.2843255103 -0.0884653628 0.6013101339 4281743941
-0.2839389145 -0.0876778886 0.6004925370 4281743941
-0.2848234773 -0.0872817636 0.6023632288 4281743941
-0.2848601639 -0.0866236538 0.6024408937 4281678148
-0.2853205800 -0.0860932171 0.6034145355 4281678148
-0.2845087945 -0.0851797387 0.6016977429 4281678148
-0.2853927612 -0.0847737864 0.6035672426 4281546562
-0.2854284346 -0.0841136947 0.6036427021 4281283390
-0.2854638696 -0.0834533647 0.6037175655 4281217597
-0.2850747705 -0.0826697573 0.6028947234 4281217597
-0.2859581411 -0.0822539926 0.6047629714 4281086011
-0.2859928012 -0.0815919489 0.6048362255 4280822839
-0.2860271931 -0.0809296593 0.6049089432 4280691253
-0.2860612869 -0.0802671313 0.6049810648 4280888632
-0.2856706679 -0.0794862658 0.6041549444 4281020218
-0.2865532339 -0.0790584981 0.6060214639 4281152572
-0.2861619890 -0.0782781467 0.6051940322 4281415744
-0.2870442569 -0.0778449997 0.6070598960 4281744193
-0.2870770991 -0.0771793425 0.6071293950 4282336330
-0.2866849601 -0.0764002725 0.6063000560 4283389016
-0.2875667214 -0.0759595484 0.6081649065 4284112739
-0.2875987887 -0.0752922222 0.6082326770 4284705394
-0.2880554497 -0.0747349113 0.6091984510 4285955461
-0.2880870104 -0.0740661621 0.6092652082 4287994791
-0.2706414461 -0.2093444914 0.5737177730 4285296763
-0.2707222998 -0.2087693959 0.5738891959 4284639601
-0.2708029747 -0.2081937790 0.5740602016 4283981671
-0.2704779506 -0.2073068470 0.5733712316 4284441706
-0.2705581486 -0.2067310810 0.5735412240 4284046948
-0.2702324390 -0.2058457136 0.5728507638 4283915362
-0.2703121603 -0.2052697837 0.5730197430 4283849569
-0.2703917027 -0.2046933472 0.5731884241 4283520604
-0.2700649798 -0.2038099170 0.5724957585 4282796881
-0.2701440752 -0.2032333314 0.5726634264 4282401610
-0.2698166072 -0.2023514807 0.5719692707 4282138438
-0.2698952258 -0.2017747611 0.5721359253 4282927954
-0.2691604793 -0.2005915046 0.5705783963 4283454298
-0.2688317895 -0.1997133642 0.5698816180 4283717468
-0.2685026824 -0.1988364756 0.5691839457 4283520089
-0.2685801089 -0.1982612163 0.5693480372 4283585368
-0.2686573267 -0.1976854652 0.5695118308 4283387989
-0.2675128877 -0.1962132603 0.5670857430 4282795852
-0.2675894201 -0.1956391484 0.5672479272 4282203715
-0.2672583461 -0.1947676241 0.5665461421 4281677889
-0.2669268847 -0.1938973665 0.5658434629 4281348924
-0.2670026422 -0.1933235228 0.5660040975 4281283131
-0.2666704357 -0.1924549192 0.5652999282 4281217338
-0.2659299970 -0.1912941933 0.5637302399 4280954166
-0.2664128244 -0.1910140365 0.5647537708 4280690994
-0.2656714320 -0.1898567230 0.5631821156 4280493615
-0.2657458186 -0.1892839670 0.5633398294 4280164650
-0.2658199966 -0.1887107342 0.5634971261 4280164650
-0.2658940256 -0.1881370246 0.5636540055 4279835685
-0.2621895075 -0.1787229627 0.5558010340 4281084984
-0.2618502975 -0.1778749824 0.5550819039 4280887605
-0.2623304427 -0.1775832921 0.5560997128 4280756019
-0.2624005973 -0.1770127565 0.5562484860 4280821812
-0.2671745718 -0.1166763529 0.5663685799 4284638834
-0.2672227919 -0.1160680279 0.5664708018 4283717732
-0.2681099474 -0.1158218756 0.5683514476 4282665043
-0.2689971626 -0.1155715808 0.5702321529 4282138699
-0.2703041732 -0.1154964715 0.5730028152 4281086011
-0.2718479037 -0.1123143807 0.5762752891 4280230700
-0.2727349401 -0.1120385006 0.5781556964 4280362286
-0.2728276551 -0.1107914075 0.5783522725 4280822580
-0.2728736699 -0.1101673841 0.5784497261 4280954166
-0.2733399272 -0.1097118333 0.5794381499 4281019959
-0.2733854949 -0.1090862229 0.5795347691 4281151545
-0.2734308243 -0.1084602922 0.5796308517 4281217338
-0.2734759152 -0.1078340635 0.5797264576 4281151545
-0.2743623555 -0.1075373888 0.5816055536 4281217338
-0.2744070888 -0.1069086045 0.5817003846 4281217595
-0.2748724818 -0.1064425260 0.5826869607 4281151802
-0.2753377855 -0.1059742048 0.5836733580 4281283642
-0.2758029997 -0.1055036560 0.5846594572 4281349435
-0.2762680650 -0.1050308645 0.5856453776 4281349181
-0.2758906186 -0.1042375639 0.5848451853 4281480767
-0.2759340405 -0.1036040634 0.5849372745 4281546560
-0.2763985693 -0.1031274721 0.5859220028 4281480767
-0.2768629491 -0.1026486531 0.5869064331 4281349181
-0.2777487040 -0.1023228690 0.5887840986 4281414974
-0.2777913809 -0.1016843095 0.5888745785 4281414974
-0.2782554030 -0.1011987925 0.5898582339 4281414974
-0.2787193060 -0.1007110402 0.5908416510 4281480767
-0.2787613571 -0.1000696644 0.5909307599 4281546560
-0.2792249322 -0.0995784253 0.5919134617 4281546562
-0.2796883881 -0.0990849510 0.5928959250 4281546562
-0.2801517248 -0.0985892490 0.5938780904 4281414463
-0.2801929116 -0.0979438126 0.5939654112 4281348670
-0.2802338600 -0.0972980931 0.5940522552 4281414464
-0.2802745402 -0.0966520905 0.5941385031 4281414464
-0.2807371318 -0.0961503908 0.5951191187 4281282878
-0.2807773650 -0.0955028534 0.5952044129 4281348671
-0.2808173299 -0.0948550403 0.5952891111 4281480256
-0.2808570564 -0.0942069516 0.5953732729 4281414463
-0.2813189030 -0.0936992764 0.5963523388 4281348670
-0.2817806005 -0.0931893811 0.5973311067 4281151291
-0.2818196416 -0.0925385207 0.5974138379 4281020219
-0.2822810113 -0.0920251608 0.5983918309 4281086012
-0.2823195755 -0.0913727880 0.5984736085 4281151805
-0.2823578715 -0.0907201469 0.5985548496 4281151805
-0.2823959291 -0.0900672451 0.5986354947 4281282877
-0.2832793295 -0.0896817818 0.6005080938 4281348670
-0.2833169401 -0.0890263990 0.6005879045 4281086012
-0.2837772071 -0.0885026529 0.6015636325 4281020219
-0.2825454473 -0.0874530151 0.5989524722 4280822840
-0.2838512659 -0.0871886313 0.6017205119 4280691254
-0.2838878632 -0.0865312368 0.6017981768 4280493875
-0.2843473554 -0.0860015675 0.6027721763 4280493875
-0.2835371196 -0.0850886926 0.6010546088 4280559668
-0.2844193578 -0.0846835598 0.6029248238 4280559668
-0.2844549417 -0.0840241835 0.6030002832 4280230703
-0.2849136293 -0.0834886134 0.6039726138 4280493875
-0.2845253348 -0.0827046856 0.6031494737 4280362288
-0.2849835753 -0.0821666643 0.6041208506 4280559667
-0.2850181162 -0.0815053284 0.6041941047 4280296495
-0.2850524187 -0.0808437541 0.6042668223 4280954425
-0.2846628428 -0.0800627917 0.6034410000 4281020218
-0.2846965492 -0.0794017315 0.6035124063 4281151804
-0.2855773866 -0.0789747760 0.6053796411 4281284160
-0.2856106460 -0.0783112720 0.6054501534 4282073676
-0.2856436372 -0.0776475370 0.6055200696 4282665813
-0.2844047844 -0.0766409189 0.6028939486 4283323743
-0.2865565717 -0.0765458569 0.6074553728 4284310636
-0.2865888476 -0.0758794695 0.6075237989 4285560703
-0.2866208255 -0.0752128661 0.6075915694 4287205528
-0.2692191303 -0.2093713582 0.5720495582 4285823105
-0.2692998052 -0.2087983191 0.5722209811 4284836210
-0.2689758539 -0.2079121321 0.5715326071 4284310636
-0.2690560520 -0.2073389292 0.5717030764 4284113257
-0.2691361010 -0.2067652196 0.5718731284 4284441706
-0.2692159712 -0.2061910033 0.5720428824 4284112741
-0.2688907087 -0.2053070664 0.5713517070 4283915362
-0.2689701021 -0.2047326863 0.5715204477 4283717983
-0.2690493166 -0.2041577995 0.5716887712 4283454811
-0.2687230706 -0.2032758147 0.5709955096 4283060053
-0.2688018084 -0.2027007788 0.5711628199 4282664782
-0.2684748471 -0.2018203735 0.5704680681 4282270024
-0.2685531080 -0.2012452036 0.5706343651 4282138438
-0.2678196430 -0.2000632733 0.5690758824 4282664782
-0.2678973079 -0.1994888335 0.5692409277 4283256917
-0.2671627700 -0.1983111352 0.5676801205 4283520089
-0.2672398686 -0.1977374405 0.5678439736 4283783261
-0.2673167884 -0.1971632540 0.5680074096 4283783261
-0.2673935294 -0.1965885758 0.5681704283 4283322710
-0.2666570842 -0.1954176128 0.5666056275 4282796366
-0.2671398520 -0.1951407194 0.5676314235 4282138440
-0.2664024830 -0.1939731389 0.5660645962 4281612096
-0.2664781511 -0.1933991164 0.5662254095 4281480510
-0.2661466599 -0.1925302148 0.5655210614 4281480510
-0.2666289210 -0.1922495961 0.5665457845 4281283131
-0.2654824853 -0.1907962114 0.5641098022 4281085752
-0.2651497722 -0.1899311244 0.5634028316 4280888373
-0.2652240694 -0.1893581897 0.5635607243 4280427822
-0.2653721273 -0.1882108748 0.5638752580 4280230443
-0.2617459595 -0.1782237440 0.5561702251 4280953396
-0.2669772804 -0.1181259379 0.5672860146 4280493874
-0.2674930990 -0.1170911342 0.5683820248 4279835944
-0.2675414085 -0.1164806634 0.5684846640 4279835944
-0.2680082619 -0.1160511896 0.5694766641 4279967530
-0.2693127096 -0.1159802228 0.5722483993 4280099116
-0.2685227990 -0.1150060967 0.5705699921 4280625460
-0.2685703337 -0.1143923998 0.5706709623 4280691253
-0.2698748112 -0.1143108755 0.5734427571 4280691253
-0.2707603574 -0.1140467376 0.5753244162 4280757046
-0.2726252973 -0.1122577637 0.5792871714 4281020218
-0.2727180719 -0.1110082567 0.5794842839 4281151291
-0.2727640867 -0.1103830338 0.5795820355 4281151291
-0.2732295394 -0.1099263430 0.5805711150 4281217084
-0.2732751369 -0.1092995256 0.5806679726 4281348924
-0.2733204961 -0.1086723879 0.5807643533 4281414717
-0.2737855017 -0.1082109138 0.5817524195 4281414717
-0.2738304436 -0.1075821966 0.5818479061 4281480510
-0.2747152150 -0.1072812453 0.5837278962 4281480767
-0.2747597694 -0.1066499799 0.5838226080 4281414974
-0.2748040855 -0.1060184091 0.5839167833 4281480767
-0.2752684355 -0.1055476740 0.5849034190 4281480767
-0.2757326365 -0.1050747037 0.5858897567 4281480767
-0.2757763267 -0.1044402868 0.5859826207 4281546560
-0.2758197784 -0.1038055718 0.5860749483 4281546562
-0.2762835026 -0.1033278257 0.5870602727 4281480769
-0.2763265073 -0.1026915461 0.5871517062 4281612355
-0.2767899334 -0.1022103056 0.5881363750 4281678148
-0.2776739299 -0.1018811911 0.5900147557 4281743939
-0.2777163982 -0.1012411192 0.5901049376 4281678146
-0.2777585685 -0.1006007493 0.5901945829 4281612353
-0.2786841393 -0.0996201113 0.5921612978 4281612355
-0.2795677781 -0.0992759541 0.5940388441 4281612355
-0.2796091735 -0.0986305475 0.5941268802 4281611842
-0.2796503603 -0.0979848504 0.5942143202 4281546049
-0.2796912491 -0.0973388702 0.5943012238 4281611842
-0.2797318995 -0.0966926068 0.5943875909 4281677635
-0.2797722816 -0.0960460678 0.5944734216 4281743428
-0.2798123956 -0.0953992456 0.5945586562 4281743428
-0.2802737355 -0.0948948413 0.5955389142 4281611842
-0.2803134024 -0.0942464918 0.5956231952 4281480256
-0.2799312174 -0.0934571177 0.5948111415 4281151291
-0.2803919613 -0.0929489732 0.5957900882 4281151291
-0.2804308236 -0.0922998041 0.5958727002 4281020219
-0.2813129723 -0.0919260085 0.5977471471 4280822840
-0.2813514471 -0.0912743509 0.5978288651 4280757047
-0.2809677720 -0.0904865563 0.5970136523 4280888633
-0.2814275920 -0.0899702311 0.5979906917 4280953912
-0.2818872631 -0.0894516930 0.5989674330 4280756533
-0.2823467851 -0.0889309272 0.5999438167 4280493875
-0.2823840380 -0.0882759988 0.6000229716 4280559668
-0.2815767229 -0.0873588622 0.5983076096 4280493875
-0.2824577689 -0.0869653597 0.6001796722 4280428082
-0.2824942470 -0.0863096640 0.6002571583 4280362289
-0.2829527557 -0.0857817382 0.6012314558 4280362289
-0.2825663686 -0.0849974975 0.6004104018 4280362288
-0.2830244601 -0.0844671130 0.6013838053 4280164909
-0.2830598950 -0.0838094354 0.6014590859 4280296495
-0.2835176289 -0.0832756087 0.6024316549 4280822839
-0.2835525870 -0.0826164484 0.6025059819 4280954425
-0.2840099037 -0.0820791945 0.6034777164 4281151804
-0.2840443850 -0.0814185664 0.6035509706 4281020218
-0.2840785980 -0.0807577074 0.6036236882 4281941320
-0.2836897373 -0.0799774081 0.6027974486 4282533457
-0.2841461897 -0.0794352666 0.6037673354 4283191387
-0.2841795981 -0.0787736923 0.6038382649 4284113772
-0.2846356630 -0.0782281235 0.6048073173 4285495425
-0.2846685648 -0.0775651038 0.6048772335 4286679699
-0.2847011685 -0.0769018531 0.6049465537 4287666594
-0.2679607570 -0.2082515806 0.5707226396 4285296761
-0.2680409253 -0.2076795846 0.5708934069 4284508015
-0.2677171230 -0.2067951560 0.5702037215 4284442222
-0.2677968442 -0.2062230110 0.5703734756 4284638572
-0.2678763568 -0.2056503296 0.5705428720 4284441193
-0.2671474218 -0.2044585198 0.5689902902 4284178021
-0.2680349052 -0.2045034766 0.5708805919 4283849056
-0.2677095234 -0.2036216855 0.5701875091 4283585884
-0.2677882314 -0.2030478567 0.5703551769 4283388505
-0.2678667605 -0.2024735063 0.5705224276 4283059540
-0.2675403953 -0.2015936822 0.5698272586 4282533196
-0.2672135830 -0.2007150948 0.5691312551 4282204231
-0.2672913373 -0.2001409829 0.5692968965 4282270024
-0.2669638395 -0.1992639899 0.5685992837 4282533196
-0.2666359246 -0.1983882487 0.5679008961 4282993747
-0.2663075626 -0.1975137442 0.5672015548 4283454298
-0.2659788132 -0.1966404915 0.5665013790 4283783263
-0.2660552263 -0.1960673779 0.5666640997 4283651677
-0.2657257617 -0.1951957643 0.5659623742 4283256919
-0.2658016980 -0.1946225464 0.5661241412 4282927956
-0.2654715478 -0.1937525719 0.5654209256 4282270026
-0.2655470073 -0.1931792349 0.5655816197 4281875268
-0.2656222880 -0.1926054209 0.5657419562 4281677889
-0.2656973600 -0.1920311153 0.5659018755 4281414717
-0.2645531595 -0.1905780882 0.5634648204 4281283131
-0.2642210424 -0.1897135824 0.5627574921 4281283131
-0.2638885379 -0.1888503432 0.5620492697 4280954166
-0.2639623284 -0.1882785112 0.5622064471 4280954166
-0.2644427717 -0.1879954189 0.5632297397 4280756787
-0.2637024224 -0.1868450493 0.5616528988 4280558638
-0.2637755573 -0.1862726659 0.5618086457 4280229673
-0.2648085058 -0.1224567369 0.5640087128 4282533458
-0.2644416690 -0.1216613203 0.5632274151 4281480770
-0.2653259933 -0.1214402989 0.5651109219 4280691254
-0.2666775882 -0.1207967624 0.5679896474 4280296495
-0.2677101493 -0.1187304109 0.5701888800 4280428081
-0.2686918676 -0.1172582656 0.5722798109 4280822839
-0.2683222592 -0.1164619997 0.5714925528 4281020218
-0.2692063153 -0.1162086576 0.5733755231 4281020218
-0.2697201371 -0.1151538938 0.5744698644 4280954426
-0.2697676718 -0.1145358011 0.5745711327 4281020218
-0.2706515789 -0.1142706126 0.5764537454 4281086011
-0.2711171806 -0.1138256043 0.5774453878 4281151804
-0.2711642087 -0.1132036522 0.5775455832 4281151804
-0.2716295421 -0.1127551198 0.5785366893 4281151804
-0.2716761529 -0.1121315658 0.5786359906 4281349183
-0.2725598812 -0.1118513197 0.5805181861 4281480256
-0.2726522088 -0.1105987728 0.5807148218 4281546049
-0.2731168866 -0.1101409495 0.5817044973 4281546049
-0.2731624842 -0.1095129177 0.5818016529 4281677635
-0.2732078433 -0.1088845730 0.5818982720 4281677635
-0.2740911841 -0.1085879952 0.5837796330 4281677635
-0.2741361856 -0.1079570949 0.5838755369 4281677635
-0.2741809487 -0.1073258892 0.5839708447 4281678148
-0.2742254734 -0.1066943780 0.5840656757 4281678148
-0.2746891081 -0.1062247306 0.5850531459 4281678146
-0.2747331858 -0.1055916399 0.5851470828 4281612353
-0.2751965225 -0.1051184833 0.5861338973 4281612355
-0.2752401829 -0.1044838205 0.5862268806 4281678148
-0.2757032216 -0.1040071622 0.5872130990 4281743941
-0.2757464349 -0.1033709273 0.5873051882 4281743941
-0.2757894099 -0.1027343944 0.5873966813 4281480769
-0.2762519717 -0.1022529602 0.5883818269 4281612355
-0.2767143846 -0.1017692983 0.5893667340 4281678148
-0.2771766782 -0.1012834013 0.5903514028 4281743941
-0.2776388526 -0.1007952616 0.5913357735 4281743941
-0.2772607207 -0.1000018641 0.5905303955 4281743941
-0.2781426609 -0.0996617526 0.5924087763 4281743942
-0.2786043882 -0.0991678908 0.5933921933 4281743942
-0.2786456943 -0.0985231996 0.5934802294 4281809475
-0.2791070938 -0.0980258435 0.5944629312 4281743682
-0.2791479528 -0.0973796099 0.5945499539 4281612355
-0.2791885436 -0.0967330858 0.5946364403 4281546562
-0.2788083553 -0.0959415808 0.5938266516 4281546562
-0.2792689800 -0.0954392031 0.5948076844 4281480769
-0.2793087959 -0.0947918445 0.5948925018 4281480256
-0.2793483436 -0.0941442102 0.5949767828 4281414463
-0.2785461247 -0.0932146832 0.5932681561 4280757046
-0.2790058851 -0.0927082896 0.5942473412 4280691253
-0.2803072333 -0.0924773738 0.5970190763 4280625460
-0.2803458869 -0.0918266997 0.5971013904 4280428081
-0.2799632549 -0.0910388529 0.5962864161 4280230703
-0.2800013125 -0.0903886184 0.5963674784 4280296496
-0.2808813155 -0.0900080130 0.5982418060 4280296495
-0.2809189558 -0.0893552974 0.5983219743 4280164909
-0.2809563279 -0.0887023211 0.5984015465 4280033324
-0.2805721760 -0.0879170746 0.5975833535 4280164910
-0.2814516425 -0.0875266120 0.5994564891 4280230702
-0.2819096446 -0.0870019272 0.6004320383 4280362288
-0.2811031938 -0.0860878229 0.5987143517 4280559667
-0.2815607488 -0.0855616555 0.5996888876 4281020218
-0.2820181251 -0.0850332677 0.6006630659 4281480769
-0.2820537686 -0.0843765438 0.6007389426 4281480769
-0.2820891142 -0.0837195739 0.6008142233 4281809734
-0.2821242213 -0.0830623582 0.6008889675 4282796629
-0.2830025554 -0.0826512501 0.6027597785 4283521120
-0.2830372155 -0.0819915831 0.6028335690 4284508015
-0.2830716074 -0.0813316703 0.6029068232 4285165945
-0.2826837897 -0.0805512890 0.6020808816 4286481805
-0.2831395566 -0.0800111294 0.6030516028 4287468700
-0.2831731439 -0.0793505087 0.6031230688 4288324009
-0.2667041123 -0.2071337998 0.5693930984 4285165945
-0.2663807869 -0.2062508166 0.5687028170 4284639601
-0.2664601505 -0.2056802213 0.5688722730 4284835951
-0.2665393651 -0.2051091045 0.5690413117 4284638572
-0.2658116519 -0.2039186060 0.5674877763 4284375400
-0.2666972280 -0.2039653510 0.5693783760 4284112228
-0.2663722932 -0.2030850053 0.5686846972 4283783263
-0.2664506733 -0.2025127262 0.5688520074 4283585884
-0.2665288746 -0.2019399405 0.5690189600 4283322712
-0.2657990158 -0.2007564604 0.5674607754 4282862161
-0.2658766210 -0.2001844049 0.5676264763 4282796368
-0.2659540772 -0.1996118575 0.5677918196 4282335817
-0.2648184299 -0.1981313378 0.5653672814 4282072645
-0.2648951709 -0.1975603998 0.5655311346 4282270024
-0.2649717331 -0.1969889700 0.5656945705 4282796368
-0.2646434605 -0.1961171776 0.5649937391 4283322712
-0.2651242912 -0.1958446354 0.5660203099 4283454298
-0.2643905580 -0.1946754605 0.5644537807 4283454298
-0.2648711801 -0.1944010556 0.5654798746 4283454557
-0.2649467289 -0.1938280463 0.5656411648 4282862420
-0.2646168470 -0.1929590404 0.5649369359 4282467405
-0.2642865777 -0.1920913011 0.5642318130 4282072647
-0.2639558911 -0.1912248284 0.5635257959 4281546303
-0.2644359469 -0.1909453571 0.5645506978 4281348924
-0.2641046643 -0.1900796741 0.5638434291 4281348924
-0.2637729645 -0.1892152727 0.5631353259 4281217338
-0.2638467848 -0.1886423677 0.5632929206 4281151545
-0.2639204264 -0.1880689710 0.5634501576 4281085752
-0.2635877430 -0.1872066557 0.5627398491 4280953396
-0.2636609077 -0.1866331995 0.5628960729 4280492845
-0.2634001970 -0.1851990521 0.5623394251 4280295466
-0.2629918456 -0.1225288734 0.5614677072 4280098863
-0.2634582818 -0.1221212372 0.5624634624 4280230449
-0.2643409073 -0.1219033375 0.5643478036 4280362035
-0.2652236223 -0.1216812879 0.5662323833 4280493875
-0.2648571134 -0.1208848804 0.5654498935 4280625461
-0.2657397687 -0.1206573844 0.5673342943 4280757047
-0.2653726935 -0.1198612452 0.5665506124 4280888633
-0.2670886219 -0.1200027317 0.5702139735 4281086012
-0.2658876777 -0.1188324466 0.5676500797 4281151805
-0.2667701840 -0.1185940653 0.5695341229 4281151805
-0.2668189406 -0.1179828346 0.5696382523 4281020219
-0.2681184113 -0.1179214492 0.5724124908 4281020218
-0.2673328221 -0.1169418022 0.5707352757 4281086011
-0.2694666088 -0.1172360182 0.5752907991 4281151804
-0.2690976560 -0.1164371893 0.5745031238 4281151804
-0.2696106732 -0.1153801158 0.5755984187 4281349183
-0.2700756788 -0.1149384677 0.5765910745 4281349183
-0.2705405653 -0.1144945771 0.5775836110 4281283390
-0.2714229226 -0.1142241731 0.5794673562 4281349183
-0.2710523903 -0.1134252921 0.5786763430 4281414976
-0.2715169191 -0.1129756272 0.5796680450 4281546562
-0.2715635598 -0.1123508662 0.5797676444 4281678148
-0.2716099620 -0.1117257923 0.5798667073 4281611842
-0.2720740438 -0.1112713143 0.5808574557 4281677635
-0.2721200287 -0.1106446385 0.5809556246 4281677635
-0.2725838423 -0.1101866364 0.5819458365 4281743428
-0.2726293802 -0.1095583662 0.5820431113 4281743428
-0.2726747096 -0.1089297757 0.5821398497 4281743428
-0.2735563517 -0.1086330861 0.5840220451 4281677635
-0.2731829584 -0.1078368053 0.5832248926 4281611842
-0.2740644217 -0.1075346619 0.5851067901 4281480769
-0.2741089761 -0.1069019362 0.5852018595 4281546562
-0.2745718062 -0.1064311489 0.5861899853 4281612355
-0.2741972804 -0.1056355610 0.5853904486 4281612355
-0.2742410898 -0.1050019190 0.5854839087 4281612355
-0.2751655579 -0.1040504649 0.5874575973 4281743941
-0.2752087116 -0.1034139767 0.5875497460 4281612355
-0.2756705880 -0.1029336229 0.5885357857 4281743941
-0.2757133245 -0.1022955701 0.5886270404 4281678148
-0.2761748731 -0.1018117219 0.5896124244 4281612355
-0.2766363025 -0.1013256311 0.5905975699 4281546562
-0.2770976126 -0.1008373052 0.5915824175 4281480769
-0.2775588036 -0.1003467515 0.5925670266 4281480769
-0.2776004970 -0.0997033492 0.5926560760 4281414976
-0.2776419520 -0.0990596563 0.5927445889 4281349183
-0.2776831686 -0.0984156802 0.5928325057 4281283388
-0.2781436443 -0.0979191065 0.5938156247 4281349181
-0.2781843841 -0.0972735807 0.5939025879 4281349181
-0.2782248855 -0.0966277793 0.5939890742 4281283388
-0.2782651186 -0.0959816873 0.5940749645 4281020218
-0.2778853178 -0.0951915309 0.5932641029 4280691253
-0.2783448100 -0.0946886837 0.5942450762 4280493874
-0.2783842683 -0.0940417647 0.5943292975 4280493874
-0.2788434029 -0.0935354382 0.5953095555 4280559667
-0.2784624100 -0.0927470997 0.5944961309 4280428081
-0.2789211571 -0.0922382772 0.5954754949 4280625461
-0.2793797553 -0.0917272344 0.5964545608 4280954426
-0.2798382044 -0.0912139639 0.5974333286 4281086012
-0.2790357769 -0.0902905315 0.5957202911 4280954426
-0.2799140513 -0.0899107456 0.5975953341 4281086012
-0.2799516022 -0.0892587453 0.5976755023 4281349184
-0.2799888849 -0.0886064842 0.5977550745 4281480769
-0.2796054482 -0.0878219008 0.5969364643 4281875527
-0.2800626457 -0.0873011798 0.5979125500 4282270285
-0.2800991535 -0.0866481438 0.5979904532 4282730836
-0.2805559933 -0.0861239731 0.5989657640 4283454559
-0.2801713049 -0.0853413120 0.5981445312 4284573040
-0.2810484767 -0.0849418342 0.6000171900 4285626498
-0.2810840011 -0.0842858255 0.6000930667 4286218635
-0.2802776098 -0.0833791867 0.5983714461 4287139737
-0.2815751731 -0.0830972791 0.6011416316 4287995046
-0.2654492259 -0.2060180455 0.5680609941 4285297531
-0.2651260495 -0.2051368505 0.5673694015 4285033330
-0.2652049363 -0.2045672983 0.5675381422 4284572779
-0.2652836144 -0.2039972246 0.5677065849 4284310120
-0.2645567656 -0.2028092742 0.5661511421 4284244327
-0.2654404640 -0.2028555721 0.5680422187 4283915362
-0.2655186355 -0.2022839934 0.5682095289 4283652190
-0.2651935816 -0.2014058083 0.5675139427 4283389018
-0.2648681402 -0.2005288750 0.5668174624 4283125846
-0.2649455667 -0.1999575198 0.5669831038 4282994260
-0.2650227845 -0.1993856579 0.5671483874 4282533709
-0.2646963298 -0.1985106915 0.5664497614 4282073158
-0.2647731006 -0.1979387105 0.5666140318 4282073158
-0.2644459307 -0.1970653683 0.5659139156 4282402123
-0.2645222247 -0.1964932680 0.5660771728 4282731088
-0.2645983398 -0.1959206611 0.5662400723 4283125846
-0.2642701864 -0.1950493306 0.5655378103 4283454811
-0.2635374367 -0.1938818991 0.5639697313 4283586397
-0.2640169561 -0.1936069429 0.5649959445 4283323225
-0.2636877000 -0.1927385181 0.5642912984 4283060053
-0.2637625635 -0.1921660900 0.5644515157 4282533709
-0.2634325922 -0.1912993193 0.5637453794 4282006852
-0.2635069788 -0.1907268018 0.5639045835 4281546301
-0.2631762922 -0.1898617148 0.5631968975 4281348924
-0.2628452182 -0.1889978945 0.5624883771 4281151545
-0.2629188299 -0.1884256899 0.5626459122 4281217338
-0.2621818185 -0.1872740984 0.5610687137 4281151545
-0.2622548342 -0.1867026985 0.5612249970 4281019959
-0.2623277009 -0.1861308366 0.5613808632 4280690994
-0.2624003589 -0.1855584830 0.5615363717 4280492845
-0.2624728382 -0.1849856526 0.5616914630 4280427052
-0.2625451088 -0.1844123453 0.5618461967 4280492845
-0.2621702254 -0.1261765510 0.5610439181 4279835945
-0.2632052302 -0.1241713837 0.5632588267 4280691254
-0.2646030188 -0.1229433864 0.5662500858 4281217085
-0.2642378807 -0.1221454516 0.5654686689 4281282878
-0.2655345201 -0.1221134812 0.5682435036 4281282878
-0.2660500407 -0.1210853830 0.5693467259 4281151292
-0.2660996914 -0.1204752773 0.5694529414 4281348671
-0.2669807971 -0.1202393994 0.5713385344 4281282877
-0.2666141987 -0.1194403619 0.5705540180 4281414463
-0.2670792341 -0.1190136597 0.5715491772 4281414463
-0.2675441504 -0.1185847074 0.5725441575 4281348670
-0.2684251964 -0.1183369681 0.5744295120 4281414463
-0.2680575550 -0.1175375432 0.5736427903 4281611842
-0.2681058645 -0.1169212461 0.5737461448 4281611842
-0.2694031000 -0.1168464124 0.5765222311 4281611842
-0.2699631453 -0.1151636541 0.5777207017 4281546562
-0.2704272270 -0.1147186309 0.5787138939 4281480769
-0.2708912194 -0.1142713726 0.5797068477 4281414976
-0.2709382772 -0.1136470214 0.5798075795 4281546562
-0.2709851265 -0.1130223423 0.5799077749 4281612355
-0.2714486718 -0.1125702634 0.5808997750 4281612355
-0.2710780501 -0.1117720231 0.5801066160 4281677635
-0.2715412676 -0.1113173738 0.5810979009 4281677635
-0.2720043659 -0.1108604819 0.5820889473 4281743428
-0.2720501125 -0.1102322787 0.5821868777 4281743428
-0.2720956206 -0.1096037626 0.5822842717 4281677635
-0.2725583017 -0.1091420650 0.5832743645 4281677635
-0.2726033926 -0.1085119545 0.5833708644 4281677635
-0.2730657458 -0.1080467403 0.5843603015 4281611842
-0.2731104195 -0.1074150354 0.5844559073 4281612355
-0.2731548250 -0.1067830324 0.5845509768 4281678148
-0.2731989920 -0.1061507091 0.5846454501 4281678148
-0.2736607194 -0.1056794301 0.5856335759 4281678148
-0.2737044692 -0.1050455347 0.5857271552 4281612355
-0.2741658688 -0.1045707464 0.5867146254 4281546562
-0.2742092013 -0.1039352790 0.5868072510 4281414976
-0.2746703029 -0.1034569815 0.5877940655 4281349183
-0.2751313150 -0.1029764414 0.5887806416 4281480769
-0.2751739919 -0.1023381352 0.5888719559 4281283390
-0.2756346762 -0.1018540934 0.5898578167 4281151804
-0.2760952413 -0.1013678163 0.5908434391 4281020218
-0.2757188976 -0.1005740687 0.5900380611 4280954425
-0.2765975595 -0.1002369076 0.5919183493 4280954425
-0.2770576775 -0.0997448936 0.5929030180 4280954425
-0.2770990729 -0.0991009474 0.5929916501 4280954425
-0.2771402299 -0.0984567180 0.5930797458 4280428081
-0.2771811485 -0.0978121907 0.5931672454 4280428081
-0.2776405513 -0.0973141640 0.5941503644 4280428081
-0.2772621810 -0.0965223014 0.5933406353 4280428081
-0.2768834233 -0.0957321003 0.5925301313 4280428081
-0.2773421705 -0.0952312797 0.5935118794 4280559667
-0.2773817778 -0.0945853516 0.5935966372 4280888632
-0.2770020664 -0.0937972516 0.5927840471 4281151804
-0.2770411074 -0.0931517482 0.5928676128 4281415491
-0.2779182494 -0.0927858725 0.5947446823 4281218112
-0.2779569030 -0.0921378806 0.5948273540 4281218112
-0.2775759697 -0.0913516209 0.5940122008 4281547077
-0.2780333757 -0.0908410773 0.5949910283 4282073421
-0.2789100707 -0.0904643536 0.5968671441 4282665558
-0.2789477706 -0.0898133293 0.5969478488 4283652453
-0.2781461477 -0.0888938904 0.5952323675 4284639348
-0.2786028087 -0.0883774012 0.5962096453 4285625728
-0.2790593207 -0.0878586918 0.5971865058 4286546830
-0.2790959775 -0.0872066319 0.5972649455 4287337116
-0.2791323662 -0.0865543112 0.5973428488 4288126632
-0.2641960680 -0.2049043179 0.5667262673 4285428601
-0.2642747164 -0.2043354511 0.5668949485 4284704878
-0.2639514506 -0.2034564018 0.5662015080 4284310120
-0.2640296221 -0.2028873861 0.5663691759 4284375913
-0.2641076446 -0.2023178637 0.5665365458 4284178534
-0.2637833655 -0.2014407665 0.5658408999 4283783776
-0.2642631233 -0.2011773139 0.5668700933 4283586397
-0.2639382780 -0.2003009468 0.5661731958 4283389018
-0.2636129856 -0.1994258165 0.5654754639 4283125846
-0.2632873058 -0.1985519379 0.5647768974 4282862674
-0.2633639276 -0.1979820132 0.5649412274 4282533709
-0.2634403706 -0.1974115968 0.5651051402 4282270537
-0.2635166049 -0.1968406886 0.5652687550 4282073158
-0.2631896436 -0.1959691793 0.5645673275 4282007365
-0.2624590993 -0.1947996914 0.5630002618 4282467916
-0.2629377544 -0.1945282668 0.5640270114 4282994260
-0.2626096606 -0.1936596632 0.5633232594 4283520604
-0.2626847029 -0.1930889040 0.5634841919 4283454811
-0.2627595365 -0.1925176680 0.5636447072 4283257432
-0.2624304593 -0.1916510910 0.5629388094 4282928467
-0.2625048161 -0.1910797656 0.5630983114 4282467916
-0.2621750534 -0.1902148575 0.5623909235 4282073158
-0.2614407837 -0.1890590191 0.5608158708 4281743680
-0.2615142465 -0.1884888709 0.5609734654 4281480508
-0.2619918585 -0.1882086992 0.5619980097 4281348924
-0.2616606653 -0.1873471439 0.5612875819 4281217338
-0.2621381581 -0.1870642453 0.5623117685 4281085752
-0.2618063688 -0.1862035096 0.5616000891 4280888373
-0.2618789375 -0.1856309772 0.5617557764 4280756787
-0.2623562217 -0.1853439957 0.5627795458 4280625201
-0.2624285221 -0.1847696155 0.5629346967 4280624431
-0.2620955706 -0.1839105189 0.5622204542 4280427052
-0.2617622018 -0.1830527335 0.5615053177 4280229675
-0.2622390687 -0.1827611923 0.5625282526 4280032296
-0.2627395689 -0.1286304444 0.5636019111 4280230189
-0.2615504265 -0.1274248958 0.5610510707 4280624947
-0.2620162368 -0.1270273626 0.5620502830 4280888119
-0.2612399757 -0.1260283887 0.5603851676 4280888119
-0.2617054582 -0.1256292164 0.5613836050 4280888119
-0.2622219324 -0.1246272102 0.5624915361 4280625461
-0.2626871169 -0.1242222264 0.5634893775 4280757047
-0.2627378404 -0.1236200035 0.5635982156 4281085498
-0.2644462883 -0.1237935796 0.5672630072 4281217084
-0.2628385723 -0.1224145293 0.5638142824 4281282877
-0.2654267848 -0.1223547533 0.5693662763 4281348924
-0.2659415305 -0.1213243678 0.5704703927 4281282877
-0.2664061487 -0.1209013909 0.5714671016 4281480256
-0.2660406232 -0.1201014295 0.5706829429 4281283131
-0.2669200301 -0.1198622733 0.5725694299 4281480510
-0.2669691443 -0.1192480400 0.5726747513 4281546303
-0.2674332857 -0.1188179702 0.5736703873 4281480510
-0.2678973675 -0.1183856577 0.5746658444 4281612096
-0.2679459155 -0.1177685037 0.5747700334 4281612096
-0.2679942250 -0.1171510145 0.5748736858 4281480510
-0.2684578896 -0.1167138666 0.5758682489 4281414717
-0.2693370879 -0.1164541841 0.5777542591 4281480769
-0.2689692080 -0.1156540662 0.5769650936 4281480769
-0.2702640891 -0.1155667230 0.5797427297 4281546562
-0.2703115940 -0.1149427816 0.5798446536 4281546562
-0.2699429095 -0.1141426414 0.5790537596 4281480769
-0.2704058588 -0.1136939228 0.5800468326 4281546562
-0.2708687186 -0.1132429615 0.5810397267 4281612355
-0.2709153295 -0.1126167551 0.5811396837 4281480769
-0.2709617019 -0.1119902283 0.5812391639 4281743428
-0.2710078061 -0.1113633811 0.5813381076 4281743428
-0.2714700401 -0.1109063178 0.5823296309 4281809221
-0.2715157568 -0.1102778688 0.5824276805 4281809221
-0.2719777226 -0.1098172814 0.5834186077 4281743428
-0.2720229924 -0.1091872305 0.5835157633 4281677635
-0.2720680237 -0.1085568741 0.5836123824 4281611842
-0.2721128166 -0.1079262048 0.5837084651 4281611842
-0.2725741565 -0.1074595377 0.5846980214 4281612355
-0.2726185024 -0.1068272814 0.5847932100 4281546562
-0.2730795443 -0.1063570902 0.5857821703 4281349183
-0.2727065086 -0.1055618450 0.5849819183 4281151804
-0.2731671631 -0.1050891131 0.5859701037 4281020218
-0.2736277282 -0.1046141386 0.5869580507 4280888632
-0.2736709714 -0.1039784178 0.5870508552 4280822839
-0.2741312385 -0.1034999341 0.5880381465 4280888632
-0.2737567425 -0.1027060822 0.5872347951 4280625460
-0.2742166221 -0.1022250578 0.5882213116 4280625460
-0.2746763825 -0.1017417982 0.5892075300 4280691253
-0.2747185230 -0.1011026576 0.5892978907 4280625460
-0.2747603953 -0.1004632115 0.5893877149 4280559668
-0.2756372690 -0.1001268998 0.5912687182 4280428082
-0.2760964632 -0.0996356606 0.5922537446 4280493874
-0.2761377692 -0.0989924371 0.5923423171 4280559667
-0.2761788070 -0.0983489156 0.5924303532 4280757816
-0.2762196064 -0.0977051109 0.5925178528 4280823609
-0.2762601376 -0.0970610231 0.5926048160 4281151804
-0.2758824229 -0.0962707922 0.5917946100 4281414976
-0.2763404548 -0.0957720056 0.5927770734 4281678148
-0.2763802111 -0.0951270759 0.5928623676 4282138699
-0.2760015428 -0.0943389237 0.5920500755 4282533972
-0.2752042413 -0.0934104994 0.5903398395 4282862937
-0.2769162655 -0.0933316052 0.5940122604 4283257695
-0.2769550681 -0.0926845968 0.5940955281 4284178797
-0.2769936025 -0.0920373201 0.5941781402 4285231485
-0.2761949003 -0.0911136717 0.5924649239 4286152587
-0.2774884105 -0.0908790305 0.5952395797 4287205275
-0.2779448032 -0.0903660581 0.5962186456 4288192170
-0.2633455396 -0.2041032761 0.5662508011 4285559933
-0.2634237707 -0.2035345882 0.5664190650 4284836210
-0.2626997232 -0.2023475468 0.5648621917 4284704624
-0.2627774179 -0.2017795891 0.5650292039 4284375659
-0.2628549039 -0.2012111247 0.5651958585 4284046694
-0.2629322410 -0.2006421685 0.5653621554 4283783776
-0.2626078427 -0.1997672468 0.5646646619 4283586397
-0.2622830570 -0.1988935620 0.5639662743 4283520604
-0.2623596191 -0.1983248442 0.5641309023 4283257432
-0.2616322339 -0.1971499324 0.5625668764 4282927954
-0.2629142404 -0.1974878758 0.5653234720 4282533196
-0.2617840469 -0.1960134953 0.5628932714 4282138438
-0.2622618973 -0.1957447529 0.5639207959 4281809473
-0.2623374760 -0.1951744258 0.5640833378 4282006852
-0.2624128759 -0.1946036071 0.5642454624 4282335817
-0.2624880970 -0.1940322816 0.5644071698 4283125846
-0.2613550425 -0.1925703287 0.5619708300 4283191639
-0.2618323863 -0.1922965050 0.5629972219 4283257432
-0.2615039051 -0.1914305240 0.5622909069 4283125846
-0.2611750066 -0.1905658096 0.5615837574 4282928467
-0.2608457208 -0.1897023618 0.5608756542 4282731088
-0.2613225579 -0.1894248426 0.5619010329 4282467403
-0.2605893016 -0.1882707626 0.5603243113 4282072645
-0.2606624067 -0.1877008379 0.5604814887 4281743682
-0.2607353032 -0.1871304363 0.5606383085 4281480510
-0.2604043186 -0.1862707585 0.5599265695 4281217338
-0.2604767680 -0.1857002974 0.5600823760 4281151545
-0.2605490386 -0.1851293445 0.5602377653 4281085752
-0.2618333101 -0.1854163259 0.5629991889 4280954166
-0.2619055212 -0.1848417819 0.5631545186 4280756787
-0.2611690164 -0.1836980283 0.5615708232 4280559408
-0.2612406313 -0.1831242889 0.5617248416 4280558640
-0.2613120973 -0.1825501025 0.5618785024 4280295468
-0.2575938404 -0.1368742734 0.5538834333 4286349452
-0.2589942515 -0.1357621402 0.5568946004 4282994009
-0.2599458992 -0.1300507486 0.5589408875 4280954166
-0.2605164647 -0.1284690499 0.5601677299 4281019705
-0.2605686784 -0.1278722733 0.5602799654 4281019706
-0.2614467144 -0.1276785582 0.5621679425 4281085499
-0.2627379596 -0.1276814491 0.5649444461 4281020218
-0.2623767257 -0.1268790662 0.5641676784 4280954425
-0.2620150745 -0.1260782331 0.5633900762 4280888632
-0.2641331851 -0.1264664084 0.5679444671 4281020218
-0.2625309527 -0.1250720620 0.5644993186 4281086012
-0.2629954219 -0.1246650293 0.5654980540 4281086012
-0.2638734281 -0.1244508177 0.5673859119 4281217084
-0.2647515237 -0.1242324486 0.5692740083 4281282877
-0.2639746964 -0.1232372746 0.5676036477 4281283131
-0.2640249729 -0.1226299852 0.5677118301 4281283131
-0.2644889653 -0.1222136021 0.5687094331 4281348924
-0.2653668523 -0.1219852790 0.5705971122 4281348924
-0.2662945688 -0.1211393550 0.5725919008 4281546049
-0.2663440704 -0.1205255762 0.5726983547 4281611842
-0.2668076754 -0.1200979427 0.5736951828 4281677635
-0.2672711611 -0.1196680516 0.5746918321 4281677889
-0.2669056952 -0.1188667640 0.5739059448 4281677889
-0.2677834034 -0.1186179072 0.5757932067 4281677889
-0.2678319812 -0.1179995611 0.5758976936 4281677889
-0.2678803205 -0.1173808798 0.5760016441 4281677635
-0.2683431804 -0.1169426069 0.5769968629 4281611842
-0.2692207694 -0.1166818738 0.5788838863 4281546563
-0.2688537240 -0.1158804893 0.5780946016 4281546563
-0.2693162262 -0.1154364273 0.5790891051 4281612356
-0.2697786391 -0.1149901152 0.5800834298 4281678149
-0.2694107294 -0.1141896620 0.5792922974 4281678148
-0.2698727846 -0.1137407720 0.5802859068 4281743941
-0.2699195147 -0.1131156161 0.5803863406 4281809734
-0.2699660063 -0.1124901325 0.5804862976 4281743941
-0.2704276443 -0.1120364219 0.5814788938 4281611842
-0.2704737186 -0.1114093363 0.5815779567 4281546049
-0.2709350586 -0.1109521016 0.5825700164 4281611842
-0.2709807158 -0.1103234068 0.5826681852 4281611842
-0.2710261345 -0.1096943989 0.5827658176 4281414463
-0.2714870274 -0.1092323512 0.5837568641 4281282877
-0.2719478607 -0.1087680608 0.5847477317 4281217084
-0.2715767622 -0.1079708338 0.5839498043 4281085498
-0.2720372081 -0.1075039804 0.5849398375 4280888632
-0.2724975646 -0.1070348918 0.5859296918 4280757046
-0.2721256018 -0.1062386706 0.5851299167 4280625461
-0.2717532516 -0.1054440737 0.5843293071 4280493875
-0.2726292014 -0.1051326320 0.5862128139 4280493875
-0.2726725936 -0.1044979393 0.5863060951 4280362289
-0.2731321156 -0.1040215045 0.5872941017 4280428081
-0.2727586329 -0.1032276377 0.5864910483 4280559667
-0.2736342549 -0.1029053032 0.5883738399 4280296495
-0.2736767828 -0.1022674665 0.5884652734 4280493874
-0.2741356790 -0.1017840207 0.5894519687 4280822840
-0.2733443677 -0.1008371860 0.5877505541 4280954426
-0.2746363282 -0.1006576642 0.5905284882 4280954426
-0.2750947773 -0.1001684815 0.5915142894 4281086012
-0.2751362324 -0.0995262563 0.5916033983 4281414977
-0.2751774192 -0.0988837481 0.5916919708 4281678149
-0.2748013437 -0.0980921015 0.5908833742 4282139469
-0.2752590477 -0.0975978673 0.5918675065 4282600020
-0.2752994597 -0.0969544947 0.5919544101 4283323743
-0.2753396332 -0.0963108465 0.5920407772 4284179052
-0.2749623060 -0.0955219641 0.5912294388 4285231740
-0.2754192054 -0.0950227007 0.5922119021 4286284428
-0.2754586339 -0.0943782106 0.5922966599 4287205275
-0.2750803530 -0.0935914218 0.5914832354 4287797412
-0.2620952129 -0.2029928565 0.5649114847 4285429117
-0.2621729672 -0.2024252415 0.5650790930 4284902773
-0.2622505426 -0.2018571049 0.5652462840 4284507245
-0.2615269423 -0.2006738484 0.5636866689 4284178280
-0.2616039515 -0.2001064569 0.5638526082 4283980901
-0.2616807818 -0.1995385438 0.5640181899 4283651936
-0.2617574334 -0.1989701539 0.5641834140 4283783776
-0.2618339062 -0.1984012574 0.5643482804 4283323225
-0.2611080408 -0.1972259432 0.5627837181 4283059540
-0.2615851164 -0.1969598681 0.5638120770 4282796368
-0.2616609633 -0.1963903606 0.5639755130 4282467403
-0.2613351941 -0.1955199987 0.5632733107 4282204231
-0.2618120909 -0.1952498406 0.5643012524 4282072645
-0.2614857256 -0.1943802536 0.5635978580 4282006852
-0.2607571781 -0.1932142079 0.5620275140 4282467916
-0.2608318031 -0.1926448643 0.5621883273 4282796881
-0.2605042160 -0.1917790622 0.5614822507 4283257432
-0.2605783343 -0.1912096292 0.5616420507 4283389018
-0.2602500618 -0.1903454959 0.5609344840 4283191639
-0.2595190108 -0.1891893148 0.5593588352 4283125846
-0.2595922649 -0.1886210591 0.5595167279 4282927954
-0.2592627704 -0.1877607703 0.5588065386 4282533196
-0.2597382367 -0.1874831021 0.5598313212 4282006854
-0.2594081461 -0.1866236180 0.5591198802 4281743682
-0.2590776682 -0.1857654154 0.5584075451 4281414717
-0.2591497898 -0.1851965338 0.5585629940 4281283131
-0.2592217326 -0.1846271753 0.5587180853 4281283131
-0.2609065175 -0.1852023304 0.5623494387 4281151545
-0.2593650818 -0.1834870428 0.5590270758 4280954166
-0.2590330243 -0.1826317906 0.5583113432 4280888373
-0.2591041327 -0.1820614338 0.5584645867 4280624433
-0.2583676577 -0.1809252203 0.5568771958 4280558640
-0.2584381700 -0.1803556979 0.5570291877 4280427054
-0.2562611699 -0.1364921033 0.5523369908 4280428082
-0.2567269504 -0.1361254007 0.5533409119 4279901738
-0.2584252357 -0.1364070326 0.5570013523 4280099117
-0.2576583922 -0.1353852302 0.5553485155 4280493874
-0.2581240833 -0.1350117624 0.5563521981 4280493874
-0.2598230243 -0.1352781802 0.5600141287 4280625460
-0.2591095269 -0.1336656809 0.5584762692 4281283390
-0.2600403130 -0.1329003721 0.5604823828 4281348670
-0.2584479153 -0.1314676106 0.5570502281 4281217084
-0.2585011423 -0.1308756322 0.5571649075 4281217084
-0.2593775392 -0.1306981891 0.5590538979 4281282877
-0.2586069107 -0.1296905726 0.5573928952 4281151291
-0.2594832182 -0.1295086443 0.5592816472 4281217084
-0.2625249624 -0.1291407198 0.5658377409 4281086012
-0.2621651590 -0.1283359081 0.5650622249 4281151805
-0.2634541392 -0.1283359826 0.5678404570 4281217598
-0.2639186382 -0.1279302239 0.5688416362 4281151805
-0.2627332509 -0.1267264485 0.5662866831 4281086012
-0.2636098564 -0.1265179813 0.5681760907 4281217598
-0.2644865215 -0.1263053566 0.5700656176 4281283391
-0.2637125254 -0.1253041923 0.5683973432 4281151805
-0.2641762793 -0.1248919144 0.5693969727 4281217085
-0.2650528550 -0.1246715710 0.5712862611 4281348671
-0.2642777562 -0.1236741096 0.5696156621 4281480256
-0.2643281221 -0.1230646893 0.5697242618 4281546049
-0.2643782794 -0.1224549115 0.5698323846 4281414463
-0.2648413777 -0.1220351756 0.5708305240 4281348670
-0.2648911476 -0.1214237586 0.5709377527 4281348671
-0.2653540373 -0.1210004762 0.5719354153 4281348671
-0.2658168077 -0.1205749363 0.5729328990 4281546050
-0.2658660412 -0.1199605763 0.5730389953 4281480257
-0.2667421401 -0.1197170988 0.5749273300 4281480256
-0.2667910755 -0.1191001460 0.5750327706 4281546049
-0.2668397427 -0.1184828579 0.5751376748 4281546049
-0.2673019767 -0.1180479750 0.5761339664 4281546049
-0.2677641213 -0.1176108345 0.5771300197 4281546050
-0.2682261467 -0.1171714440 0.5781258941 4281480257
-0.2678601146 -0.1163700745 0.5773369670 4281612356
-0.2687359154 -0.1161070019 0.5792246461 4281546563
-0.2683693171 -0.1153059304 0.5784344673 4281546563
-0.2692449987 -0.1150373966 0.5803219080 4281546563
-0.2688778639 -0.1142366305 0.5795305967 4281546563
-0.2693390548 -0.1137875766 0.5805246234 4281480770
-0.2693857253 -0.1131621748 0.5806252360 4281414977
-0.2694321573 -0.1125364453 0.5807253122 4281283391
-0.2694783509 -0.1119104028 0.5808248520 4281348671
-0.2703535855 -0.1116264462 0.5827113390 4281217085
-0.2703994215 -0.1109978259 0.5828101039 4281085498
-0.2704450190 -0.1103688926 0.5829083920 4281019705
-0.2704903781 -0.1097396389 0.5830061436 4280822326
-0.2705354989 -0.1091100723 0.5831033587 4280624947
-0.2705803514 -0.1084801853 0.5832000971 4280559154
-0.2710400522 -0.1080154032 0.5841908455 4280427568
-0.2706693411 -0.1072194874 0.5833919048 4280362288
-0.2711286843 -0.1067521498 0.5843819380 4280428081
-0.2715879083 -0.1062825695 0.5853716731 4280559668
-0.2716316581 -0.1056492031 0.5854660273 4280757047
-0.2712597847 -0.1048549563 0.5846644640 4280954426
-0.2717184722 -0.1043815538 0.5856531262 4280822840
-0.2717614770 -0.1037472785 0.5857458711 4280757047
-0.2722198665 -0.1032703668 0.5867338181 4280888633
-0.2726781368 -0.1027912125 0.5877215266 4281414977
-0.2731362581 -0.1023098156 0.5887089968 4281743942
-0.2735942900 -0.1018261835 0.5896961689 4282335825
-0.2732204497 -0.1010327563 0.5888904333 4282862169
-0.2736780941 -0.1005465835 0.5898768306 4283454306
-0.2737196088 -0.0999063477 0.5899663568 4284243822
-0.2741769552 -0.0994166806 0.5909520388 4285296764
-0.2738019228 -0.0986250043 0.5901437402 4286086280
-0.2742588520 -0.0981328115 0.5911285877 4287139737
-0.2742994428 -0.0974904448 0.5912160873 4287995046
-0.2604472339 -0.2015753239 0.5627065301 4285362554
-0.2605243623 -0.2010096312 0.5628731847 4284441452
-0.2606013119 -0.2004434317 0.5630394220 4284112487
-0.2602782845 -0.1995701641 0.5623415112 4283980901
-0.2603547573 -0.1990038306 0.5625067949 4283651936
-0.2604310811 -0.1984370053 0.5626716614 4283849315
-0.2601070702 -0.1975657195 0.5619716048 4283651936
-0.2601829171 -0.1969987750 0.5621355176 4283389018
-0.2598582208 -0.1961291134 0.5614339709 4283060053
-0.2607346475 -0.1961646974 0.5633274913 4282664780
-0.2596082091 -0.1946940273 0.5608937740 4282467401
