VERSION 0.7
FIELDS x y z rgba
SIZE 4 4 4 4
TYPE F F F U
COUNT 1 1 1 1
WIDTH 920
HEIGHT 1
VIEWPOINT 0.0 0.0 0.0 1.0 0.0 0.0 0.0
POINTS 920
DATA ascii
-0.2774296701 -0.0695352778 0.5936990976 4283915110
-0.2774588466 -0.0688828826 0.5937615037 4283717731
-0.2783298790 -0.0684373453 0.5956255794 4284770419
-0.2787797153 -0.0678851008 0.5965881944 4285494142
-0.2792293727 -0.0673306733 0.5975504518 4286613393
-0.2662473023 -0.1823818237 0.5711262822 4288981688
-0.2663187981 -0.1817960739 0.5712797046 4288192172
-0.2663901150 -0.1812098473 0.5714326501 4287600033
-0.2656488419 -0.1800724864 0.5698425770 4286810517
-0.2665321827 -0.1800360084 0.5717374086 4285955208
-0.2666029036 -0.1794483811 0.5718891025 4284968313
-0.2666734457 -0.1788602769 0.5720404387 4284178797
-0.2667438090 -0.1782717109 0.5721913576 4283915625
-0.2668139637 -0.1776826829 0.5723418593 4283586660
-0.2668839097 -0.1770931929 0.5724918842 4282994523
-0.2669536769 -0.1765032411 0.5726415515 4282796627
-0.2670232356 -0.1759128273 0.5727908015 4282467662
-0.2666854560 -0.1750546843 0.5720661879 4282336076
-0.2671617866 -0.1747306138 0.5730879307 4282336076
-0.2664160132 -0.1736079007 0.5714882612 4282204490
-0.2668920457 -0.1732820123 0.5725093484 4282138697
-0.2665529549 -0.1724265516 0.5717819333 4281875525
-0.2666211128 -0.1718351990 0.5719282031 4281546560
-0.2666890919 -0.1712433845 0.5720739961 4281414974
-0.2671647370 -0.1709120572 0.5730943084 4281217595
-0.2668244243 -0.1700583994 0.5723642707 4281020216
-0.2668917775 -0.1694652438 0.5725088120 4280822837
-0.2669589520 -0.1688716263 0.5726528764 4280690994
-0.2670259178 -0.1682775617 0.5727965236 4280625201
-0.2666842639 -0.1674266607 0.5720636249 4280493615
-0.2663422227 -0.1665771455 0.5713299513 4280296236
-0.2659997642 -0.1657289863 0.5705953240 4280033064
-0.2660655975 -0.1651358753 0.5707365870 4280033064
-0.2661312521 -0.1645423323 0.5708773732 4280098857
-0.2661966980 -0.1639483571 0.5710177422 4280098857
-0.2666709125 -0.1636048555 0.5720350146 4280098857
-0.2663269341 -0.1627590805 0.5712971687 4280098857
-0.2663917542 -0.1621637791 0.5714362264 4280164650
-0.2664563656 -0.1615680605 0.5715748072 4280164650
-0.2665207982 -0.1609718949 0.5717129707 4280296236
-0.2661754787 -0.1601289511 0.5709722638 4280164650
-0.2662393749 -0.1595328450 0.5711093545 4280296236
-0.2663030624 -0.1589363068 0.5712459683 4280493615
-0.2663665414 -0.1583393514 0.5713821054 4280559408
-0.2660199106 -0.1574992836 0.5706385970 4280690994
-0.2661456466 -0.1563050747 0.5709082484 4280756787
-0.2662081718 -0.1557073444 0.5710424185 4280887601
-0.2658602297 -0.1548701823 0.5702960491 4280887601
-0.2659840882 -0.1536744535 0.5705617070 4280756785
-0.2660456896 -0.1530759633 0.5706938505 4280822578
-0.2656964064 -0.1522417516 0.5699446201 4280888371
-0.2657575011 -0.1516433656 0.5700756311 4280888371
-0.2654075325 -0.1508111060 0.5693249106 4280888371
-0.2658790350 -0.1504453421 0.5703363419 4280954164
-0.2651174068 -0.1493825018 0.5687025785 4280954164
-0.2651774585 -0.1487843245 0.5688313842 4280954166
-0.2652372718 -0.1481857449 0.5689597130 4280954166
-0.2652969062 -0.1475867480 0.5690876245 4280954166
-0.2649448812 -0.1467594802 0.5683325529 4280954166
-0.2650039792 -0.1461606026 0.5684592724 4280954166
-0.2650628686 -0.1455613375 0.5685855746 4280888373
-0.2651215196 -0.1449616849 0.5687114000 4280888371
-0.2647682130 -0.1441374570 0.5679535270 4280822578
-0.2644144893 -0.1433146894 0.5671947598 4280822578
-0.2648842633 -0.1429380029 0.5682024956 4280822578
-0.2641178966 -0.1418949664 0.5665585399 4280822580
-0.2637630701 -0.1410757005 0.5657973886 4280690994
-0.2618153095 -0.1387859285 0.5616192818 4280427822
-0.2614590526 -0.1379739195 0.5608550310 4280362029
-0.2627522945 -0.1380301565 0.5636292100 4280230443
-0.2615704536 -0.1367858946 0.5610940456 4280230443
-0.2612131834 -0.1359764934 0.5603276491 4280164650
-0.2612682581 -0.1353824586 0.5604457855 4279967271
-0.2621487975 -0.1352139413 0.5623345971 4279967271
-0.2605519295 -0.1337693036 0.5589091778 4279967271
-0.2606061697 -0.1331760436 0.5590255260 4279835685
-0.2614863813 -0.1330026388 0.5609136820 4279769638
-0.2607140243 -0.1319883913 0.5592569113 4279769638
-0.2686679959 -0.0726223290 0.5763189197 4282072645
-0.2716676891 -0.0721382052 0.5827535987 4282665295
-0.2725377381 -0.0717196837 0.5846199393 4283125846
-0.2725677490 -0.0710779503 0.5846843123 4282533709
-0.2734375596 -0.0706530735 0.5865501165 4281152056
-0.2743072808 -0.0702240244 0.5884157419 4280625458
-0.2760171592 -0.0700039193 0.5920835733 4281678146
-0.2764666378 -0.0694589913 0.5930477381 4283059799
-0.2777563334 -0.0691210255 0.5958143473 4283520350
-0.2786257863 -0.0686733276 0.5976793766 4285626496
-0.2786545753 -0.0680162907 0.5977411270 4286876563
-0.2786830664 -0.0673590451 0.5978022218 4288521390
-0.2652611136 -0.1789716333 0.5703697801 4288981686
-0.2653313577 -0.1783851385 0.5705208182 4288192170
-0.2654014230 -0.1777981669 0.5706714392 4287534240
-0.2654712796 -0.1772107482 0.5708216429 4286613138
-0.2655409276 -0.1766228527 0.5709714293 4285626243
-0.2660165429 -0.1763036698 0.5719940662 4284770419
-0.2660859227 -0.1757139564 0.5721432567 4284244075
-0.2657487392 -0.1748564243 0.5714182854 4283783524
-0.2658176124 -0.1742666960 0.5715663433 4283388766
-0.2646666467 -0.1728798151 0.5690914989 4282994008
-0.2647348046 -0.1722918749 0.5692380667 4282862422
-0.2656162977 -0.1722310036 0.5711334944 4282730836
-0.2656842768 -0.1716403514 0.5712796450 4282270285
-0.2661590278 -0.1713111848 0.5723004937 4282270283
-0.2650054991 -0.1699356139 0.5698201060 4282072904
-0.2650726736 -0.1693454087 0.5699645877 4281941318
-0.2659542263 -0.1692732126 0.5718600750 4281743939
-0.2660211921 -0.1686803102 0.5720040798 4281612353
-0.2660879791 -0.1680869609 0.5721476674 4281414974
-0.2657469511 -0.1672366560 0.5714144111 4281217595
-0.2654055357 -0.1663877368 0.5706803203 4281020216
-0.2650637329 -0.1655401886 0.5699453354 4280756787
-0.2655372918 -0.1652015597 0.5709635615 4280559408
-0.2656028271 -0.1646078080 0.5711045265 4280493615
-0.2652601004 -0.1637616903 0.5703675747 4280427822
-0.2645087838 -0.1626659185 0.5687520504 4280296236
-0.2645734251 -0.1620735973 0.5688910484 4280296236
-0.2654546499 -0.1619792432 0.5707858801 4280230443
-0.2655190825 -0.1613842249 0.5709244609 4280098857
-0.2655833364 -0.1607887745 0.5710625648 4280098857
-0.2652386725 -0.1599464417 0.5703215003 4280033064
-0.2644848228 -0.1588599682 0.5687005520 4280033064
-0.2645481229 -0.1582659930 0.5688366890 4280098857
-0.2646112442 -0.1576715708 0.5689723492 4280164650
-0.2650832236 -0.1573195159 0.5699872375 4280296236
-0.2655551732 -0.1569651961 0.5710020661 4280427822
-0.2652086020 -0.1561267227 0.5702568293 4280427822
-0.2652709782 -0.1555297077 0.5703909397 4280624429
-0.2653331161 -0.1549322605 0.5705246329 4280690222
-0.2653950751 -0.1543343812 0.5706577897 4280624429
-0.2654568255 -0.1537360996 0.5707905889 4280690222
-0.2655183673 -0.1531374007 0.5709229112 4280756015
-0.2655796707 -0.1525382847 0.5710547566 4280756015
-0.2656407952 -0.1519387513 0.5711861253 4280625199
-0.2652916312 -0.1511052549 0.5704354048 4280690992
-0.2649421096 -0.1502732038 0.5696837902 4280822578
-0.2650023699 -0.1496742964 0.5698134303 4280822578
-0.2646521330 -0.1488442123 0.5690603256 4280822578
-0.2647118866 -0.1482454091 0.5691888332 4280822578
-0.2643609345 -0.1474172920 0.5684341788 4280888373
-0.2644201815 -0.1468186229 0.5685615540 4280888373
-0.2644792199 -0.1462195367 0.5686885118 4280888373
-0.2645380199 -0.1456200629 0.5688149333 4280888373
-0.2641857564 -0.1447949857 0.5680574775 4280822580
-0.2646549940 -0.1444198936 0.5690664649 4280888373
-0.2643021047 -0.1435959041 0.5683076978 4280954166
-0.2643599510 -0.1429957598 0.5684320927 4280954166
-0.2640063763 -0.1421737820 0.5676717758 4280954166
-0.2632410824 -0.1411327571 0.5660262108 4280954166
-0.2625317276 -0.1394980550 0.5645009875 4280756787
-0.2621764839 -0.1386829317 0.5637370944 4280690994
-0.2630558312 -0.1385196298 0.5656279325 4280559408
-0.2622883022 -0.1374888420 0.5639775395 4280559408
-0.2615201771 -0.1364614218 0.5623259544 4280493615
-0.2615753710 -0.1358653009 0.5624446273 4280362029
-0.2616303563 -0.1352688074 0.5625628233 4280296236
-0.2612729967 -0.1344598532 0.5617944002 4280296236
-0.2617396414 -0.1340746880 0.5627977848 4280230443
-0.2609694004 -0.1330566704 0.5611416101 4280098857
-0.2606109381 -0.1322513074 0.5603708625 4280033064
-0.2602521181 -0.1314474642 0.5595993400 4279967271
-0.2586068511 -0.1256738901 0.5560616255 4279506720
-0.2719723582 -0.0723915771 0.5848004222 4283389018
-0.2728408277 -0.0719709098 0.5866677761 4283915362
-0.2732900381 -0.0714365020 0.5876337290 4282599502
-0.2737390995 -0.0708999038 0.5885992646 4280494126
-0.2741879821 -0.0703611225 0.5895644426 4280362286
-0.2742173970 -0.0697135478 0.5896277428 4281612353
-0.2746658623 -0.0691713765 0.5905920863 4283520350
-0.2767916918 -0.0690454766 0.5951630473 4285428347
-0.2772686481 -0.0678396374 0.5961886048 4287929251
-0.2785555720 -0.0674890205 0.5989557505 4289113527
-0.2646750808 -0.1758345366 0.5704720020 4288717999
-0.2647441626 -0.1752464324 0.5706208944 4287994276
-0.2648130357 -0.1746578664 0.5707693696 4287270553
-0.2648817301 -0.1740688384 0.5709174275 4286349451
-0.2645444572 -0.1732136905 0.5701905489 4285230970
-0.2650185227 -0.1728894114 0.5712122321 4284507247
-0.2646806538 -0.1720351577 0.5704840422 4283915110
-0.2647484541 -0.1714452058 0.5706301928 4283191387
-0.2648160458 -0.1708548069 0.5707758665 4282862422
-0.2648834288 -0.1702639610 0.5709211230 4282730836
-0.2649506330 -0.1696726531 0.5710659623 4282533457
-0.2650176287 -0.1690809131 0.5712103844 4282401871
-0.2650844455 -0.1684887111 0.5713543296 4282270285
-0.2647443712 -0.1676385552 0.5706213713 4282138699
-0.2648106515 -0.1670463681 0.5707642436 4282007113
-0.2644698620 -0.1661980599 0.5700297356 4281809734
-0.2649426460 -0.1658606678 0.5710487366 4281480767
-0.2650083303 -0.1652671695 0.5711902976 4281349181
-0.2642594576 -0.1641672999 0.5695762038 4281283131
-0.2643245161 -0.1635747403 0.5697164536 4281151545
-0.2643893957 -0.1629817337 0.5698562860 4280954166
-0.2644540668 -0.1623882949 0.5699957013 4280756787
-0.2641109526 -0.1615451276 0.5692561865 4280625201
-0.2645828128 -0.1612001061 0.5702731609 4280493615
-0.2646468580 -0.1606053710 0.5704112053 4280230443
-0.2647107244 -0.1600102037 0.5705488324 4280230443
-0.2639583945 -0.1589233279 0.5689273477 4280164650
-0.2644297183 -0.1585738510 0.5699431896 4279967271
-0.2644928396 -0.1579783112 0.5700792670 4279967271
-0.2641475201 -0.1571394801 0.5693349242 4279967271
-0.2646184862 -0.1567859650 0.5703501105 4280098857
-0.2646810114 -0.1561891437 0.5704848170 4280296236
-0.2647432983 -0.1555919051 0.5706191063 4280295464
-0.2648053765 -0.1549942493 0.5707529187 4280427050
-0.2648672760 -0.1543961763 0.5708863139 4280427050
-0.2649289370 -0.1537976861 0.5710192323 4280492843
-0.2649903893 -0.1531987637 0.5711516738 4280558636
-0.2646426260 -0.1523639411 0.5704020858 4280558636
-0.2647035420 -0.1517651230 0.5705333948 4280427820
-0.2643550634 -0.1509322524 0.5697823167 4280559406
-0.2644154727 -0.1503335387 0.5699124932 4280625199
-0.2640662789 -0.1495026201 0.5691598654 4280625199
-0.2641261816 -0.1489040256 0.5692889690 4280690992
-0.2641858757 -0.1483050138 0.5694176555 4280756785
-0.2638356686 -0.1474765837 0.5686628222 4280756785
-0.2638948560 -0.1468776911 0.5687903166 4280756785
-0.2639538050 -0.1462783962 0.5689173937 4280822578
-0.2640125453 -0.1456786990 0.5690439939 4280888371
-0.2636610270 -0.1448533237 0.5682863593 4280822580
-0.2637192309 -0.1442537755 0.5684118271 4280888373
-0.2637772262 -0.1436538100 0.5685368776 4280954166
-0.2638350129 -0.1430534571 0.5686613917 4280954166
-0.2626613677 -0.1417880803 0.5661317706 4280888373
-0.2631289363 -0.1414103508 0.5671395659 4280888373
-0.2627753019 -0.1405910254 0.5663773417 4280954166
-0.2624212801 -0.1397731751 0.5656142831 4280954166
-0.2620668709 -0.1389568001 0.5648503900 4280888373
-0.2621228993 -0.1383588016 0.5649711490 4280888373
-0.2621787190 -0.1377604008 0.5650914907 4280954166
-0.2614122629 -0.1367316544 0.5634394884 4280888373
-0.2610563636 -0.1359203309 0.5626723766 4280822580
-0.2615224719 -0.1355367303 0.5636770129 4280690994
-0.2611659765 -0.1347265244 0.5629085898 4280625199
-0.2600940764 -0.1323049814 0.5605983138 4280427820
-0.2594304979 -0.1301036030 0.5591680408 4280164648
-0.2594832182 -0.1295086443 0.5592816472 4280033062
-0.2583518624 -0.1277065873 0.5568431616 4279769890
-0.2592279315 -0.1275188625 0.5587314367 4279769890
-0.2585066557 -0.1259259135 0.5571767688 4279638304
-0.2589701712 -0.1255315393 0.5581758618 4279572511
-0.2590211630 -0.1249359623 0.5582857728 4279440925
-0.2579846680 -0.1219647601 0.5560517311 4279375391
-0.2696719766 -0.0738885179 0.5812422037 4282335817
-0.2701209188 -0.0733646527 0.5822098255 4282138438
-0.2697333395 -0.0726134256 0.5813744068 4282927954
-0.2706000805 -0.0721987411 0.5832425952 4283652190
-0.2723033428 -0.0720010772 0.5869137645 4283586397
-0.2727517188 -0.0714664608 0.5878801346 4281613121
-0.2723631561 -0.0707124025 0.5870426297 4280165675
-0.2728110850 -0.0701753795 0.5880081058 4280099114
-0.2745142281 -0.0699560866 0.5916790366 4281283388
-0.2749619484 -0.0694117099 0.5926440358 4284902003
-0.2749909163 -0.0687604845 0.5927065015 4287862688
-0.2754382491 -0.0682127252 0.5936706066 4288324009
-0.2771413028 -0.0679707974 0.5973413587 4288652974
-0.2628003359 -0.1724845916 0.5677905083 4288586928
-0.2632731497 -0.1721629351 0.5688120723 4287863205
-0.2633408606 -0.1715750545 0.5689583421 4287007896
-0.2638136148 -0.1712497771 0.5699797273 4286218380
-0.2635427713 -0.1698087007 0.5693945885 4284573555
-0.2636096776 -0.1692190170 0.5695391893 4283784039
-0.2636764050 -0.1686288863 0.5696833134 4283323488
-0.2637429237 -0.1680382937 0.5698270202 4283059802
-0.2625916600 -0.1666744351 0.5673396587 4282599251
-0.2626574636 -0.1660856903 0.5674818158 4282270286
-0.2635351717 -0.1660080850 0.5693781972 4282270286
-0.2636007965 -0.1654166430 0.5695199370 4282204490
-0.2632599473 -0.1645707786 0.5687835217 4282072904
-0.2633250356 -0.1639793664 0.5689241290 4281875525
-0.2629834712 -0.1631353647 0.5681861639 4281743939
-0.2626415193 -0.1622927636 0.5674473643 4281480767
-0.2631124556 -0.1619521677 0.5684648752 4281217595
-0.2635834217 -0.1616093218 0.5694823861 4280888630
-0.2632406354 -0.1607672423 0.5687417984 4280625458
-0.2628974617 -0.1599265635 0.5680003762 4280625201
-0.2625538707 -0.1590873003 0.5672580600 4280427822
-0.2626170516 -0.1584951580 0.5673945546 4280230443
-0.2626800239 -0.1579025984 0.5675305724 4280033064
-0.2635574937 -0.1577973962 0.5694264174 4279769892
-0.2632128000 -0.1569591612 0.5686816573 4279572513
-0.2636828125 -0.1566064656 0.5696970820 4279638306
-0.2637451291 -0.1560103595 0.5698317885 4279704099
-0.2638072670 -0.1554138362 0.5699660182 4279900708
-0.2638691962 -0.1548168957 0.5700998306 4279834915
-0.2639308870 -0.1542195231 0.5702331066 4279769892
-0.2639923990 -0.1536217481 0.5703660250 4279704099
-0.2640536726 -0.1530235559 0.5704984069 4279638306
-0.2632983327 -0.1519537568 0.5688664317 4279704099
-0.2633590102 -0.1513565779 0.5689975619 4279966499
-0.2634194791 -0.1507589966 0.5691282153 4279834913
-0.2634797394 -0.1501609832 0.5692583919 4280164648
-0.2631312013 -0.1493307054 0.5685053468 4280164648
-0.2631909251 -0.1487328112 0.5686343908 4280165159
-0.2632504404 -0.1481345147 0.5687630177 4280165159
-0.2633097768 -0.1475358009 0.5688911676 4280230952
-0.2633688748 -0.1469366997 0.5690188408 4280296745
-0.2630186975 -0.1461099535 0.5682622790 4280427818
-0.2630772889 -0.1455109864 0.5683888793 4280427818
-0.2635448873 -0.1451369673 0.5693991184 4280559406
-0.2631937861 -0.1443118304 0.5686405897 4280690992
-0.2632517219 -0.1437116563 0.5687657595 4280756787
-0.2633094490 -0.1431110799 0.5688904524 4280756787
-0.2629573643 -0.1422884762 0.5681297779 4280690994
-0.2626048625 -0.1414673626 0.5673682094 4280690994
-0.2626617551 -0.1408674866 0.5674911141 4280690992
-0.2623085678 -0.1400483996 0.5667280555 4280756785
-0.2619549930 -0.1392307878 0.5659641027 4280953394
-0.2620110512 -0.1386316270 0.5660852194 4281019187
-0.2616567612 -0.1378160566 0.5653197765 4280953396
-0.2613020837 -0.1370019913 0.5645534992 4280887603
-0.2605367303 -0.1359752864 0.5628999472 4281019189
-0.2610019743 -0.1355915517 0.5639050603 4281084982
-0.2602357268 -0.1345687956 0.5622496009 4281150773
-0.2602900565 -0.1339720488 0.5623669624 4281150773
-0.2607547939 -0.1335853040 0.5633710027 4280888371
-0.2599872947 -0.1325680166 0.5617128611 4280888371
-0.2596300840 -0.1317626238 0.5609410405 4280822578
-0.2605051100 -0.1315813661 0.5628316402 4280756785
-0.2597363889 -0.1305695772 0.5611707568 4280625199
-0.2597892284 -0.1299725026 0.5612848997 4280493613
-0.2602529824 -0.1295797825 0.5622868538 4280296234
-0.2590717673 -0.1283697486 0.5597347617 4280230441
-0.2599463761 -0.1281791180 0.5616244078 4280033062
-0.2591755390 -0.1271768659 0.5599589944 4279967269
-0.2588156164 -0.1263789684 0.5591813922 4279901476
-0.2592784464 -0.1259825528 0.5601813197 4279835683
-0.2593295574 -0.1253848672 0.5602917075 4279769890
-0.2571095526 -0.1212255210 0.5554953218 4279441184
-0.2691079080 -0.0745568946 0.5814182758 4282072647
-0.2699734569 -0.0741486251 0.5832883716 4282335819
-0.2700349391 -0.0728690624 0.5834211707 4282533455
-0.2704826891 -0.0723405927 0.5843885541 4281875527
-0.2713477314 -0.0719205737 0.5862575173 4282138699
-0.2717951834 -0.0713867247 0.5872242451 4280626230
-0.2730775774 -0.0710680187 0.5899949074 4278718233
-0.2718544006 -0.0700970963 0.5873521566 4279244575
-0.2744186819 -0.0694407970 0.5928923488 4286219146
-0.2740298808 -0.0686846003 0.5920524001 4288521901
-0.2761473954 -0.0685524493 0.5966273546 4288916661
-0.2613288462 -0.1694160700 0.5659694672 4289179320
-0.2626093924 -0.1696143001 0.5687427521 4288587183
-0.2626761198 -0.1690253168 0.5688872337 4287863460
-0.2627426386 -0.1684359014 0.5690313578 4287205530
-0.2628089786 -0.1678460240 0.5691750050 4286416014
-0.2628751099 -0.1672556996 0.5693181753 4285560705
-0.2629410326 -0.1666649431 0.5694609880 4284639603
-0.2626014948 -0.1658178419 0.5687256455 4283915880
-0.2626669407 -0.1652271003 0.5688673854 4283323741
-0.2627321482 -0.1646359265 0.5690086484 4282994776
-0.2627971768 -0.1640443057 0.5691494346 4282600018
-0.2624563575 -0.1632000059 0.5684112906 4282271053
-0.2625208795 -0.1626084298 0.5685510635 4282270283
-0.2629910409 -0.1622668207 0.5695692897 4282270283
-0.2626492977 -0.1614239514 0.5688291788 4282270283
-0.2627132237 -0.1608310640 0.5689675808 4282138697
-0.2623707652 -0.1599900872 0.5682259798 4281546814
-0.2624341846 -0.1593972594 0.5683632493 4281481021
-0.2620910406 -0.1585581750 0.5676200986 4281283642
-0.2625603676 -0.1582103074 0.5686365962 4281020470
-0.2626231611 -0.1576161981 0.5687725544 4280756785
-0.2626857460 -0.1570216566 0.5689080954 4280427820
-0.2627480924 -0.1564266980 0.5690431595 4280296234
-0.2628102601 -0.1558313072 0.5691778064 4280296234
-0.2628722191 -0.1552354991 0.5693119764 4280427822
-0.2629339695 -0.1546392739 0.5694457293 4280098857
-0.2629955113 -0.1540426165 0.5695790052 4279901478
-0.2630568445 -0.1534455568 0.5697118044 4279835685
-0.2635252774 -0.1530846804 0.5707262754 4279769892
-0.2631788850 -0.1522501707 0.5699760914 4279704099
-0.2632395923 -0.1516518444 0.5701075792 4279638306
-0.2628924847 -0.1508193016 0.5693558455 4279638306
-0.2629526556 -0.1502210796 0.5694862008 4280033062
-0.2630126476 -0.1496224552 0.5696160793 4280098855
-0.2626645267 -0.1487923861 0.5688621998 4280164648
-0.2627239823 -0.1481938660 0.5689909458 4280164648
-0.2623751760 -0.1473657638 0.5682355165 4280164648
-0.2628422678 -0.1469956338 0.5692470670 4280230441
-0.2624928355 -0.1461685896 0.5684903264 4280296234
-0.2625513375 -0.1455693990 0.5686170459 4280362027
-0.2630180418 -0.1451952606 0.5696278214 4280362027
-0.2626677155 -0.1443698108 0.5688690543 4280427820
-0.2627255917 -0.1437694132 0.5689944029 4280493615
-0.2623745501 -0.1429459751 0.5682341456 4280559408
-0.2616143525 -0.1419022828 0.5665877461 4280559408
-0.2620801628 -0.1415243000 0.5675965548 4280625201
-0.2621369660 -0.1409242153 0.5677196383 4280756785
-0.2609664798 -0.1396669894 0.5651845932 4280822578
-0.2614876926 -0.1386875212 0.5663134456 4280822578
-0.2611341774 -0.1378716528 0.5655478239 4280953396
-0.2607802749 -0.1370572746 0.5647813082 4280953396
-0.2604259551 -0.1362444013 0.5640140176 4281019189
-0.2604808211 -0.1356463134 0.5641328096 4281084982
-0.2605354488 -0.1350478530 0.5642511249 4281150773
-0.2601801455 -0.1342376024 0.5634816289 4281084980
-0.2606440783 -0.1338497847 0.5644863844 4280888373
-0.2602881491 -0.1330406815 0.5637155771 4280888373
-0.2603418529 -0.1324416548 0.5638318062 4280888373
-0.2608053684 -0.1320498884 0.5648357272 4280888373
-0.2600383759 -0.1310358346 0.5631746054 4280888373
-0.2600913048 -0.1304366440 0.5632892847 4280888373
-0.2597337067 -0.1296323091 0.5625147820 4280822580
-0.2606069148 -0.1294410378 0.5644059181 4280822580
-0.2606592774 -0.1288398206 0.5645192862 4280493615
-0.2598902583 -0.1278343350 0.5628538132 4280493615
-0.2595313489 -0.1270332932 0.5620765090 4280427822
-0.2595827878 -0.1264338344 0.5621879101 4280296236
-0.2592231929 -0.1256349236 0.5614091158 4280230443
-0.2580918670 -0.1238445267 0.5589589477 4280033064
-0.2573199868 -0.1228549480 0.5572872758 4280033064
-0.2586032152 -0.1228453442 0.5600664020 4279704099
-0.2570082247 -0.1214692295 0.5566120744 4279704099
-0.2574688196 -0.1210673824 0.5576096177 4279704099
-0.2579293549 -0.1206632853 0.5586070418 4279704099
-0.2563325763 -0.1192994788 0.5551488400 4279638306
-0.2567926049 -0.1188956574 0.5561451316 4279572513
-0.2668462694 -0.0753923580 0.5779187083 4282467405
-0.2681266367 -0.0751089081 0.5806916356 4282270026
-0.2694070041 -0.0748193040 0.5834646225 4282072647
-0.2698545456 -0.0742942393 0.5844338536 4282796370
-0.2698854208 -0.0736533180 0.5845006704 4283191385
-0.2699160278 -0.0730121806 0.5845670104 4281809732
-0.2707795501 -0.0725941882 0.5864371657 4280822839
-0.2708097398 -0.0719506294 0.5865024924 4281612355
-0.2712563276 -0.0714165643 0.5874697566 4280231472
-0.2717027366 -0.0708803087 0.5884365439 4279244577
-0.2721489966 -0.0703418553 0.5894030333 4280560435
-0.2717614472 -0.0695877522 0.5885637403 4284244843
-0.2726241350 -0.0691526383 0.5904320478 4288258731
-0.2607292831 -0.1662904173 0.5660324693 4289113527
-0.2616033852 -0.1662168950 0.5679301023 4288258218
-0.2616688311 -0.1656273156 0.5680721998 4287402909
-0.2617340684 -0.1650372893 0.5682138205 4286613391
-0.2613945007 -0.1641926467 0.5674766302 4285955461
-0.2610544860 -0.1633494049 0.5667384863 4285034359
-0.2615237832 -0.1630122215 0.5677573085 4284113257
-0.2615881264 -0.1624213457 0.5678969622 4283455327
-0.2616522610 -0.1618300527 0.5680361986 4282928983
-0.2617161870 -0.1612383127 0.5681750178 4282534225
-0.2613746822 -0.1603974551 0.5674336553 4282139467
-0.2614381313 -0.1598057747 0.5675713420 4282467916
-0.2615013421 -0.1592136621 0.5677086115 4282467916
-0.2615643740 -0.1586211026 0.5678454041 4282270537
-0.2616271973 -0.1580281407 0.5679817796 4281941572
-0.2616898119 -0.1574347317 0.5681177378 4281678400
-0.2617522180 -0.1568409055 0.5682532191 4281415228
-0.2618144155 -0.1562466621 0.5683882236 4281217849
-0.2618764043 -0.1556519866 0.5685228109 4281152056
-0.2619381845 -0.1550568938 0.5686569810 4281217084
-0.2619997561 -0.1544613838 0.5687906742 4280953912
-0.2620611489 -0.1538654417 0.5689238906 4280691251
-0.2617159188 -0.1530314684 0.5681744218 4280559665
-0.2617767751 -0.1524356157 0.5683065057 4280493615
-0.2622439861 -0.1520751417 0.5693208575 4280362029
-0.2618978620 -0.1512426883 0.5685694218 4280164650
-0.2619580925 -0.1506455988 0.5687001348 4279967271
-0.2607975304 -0.1493491232 0.5661806464 4279901478
-0.2620778978 -0.1494501978 0.5689603090 4279967271
-0.2617304623 -0.1486207545 0.5682060122 4280033064
-0.2613826096 -0.1477927417 0.5674508214 4280033064
-0.2618488371 -0.1474247575 0.5684629679 4280229673
-0.2619076967 -0.1468261480 0.5685907602 4280295466
-0.2615589201 -0.1459997296 0.5678336024 4280295464
-0.2612678111 -0.1445768327 0.5672016144 4280362027
-0.2621410191 -0.1444277316 0.5690972805 4280427820
-0.2617910206 -0.1436034441 0.5683375001 4280493615
-0.2614406645 -0.1427806169 0.5675768256 4280559408
-0.2610898912 -0.1419592798 0.5668153167 4280559408
-0.2611467838 -0.1413602978 0.5669388175 4280559408
-0.2612034380 -0.1407609284 0.5670618415 4280625199
-0.2612598836 -0.1401611716 0.5671843886 4280690992
-0.2609077990 -0.1393429488 0.5664200187 4280822578
-0.2605553269 -0.1385262311 0.5656548142 4280756785
-0.2606109679 -0.1379271746 0.5657755733 4280756787
-0.2602577806 -0.1371124983 0.5650088787 4280822580
-0.2599042356 -0.1362993270 0.5642413497 4280822580
-0.2599590421 -0.1357010156 0.5643602610 4280822580
-0.2600136101 -0.1351023316 0.5644787550 4280888371
-0.2600679696 -0.1345032603 0.5645967722 4280822578
-0.2601220906 -0.1339038312 0.5647143126 4280888373
-0.2601760328 -0.1333040148 0.5648313761 4280954166
-0.2602297366 -0.1327038258 0.5649479628 4281019959
-0.2606924474 -0.1323109865 0.5659525394 4281085752
-0.2607457936 -0.1317091137 0.5660682917 4281085752
-0.2607989013 -0.1311068833 0.5661836267 4281019959
-0.2600328028 -0.1300945282 0.5645204782 4280954166
-0.2604949176 -0.1296973675 0.5655236244 4280954166
-0.2601376176 -0.1288920045 0.5647479892 4280887603
-0.2597799301 -0.1280881763 0.5639714599 4280887603
-0.2586534917 -0.1262849718 0.5615260005 4280756017
-0.2582945824 -0.1254867017 0.5607468486 4280624431
-0.2591654956 -0.1252846867 0.5626375079 4280558638
-0.2579857409 -0.1240920946 0.5600763559 4280492845
-0.2576257586 -0.1232975200 0.5592948198 4280492845
-0.2576756775 -0.1226998866 0.5594032407 4280230441
-0.2573150098 -0.1219074726 0.5586202145 4280230441
-0.2573644221 -0.1213100925 0.5587275028 4280230441
-0.2570030689 -0.1205198467 0.5579429865 4280164648
-0.2545881867 -0.1187733263 0.5527004004 4280098855
-0.2552851140 -0.1154038310 0.5542134047 4279506977
-0.2546025813 -0.1132529229 0.5527316928 4279441184
-0.2654529512 -0.0758198351 0.5762873292 4282533455
-0.2667307854 -0.0755414367 0.5790614486 4282204233
-0.2675931454 -0.0751402080 0.5809336305 4282335819
-0.2684554458 -0.0747347996 0.5828056335 4282862163
-0.2689020336 -0.0742105171 0.5837752223 4283717472
-0.2697947919 -0.0731553510 0.5857133269 4282467405
-0.2702409029 -0.0726244748 0.5866817832 4281743941
-0.2702710629 -0.0719806552 0.5867472291 4281349183
-0.2703009248 -0.0713366270 0.5868121386 4279705128
-0.2699146569 -0.0705836266 0.5859735608 4280626230
-0.2703599334 -0.0700479299 0.5869402289 4283323743
-0.2708050013 -0.0695100427 0.5879064798 4287534495
-0.2597199976 -0.1629071683 0.5652042031 4289113527
-0.2605921924 -0.1628241539 0.5671022534 4288455597
-0.2606563568 -0.1622340083 0.5672419071 4287666081
-0.2607203126 -0.1616434157 0.5673810840 4286744979
-0.2607840896 -0.1610523909 0.5675198436 4285692289
-0.2596344054 -0.1597145945 0.5650178790 4284836980
-0.2596974671 -0.1591254622 0.5651551485 4284244843
-0.2597603202 -0.1585358977 0.5652919412 4283981671
-0.2598229647 -0.1579459012 0.5654282570 4283652190
-0.2606950104 -0.1578456908 0.5673260689 4283191639
-0.2607574761 -0.1572529972 0.5674619079 4282928467
-0.2608197033 -0.1566598862 0.5675973892 4282665295
-0.2608817220 -0.1560663581 0.5677323341 4282402123
-0.2609435618 -0.1554723978 0.5678668618 4282204744
-0.2610051632 -0.1548780203 0.5680009723 4282007881
-0.2610665858 -0.1542832255 0.5681346059 4282007881
-0.2603168190 -0.1532107145 0.5665029883 4281876295
-0.2611887753 -0.1530923694 0.5684005022 4281547330
-0.2612495422 -0.1524963230 0.5685328245 4281349181
-0.2609043717 -0.1516639739 0.5677816272 4281283388
-0.2609646320 -0.1510680169 0.5679127574 4281020216
-0.2610246837 -0.1504716575 0.5680434704 4280559665
-0.2610845566 -0.1498748809 0.5681737065 4280690994
-0.2607380450 -0.1490455270 0.5674197078 4280625201
-0.2607973814 -0.1484488547 0.5675488114 4280493615
-0.2608565092 -0.1478517801 0.5676774979 4280362029
-0.2605090141 -0.1470249295 0.5669212341 4280230443
-0.2609741390 -0.1466564238 0.5679334402 4280098857
-0.2610326111 -0.1460581273 0.5680607557 4280032294
-0.2606842220 -0.1452328712 0.5673025250 4279900708
-0.2611489594 -0.1448603570 0.5683138967 4279967269
-0.2612068057 -0.1442608684 0.5684397817 4280098855
-0.2612644434 -0.1436609775 0.5685652494 4280230443
-0.2609148324 -0.1428378671 0.5678043962 4280296236
-0.2609719336 -0.1422381252 0.5679286718 4280296236
-0.2606216073 -0.1414170265 0.5671662688 4280362029
-0.2602708936 -0.1405974030 0.5664030910 4280427820
-0.2603271902 -0.1399983615 0.5665255785 4280493613
-0.2603832781 -0.1393989325 0.5666475892 4280625199
-0.2600315511 -0.1385819018 0.5658822060 4280625199
-0.2596794367 -0.1377663612 0.5651159286 4280690994
-0.2597346902 -0.1371676624 0.5652361512 4280756787
-0.2593818903 -0.1363541782 0.5644683838 4280756787
-0.2594366074 -0.1357556432 0.5645874739 4280690994
-0.2594911456 -0.1351567358 0.5647061467 4280690992
-0.2599535286 -0.1347690225 0.5657123923 4280756785
-0.2595995069 -0.1339578032 0.5649419427 4280690994
-0.2601688206 -0.1323643923 0.5661809444 4280954166
-0.2602221072 -0.1317622960 0.5662968755 4280954166
-0.2602751553 -0.1311598420 0.5664123297 4280954166
-0.2599193156 -0.1303520501 0.5656379461 4280888373
-0.2599718571 -0.1297498047 0.5657522678 4280888373
-0.2587976158 -0.1285380125 0.5631968975 4281084982
-0.2588494718 -0.1279378831 0.5633097291 4281084982
-0.2584920824 -0.1271362305 0.5625320077 4281084982
-0.2585434020 -0.1265363246 0.5626436472 4281019189
-0.2585944831 -0.1259360611 0.5627548099 4280953396
-0.2582361102 -0.1251371354 0.5619749427 4280887603
-0.2578773499 -0.1243397593 0.5611941814 4280887603
-0.2583370209 -0.1239367649 0.5621945262 4280953396
-0.2579776347 -0.1231405884 0.5614124537 4280821808
-0.2572083175 -0.1221514568 0.5597382188 4280821808
-0.2568480968 -0.1213593483 0.5589543581 4280887601
-0.2568972409 -0.1207614020 0.5590612888 4280756015
-0.2544873357 -0.1190132275 0.5538167953 4280559406
-0.2553552985 -0.1188017204 0.5557057261 4280427820
-0.2541735768 -0.1176373586 0.5531340241 4280230443
-0.2550413311 -0.1174223125 0.5550224781 4280098857
-0.2546788454 -0.1166396290 0.5542336106 4279967271
-0.2543159723 -0.1158585250 0.5534439087 4279901478
-0.2547732592 -0.1154508293 0.5544390678 4279835942
-0.2544097900 -0.1146709770 0.5536481142 4279770149
-0.2549132109 -0.1136651635 0.5547436476 4279572770
-0.2549594045 -0.1130692884 0.5548441410 4279572772
-0.2550053895 -0.1124730930 0.5549442172 4279506979
-0.2542296946 -0.1115162671 0.5532561541 4279572513
-0.2648913562 -0.0764827877 0.5764580965 4282533709
-0.2674422264 -0.0759259984 0.5820093751 4282664784
-0.2666442990 -0.0750547424 0.5802728534 4283388507
-0.2679195702 -0.0747659057 0.5830481648 4284112230
-0.2683653235 -0.0742414072 0.5840182304 4284704367
-0.2679812610 -0.0734871998 0.5831823945 4284507245
-0.2684265673 -0.0729602799 0.5841515064 4282796627
-0.2688717246 -0.0724311695 0.5851202607 4282467664
-0.2693167329 -0.0718998611 0.5860886574 4281480769
-0.2693465352 -0.0712565631 0.5861535072 4280757816
-0.2693760693 -0.0706130490 0.5862178206 4283192157
-0.2706506848 -0.0702927560 0.5889916420 4286218635
-0.2594494820 -0.1606163979 0.5659835339 4289179320
-0.2591091692 -0.1597777009 0.5652410984 4288652976
-0.2595758438 -0.1594363153 0.5662591457 4287929253
-0.2596387267 -0.1588456333 0.5663963556 4287271323
-0.2597014010 -0.1582545191 0.5665330291 4286546828
-0.2597638667 -0.1576629728 0.5666693449 4285625726
-0.2598261237 -0.1570709944 0.5668051243 4284836210
-0.2598882020 -0.1564785987 0.5669405460 4284112487
-0.2599500418 -0.1558857858 0.5670754910 4283388764
-0.2600117028 -0.1552925408 0.5672099590 4282796627
-0.2604776025 -0.1549394727 0.5682263374 4282600531
-0.2605389357 -0.1543444693 0.5683601499 4282271566
-0.2606000602 -0.1537490487 0.5684934855 4282271053
-0.2606609762 -0.1531531960 0.5686263442 4282139467
-0.2607216835 -0.1525569409 0.5687587857 4281876295
-0.2599723041 -0.1514883339 0.5671240687 4281876295
-0.2604374588 -0.1511281282 0.5681387186 4281810502
-0.2604974508 -0.1505315453 0.5682696104 4281481537
-0.2601520121 -0.1497013867 0.5675160289 4281546560
-0.2598061562 -0.1488726586 0.5667615533 4281414974
-0.2598653436 -0.1482767165 0.5668906569 4281217595
-0.2595188022 -0.1474499702 0.5661346912 4281020216
-0.2599830329 -0.1470835954 0.5671474338 4280888373
-0.2604472637 -0.1467149556 0.5681601167 4280756787
-0.2605056763 -0.1461164504 0.5682875514 4280559408
-0.2601580322 -0.1452908963 0.5675291419 4280362029
-0.2602159381 -0.1446925253 0.5676555037 4280230443
-0.2602736056 -0.1440937519 0.5677813292 4280230443
-0.2599249482 -0.1432707310 0.5670207143 4280230443
-0.2599821389 -0.1426721066 0.5671454668 4280230443
-0.2596327662 -0.1418510973 0.5663833618 4280164650
-0.2592830360 -0.1410315633 0.5656203628 4280098857
-0.2593955100 -0.1398353130 0.5658657551 4280230443
-0.2590447664 -0.1390183568 0.5651006103 4280230443
-0.2591003776 -0.1384202093 0.5652219653 4280296236
-0.2591557801 -0.1378216743 0.5653427839 4280427822
-0.2588040233 -0.1370073259 0.5645754933 4280493615
-0.2592659295 -0.1366234422 0.5655830503 4280559408
-0.2593206763 -0.1360237598 0.5657024980 4280559408
-0.2593752146 -0.1354236901 0.5658214688 4280559408
-0.2594295144 -0.1348232478 0.5659399629 4280690994
-0.2594836056 -0.1342224181 0.5660579205 4280559919
-0.2595374882 -0.1336212307 0.5661754608 4280559919
-0.2595911324 -0.1330196559 0.5662925243 4280625712
-0.2596445680 -0.1324177235 0.5664090514 4280625712
-0.2596977949 -0.1318154037 0.5665251613 4280690992
-0.2597507834 -0.1312127262 0.5666407347 4280756785
-0.2593956888 -0.1304046363 0.5658661723 4280756785
-0.2590402365 -0.1295980811 0.5650907159 4280822578
-0.2590923905 -0.1289961934 0.5652045012 4280888371
-0.2587362230 -0.1281917542 0.5644275546 4280954164
-0.2587878704 -0.1275900900 0.5645402074 4281084980
-0.2584310174 -0.1267877668 0.5637617111 4281084980
-0.2580737770 -0.1259869933 0.5629824400 4281019187
-0.2581245899 -0.1253861636 0.5630932450 4281019187
-0.2569496632 -0.1241926402 0.5605301857 4281019187
-0.2582255304 -0.1241834387 0.5633134842 4281019187
-0.2582756579 -0.1235815436 0.5634228587 4280953394
-0.2575080991 -0.1225901246 0.5617483854 4281019187
-0.2560200989 -0.1200201362 0.5585023761 4280887601
-0.2552505136 -0.1190407053 0.5568235517 4280821808
-0.2557078302 -0.1186341941 0.5578211546 4280625201
-0.2557558417 -0.1180365756 0.5579258800 4280493615
-0.2553943396 -0.1172507182 0.5571373105 4280493615
-0.2546231151 -0.1162794977 0.5554549098 4280427822
-0.2554891109 -0.1160557270 0.5573440194 4280362029
-0.2555361688 -0.1154577360 0.5574466586 4280230443
-0.2568117380 -0.1154116169 0.5602293015 4280099114
-0.2552199066 -0.1140776500 0.5567567348 4279967528
-0.2552661896 -0.1134796292 0.5568577647 4279901737
-0.2553122640 -0.1128812879 0.5569581985 4279770151
-0.2541284263 -0.1117419302 0.5543757677 4279835942
-0.2518916428 -0.1077057496 0.5494962335 4279572770
-0.2631196678 -0.0761553124 0.5739899278 4282730834
-0.2639786303 -0.0757641047 0.5758637786 4282862420
-0.2648375630 -0.0753687173 0.5777375102 4283388764
-0.2669380009 -0.0753194690 0.5823195577 4284112487
-0.2673830688 -0.0747969672 0.5832903981 4284441452
-0.2674139738 -0.0741574690 0.5833578706 4285099382
-0.2674446702 -0.0735177472 0.5834248066 4284310636
-0.2678891122 -0.0729906186 0.5843943954 4281942088
-0.2683334053 -0.0724612921 0.5853636265 4281810504
-0.2687775493 -0.0719297677 0.5863324404 4282336848
-0.2679789364 -0.0710665286 0.5845903158 4283258463
-0.2688368261 -0.0706424341 0.5864617825 4285495425
-0.2692803442 -0.0701063052 0.5874293447 4287732132
-0.2584925592 -0.1566443592 0.5652655363 4289178550
-0.2589577138 -0.1562970430 0.5662827492 4288454827
-0.2590193748 -0.1557049453 0.5664176345 4287599518
-0.2590808570 -0.1551124305 0.5665520430 4286875795
-0.2579312027 -0.1537974328 0.5640379786 4285561218
-0.2592031956 -0.1539261192 0.5668196082 4284508530
-0.2592640519 -0.1533323377 0.5669527054 4283916391
-0.2593247294 -0.1527381241 0.5670853257 4283719012
-0.2589811385 -0.1519065350 0.5663340092 4283257948
-0.2594453990 -0.1515484750 0.5673491955 4282863190
-0.2582927942 -0.1502476484 0.5648286939 4282665811
-0.2583523393 -0.1496545672 0.5649589300 4282534225
-0.2592204511 -0.1495276392 0.5668573380 4282271053
-0.2592797875 -0.1489318758 0.5669870377 4282139467
-0.2589342892 -0.1481043100 0.5662315488 4282007881
-0.2589930892 -0.1475086659 0.5663601160 4281810502
-0.2586469054 -0.1466830820 0.5656030774 4281743939
-0.2591100633 -0.1463161856 0.5666158795 4281480767
-0.2595731616 -0.1459470242 0.5676286221 4281020986
-0.2592261732 -0.1451220959 0.5668697953 4280823607
-0.2584736347 -0.1440728009 0.5652242303 4280954166
-0.2593414485 -0.1439263970 0.5671218634 4280888373
-0.2593987584 -0.1433279514 0.5672472119 4280690994
-0.2590504587 -0.1425060928 0.5664855242 4280559408
-0.2595127225 -0.1421298683 0.5674964786 4280362029
-0.2595694065 -0.1415302455 0.5676203966 4280230443
-0.2588145435 -0.1404898167 0.5659696460 4280098857
-0.2592763603 -0.1401105523 0.5669795275 4280033064
-0.2593322992 -0.1395106912 0.5671018958 4279901478
-0.2589820921 -0.1386930496 0.5663360357 4280033064
-0.2590374947 -0.1380933523 0.5664572120 4280033064
-0.2586866021 -0.1372777671 0.5656899214 4280164650
-0.2587414980 -0.1366782486 0.5658099651 4280230443
-0.2587961853 -0.1360783428 0.5659295321 4280230443
-0.2588506341 -0.1354780495 0.5660486221 4280296236
-0.2589049041 -0.1348773986 0.5661672354 4280427822
-0.2585523725 -0.1340655684 0.5653964281 4280559406
-0.2590127289 -0.1336749494 0.5664030313 4280559406
-0.2590663135 -0.1330731511 0.5665202141 4280559406
-0.2591196895 -0.1324709952 0.5666369200 4280559406
-0.2591728270 -0.1318684667 0.5667531490 4280559406
-0.2592257559 -0.1312655658 0.5668689013 4280625199
-0.2588714361 -0.1304571629 0.5660941005 4280690992
-0.2585167289 -0.1296503097 0.5653184056 4280756785
-0.2581616342 -0.1288449764 0.5645418763 4280756785
-0.2582134306 -0.1282434464 0.5646551847 4280756785
-0.2582649887 -0.1276415586 0.5647679567 4280756785
-0.2579089105 -0.1268389523 0.5639892817 4280756785
-0.2579599619 -0.1262372881 0.5641008615 4280887601
-0.2572460175 -0.1246378720 0.5625396967 4280887601
-0.2572962344 -0.1240370646 0.5626494884 4280887601
-0.2573462427 -0.1234358996 0.5627588034 4281019187
-0.2561722696 -0.1222503856 0.5601915717 4281084980
-0.2562215626 -0.1216513887 0.5602993965 4281084980
-0.2566787302 -0.1212448031 0.5612991452 4281084980
-0.2563195229 -0.1204523519 0.5605136156 4281084980
-0.2555516958 -0.1194706261 0.5588346124 4281084980
-0.2564165890 -0.1192519516 0.5607258677 4281019189
-0.2560563982 -0.1184623092 0.5599381924 4281019189
-0.2556958199 -0.1176742390 0.5591497421 4280888373
-0.2553348839 -0.1168877482 0.5583603978 4280822580
-0.2553821504 -0.1162889004 0.5584638119 4280756787
-0.2558379173 -0.1158748269 0.5594604611 4280625201
-0.2558848262 -0.1152743548 0.5595630407 4280559408
-0.2551138401 -0.1143071875 0.5578770638 4280427822
-0.2551601529 -0.1137079820 0.5579783320 4280362029
-0.2536158562 -0.1117873937 0.5546013117 4280230443
-0.2532520592 -0.1110117212 0.5538057685 4280098857
-0.2516602576 -0.1097025201 0.5503248572 4280033064
-0.2525233328 -0.1094652042 0.5522122383 4279967271
-0.2529771328 -0.1090472639 0.5532045364 4279770149
-0.2517931461 -0.1079251245 0.5506154299 4279770149
-0.2518369853 -0.1073320433 0.5507113338 4279770149
-0.2526997328 -0.1070857644 0.5525979400 4279704356
-0.2617017627 -0.0772005916 0.5722833872 4282665041
-0.2625592649 -0.0768156126 0.5741584897 4282533455
-0.2638611495 -0.0759143159 0.5770054460 4283783522
-0.2651314139 -0.0756355897 0.5797832608 4284178280
-0.2659886777 -0.0752338842 0.5816578865 4284638831
-0.2656066418 -0.0744804963 0.5808224678 4285231738
-0.2656373978 -0.0738437101 0.5808897614 4285692289
-0.2656678855 -0.0732067004 0.5809563994 4283850087
-0.2665245533 -0.0727951974 0.5828297734 4282271055
-0.2673811615 -0.0723795146 0.5847029090 4283060571
-0.2661711276 -0.0714052543 0.5820568800 4284376431
-0.2674407065 -0.0710960478 0.5848331451 4285561218
-0.2678834796 -0.0705628917 0.5858014226 4287469215
-0.2582730353 -0.1537471712 0.5661606193 4288324011
-0.2583337426 -0.1531541049 0.5662936568 4287468702
-0.2583942115 -0.1525606215 0.5664262176 4286876565
-0.2584545016 -0.1519667208 0.5665583611 4286021256
-0.2577079535 -0.1509001106 0.5649219155 4285165947
-0.2581710219 -0.1505424529 0.5659369826 4284508017
-0.2582305968 -0.1499482393 0.5660675764 4283850087
-0.2578863800 -0.1491202563 0.5653129816 4283060569
-0.2583490908 -0.1487585902 0.5663273335 4282797397
-0.2580042481 -0.1479316503 0.5655714273 4282468432
-0.2580628991 -0.1473367363 0.5656999350 4282336846
-0.2573134303 -0.1462821215 0.5640570521 4282271053
-0.2581795156 -0.1461456865 0.5659556389 4282073674
-0.2582375407 -0.1455495656 0.5660827756 4281810502
-0.2578910887 -0.1447261870 0.5653233528 4281678916
-0.2587572038 -0.1445820183 0.5672219396 4281678146
-0.2584102750 -0.1437587887 0.5664614439 4281480767
-0.2584674060 -0.1431610584 0.5665867329 4281283388
-0.2581197917 -0.1423398405 0.5658246875 4281086009
-0.2585811019 -0.1419644356 0.5668358803 4281085752
-0.2586376071 -0.1413655281 0.5669597387 4280888373
-0.2582890689 -0.1405459344 0.5661957264 4280625201
-0.2583450675 -0.1399471909 0.5663184524 4280427822
-0.2584008276 -0.1393480450 0.5664407611 4280296236
-0.2576462030 -0.1383135766 0.5647864938 4280296236
-0.2581065595 -0.1379320771 0.5657956600 4280230443
-0.2577563226 -0.1371171176 0.5650279522 4280164650
-0.2578110695 -0.1365183294 0.5651479363 4280164650
-0.2578656077 -0.1359191537 0.5652674437 4280164650
-0.2579199076 -0.1353195906 0.5653865337 4280164650
-0.2579739988 -0.1347196549 0.5655050874 4280164650
-0.2580278814 -0.1341193467 0.5656232238 4280164648
-0.2580815554 -0.1335186511 0.5657408237 4280164648
-0.2581349909 -0.1329175979 0.5658579469 4280230441
-0.2581881881 -0.1323161572 0.5659746528 4280230441
-0.2582412064 -0.1317143440 0.5660908222 4280362027
-0.2582939863 -0.1311121732 0.5662065148 4280493613
-0.2579403222 -0.1303044260 0.5654312968 4280625199
-0.2575863004 -0.1294982135 0.5646551847 4280690992
-0.2572318912 -0.1286935210 0.5638782978 4280887601
-0.2572835386 -0.1280927211 0.5639915466 4280887601
-0.2573349774 -0.1274915636 0.5641042590 4280887601
-0.2569795549 -0.1266895980 0.5633251667 4280887601
-0.2570304573 -0.1260886788 0.5634367466 4280953394
-0.2566743791 -0.1252888441 0.5626561642 4280953394
-0.2571316063 -0.1248857602 0.5636584759 4281019187
-0.2571818531 -0.1242837757 0.5637686253 4281019187
-0.2568248510 -0.1234857365 0.5629860163 4281019189
-0.2568745613 -0.1228839979 0.5630949736 4281019189
-0.2561097145 -0.1218943298 0.5614183545 4281084982
-0.2565660775 -0.1214866489 0.5624187589 4281150775
-0.2562077045 -0.1206929386 0.5616331697 4281150775
-0.2554415464 -0.1197098792 0.5599536896 4281150775
-0.2563048005 -0.1194901764 0.5618460178 4281150775
-0.2559454441 -0.1186992750 0.5610582829 4281150775
-0.2555857301 -0.1179099455 0.5602697134 4281216568
-0.2552256286 -0.1171221957 0.5594803691 4281150775
-0.2552729249 -0.1165221632 0.5595840812 4281150775
-0.2557278574 -0.1161069795 0.5605813265 4281019189
-0.2553668618 -0.1153211072 0.5597899556 4280822580
-0.2545974553 -0.1143535674 0.5581033826 4280756787
-0.2534652650 -0.1126103699 0.5556215048 4280690994
-0.2535108626 -0.1120131686 0.5557214022 4280559408
-0.2531479001 -0.1112362370 0.5549257994 4280493615
-0.2536013424 -0.1108178124 0.5559197664 4280493615
-0.2532377839 -0.1100421697 0.5551227927 4280362029
-0.2536908984 -0.1096211821 0.5561161041 4280296236
-0.2521009743 -0.1083201617 0.5526308417 4280230443
-0.2521449029 -0.1077249125 0.5527271628 4280164650
-0.2522321045 -0.1065334976 0.5529182553 4279901224
-0.2519521415 -0.1045743078 0.5523045659 4279638565
-0.2603502274 -0.0769888833 0.5707139969 4282730577
-0.2612059116 -0.0766057298 0.5725897551 4283256921
-0.2620615363 -0.0762183964 0.5744653940 4283783522
-0.2645655274 -0.0763022900 0.5799543262 4284046694
-0.2654212415 -0.0759026259 0.5818302035 4284704624
-0.2646281123 -0.0750312954 0.5800915956 4285099382
-0.2658957839 -0.0747431070 0.5828704238 4286086279
-0.2663388550 -0.0742189735 0.5838417411 4286217865
-0.2659571171 -0.0734648332 0.5830048919 4282928985
-0.2659874260 -0.0728253722 0.5830712914 4283192157
-0.2664298713 -0.0722976029 0.5840412378 4284705396
-0.2656347454 -0.0714348629 0.5822982192 4285823877
-0.2664892673 -0.0710156038 0.5841714144 4287206043
-0.2665185630 -0.0703742877 0.5842356682 4289048247
-0.2560341656 -0.1496607959 0.5626225471 4288521390
-0.2556906044 -0.1488357037 0.5618676543 4287468702
-0.2569576800 -0.1489458978 0.5646519661 4286284941
-0.2566137314 -0.1481199861 0.5638961196 4285495425
-0.2566723228 -0.1475271285 0.5640248656 4284639601
-0.2567306757 -0.1469338685 0.5641531348 4283981671
-0.2571919858 -0.1465699375 0.5651668310 4283652706
-0.2572500408 -0.1459749341 0.5652943850 4283389534
-0.2569045722 -0.1451516747 0.5645352602 4283061082
-0.2561553121 -0.1441029310 0.5628888011 4282929496
-0.2574229240 -0.1441875249 0.5656743050 4282862420
-0.2574801147 -0.1435909271 0.5658000112 4282599248
-0.2567297816 -0.1425456703 0.5641511679 4282270283
-0.2575939000 -0.1423965245 0.5660499930 4282072904
-0.2572466135 -0.1415764838 0.5652868748 4281941318
-0.2568989694 -0.1407579184 0.5645229220 4281743939
-0.2569549084 -0.1401612312 0.5646458864 4281480767
-0.2570106685 -0.1395641416 0.5647684336 4281217595
-0.2566620111 -0.1387481689 0.5640022755 4281085752
-0.2571215332 -0.1383688003 0.5650120378 4280954166
-0.2571766376 -0.1377705485 0.5651331544 4280822580
-0.2572315335 -0.1371719241 0.5652537346 4280625201
-0.2568816841 -0.1363581717 0.5644849539 4280493615
-0.2565314174 -0.1355459243 0.5637152791 4280427822
-0.2569901943 -0.1351608932 0.5647234321 4280362029
-0.2574489415 -0.1347735822 0.5657314658 4280164650
-0.2575027645 -0.1341730505 0.5658497214 4280295466
-0.2575563490 -0.1335721463 0.5659675002 4280163880
-0.2576097250 -0.1329708695 0.5660848022 4280098087
-0.2576628625 -0.1323692203 0.5662015676 4280098087
-0.2577157915 -0.1317671835 0.5663179159 4280163880
-0.2569579184 -0.1307523251 0.5646525025 4280295466
-0.2574156225 -0.1303567439 0.5656582713 4280427052
-0.2570623755 -0.1295502186 0.5648819804 4280492845
-0.2571142614 -0.1289486140 0.5649960041 4280624431
-0.2567602992 -0.1281442195 0.5642182231 4280624431
-0.2564059496 -0.1273413450 0.5634396076 4280624431
-0.2564570308 -0.1267405599 0.5635517836 4280690224
-0.2565078735 -0.1261394173 0.5636635423 4280821810
-0.2561525404 -0.1253392845 0.5628827214 4280887603
-0.2562028468 -0.1247383803 0.5629932880 4280887603
-0.2558468580 -0.1239403859 0.5622109771 4280887603
-0.2563028336 -0.1235355139 0.5632129312 4280887603
-0.2559462190 -0.1227387264 0.5624293089 4280887603
-0.2564018965 -0.1223312393 0.5634306669 4280953396
-0.2560446858 -0.1215356737 0.5626457334 4281019189
-0.2552805841 -0.1205497086 0.5609666705 4281084982
-0.2561422586 -0.1203312352 0.5628601313 4281084982
-0.2557840645 -0.1195384562 0.5620729923 4281084982
-0.2550187707 -0.1185581610 0.5603913069 4281084982
-0.2551614046 -0.1167555228 0.5607047677 4281216568
-0.2548014820 -0.1159687266 0.5599138141 4281216568
-0.2552553713 -0.1155520976 0.5609112382 4281150775
-0.2544876635 -0.1145832166 0.5592241883 4281084982
-0.2545339167 -0.1139826030 0.5593258739 4281084982
-0.2541726530 -0.1132002473 0.5585319996 4281084982
-0.2529961765 -0.1120585948 0.5559467673 4281019189
-0.2542639077 -0.1119993031 0.5587325096 4281019189
-0.2543091774 -0.1113983542 0.5588320494 4281019189
-0.2539466321 -0.1106195226 0.5580353141 4280953396
