VERSION 0.7
FIELDS x y z rgba
SIZE 4 4 4 4
TYPE F F F U
COUNT 1 1 1 1
WIDTH 920
HEIGHT 1
VIEWPOINT 0.0 0.0 0.0 1.0 0.0 0.0 0.0
POINTS 920
DATA ascii
-0.2608211935 -0.1755010933 0.5401820540 4280559406
-0.2608914077 -0.1749480069 0.5403275490 4280559406
-0.2605439425 -0.1741154492 0.5396078825 4280559406
-0.2618666589 -0.1743967980 0.5423473120 4280493613
-0.2615187764 -0.1735633463 0.5416268706 4280493613
-0.2615883946 -0.1730076075 0.5417710543 4280493613
-0.2612398565 -0.1721759290 0.5410491824 4280559406
-0.2617270648 -0.1718947738 0.5420582294 4280625199
-0.2617961168 -0.1713377088 0.5422012210 4280559406
-0.2614466548 -0.1705073863 0.5414775014 4280493613
-0.2619336545 -0.1702222377 0.5424860716 4280493613
-0.2615835965 -0.1693928093 0.5417611003 4280494126
-0.2620704174 -0.1691050082 0.5427693725 4280494126
-0.2621385157 -0.1685457528 0.5429103971 4280494126
-0.2617875934 -0.1677176952 0.5421835780 4280494126
-0.2622741759 -0.1674259156 0.5431913137 4280559406
-0.2623417079 -0.1668653339 0.5433312058 4280559406
-0.2632474005 -0.1668356657 0.5452069640 4280559406
-0.2620568871 -0.1654781401 0.5427413583 4280559406
-0.2621237338 -0.1649171710 0.5428798199 4280559406
-0.2617709041 -0.1640928090 0.5421490073 4280559406
-0.2622568607 -0.1637939513 0.5431554914 4280625199
-0.2623231113 -0.1632317007 0.5432927012 4280690992
-0.2628090084 -0.1629292965 0.5442990661 4280493613
-0.2628749907 -0.1623653024 0.5444357395 4280493613
-0.2633608282 -0.1620593369 0.5454418659 4280494126
-0.2638466656 -0.1617511511 0.5464481115 4280559919
-0.2647527456 -0.1616974026 0.5483246446 4280625712
-0.2648183405 -0.1611280888 0.5484605432 4280625712
-0.2644633055 -0.1603035182 0.5477252603 4280559917
-0.2645284235 -0.1597342640 0.5478600860 4280494124
-0.2645933330 -0.1591645926 0.5479944944 4280756785
-0.2646580338 -0.1585945189 0.5481285453 4280756785
-0.2647225559 -0.1580240130 0.5482621193 4280690992
-0.2635239661 -0.1567021310 0.5457797647 4280690992
-0.2644298971 -0.1566323489 0.5476560593 4280756785
-0.2640725374 -0.1558130085 0.5469158888 4280756785
-0.2637147605 -0.1549950689 0.5461749434 4280756785
-0.2633565962 -0.1541785300 0.5454331040 4280822578
-0.2638409436 -0.1538549662 0.5464362502 4280888371
-0.2634821832 -0.1530394405 0.5456932187 4280888371
-0.2639663219 -0.1527132392 0.5466959476 4280822578
-0.2644504905 -0.1523848027 0.5476986766 4280822578
-0.2645127475 -0.1518120170 0.5478276610 4280756785
-0.2649967968 -0.1514800340 0.5488300920 4280822578
-0.2654808164 -0.1511458158 0.5498325825 4280757298
-0.2659648359 -0.1508093625 0.5508350134 4280757298
-0.2660265863 -0.1502322257 0.5509629250 4280822576
-0.2665104866 -0.1498922110 0.5519651175 4280822576
-0.2669943869 -0.1495499760 0.5529672503 4280888369
-0.2674782574 -0.1492055058 0.5539693832 4280756783
-0.2675394416 -0.1486240029 0.5540961623 4280756783
-0.2680231929 -0.1482759714 0.5550979972 4280625197
-0.2685069144 -0.1479257196 0.5560998321 4280427818
-0.2689906061 -0.1475732177 0.5571016073 4280427818
-0.2703203559 -0.1476806998 0.5598556399 4281151541
-0.2695347965 -0.1466313004 0.5582286716 4281283127
-0.2708647847 -0.1467315406 0.5609831810 4281348920
-0.2717717886 -0.1465975046 0.5628616810 4281348920
-0.2726789415 -0.1464593858 0.5647404790 4281349175
-0.2735862732 -0.1463171542 0.5666196346 4281283382
-0.2753409743 -0.1466220021 0.5702537298 4281349175
-0.2741303146 -0.1453465074 0.5677464008 4281480761
-0.2767329812 -0.1460896581 0.5731366873 4282006577
-0.2780648768 -0.1461529136 0.5758951902 4288322705
-0.2802450359 -0.1466539502 0.5804104805 4290228561
-0.2803055942 -0.1460406184 0.5805358887 4289965389
-0.2812142074 -0.1458669156 0.5824177265 4290163791
-0.2821229696 -0.1456891000 0.5842998624 4290821721
-0.2826075256 -0.1452890038 0.5853034258 4290887504
-0.2830920517 -0.1448866725 0.5863068700 4290953297
-0.2835765183 -0.1444820613 0.5873101950 4291149386
-0.2840608954 -0.1440752149 0.5883134604 4290820421
-0.2845452726 -0.1436661035 0.5893166065 4290491969
-0.2850295603 -0.1432547271 0.5903196335 4290426176
-0.2855137885 -0.1428411007 0.5913224816 4290162225
-0.2868478894 -0.1428484768 0.5940855145 4290096432
-0.2864820659 -0.1420070827 0.5933278799 4289570607
-0.2873912752 -0.1417964399 0.5952109098 4289175849
-0.2878753543 -0.1413728446 0.5962134600 4289307692
-0.2879340351 -0.1407390982 0.5963350534 4289899829
-0.2884179056 -0.1403119117 0.5973371863 4290031667
-0.2884761989 -0.1396764666 0.5974579453 4289768495
-0.2889598310 -0.1392457038 0.5984595418 4289702701
-0.2894434035 -0.1388126761 0.5994610786 4290426424
-0.2903526425 -0.1385805905 0.6013441086 4290755389
-0.2904103100 -0.1379398555 0.6014636159 4290492217
-0.2904677391 -0.1372987330 0.6015825272 4289966643
-0.2905249298 -0.1366572231 0.6017009616 4289966643
-0.2905818820 -0.1360153556 0.6018189192 4290098230
-0.2910647094 -0.1355715841 0.6028189659 4290756160
-0.2915475070 -0.1351255625 0.6038187742 4290361150
-0.2911775410 -0.1342840642 0.6030526161 4291019080
-0.2912335694 -0.1336397529 0.6031686664 4291940184
-0.2912893593 -0.1329950541 0.6032841802 4291940184
-0.2917714715 -0.1325437725 0.6042826772 4291151456
-0.2918268442 -0.1318973899 0.6043973565 4289111873
-0.2923086882 -0.1314425468 0.6053953171 4286545190
-0.2923636436 -0.1307944804 0.6055091023 4286545190
-0.2924183607 -0.1301460713 0.6056224108 4288980321
-0.2928997576 -0.1296863407 0.6066194773 4289901423
-0.2917802334 -0.1271763742 0.6043007970 4294639615
-0.2914062440 -0.1263428032 0.6035262346 4294574079
-0.2910318077 -0.1255107671 0.6027507782 4294836222
-0.2910844386 -0.1248636469 0.6028597951 4294836222
-0.2911368012 -0.1242161691 0.6029682159 4294639357
-0.2911889255 -0.1235683411 0.6030761600 4294705150
-0.2912407815 -0.1229201704 0.6031835675 4294508543
-0.2917201221 -0.1224512011 0.6041763425 4294508543
-0.2917715609 -0.1218013838 0.6042828560 4294573823
-0.2926785052 -0.1215065122 0.6061612368 4294573823
-0.2927295864 -0.1208541021 0.6062669754 4294573823
-0.2932084203 -0.1203770936 0.6072587371 4294639615
-0.2932590544 -0.1197230518 0.6073635817 4294639615
-0.2933094203 -0.1190686673 0.6074678898 4294705151
-0.2937877774 -0.1185868233 0.6084586382 4294705151
-0.2938376963 -0.1179308146 0.6085619926 4294705151
-0.2938873768 -0.1172744781 0.6086648703 4294705151
-0.2939367592 -0.1166178063 0.6087671518 4294639615
-0.2944144607 -0.1161298379 0.6097565293 4294705151
-0.2944633961 -0.1154715493 0.6098578572 4294705151
-0.2945120931 -0.1148129329 0.6099587083 4294705151
-0.2945604920 -0.1141539961 0.6100589633 4294705151
-0.2946086526 -0.1134947315 0.6101587415 4294705151
-0.2946565747 -0.1128351390 0.6102579236 4294705151
-0.2947041988 -0.1121752262 0.6103565693 4294508543
-0.2947515547 -0.1115150005 0.6104546785 4294508543
-0.2952277660 -0.1110158116 0.6114409566 4294574079
-0.2952746749 -0.1103539914 0.6115381122 4294574079
-0.2953213155 -0.1096918508 0.6116347313 4294574079
-0.2953676879 -0.1090293974 0.6117307544 4294574079
-0.2958431840 -0.1085241437 0.6127155423 4294574079
-0.2958891094 -0.1078601107 0.6128106117 4294574079
-0.2963642478 -0.1073513478 0.6137946844 4294574079
-0.2964096963 -0.1066857353 0.6138888001 4294574079
-0.2964548469 -0.1060198098 0.6139823198 4294574079
-0.2969294786 -0.1055062711 0.6149653196 4294574079
-0.2969741523 -0.1048387811 0.6150578856 4294639615
-0.2970185876 -0.1041709855 0.6151498556 4294639615
-0.2970627248 -0.1035028994 0.6152412891 4294639615
-0.2971066236 -0.1028345078 0.6153321862 4294705151
-0.2967202067 -0.1020179763 0.6145318747 4294705151
-0.2967634797 -0.1013499647 0.6146215200 4294705151
-0.2968064845 -0.1006816626 0.6147105694 4294705151
-0.2968492210 -0.1000130698 0.6147990823 4294705151
-0.2968916893 -0.0993441939 0.6148870587 4294705151
-0.2969338596 -0.0986750275 0.6149743795 4294705151
-0.2974061668 -0.0981476158 0.6159526110 4294705151
-0.2974478900 -0.0974769145 0.6160389781 4294705151
-0.2979198098 -0.0969460309 0.6170164347 4294705151
-0.2979610264 -0.0962737948 0.6171017289 4294705151
-0.2980019748 -0.0956012830 0.6171865463 4294574079
-0.2980426252 -0.0949284956 0.6172707677 4294574079
-0.2980830073 -0.0942554325 0.6173543930 4294574079
-0.2985539138 -0.0937173292 0.6183297038 4294574079
-0.2985938191 -0.0930427536 0.6184123158 4294574079
-0.2986334264 -0.0923679024 0.6184943318 4294574079
-0.2986727655 -0.0916927829 0.6185758114 4294574079
-0.2987118065 -0.0910174027 0.6186566949 4294508543
-0.2983194888 -0.0902113914 0.6178441644 4294442751
-0.2992202342 -0.0897952393 0.6197096705 4294311167
-0.2992585003 -0.0891180933 0.6197889447 4294179583
-0.3023781776 -0.0705644786 0.6262500286 4290232008
-0.3024084270 -0.0698756576 0.6263126731 4289903043
-0.3028710485 -0.0692856088 0.6272707582 4289639616
-0.3029007316 -0.0685953945 0.6273322701 4289310651
-0.3029301465 -0.0679049715 0.6273931861 4289178551
-0.3029592633 -0.0672143549 0.6274535060 4289112758
-0.3029880822 -0.0665235370 0.6275132298 4289178550
-0.3030166328 -0.0658325255 0.6275722980 4289178550
-0.3030448556 -0.0651413202 0.6276307702 4289178550
-0.3026398420 -0.0643578470 0.6267919540 4289310136
-0.3026674688 -0.0636672452 0.6268491745 4289375929
-0.3026947975 -0.0629764572 0.6269057393 4289441722
-0.3031548858 -0.0623745881 0.6278586984 4289441722
-0.3031816781 -0.0616824366 0.6279141307 4289310136
-0.3032081425 -0.0609901063 0.6279689670 4289375927
-0.3036675155 -0.0603837334 0.6289203763 4289507513
-0.3036934435 -0.0596900545 0.6289740801 4290428358
-0.3037190735 -0.0589961968 0.6290271878 4290625737
-0.2827825248 -0.2239801735 0.5870161057 4290100935
-0.2824589014 -0.2230723798 0.5863443613 4286811285
-0.2821348608 -0.2221657485 0.5856716633 4285559933
-0.2822211981 -0.2215828151 0.5858508945 4284375659
-0.2823073566 -0.2209993303 0.5860297084 4283849315
-0.2803380787 -0.2188111395 0.5819417834 4282467662
-0.2783673704 -0.2166309208 0.5778508782 4281217595
-0.2772178352 -0.2150969654 0.5754646659 4281612353
-0.2744216919 -0.2122944593 0.5696602464 4281875268
-0.2757391334 -0.2126776725 0.5723950863 4281677889
-0.2696470320 -0.2073569000 0.5597487092 4281217338
-0.2717869878 -0.2083756477 0.5641909242 4280690994
-0.2681610882 -0.2049772441 0.5566641092 4280427822
-0.2674171329 -0.2037917972 0.5551198125 4280493615
-0.2666725218 -0.2026092857 0.5535740852 4280493615
-0.2659272552 -0.2014296949 0.5520269871 4280559408
-0.2647688985 -0.1999416202 0.5496224165 4280559408
-0.2631970942 -0.1981476396 0.5463595986 4280362029
-0.2624494731 -0.1969794631 0.5448076129 4280492845
-0.2604628801 -0.1948876977 0.5406836867 4280427052
-0.2584748864 -0.1928040534 0.5365568995 4280492845
-0.2585506141 -0.1922642142 0.5367141366 4280558638
-0.2577998936 -0.1911113709 0.5351557136 4280492845
-0.2566352487 -0.1896560937 0.5327381492 4280558638
-0.2567098737 -0.1891191602 0.5328930616 4280690224
-0.2563708127 -0.1882780790 0.5321891904 4280821810
-0.2568586171 -0.1880438775 0.5332018137 4280690224
-0.2565189898 -0.1872036010 0.5324967504 4280690224
-0.2565928102 -0.1866656691 0.5326500535 4280690224
-0.2570804358 -0.1864274740 0.5336623192 4280756017
-0.2567399442 -0.1855884045 0.5329554677 4280821810
-0.2572274804 -0.1853475422 0.5339674950 4280690224
-0.2568864226 -0.1845092922 0.5332595110 4280624431
-0.2569593787 -0.1839690506 0.5334109664 4280690224
-0.2570321858 -0.1834283471 0.5335620642 4280558638
-0.2566901147 -0.1825921983 0.5328519940 4280690224
-0.2567624450 -0.1820514500 0.5330021977 4280493613
-0.2568345964 -0.1815102398 0.5331519842 4280493613
-0.2569065988 -0.1809685826 0.5333014131 4280625199
-0.2573935688 -0.1807179451 0.5343122482 4280625199
-0.2578805685 -0.1804650873 0.5353232026 4280559406
-0.2575368881 -0.1796305925 0.5346097946 4280690992
-0.2576082647 -0.1790862381 0.5347579718 4280625199
-0.2580951154 -0.1788293868 0.5357685685 4280690992
-0.2581662536 -0.1782832593 0.5359162688 4280625199
-0.2582372427 -0.1777366698 0.5360636115 4280559406
-0.2583080232 -0.1771896183 0.5362105966 4280625199
-0.2583786547 -0.1766421348 0.5363571644 4280625199
-0.2588652670 -0.1763777584 0.5373673439 4280625199
-0.2589356601 -0.1758284867 0.5375134349 4280690992
-0.2594222426 -0.1755605787 0.5385234952 4280625197
-0.2603254020 -0.1755713522 0.5403983593 4280559404
-0.2603955567 -0.1750180870 0.5405439734 4280559404
-0.2604655325 -0.1744643897 0.5406892896 4280625197
-0.2609522045 -0.1741884798 0.5416994691 4280690990
-0.2614388764 -0.1739103645 0.5427097678 4280756783
-0.2610914409 -0.1730770618 0.5419885516 4280756785
-0.2607436180 -0.1722450852 0.5412665009 4280690992
-0.2612299621 -0.1719638556 0.5422760844 4280625199
-0.2617163360 -0.1716804057 0.5432857275 4280625199
-0.2613677084 -0.1708488911 0.5425620675 4280690992
-0.2614363134 -0.1702907532 0.5427044630 4280625199
-0.2619224489 -0.1700033098 0.5437136292 4280625199
-0.2619907856 -0.1694433987 0.5438554883 4280625199
-0.2616409659 -0.1686137021 0.5431292653 4280625199
-0.2621268928 -0.1683222651 0.5441379547 4280690992
-0.2621946335 -0.1677610427 0.5442786217 4280953396
-0.2622621953 -0.1671993732 0.5444188714 4280887603
-0.2623295784 -0.1666372865 0.5445587039 4280821810
-0.2623967528 -0.1660747677 0.5446981788 4280821810
-0.2620451450 -0.1652478278 0.5439682603 4280821808
-0.2621118426 -0.1646853536 0.5441067219 4280821808
-0.2621783316 -0.1641224325 0.5442447662 4280756785
-0.2622446120 -0.1635590941 0.5443823934 4280822578
-0.2623107433 -0.1629953235 0.5445196033 4280756785
-0.2627957761 -0.1626905948 0.5455265045 4280822578
-0.2628615797 -0.1621250659 0.5456631184 4280822576
-0.2629272044 -0.1615591198 0.5457993746 4280822576
-0.2638315260 -0.1615062803 0.5476765633 4280757296
-0.2643165290 -0.1611935496 0.5486833453 4280757296
-0.2643818557 -0.1606236249 0.5488190055 4280757296
-0.2644470036 -0.1600532681 0.5489541888 4280757296
-0.2645119429 -0.1594824940 0.5490890145 4280822578
-0.2641567290 -0.1586590707 0.5483516455 4280822578
-0.2642211616 -0.1580883712 0.5484853983 4280756785
-0.2638652325 -0.1572668254 0.5477465391 4280756785
-0.2639291883 -0.1566961855 0.5478792787 4280888371
-0.2635725439 -0.1558765471 0.5471389294 4280954164
-0.2632154822 -0.1550583094 0.5463977456 4281019957
-0.2632786334 -0.1544882506 0.5465288162 4281085750
-0.2629208863 -0.1536719352 0.5457862020 4281085750
-0.2629835010 -0.1531019807 0.5459161997 4281085750
-0.2634667754 -0.1527756751 0.5469194055 4281019957
-0.2639500797 -0.1524471343 0.5479226708 4280954164
-0.2640122771 -0.1518741399 0.5480517745 4280954164
-0.2644954622 -0.1515420377 0.5490548015 4280954164
-0.2649786174 -0.1512077153 0.5500577688 4280888371
-0.2654617727 -0.1508711576 0.5510607362 4280822578
-0.2659449279 -0.1505323648 0.5520637035 4280888369
-0.2664280534 -0.1501913369 0.5530666113 4280954162
-0.2664895058 -0.1496113390 0.5531941652 4280954162
-0.2669725120 -0.1492667645 0.5541968346 4280822576
-0.2678773701 -0.1491548270 0.5560751557 4280822576
-0.2683604360 -0.1488048434 0.5570778847 4280822576
-0.2688434720 -0.1484526247 0.5580806732 4280559659
-0.2689043581 -0.1478660256 0.5582070351 4280559659
-0.2693872452 -0.1475102454 0.5592094660 4281414968
-0.2698701322 -0.1471522301 0.5602118373 4281480761
-0.2707754076 -0.1470213234 0.5620911121 4281546554
-0.2716808617 -0.1468863338 0.5639706850 4281480761
-0.2725864649 -0.1467472613 0.5658505559 4281480761
-0.2730695009 -0.1463775039 0.5668532848 4281414968
-0.2748209238 -0.1466824859 0.5704889894 4281611575
-0.2757270932 -0.1465301812 0.5723700523 4281874747
-0.2757874131 -0.1459261626 0.5724952817 4282138163
-0.2771167755 -0.1459904015 0.5752547979 4286875259
-0.2784464359 -0.1460486799 0.5780150294 4288189491
-0.2806229591 -0.1465430558 0.5825331807 4288321077
-0.2815300822 -0.1463674456 0.5844162703 4288716862
-0.2828608155 -0.1464068890 0.5871786475 4288848448
-0.2824977040 -0.1455674022 0.5864248872 4288650802
-0.2821342051 -0.1447293609 0.5856702924 4288782388
-0.2834651470 -0.1447583139 0.5884331465 4288846633
-0.2839487791 -0.1443503797 0.5894370675 4287991324
-0.2844323516 -0.1439401954 0.5904409289 4287794455
-0.2849158645 -0.1435277462 0.5914446115 4287333904
-0.2853993177 -0.1431130320 0.5924482346 4287662343
-0.2863068879 -0.1429077834 0.5943321586 4288715031
-0.2867903113 -0.1424876302 0.5953357220 4288452634
-0.2872736752 -0.1420651972 0.5963391066 4289373736
-0.2881813943 -0.1418494284 0.5982233882 4289702702
-0.2882401943 -0.1412135661 0.5983454585 4289571116
-0.2887233794 -0.1407843679 0.5993484855 4290426678
-0.2887817919 -0.1401467919 0.5994697213 4289900334
-0.2896894813 -0.1399191618 0.6013540030 4289834539
-0.2897475958 -0.1392789483 0.6014745831 4289308195
-0.2902303934 -0.1388416290 0.6024768353 4289176609
-0.2902880907 -0.1381997019 0.6025965810 4289439781
-0.2903455496 -0.1375573874 0.6027158499 4289505322
-0.2904027700 -0.1369147003 0.6028346419 4289176357
-0.2904597223 -0.1362716407 0.6029528975 4288978979
-0.2905164361 -0.1356281936 0.6030706167 4291281734
-0.2905729115 -0.1349843740 0.6031878591 4292137045
-0.2910546660 -0.1345368624 0.6041879058 4291347529
-0.2911107242 -0.1338913590 0.6043042541 4289439278
-0.2911665440 -0.1332454681 0.6044201255 4288452383
-0.2912220955 -0.1325992197 0.6045354605 4288125228
-0.2917032540 -0.1321455091 0.6055343151 4287862056
-0.2917583883 -0.1314975768 0.6056487560 4287269167
-0.2922393084 -0.1310402900 0.6066470146 4288979785
-0.2922940254 -0.1303906739 0.6067606211 4290493562
-0.2927746475 -0.1299298108 0.6077584028 4290033011
-0.2916575968 -0.1274160147 0.6054394841 4294639615
-0.2912844121 -0.1265811622 0.6046648622 4294508031
-0.2909108400 -0.1257478595 0.6038893461 4294769663
-0.2909635007 -0.1250995249 0.6039986610 4294769663
-0.2910158932 -0.1244508475 0.6041073799 4294704383
-0.2910680175 -0.1238018125 0.6042156219 4294704383
-0.2911199033 -0.1231524348 0.6043233275 4294245631
-0.2911715209 -0.1225027069 0.6044304967 4294245631
-0.2916499078 -0.1220313087 0.6054235697 4294573566
-0.2917011082 -0.1213799417 0.6055298448 4294573566
-0.2921791971 -0.1209049970 0.6065223217 4294573566
-0.2922299504 -0.1202519909 0.6066276431 4294573566
-0.2931350768 -0.1199483499 0.6085065603 4294442493
-0.2931854725 -0.1192927584 0.6086111665 4294508286
-0.2932356000 -0.1186368242 0.6087151766 4294508286
-0.2932854593 -0.1179805622 0.6088187099 4294508286
-0.2933350503 -0.1173239574 0.6089217067 4294574079
-0.2933844030 -0.1166670322 0.6090241075 4294508286
-0.2934334874 -0.1160097644 0.6091260314 4294508286
-0.2934823334 -0.1153521761 0.6092273593 4294508286
-0.2939587831 -0.1148614436 0.6102164388 4294508286
-0.2935791910 -0.1140360087 0.6094284654 4294574079
-0.2936272323 -0.1133774370 0.6095281839 4294639615
-0.2941031158 -0.1128828600 0.6105160117 4294574079
-0.2941506803 -0.1122226864 0.6106148362 4294574079
-0.2941980064 -0.1115621924 0.6107130051 4294574079
-0.2946733534 -0.1110628098 0.6116998196 4294574079
-0.2947202325 -0.1104007214 0.6117970943 4294574079
-0.2947668135 -0.1097383201 0.6118938327 4294574079
-0.2948131561 -0.1090755984 0.6119899750 4294574079
-0.2948592007 -0.1084125713 0.6120855808 4294705151
-0.2957622707 -0.1080624536 0.6139602661 4294705151
-0.2958079278 -0.1073968783 0.6140550375 4294705151
-0.2958533168 -0.1067309976 0.6141492724 4294705151
-0.2958984375 -0.1060648039 0.6142429113 4294705151
-0.2959432900 -0.1053983122 0.6143360138 4294705151
-0.2959878743 -0.1047315150 0.6144285798 4294705151
-0.2960321903 -0.1040644199 0.6145205498 4294705151
-0.2960762382 -0.1033970267 0.6146119833 4294705151
-0.2961200178 -0.1027293354 0.6147028804 4294705151
-0.2961635292 -0.1020613462 0.6147931814 4294770687
-0.2962067425 -0.1013930663 0.6148829460 4294770687
-0.2962497175 -0.1007244959 0.6149721146 4294770687
-0.2962923944 -0.1000556350 0.6150606871 4294770687
-0.2959053516 -0.0992424414 0.6142572165 4294705151
-0.2959474325 -0.0985739753 0.6143445969 4294639615
-0.2968484163 -0.0981894210 0.6162149310 4294508031
-0.2968900800 -0.0975184441 0.6163014174 4294442239
-0.2969314754 -0.0968471840 0.6163873076 4294508031
-0.2969725728 -0.0961756483 0.6164726615 4294508031
-0.2974432409 -0.0956420451 0.6174497008 4294376446
-0.2974838614 -0.0949689820 0.6175339818 4294310653
-0.2975242138 -0.0942956433 0.6176177263 4294114045
-0.3011613786 -0.0753047988 0.6251679659 4290495180
-0.3011935651 -0.0746181682 0.6252347827 4290428615
-0.3012254536 -0.0739313215 0.6253010035 4290362822
-0.3012570739 -0.0732442513 0.6253666282 4290297029
-0.3012883961 -0.0725569651 0.6254316568 4290231236
-0.3013194203 -0.0718694702 0.6254960895 4290297029
-0.3013501763 -0.0711817592 0.6255599260 4290362822
-0.3013806343 -0.0704938471 0.6256231666 4290494408
-0.2810975909 -0.2225103080 0.5848669410 4287205275
-0.2807739973 -0.2216050625 0.5841935873 4285823105
-0.2804499567 -0.2207009941 0.5835193992 4284441452
-0.2797153592 -0.2194762677 0.5819909573 4283915108
-0.2785698175 -0.2179334462 0.5796074867 4282730834
-0.2774233818 -0.2163951993 0.5772221088 4281546560
-0.2762759924 -0.2148615420 0.5748348236 4281678146
-0.2759489715 -0.2139692903 0.5741544366 4281743680
-0.2735677361 -0.2114904672 0.5691998601 4281546301
-0.2736501396 -0.2109215558 0.5693713427 4281348922
-0.2712663114 -0.2084570825 0.5644114017 4280559406
-0.2692919672 -0.2063173354 0.5603035092 4280427820
-0.2681387365 -0.2048139125 0.5579040051 4280690992
-0.2678073347 -0.2039416879 0.5572144985 4280558636
-0.2670640349 -0.2027582675 0.5556679368 4280492843
-0.2663200796 -0.2015777677 0.5541200638 4280756269
-0.2651637197 -0.2000895292 0.5517140627 4280690476
-0.2635945976 -0.1982961148 0.5484492183 4280756017
-0.2616123259 -0.1962001175 0.5443248153 4280756017
-0.2600407898 -0.1944203675 0.5410549641 4280690224
-0.2568191886 -0.1914180368 0.5343520045 4280690224
-0.2564819753 -0.1905737519 0.5336502790 4280821810
-0.2561443150 -0.1897307336 0.5329477787 4280821810
-0.2562188506 -0.1891936213 0.5331028700 4280756017
-0.2558805048 -0.1883522570 0.5323988795 4280821810
-0.2563674152 -0.1881180108 0.5334119797 4280821810
-0.2560285032 -0.1872774512 0.5327067971 4280887603
-0.2565153241 -0.1870405376 0.5337197185 4280887603
-0.2565890253 -0.1865011007 0.5338730216 4280821810
-0.2566625476 -0.1859611869 0.5340260267 4280756017
-0.2567358911 -0.1854208261 0.5341786146 4280756017
-0.2563955188 -0.1845822781 0.5334704518 4280821810
-0.2568820715 -0.1843387038 0.5344827771 4280821810
-0.2569549084 -0.1837969571 0.5346342921 4280559919
-0.2561997771 -0.1826645434 0.5330631733 4280559919
-0.2562720180 -0.1821236312 0.5332134962 4280625712
-0.2567582428 -0.1818755865 0.5342251062 4280625712
-0.2564160228 -0.1810404062 0.5335130692 4280625712
-0.2569020987 -0.1807897091 0.5345244408 4280625712
-0.2573882341 -0.1805368066 0.5355359316 4280691505
-0.2574598491 -0.1799918413 0.5356849432 4280691505
-0.2571165860 -0.1791574806 0.5349707007 4280691505
-0.2580173612 -0.1791886538 0.5368449092 4280691505
-0.2576736212 -0.1783542633 0.5361297131 4280691505
-0.2581595480 -0.1780938059 0.5371407866 4280757298
-0.2582303882 -0.1775457114 0.5372881889 4280691505
-0.2578857839 -0.1767126024 0.5365711451 4280691505
-0.2583715320 -0.1764481664 0.5375818014 4280691505
-0.2588573098 -0.1761815101 0.5385925770 4280625712
-0.2585119307 -0.1753488183 0.5378739238 4280822576
-0.2598290443 -0.1756415516 0.5406143665 4280822576
-0.2598991096 -0.1750880927 0.5407602191 4280756783
-0.2599690259 -0.1745342016 0.5409056544 4280756783
-0.2608708441 -0.1745366007 0.5427820683 4280822576
-0.2605244219 -0.1737025529 0.5420612693 4280888369
-0.2601776123 -0.1728698462 0.5413396358 4280888369
-0.2606631517 -0.1725898683 0.5423499346 4280822576
-0.2611487508 -0.1723076850 0.5433602929 4280888369
-0.2608011365 -0.1714754105 0.5426370502 4280822576
-0.2612865865 -0.1711905599 0.5436470509 4280756785
-0.2613552213 -0.1706313342 0.5437898636 4280756785
-0.2614236474 -0.1700716764 0.5439322591 4280756785
-0.2615599632 -0.1689510345 0.5442158580 4280756785
-0.2620451152 -0.1686586142 0.5452253222 4280954164
-0.2621129155 -0.1680963039 0.5453663468 4280822576
-0.2621805072 -0.1675335616 0.5455070138 4280822576
-0.2622479200 -0.1669703871 0.5456472635 4280822576
-0.2618974447 -0.1661417931 0.5449180007 4280822576
-0.2623821497 -0.1658427268 0.5459265709 4280888369
-0.2620310783 -0.1650150567 0.5451960564 4280888369
-0.2620975971 -0.1644510478 0.5453344584 4280822576
-0.2621639371 -0.1638866067 0.5454725027 4280954162
-0.2622300684 -0.1633217484 0.5456101298 4281019441
-0.2627143562 -0.1630160362 0.5466177464 4281019441
-0.2627801895 -0.1624494046 0.5467547774 4281085234
-0.2632643878 -0.1621401310 0.5477622151 4281151027
-0.2633299530 -0.1615717560 0.5478985906 4281085234
-0.2633953393 -0.1610029638 0.5480346084 4281019441
-0.2634604871 -0.1604337394 0.5481702089 4281085234
-0.2635254562 -0.1598640978 0.5483053923 4281019441
-0.2631711662 -0.1590407789 0.5475682020 4281019957
-0.2640739679 -0.1589758843 0.5494466424 4280954164
-0.2628806233 -0.1576497704 0.5469637513 4281019957
-0.2625252306 -0.1568297446 0.5462242365 4281019957
-0.2638473213 -0.1570095867 0.5489750504 4280954164
-0.2634915113 -0.1561887264 0.5482347012 4280954164
-0.2622959316 -0.1548736691 0.5457471609 4281019955
-0.2624216676 -0.1537345946 0.5460087657 4281019955
-0.2624842227 -0.1531644464 0.5461388826 4280954162
-0.2629666328 -0.1528380364 0.5471426845 4280954164
-0.2634490430 -0.1525093913 0.5481464267 4280954164
-0.2635112107 -0.1519361883 0.5482757092 4280888371
-0.2639935017 -0.1516039819 0.5492792130 4280954164
-0.2644757926 -0.1512695551 0.5502827168 4281019955
-0.2649580836 -0.1509328932 0.5512862206 4281019955
-0.2658610344 -0.1508326381 0.5531648993 4280757298
-0.2663434148 -0.1504905820 0.5541685224 4280823091
-0.2664048970 -0.1499094665 0.5542964935 4280888371
-0.2668871284 -0.1495638490 0.5552998185 4280822578
-0.2669482827 -0.1489810050 0.5554271340 4280888371
-0.2678515315 -0.1488658935 0.5573064685 4280690992
-0.2687549591 -0.1487466991 0.5591861606 4280362029
-0.2696585655 -0.1486234218 0.5610662699 4280559408
-0.2692980170 -0.1478021592 0.5603160858 4281348920
-0.2702016532 -0.1476734728 0.5621962547 4281612092
-0.2706838250 -0.1473112404 0.5631994605 4281677368
-0.2715876997 -0.1471752971 0.5650801063 4281611575
-0.2724917233 -0.1470352709 0.5669611096 4281677618
-0.2729740143 -0.1466644555 0.5679645538 4281809204
-0.2730342448 -0.1460656375 0.5680899024 4281940790
-0.2743605673 -0.1461409032 0.5708494782 4281677618
-0.2765315771 -0.1466580480 0.5753666162 4282399792
-0.2787032723 -0.1471655071 0.5798851848 4285623649
-0.2774967253 -0.1458868980 0.5773747563 4285823002
-0.2779792249 -0.1454979479 0.5783786774 4286283553
-0.2797293663 -0.1457673311 0.5820201039 4286808865
-0.2806347013 -0.1455903351 0.5839037895 4286348314
-0.2823856175 -0.1458459049 0.5875468850 4285822734
-0.2828685939 -0.1454414129 0.5885517597 4286020113
-0.2833514810 -0.1450346708 0.5895565152 4285755399
-0.2842573524 -0.1448411942 0.5914412737 4285492227
-0.2838940620 -0.1439998001 0.5906853676 4285753600
-0.2843767107 -0.1435872018 0.5916896462 4285556224
-0.2848592997 -0.1431723386 0.5926937461 4286542848
-0.2853418291 -0.1427552253 0.5936977267 4288187663
-0.2862477601 -0.1425467283 0.5955826044 4287069952
-0.2867302597 -0.1421241462 0.5965865254 4288846363
-0.2876363099 -0.1419083029 0.5984717011 4289701413
-0.2889661789 -0.1418963820 0.6012386680 4288648725
-0.2890249491 -0.1412570924 0.6013609767 4290556981
-0.2890834510 -0.1406174004 0.6014827490 4290951739
-0.2895657122 -0.1401825845 0.6024861336 4290755392
-0.2900478840 -0.1397454888 0.6034893990 4290558013
-0.2896817327 -0.1388994008 0.6027275324 4290558799
-0.2897393703 -0.1382572204 0.6028474569 4289966662
-0.2897967696 -0.1376146674 0.6029668450 4290888771
-0.2898539007 -0.1369717419 0.6030857563 4291349322
-0.2903352678 -0.1365280300 0.6040873528 4290031932
-0.2899674773 -0.1356847435 0.6033220887 4288781865
-0.2904485166 -0.1352383941 0.6043229699 4288846892
-0.2905047536 -0.1345930099 0.6044399738 4289110064
-0.2909855545 -0.1341430694 0.6054403782 4287793691
-0.2910414040 -0.1334960014 0.6055565476 4287464726
-0.2906720340 -0.1326546073 0.6047880054 4288059696
-0.2911523283 -0.1322007328 0.6057873368 4288257075
-0.2916325331 -0.1317445934 0.6067864895 4290032732
-0.2916874588 -0.1310950816 0.6069007516 4291217006
-0.2921673954 -0.1306353807 0.6078993678 4290625154
-0.2917965353 -0.1297949851 0.6071277261 4291151498
-0.2919045985 -0.1284934431 0.6073525548 4294703871
-0.2915326655 -0.1276557595 0.6065787077 4294573567
-0.2911603153 -0.1268196255 0.6058039665 4294441983
-0.2903618217 -0.1258005798 0.6041425467 4294507519
-0.2904143929 -0.1251519918 0.6042519808 4294507519
-0.2904667258 -0.1245030612 0.6043608785 4294376446
-0.2905188203 -0.1238537803 0.6044692397 4294310653
-0.2905706465 -0.1232041419 0.6045770645 4294246134
-0.2910483479 -0.1227338612 0.6055710316 4294246134
-0.2910997570 -0.1220825836 0.6056779623 4294442239
-0.2911508977 -0.1214309633 0.6057843566 4294376446
-0.2916281223 -0.1209558323 0.6067773104 4294442239
-0.2925316989 -0.1206543297 0.6086573005 4294442239
-0.2925822735 -0.1199988201 0.6087625623 4294310653
-0.2922060490 -0.1191689968 0.6079797745 4294376446
-0.2922560275 -0.1185137704 0.6080837846 4294442239
-0.2923057973 -0.1178582013 0.6081872582 4294376446
-0.2923552692 -0.1172022969 0.6082902551 4294376446
-0.2924045026 -0.1165460646 0.6083926558 4294508031
-0.2928803861 -0.1160586774 0.6093828678 4294508031
-0.2929291725 -0.1154008284 0.6094843149 4294573823
-0.2925505936 -0.1145753786 0.6086966395 4294639615
-0.2930259407 -0.1140841395 0.6096856594 4294573823
-0.2922194898 -0.1130946204 0.6080077291 4294508031
-0.2935489416 -0.1129305363 0.6107738614 4294508031
-0.2935964763 -0.1122700945 0.6108727455 4294573823
-0.2936437428 -0.1116093397 0.6109710932 4294573823
-0.2941182554 -0.1111097634 0.6119583845 4294573823
-0.2941650450 -0.1104474068 0.6120557785 4294573823
-0.2937839627 -0.1096251681 0.6112628579 4294508031
-0.2942578793 -0.1091217548 0.6122488976 4294508031
-0.2947316468 -0.1086160988 0.6132346988 4294573823
-0.2947774827 -0.1079515293 0.6133300066 4294573823
-0.2948230207 -0.1072866544 0.6134247780 4294310654
-0.2948682904 -0.1066214666 0.6135190129 4294310654
-0.2949133217 -0.1059559733 0.6136126518 4294442239
-0.2949580550 -0.1052901745 0.6137057543 4294508031
-0.2950025201 -0.1046240777 0.6137982607 4294442239
-0.2986415029 -0.0796799883 0.6213697195 4290429385
-0.2986754775 -0.0789985806 0.6214404106 4290363592
-0.2987091541 -0.0783169493 0.6215105057 4290429385
-0.2797388136 -0.2219476253 0.5833879113 4287534240
-0.2794156373 -0.2210437804 0.5827139616 4286217863
-0.2790920436 -0.2201410979 0.5820391178 4284573038
-0.2783586681 -0.2189176530 0.5805097222 4283651936
-0.2776246369 -0.2176970840 0.5789788961 4282862420
-0.2760707438 -0.2158389091 0.5757382512 4281612353
-0.2741059363 -0.2136676461 0.5716406703 4281414974
-0.2741889656 -0.2130970359 0.5718138218 4281612094
-0.2734518647 -0.2118905634 0.5702766776 4281348922
-0.2710737288 -0.2094196826 0.5653170943 4281217336
-0.2695143521 -0.2075905055 0.5620651245 4280493613
-0.2679538429 -0.2057676613 0.5588107109 4280559406
-0.2676235735 -0.2048939317 0.5581219196 4280822578
-0.2668823004 -0.2037080079 0.5565760136 4280756015
-0.2661403716 -0.2025250196 0.5550287366 4280690222
-0.2645761371 -0.2007216215 0.5517665148 4280887855
-0.2634216845 -0.1992354095 0.5493589640 4280822062
-0.2614441812 -0.1971339583 0.5452349186 4280690224
-0.2598764896 -0.1953497380 0.5419656038 4280821810
-0.2583076656 -0.1935719252 0.5386938453 4280821810
-0.2559148371 -0.1911857873 0.5337036252 4280821810
-0.2555781901 -0.1903420836 0.5330016017 4280887603
-0.2564761639 -0.1904165745 0.5348742604 4280953396
-0.2557272613 -0.1892680079 0.5333124399 4280953396
-0.2558015585 -0.1887302697 0.5334674120 4281019189
-0.2558756769 -0.1881920546 0.5336219668 4281019189
-0.2559496164 -0.1876533777 0.5337761641 4280953396
-0.2560233772 -0.1871142387 0.5339300632 4280953396
-0.2560969889 -0.1865746379 0.5340835452 4280953396
-0.2561704516 -0.1860345602 0.5342366695 4280953396
-0.2562437057 -0.1854940206 0.5343894958 4280953396
-0.2563168108 -0.1849530190 0.5345419049 4280887603
-0.2563897371 -0.1844115555 0.5346940160 4280821810
-0.2568754554 -0.1841657162 0.5357069969 4280822578
-0.2569481432 -0.1836224645 0.5358585715 4280822578
-0.2561942339 -0.1824900657 0.5342863202 4280822578
-0.2562663555 -0.1819476336 0.5344367027 4280756785
-0.2563382983 -0.1814047396 0.5345867276 4280822578
-0.2564100623 -0.1808613986 0.5347363949 4280822578
-0.2564816475 -0.1803175956 0.5348857045 4280888371
-0.2565530539 -0.1797733456 0.5350346565 4280888371
-0.2570382059 -0.1795177162 0.5360463858 4280888371
-0.2566953599 -0.1786834747 0.5353314281 4280822578
-0.2571803927 -0.1784251779 0.5363429189 4280822578
-0.2576654553 -0.1781646758 0.5373545289 4280822578
-0.2577362061 -0.1776163876 0.5375020504 4280822578
-0.2573922873 -0.1767829806 0.5367848277 4280822578
-0.2578771710 -0.1765184700 0.5377960205 4280888371
-0.2583620846 -0.1762517542 0.5388073325 4280888371
-0.2588470578 -0.1759828180 0.5398187041 4280888369
-0.2593320608 -0.1757116616 0.5408301950 4280954162
-0.2594020665 -0.1751580238 0.5409761667 4280954162
-0.2598870397 -0.1748833209 0.5419875979 4280954162
-0.2607873380 -0.1748848557 0.5438650846 4280888369
-0.2604417503 -0.1740496308 0.5431444049 4280888369
-0.2600957453 -0.1732157320 0.5424228311 4280888369
-0.2601649463 -0.1726589948 0.5425671339 4280888369
-0.2606496513 -0.1723767221 0.5435779691 4280822578
-0.2611344159 -0.1720922291 0.5445889235 4280822578
-0.2607873380 -0.1712592244 0.5438650846 4280822578
-0.2608558834 -0.1706998050 0.5440080762 4280822578
-0.2609242499 -0.1701399535 0.5441506505 4280822578
-0.2609924376 -0.1695796698 0.5442928076 4280822578
-0.2618931532 -0.1695580631 0.5461712480 4280888371
-0.2611282170 -0.1684577614 0.5445759892 4280954164
-0.2624455690 -0.1686994880 0.5473232865 4280888371
-0.2616799176 -0.1676010042 0.5457265973 4280954164
-0.2617472708 -0.1670376360 0.5458670259 4280954164
-0.2622312903 -0.1667389125 0.5468764901 4280954164
-0.2622983456 -0.1661737710 0.5470163226 4281019957
-0.2623652220 -0.1656081975 0.5471557379 4281019957
-0.2620146573 -0.1647798121 0.5464246869 4281084980
-0.2620810270 -0.1642142832 0.5465630889 4281150773
-0.2621471882 -0.1636483073 0.5467010736 4281085234
-0.2622131705 -0.1630819291 0.5468387008 4281085234
-0.2626965940 -0.1627738923 0.5478468537 4281085234
-0.2627622783 -0.1622057408 0.5479838252 4281085234
-0.2632456422 -0.1618941426 0.5489917994 4281085234
-0.2633110285 -0.1613242477 0.5491282344 4281151027
-0.2633762360 -0.1607539207 0.5492641926 4281151027
-0.2635706365 -0.1590404063 0.5496696234 4281019955
-0.2632165551 -0.1582168490 0.5489311814 4281019957
-0.2628620863 -0.1573947072 0.5481919646 4281019957
-0.2625072002 -0.1565739512 0.5474518538 4281019957
-0.2634082437 -0.1565010399 0.5493309498 4281019957
-0.2622151375 -0.1551845819 0.5468427539 4281085748
-0.2622781098 -0.1546141207 0.5469741225 4281019955
-0.2619218230 -0.1537971944 0.5462310910 4281019955
-0.2619843185 -0.1532268375 0.5463613868 4280954162
-0.2624658644 -0.1529003233 0.5473656654 4280954164
-0.2629474103 -0.1525715739 0.5483699441 4280888371
-0.2634289563 -0.1522405893 0.5493741632 4280888369
-0.2634909451 -0.1516658664 0.5495033860 4280888369
-0.2639723718 -0.1513313204 0.5505074263 4280954162
-0.2644537985 -0.1509945542 0.5515114069 4280954162
-0.2653550804 -0.1508942842 0.5533909798 4280888884
-0.2658365667 -0.1505521238 0.5543951392 4280888884
-0.2663180530 -0.1502077132 0.5553992391 4280888371
-0.2667995095 -0.1498610675 0.5564033389 4280822578
-0.2668606937 -0.1492770910 0.5565309525 4280888371
-0.2677623928 -0.1491610408 0.5584114194 4280690992
-0.2678233385 -0.1485744268 0.5585385561 4280493615
-0.2687251866 -0.1484520435 0.5604192615 4280756787
-0.2696271837 -0.1483255774 0.5623003840 4281480508
-0.2705293298 -0.1481950283 0.5641818047 4281743680
-0.2714316547 -0.1480603814 0.5660635829 4281808954
-0.2719132304 -0.1476930082 0.5670678616 4281874747
-0.2715527415 -0.1468679905 0.5663160682 4281874999
-0.2728762627 -0.1469515264 0.5690762401 4281809206
-0.2729365230 -0.1463515610 0.5692019463 4281940790
-0.2742604613 -0.1464259773 0.5719629526 4281677618
-0.2751633227 -0.1462704241 0.5738458633 4282927417
-0.2764878273 -0.1463338435 0.5766080618 4286019688
-0.2786557972 -0.1468355805 0.5811293125 4286086435
-0.2778728306 -0.1457791477 0.5794964433 4286283814
-0.2796197534 -0.1460477263 0.5831396580 4286940712
-0.2805235088 -0.1458697617 0.5850244164 4286743333
-0.2814274132 -0.1456876695 0.5869094729 4286940962
-0.2823314369 -0.1455014646 0.5887947679 4287533099
-0.2828134894 -0.1450945884 0.5898000598 4287597862
-0.2832954526 -0.1446854323 0.5908052325 4287532069
-0.2841996849 -0.1444887221 0.5926909447 4287924761
-0.2842592597 -0.1438603550 0.5928152204 4288319519
-0.2851635516 -0.1436572373 0.5947010517 4289766695
-0.2856453955 -0.1432381123 0.5957059264 4290490418
-0.2861271799 -0.1428167075 0.5967106819 4288254226
-0.2866088748 -0.1423930526 0.5977152586 4289109535
-0.2870905399 -0.1419671178 0.5987197757 4290228270
-0.2875721455 -0.1415389329 0.5997241139 4287333378
-0.2884766459 -0.1413156837 0.6016104221 4290294326
-0.2885350883 -0.1406757534 0.6017323732 4289373224
-0.2890164852 -0.1402407736 0.6027362347 4286281483
-0.2894977927 -0.1398035288 0.6037400365 4286676241
-0.2891323566 -0.1389570981 0.6029779315 4287071785
-0.2891899347 -0.1383146942 0.6030980349 4287598129
-0.2892472744 -0.1376719028 0.6032176018 4289572422
-0.2884572148 -0.1366274655 0.6015699506 4290493524
-0.2897848785 -0.1365848482 0.6043387055 4290690136
-0.2898415625 -0.1359399706 0.6044569612 4288255795
-0.2898980081 -0.1352947056 0.6045746207 4284965382
-0.2899541855 -0.1346490830 0.6046918035 4285689105
-0.2904341221 -0.1341989785 0.6056926847 4286873379
-0.2909139693 -0.1337466240 0.6066934466 4286939172
-0.2905454338 -0.1329039633 0.6059248447 4288124986
-0.2910249233 -0.1324489713 0.6069248319 4288651330
-0.2910800576 -0.1317995787 0.6070397496 4289901649
-0.2911348939 -0.1311498284 0.6071541905 4290296407
-0.2911895216 -0.1304997057 0.6072680354 4290296191
-0.2912438810 -0.1298492253 0.6073814034 4291941016
-0.2909271121 -0.1283597797 0.6067208648 4294901247
-0.2905558646 -0.1275227368 0.6059466004 4294441983
-0.2901841700 -0.1266872138 0.6051714420 4294376191
-0.2898120880 -0.1258532554 0.6043955088 4294507773
-0.2898646295 -0.1252044141 0.6045050621 4294573566
-0.2899169028 -0.1245552227 0.6046140790 4294508031
-0.2899689376 -0.1239056885 0.6047225595 4294508031
-0.2900207043 -0.1232558042 0.6048305631 4294377464
-0.2900722325 -0.1226055697 0.6049379706 4294377464
-0.2901234925 -0.1219549850 0.6050449014 4294508031
-0.2905999720 -0.1214819252 0.6060386300 4294442239
-0.2910763621 -0.1210066155 0.6070320606 4294508031
-0.2915526330 -0.1205290556 0.6080253124 4294508031
-0.2916030884 -0.1198742390 0.6081305742 4294442239
-0.2912275195 -0.1190450415 0.6073473692 4294442239
-0.2912774086 -0.1183905080 0.6074513793 4294442239
-0.2913270295 -0.1177356392 0.6075548530 4294376446
-0.2913763821 -0.1170804352 0.6076577902 4294573823
-0.2914254963 -0.1164249033 0.6077601910 4294508031
-0.2919004560 -0.1159382835 0.6087507010 4294508031
-0.2919491231 -0.1152811348 0.6088522077 4294442239
-0.2915712297 -0.1144563183 0.6080641150 4294376446
-0.2911929488 -0.1136330962 0.6072751880 4294310653
-0.2920935154 -0.1133077070 0.6091533303 4294310653
-0.2921411097 -0.1126492545 0.6092525721 4294244860
-0.2921884656 -0.1119904742 0.6093513370 4294244863
-0.2926621735 -0.1114939079 0.6103392243 4294244863
-0.2927090526 -0.1108335331 0.6104370356 4294179070
-0.2779743671 -0.2210597247 0.5810540915 4288126377
-0.2776515186 -0.2201581299 0.5803791881 4286152840
-0.2773282230 -0.2192577124 0.5797034502 4284902773
-0.2770045400 -0.2183584571 0.5790268183 4283586913
-0.2762717307 -0.2171391547 0.5774950385 4282600018
-0.2755382359 -0.2159227282 0.5759618282 4281809732
-0.2743951678 -0.2143896967 0.5735724568 4281480767
-0.2748874128 -0.2141358554 0.5746013522 4281546560
-0.2737430036 -0.2126086056 0.5722091794 4281414974
-0.2713697553 -0.2101351172 0.5672483444 4281085750
-0.2677665651 -0.2067231089 0.5597165823 4280427820
-0.2698947191 -0.2077392638 0.5641650558 4280821808
-0.2675175071 -0.2052882165 0.5591959953 4281019187
-0.2667778432 -0.2041010261 0.5576498508 4280821808
-0.2639879286 -0.2013534606 0.5518180132 4280887601
-0.2657065988 -0.2020472437 0.5554105639 4280887601
-0.2625041008 -0.1990023702 0.5487163663 4280821808
-0.2613509297 -0.1975211650 0.5463058352 4280887603
-0.2597864270 -0.1957354248 0.5430355668 4280953396
-0.2582208216 -0.1939560920 0.5397629738 4281019189
-0.2566540539 -0.1921831816 0.5364879370 4281019189
-0.2554969490 -0.1907233447 0.5340691805 4281019189
-0.2568042576 -0.1911028028 0.5368019342 4281084982
-0.2552350760 -0.1893423051 0.5335218310 4281084982
-0.2553092837 -0.1888044029 0.5336769223 4281084982
-0.2553833127 -0.1882660240 0.5338316560 4281084982
-0.2554571927 -0.1877271831 0.5339860916 4281084982
-0.2555308640 -0.1871878654 0.5341401100 4281084982
-0.2564276159 -0.1872492135 0.5360145569 4281084982
-0.2556777596 -0.1861078441 0.5344471335 4281084982
-0.2557509542 -0.1855671406 0.5346001387 4281084982
-0.2562358975 -0.1853239089 0.5356138349 4281019189
-0.2563088536 -0.1847814023 0.5357663631 4280953396
-0.2563816607 -0.1842384338 0.5359185338 4280822578
-0.2564542592 -0.1836950034 0.5360702872 4280822578
-0.2561142743 -0.1828566492 0.5353596210 4280822578
-0.2561864257 -0.1823131740 0.5355104208 4280888371
-0.2562583983 -0.1817692369 0.5356608629 4280888371
-0.2559174299 -0.1809330136 0.5349481702 4280954164
-0.2559889257 -0.1803890318 0.5350975990 4280888371
-0.2560602725 -0.1798446029 0.5352467299 4280888371
-0.2561314404 -0.1792997122 0.5353954434 4280888371
-0.2566156387 -0.1790426970 0.5364075899 4280822578
-0.2570998967 -0.1787834615 0.5374198556 4280888371
-0.2571707368 -0.1782354414 0.5375679731 4280888371
-0.2568278611 -0.1774013191 0.5368512273 4280888371
-0.2577255964 -0.1774228662 0.5387278199 4280888371
-0.2573822439 -0.1765887141 0.5380100608 4280954164
-0.2578662932 -0.1763219237 0.5390218496 4280954164
-0.2587643862 -0.1763350517 0.5408992171 4280954164
-0.2588345110 -0.1757816821 0.5410457253 4281019957
-0.2593186796 -0.1755082458 0.5420578122 4281019957
-0.2593885362 -0.1749530882 0.5422038436 4281085750
-0.2602871358 -0.1749546677 0.5440822244 4281019957
-0.2599422634 -0.1741191596 0.5433613062 4280954164
-0.2600116730 -0.1735617667 0.5435064435 4280954164
-0.2592512965 -0.1724521071 0.5419170260 4280954164
-0.2601499557 -0.1724456847 0.5437954664 4281019957
-0.2610488534 -0.1724352539 0.5456744432 4280954164
-0.2607026100 -0.1716010571 0.5449506640 4280954162
-0.2603559494 -0.1707682014 0.5442260504 4281019955
-0.2604242563 -0.1702081710 0.5443688035 4281019955
-0.2604923546 -0.1696476787 0.5445111394 4281085748
-0.2613914013 -0.1696261168 0.5463904738 4281151541
-0.2606279850 -0.1685254127 0.5447946787 4281085748
-0.2623586357 -0.1690351516 0.5484123230 4281085750
-0.2620105147 -0.1682023406 0.5476846099 4281151543
-0.2612459958 -0.1671048105 0.5460865498 4281085750
-0.2617291808 -0.1668059975 0.5470964909 4281085750
-0.2617961466 -0.1662406623 0.5472365022 4281282359
-0.2622792423 -0.1659383029 0.5482463837 4281282359
-0.2619295418 -0.1651087105 0.5475153327 4281282359
-0.2615793943 -0.1642804891 0.5467834473 4281282359
-0.2616454959 -0.1637143195 0.5469216108 4281282359
-0.2617113888 -0.1631477475 0.5470593572 4281348152
-0.2621939480 -0.1628396213 0.5480680466 4281282359
-0.2622595727 -0.1622712761 0.5482051969 4281282359
-0.2627420425 -0.1619595736 0.5492137074 4281348152
-0.2628073692 -0.1613894850 0.5493502617 4281413945
-0.2628724873 -0.1608189493 0.5494863987 4281413945
-0.2629374266 -0.1602480114 0.5496221185 4281413945
-0.2630021572 -0.1596766412 0.5497574210 4281283127
-0.2630666792 -0.1591048390 0.5498923063 4281283127
-0.2631310225 -0.1585326344 0.5500267744 4281283129
-0.2631951272 -0.1579599977 0.5501608253 4281283129
-0.2628411949 -0.1571371406 0.5494210124 4281283129
-0.2629048228 -0.1565645784 0.5495539904 4281283129
-0.2621321082 -0.1554956138 0.5479387641 4281283127
-0.2621951103 -0.1549240500 0.5480704904 4281283127
-0.2622579336 -0.1543520689 0.5482017994 4281217334
-0.2623205483 -0.1537796855 0.5483326912 4281151541
-0.2619645000 -0.1529625505 0.5475884080 4281151541
-0.2628637552 -0.1528771222 0.5494681597 4281151541
-0.2625071704 -0.1520600766 0.5487228036 4281085748
-0.2634065151 -0.1519692838 0.5506027341 4281151541
-0.2638871968 -0.1516337097 0.5516074300 4281217334
-0.2643678486 -0.1512959152 0.5526121259 4281151541
-0.2648484707 -0.1509558707 0.5536168218 4281152054
-0.2653290927 -0.1506135911 0.5546215177 4281152054
-0.2662289739 -0.1505060941 0.5565025210 4281085748
-0.2667096555 -0.1501584053 0.5575073361 4280954162
-0.2671903372 -0.1498084813 0.5585120916 4280954164
-0.2680905461 -0.1496905684 0.5603938103 4280756785
-0.2677319944 -0.1488685608 0.5596442819 4280690994
-0.2682124972 -0.1485128254 0.5606487393 4281085752
-0.2691128254 -0.1483863294 0.5625306964 4281612094
-0.2695933878 -0.1480251849 0.5635352135 4281743680
-0.2704939544 -0.1478914320 0.5654176474 4281874749
-0.2718147933 -0.1479823142 0.5681786537 4282006335
-0.2727157474 -0.1478394419 0.5700619221 4281940794
-0.2731965780 -0.1474655867 0.5710670352 4281940794
-0.2740977705 -0.1473154426 0.5729507804 4282138171
-0.2741581202 -0.1467111558 0.5730769038 4281940792
-0.2754800022 -0.1467787325 0.5758400559 4283717195
-0.2763815224 -0.1466171890 0.5777245760 4286283122
-0.2781247199 -0.1468959898 0.5813683867 4287796809
-0.2786058784 -0.1465030611 0.5823741555 4287994188
-0.2795079052 -0.1463282406 0.5842596889 4288585805
-0.2804100811 -0.1461492926 0.5861455202 4288717391
-0.2813124061 -0.1459662318 0.5880316496 4288520515
-0.2817936242 -0.1455614567 0.5890375376 4288388929
-0.2826960981 -0.1453710794 0.5909239650 4288716346
-0.2831772864 -0.1449608505 0.5919298530 4288453174
-0.2840799391 -0.1447631419 0.5938166380 4288845861
-0.2849826813 -0.1445613056 0.5957037210 4291017030
-0.2854638994 -0.1441424191 0.5967096090 4292266829
-0.2863667905 -0.1439332515 0.5985969305 4291477313
-0.2860043049 -0.1430868059 0.5978391767 4290359345
-0.2860633135 -0.1424519569 0.5979625583 4291806791
-0.2865441144 -0.1420258731 0.5989675522 4290228270
-0.2870248258 -0.1415975392 0.5999724269 4287464964
-0.2879276574 -0.1413742155 0.6018596292 4290820672
-0.2879860699 -0.1407340467 0.6019816995 4287728401
-0.2880442142 -0.1400934905 0.6021032929 4284438784
-0.2885245681 -0.1396570206 0.6031073332 4284504576
-0.2890048623 -0.1392182857 0.6041113138 4285031951
-0.2886398435 -0.1383720934 0.6033483148 4285360916
-0.2886971235 -0.1377290636 0.6034680605 4286940209
-0.2887541652 -0.1370856315 0.6035872698 4287663932
-0.2888109386 -0.1364418268 0.6037059426 4288058944
-0.2892904282 -0.1359964758 0.6047081947 4287006256
-0.2897697985 -0.1355488598 0.6057102680 4285229342
-0.2881336212 -0.1341142803 0.6022900939 4285689893
-0.2894588113 -0.1340588331 0.6050601602 4286545200
-0.2895144224 -0.1334122121 0.6051765084 4287071544
-0.2904165089 -0.1331534088 0.6070621014 4288716369
-0.2904718220 -0.1325041503 0.6071777344 4288913748
-0.2896798551 -0.1314700991 0.6055222750 4289047110
-0.2905816734 -0.1312045157 0.6074073315 4289310282
-0.2902125418 -0.1303638369 0.6066357493 4290625424
-0.2903207541 -0.1290639043 0.6068618894 4294835455
-0.2903744578 -0.1284133941 0.6069741845 4294835455
-0.2895799577 -0.1273894906 0.6053134203 4294507775
-0.2896330059 -0.1267401576 0.6054243445 4294507775
-0.2892616987 -0.1259058565 0.6046481729 4294508286
-0.2893141508 -0.1252567768 0.6047578454 4294574079
-0.2889420986 -0.1244246215 0.6039801240 4294573823
-0.2889939845 -0.1237757877 0.6040886045 4294508031
-0.2890456319 -0.1231265962 0.6041965485 4294377468
-0.2890970409 -0.1224770620 0.6043039560 4294377468
