VERSION 0.7
FIELDS x y z rgba
SIZE 4 4 4 4
TYPE F F F U
COUNT 1 1 1 1
WIDTH 920
HEIGHT 1
VIEWPOINT 0.0 0.0 0.0 1.0 0.0 0.0 0.0
POINTS 920
DATA ascii
-0.2815082371 -0.1373144835 0.5763972998 4284242230
-0.2837117314 -0.1377438754 0.5809090137 4282730287
-0.2863451540 -0.1383710057 0.5863010287 4281611806
-0.2876912355 -0.1383669823 0.5890571475 4281809187
-0.2886081040 -0.1381513774 0.5909344554 4282401324
-0.2890955210 -0.1377270222 0.5919324756 4283717192
-0.2895828485 -0.1373004019 0.5929303169 4286085740
-0.2909295857 -0.1372770816 0.5956878066 4285690991
-0.2918467820 -0.1370459348 0.5975657701 4281414446
-0.2931939662 -0.1370115429 0.6003242135 4280559404
-0.2941114306 -0.1367711872 0.6022027135 4282006850
-0.2954590321 -0.1367257088 0.6049619913 4286612621
-0.2963767648 -0.1364761442 0.6068410873 4290494408
-0.2977247834 -0.1364195794 0.6096011996 4291416282
-0.2949870825 -0.1677585989 0.6053723693 4291218903
-0.2954812348 -0.1673658788 0.6063864231 4290889938
-0.2955500782 -0.1667309999 0.6065277457 4290363594
-0.2956187129 -0.1660956591 0.6066685915 4289639871
-0.2956871390 -0.1654598862 0.6068089604 4289310904
-0.2957552969 -0.1648236662 0.6069489121 4288389802
-0.2962488830 -0.1644232571 0.6079618335 4287468952
-0.2963166833 -0.1637852490 0.6081010103 4286350471
-0.2963842750 -0.1631467938 0.6082396507 4285823608
-0.2964515984 -0.1625079215 0.6083778739 4285363057
-0.2965187132 -0.1618686020 0.6085155606 4284901479
-0.2961594760 -0.1609971970 0.6077783108 4284704100
-0.2962259948 -0.1603579372 0.6079148650 4286151025
-0.2962923050 -0.1597182453 0.6080509424 4284966751
-0.2963583767 -0.1590781212 0.6081865430 4286348637
-0.2964242101 -0.1584375650 0.6083216667 4286874981
-0.2964898050 -0.1577965915 0.6084562540 4284835135
-0.2961284816 -0.1569290608 0.6077147126 4283058724
-0.2957667112 -0.1560629606 0.6069723368 4281873953
-0.2949776351 -0.1549740136 0.6053529978 4281939746
-0.2941879630 -0.1538883448 0.6037324071 4281545497
-0.2925435305 -0.1523611099 0.6003577113 4281808669
-0.2908981144 -0.1508408785 0.5969809890 4282598183
-0.2883972228 -0.1488864869 0.5918486714 4282927148
-0.2867496908 -0.1473821104 0.5884675980 4282401058
-0.2842463255 -0.1454473138 0.5833301544 4282006300
-0.2808865607 -0.1430876851 0.5764352679 4283585072
-0.2788079977 -0.1413931102 0.5721696615 4285690448
-0.2788668275 -0.1407870948 0.5722903609 4285558860
-0.2789254487 -0.1401806921 0.5724106431 4285098309
-0.2789838314 -0.1395739168 0.5725304484 4283387693
-0.2790419757 -0.1389667541 0.5726498365 4282861349
-0.2790999115 -0.1383592039 0.5727686882 4284177209
-0.2791576087 -0.1377512962 0.5728870630 4283650865
-0.2796432972 -0.1373533458 0.5738838315 4283650611
-0.2831272781 -0.1384190023 0.5810336471 4283584818
-0.2836134732 -0.1380100250 0.5820314884 4283058738
-0.2858136594 -0.1384289712 0.5865466595 4282466601
-0.2867286801 -0.1382183582 0.5884244442 4282072360
-0.2876438200 -0.1380036324 0.5903024673 4282401325
-0.2894165814 -0.1381942481 0.5939405560 4284440916
-0.2894743979 -0.1375618130 0.5940591693 4286480499
-0.2903898358 -0.1373347044 0.5959378481 4284111961
-0.2913053632 -0.1371034831 0.5978167057 4281348655
-0.2926501036 -0.1370690912 0.6005764008 4283388503
-0.2935658991 -0.1368286610 0.6024557948 4286809739
-0.2944817841 -0.1365840882 0.6043353677 4289705146
-0.2953977585 -0.1363353878 0.6062151790 4290955213
-0.2935873270 -0.1673439890 0.6038761735 4291416282
-0.2936560512 -0.1667120606 0.6040175557 4291021524
-0.2941490114 -0.1663196832 0.6050314903 4290560973
-0.2942173779 -0.1656859517 0.6051720977 4289968836
-0.2942855060 -0.1650517732 0.6053122878 4289770937
-0.2943534255 -0.1644171625 0.6054519415 4288784042
-0.2948459387 -0.1640184373 0.6064650416 4287797400
-0.2949134707 -0.1633820385 0.6066039205 4286547333
-0.2949807942 -0.1627451926 0.6067423820 4285889399
-0.2950478792 -0.1621079147 0.6068803668 4285494641
-0.2951147258 -0.1614702046 0.6070178747 4285164651
-0.2951813340 -0.1608320475 0.6071548462 4285362030
-0.2948222756 -0.1599626541 0.6064163446 4286808437
-0.2948883176 -0.1593245566 0.6065521836 4285821542
-0.2949541211 -0.1586860418 0.6066875458 4286282836
-0.2950197160 -0.1580470949 0.6068224311 4286282836
-0.2950850427 -0.1574077308 0.6069568396 4285361212
-0.2947242558 -0.1565417200 0.6062147021 4283453215
-0.2943630219 -0.1556771398 0.6054717302 4281807640
-0.2935753167 -0.1545896232 0.6038514376 4281873433
-0.2927869558 -0.1535053700 0.6022299528 4281677083
-0.2915717363 -0.1522019058 0.5997303724 4282137634
-0.2899293602 -0.1506819874 0.5963521600 4282664229
-0.2878595591 -0.1489484012 0.5920947790 4282664229
-0.2862151265 -0.1474434286 0.5887124538 4282072344
-0.2837164700 -0.1455078572 0.5835729837 4281940758
-0.2799363136 -0.1429293901 0.5757975578 4283585329
-0.2782883942 -0.1414520144 0.5724079609 4284440638
-0.2783471644 -0.1408457607 0.5725288987 4283453484
-0.2784057260 -0.1402391344 0.5726493001 4284308793
-0.2784640491 -0.1396321356 0.5727692842 4284242998
-0.2785221338 -0.1390247345 0.5728887916 4283387689
-0.2785799801 -0.1384169757 0.5730078220 4284177207
-0.2786376178 -0.1378088146 0.5731263161 4283453484
-0.2791224718 -0.1374107301 0.5741236210 4283255853
-0.2808898687 -0.1376388818 0.5777589679 4282992681
-0.2852234542 -0.1391105503 0.5866726637 4282861359
-0.2852814794 -0.1384868771 0.5867919922 4283124531
-0.2861948609 -0.1382762045 0.5886707306 4282598450
-0.2871083319 -0.1380614042 0.5905496478 4282401071
-0.2880219221 -0.1378424913 0.5924287438 4285032801
-0.2897917032 -0.1380272061 0.5960690379 4288190865
-0.2911337912 -0.1380010992 0.5988295078 4285690995
-0.2920479178 -0.1377669722 0.6007097960 4284704100
-0.2912489176 -0.1367244571 0.5990663767 4286547079
-0.2930196822 -0.1368860751 0.6027086377 4288520869
-0.2935054302 -0.1364422441 0.6037077904 4289968832
-0.2944196761 -0.1361943930 0.6055882573 4290824141
-0.2926135361 -0.1671708524 0.6032513976 4291482075
-0.2926821113 -0.1665395945 0.6033927202 4291153110
-0.2927504182 -0.1659079045 0.6035335660 4290823375
-0.2928185165 -0.1652757674 0.6036739349 4290362824
-0.2928863764 -0.1646431983 0.6038138866 4290231230
-0.2929540277 -0.1640101820 0.6039533019 4289178542
-0.2930214405 -0.1633767337 0.6040922999 4288125850
-0.2935127616 -0.1629783660 0.6051052213 4287007369
-0.2935798168 -0.1623431295 0.6052434444 4286480507
-0.2936466336 -0.1617074460 0.6053811908 4285888370
-0.2937132120 -0.1610713452 0.6055184603 4285558894
-0.2937795520 -0.1604347974 0.6056551933 4286151031
-0.2934210300 -0.1595669091 0.6049160957 4287400573
-0.2934868336 -0.1589304358 0.6050517559 4285624162
-0.2935523689 -0.1582935303 0.6051868796 4285558593
-0.2936176956 -0.1576561928 0.6053215265 4286545488
-0.2932577729 -0.1567911953 0.6045795083 4286413892
-0.2933225334 -0.1561539471 0.6047130227 4284176930
-0.2929618657 -0.1552908719 0.6039694548 4282465819
-0.2921754718 -0.1542047858 0.6023482084 4282136854
-0.2918138504 -0.1533455104 0.6016027331 4281808669
-0.2906008661 -0.1520424485 0.5991020203 4282203427
-0.2893870771 -0.1507445276 0.5965996981 4282466848
-0.2881725132 -0.1494517624 0.5940957665 4282335262
-0.2865314186 -0.1479443312 0.5907124877 4281874963
-0.2836118340 -0.1457872391 0.5846934319 4282664479
-0.2789869905 -0.1427708417 0.5751588941 4284374845
-0.2777681351 -0.1415108442 0.5726460814 4284177466
-0.2774007320 -0.1406882703 0.5718886852 4282729761
-0.2778853178 -0.1402975172 0.5728877187 4283256105
-0.2779435813 -0.1396902800 0.5730078220 4284572218
-0.2775752544 -0.1388693452 0.5722484589 4283782702
-0.2776329517 -0.1382622868 0.5723674297 4283914033
-0.2781170011 -0.1378662884 0.5733653307 4283519275
-0.2790276408 -0.1376785636 0.5752426982 4283058474
-0.2803651392 -0.1376963258 0.5780000687 4282992681
-0.2825565636 -0.1381253898 0.5825179219 4282861876
-0.2856024504 -0.1389601529 0.5887973309 4283454013
-0.2869413495 -0.1389543116 0.5915575624 4283256384
-0.2861450911 -0.1379132867 0.5899160504 4283124798
-0.2879112661 -0.1381050348 0.5935571790 4286151284
-0.2888233662 -0.1378809810 0.5954375863 4289638313
-0.2897355855 -0.1376527995 0.5973181725 4286677890
-0.2910753191 -0.1376225799 0.6000801325 4285888374
-0.2919878066 -0.1373851746 0.6019613147 4286941837
-0.2920451760 -0.1367432326 0.6020796299 4288915627
-0.2933853567 -0.1366987079 0.6048425436 4290429383
-0.2938702703 -0.1362515092 0.6058422327 4291482071
-0.2912862897 -0.1661257595 0.6018933058 4291612891
-0.2913543284 -0.1654956639 0.6020339131 4291152338
-0.2914221585 -0.1648651361 0.6021740437 4290625994
-0.2914897799 -0.1642341614 0.6023137569 4290428354
-0.2919802964 -0.1638402045 0.6033273339 4289507252
-0.2920475304 -0.1632074416 0.6034662724 4288717219
-0.2921145558 -0.1625742316 0.6036047339 4287861910
-0.2921813428 -0.1619406044 0.6037427783 4287335305
-0.2918243408 -0.1610727608 0.6030050516 4286414203
-0.2918905616 -0.1604391783 0.6031419039 4285821809
-0.2919565439 -0.1598051637 0.6032782793 4286282360
-0.2920223176 -0.1591707170 0.6034141779 4287597439
-0.2920878530 -0.1585358530 0.6035495400 4285360477
-0.2917291224 -0.1576713771 0.6028082967 4285427005
-0.2917940915 -0.1570365876 0.6029425859 4287795553
-0.2918588221 -0.1564013660 0.6030763388 4287532624
-0.2914990187 -0.1555393189 0.6023328304 4284703525
-0.2911387682 -0.1546786875 0.6015884876 4283321118
-0.2907781303 -0.1538195014 0.6008432508 4282465809
-0.2904170752 -0.1529617459 0.6000971794 4281874464
-0.2900555730 -0.1521054357 0.5993502140 4282400808
-0.2888441384 -0.1508070081 0.5968469977 4282203679
-0.2876318991 -0.1495137364 0.5943421125 4281808921
-0.2864188850 -0.1482256353 0.5918356180 4282137883
-0.2839299440 -0.1462857127 0.5866926312 4285164361
-0.2784637511 -0.1428301185 0.5753976703 4286743395
-0.2772472203 -0.1415696293 0.5728839636 4284901191
-0.2768805623 -0.1407467276 0.5721263289 4283387950
-0.2769388855 -0.1401405782 0.5722468495 4282795813
-0.2769970000 -0.1395340413 0.5723669529 4284177205
-0.2770548761 -0.1389271319 0.5724865198 4283914033
-0.2771125436 -0.1383198351 0.5726056695 4283848242
-0.2775957286 -0.1379237026 0.5736041069 4283453484
-0.2785046995 -0.1377359182 0.5754823685 4282861096
-0.2798397541 -0.1377537102 0.5782409906 4282926889
-0.2820271254 -0.1381829679 0.5827608109 4283322173
-0.2842151225 -0.1386025101 0.5872819424 4283782724
-0.2864037752 -0.1390122920 0.5918043852 4283585607
-0.2856090665 -0.1379708499 0.5901622772 4283585607
-0.2873719633 -0.1381627172 0.5938050151 4286941313
-0.2882824242 -0.1379385889 0.5956863165 4290428342
-0.2891929746 -0.1377103329 0.5975677967 4288060057
-0.2901036143 -0.1374779344 0.5994495153 4287862678
-0.2905876637 -0.1370401829 0.6004496813 4288849835
-0.2923519909 -0.1372010410 0.6040953398 4290494660
-0.2928360999 -0.1367559284 0.6050957441 4290758350
-0.2899607718 -0.1650829464 0.6005325913 4291415510
-0.2900283337 -0.1644540280 0.6006724834 4290889166
-0.2900956571 -0.1638246626 0.6008119583 4290691528
-0.2901627719 -0.1631948501 0.6009508967 4289967805
-0.2906520963 -0.1628012508 0.6019643545 4289177772
-0.2907188535 -0.1621696502 0.6021026373 4288519842
-0.2907853723 -0.1615376174 0.6022403836 4287993235
-0.2904289067 -0.1606712937 0.6015021205 4287006340
-0.2904948592 -0.1600393206 0.6016387343 4286216564
-0.2901376486 -0.1591748744 0.6008989215 4286216564
-0.2902030647 -0.1585429758 0.6010343432 4287466364
-0.2902682424 -0.1579106301 0.6011693478 4286084711
-0.2903331816 -0.1572778672 0.6013038754 4286282316
-0.2903978825 -0.1566446871 0.6014378667 4288387692
-0.2900389433 -0.1557836533 0.6006944776 4287664463
-0.2901031077 -0.1551505476 0.6008273363 4284966950
-0.2897434235 -0.1542914510 0.6000823975 4284110879
-0.2898070216 -0.1536584347 0.6002141237 4283387156
-0.2894465923 -0.1528012753 0.5994676352 4282335532
-0.2890857458 -0.1519455612 0.5987203121 4282730290
-0.2883004844 -0.1508694291 0.5970939994 4282269222
-0.2870905995 -0.1495756507 0.5945882201 4281940257
-0.2858799100 -0.1482870281 0.5920807719 4282729769
-0.2838199437 -0.1465654224 0.5878144503 4286940521
-0.2779398561 -0.1428893358 0.5756362677 4288519807
-0.2767256498 -0.1416283399 0.5731215477 4286348638
-0.2763597369 -0.1408051252 0.5723637342 4284309054
-0.2759934068 -0.1399833858 0.5716050267 4283387952
-0.2760513723 -0.1393775642 0.5717250705 4283848244
-0.2761090994 -0.1387713552 0.5718446374 4284045623
-0.2761666179 -0.1381647587 0.5719637275 4284045369
-0.2770738006 -0.1379810423 0.5738425851 4283387439
-0.2779811323 -0.1377932131 0.5757217407 4282730023
-0.2793137133 -0.1378110349 0.5784816146 4282598437
-0.2814970016 -0.1382405013 0.5830034018 4283190848
-0.2836809456 -0.1386602372 0.5875265598 4283980364
-0.2862909138 -0.1392771602 0.5929320455 4283914574
-0.2871997654 -0.1390584260 0.5948143005 4283717195
-0.2876831293 -0.1386304796 0.5958154202 4287401609
-0.2877407968 -0.1379961371 0.5959348083 4290822845
-0.2890754342 -0.1379709989 0.5986989141 4289704882
-0.2899844944 -0.1377375871 0.6005817056 4290231226
-0.2904677391 -0.1372987330 0.6015825272 4290889418
-0.2909509242 -0.1368575990 0.6025832295 4291481555
-0.2885697186 -0.1646697819 0.5990295410 4291547096
-0.2886370122 -0.1640424579 0.5991691947 4291020752
-0.2887040675 -0.1634146869 0.5993084311 4290955211
-0.2887709141 -0.1627864987 0.5994471908 4290297281
-0.2892591953 -0.1623945981 0.6004607677 4289506737
-0.2893256545 -0.1617646068 0.6005987525 4288848807
-0.2893919349 -0.1611341834 0.6007362604 4288387736
-0.2894579470 -0.1605033427 0.6008733511 4287400841
-0.2891016901 -0.1596390009 0.6001338363 4286611576
-0.2887450159 -0.1587760895 0.5993934274 4286348404
-0.2888101637 -0.1581457853 0.5995286703 4287335030
-0.2888750732 -0.1575150639 0.5996633768 4286545514
-0.2889397740 -0.1568839103 0.5997976661 4285953349
-0.2890042067 -0.1562523395 0.5999314785 4287400795
-0.2886458337 -0.1553928405 0.5991874933 4287598668
-0.2887097299 -0.1547613442 0.5993201137 4286282808
-0.2887733877 -0.1541294456 0.5994523168 4285558574
-0.2884139121 -0.1532723755 0.5987061262 4284769058
-0.2884770334 -0.1526405662 0.5988370776 4283585599
-0.2881168127 -0.1517854482 0.5980893373 4283322427
-0.2877562046 -0.1509317756 0.5973407626 4282532910
-0.2869718969 -0.1498585194 0.5957126617 4282532910
-0.2857636213 -0.1485684663 0.5932044983 4282467369
-0.2837077081 -0.1468452364 0.5889366865 4285625433
-0.2778388262 -0.1431667358 0.5767537355 4287204461
-0.2762034535 -0.1416870058 0.5733588934 4286480738
-0.2754145563 -0.1406470835 0.5717212558 4284704582
-0.2754726708 -0.1400414109 0.5718419552 4284244031
-0.2755305767 -0.1394353509 0.5719621181 4283716917
-0.2755882442 -0.1388289183 0.5720818639 4284045882
-0.2756457031 -0.1382220984 0.5722010732 4284045882
-0.2765512466 -0.1380383372 0.5740808845 4283190573
-0.2774568796 -0.1378504485 0.5759608746 4283058988
-0.2792113423 -0.1380781382 0.5796028376 4282730023
-0.2813906670 -0.1385068744 0.5841268301 4283717193
-0.2835706174 -0.1389258653 0.5886521339 4284704088
-0.2849020362 -0.1389210373 0.5914158821 4284177492
-0.2858090401 -0.1387041062 0.5932987332 4283453769
-0.2875656784 -0.1388933659 0.5969452262 4287598988
-0.2884730399 -0.1386662722 0.5988288522 4291020224
-0.2893805206 -0.1384350508 0.6007125974 4290428605
-0.2898630798 -0.1379973590 0.6017143130 4291020742
-0.2894953489 -0.1371545941 0.6009509563 4291415762
-0.2871811986 -0.1642561257 0.5975248218 4291350489
-0.2872482240 -0.1636304110 0.5976642370 4290955731
-0.2873150110 -0.1630042642 0.5978032351 4290692555
-0.2873815894 -0.1623776704 0.5979417562 4290100418
-0.2874479294 -0.1617506593 0.5980798006 4289442221
-0.2875140607 -0.1611232013 0.5982173681 4288915877
-0.2875799537 -0.1604953110 0.5983544588 4288586136
-0.2876456082 -0.1598669887 0.5984910727 4287599241
-0.2877110541 -0.1592382342 0.5986272097 4286808955
-0.2877762616 -0.1586090624 0.5987628698 4286479990
-0.2874197960 -0.1577481478 0.5980212092 4286873966
-0.2874844372 -0.1571190506 0.5981557369 4286413415
-0.2875488698 -0.1564895064 0.5982897878 4284702262
-0.2876130641 -0.1558595598 0.5984233618 4284570676
-0.2876770198 -0.1552291811 0.5985564590 4286741568
-0.2873188555 -0.1543717086 0.5978112221 4287794256
-0.2873822749 -0.1537414193 0.5979431272 4286347313
-0.2874454558 -0.1531107128 0.5980746150 4285360418
-0.2870862186 -0.1522556841 0.5973271728 4284046149
-0.2871488333 -0.1516250670 0.5974574089 4283322426
-0.2867888510 -0.1507720053 0.5967084169 4281940781
-0.2864284515 -0.1499203891 0.5959585905 4281809195
-0.2852225304 -0.1486298293 0.5934494734 4283453763
-0.2840158343 -0.1473444402 0.5909387469 4284243279
-0.2773128450 -0.1432259083 0.5769921541 4283387201
-0.2756806016 -0.1417455971 0.5735960007 4285689956
-0.2748932540 -0.1407052726 0.5719578266 4285822294
-0.2745282948 -0.1398838311 0.5711985230 4284440641
-0.2745860517 -0.1392784864 0.5713186264 4283519538
-0.2750667632 -0.1388864219 0.5723188519 4284045882
-0.2751241326 -0.1382793784 0.5724382401 4283980339
-0.2760280073 -0.1380955577 0.5743188858 4283453995
-0.2773554325 -0.1381184906 0.5770807862 4283190314
-0.2786831558 -0.1381354332 0.5798433423 4283848244
-0.2808584273 -0.1385643631 0.5843693018 4283915587
-0.2830343246 -0.1389835626 0.5888965726 4284573517
-0.2852108181 -0.1393930018 0.5934251547 4284375633
-0.2861163318 -0.1391741186 0.5953091979 4283915082
-0.2870219350 -0.1389511079 0.5971934199 4287401611
-0.2875036001 -0.1385196447 0.5981956124 4291217605
-0.2884093225 -0.1382892877 0.6000801325 4290757832
-0.2888909280 -0.1378523707 0.6010821462 4291481555
-0.2866345346 -0.1643232107 0.5977687836 4291350487
-0.2867015004 -0.1636972576 0.5979083776 4290955729
-0.2863483429 -0.1628321260 0.5971719623 4290824141
-0.2864147425 -0.1622062325 0.5973104239 4290232004
-0.2864809334 -0.1615799069 0.5974484086 4289639343
-0.2865468860 -0.1609531343 0.5975859761 4289047206
-0.2866126001 -0.1603259444 0.5977230072 4288586136
-0.2866781056 -0.1596983224 0.5978596210 4287730827
-0.2863229215 -0.1588370204 0.5971189141 4287072125
-0.2863878608 -0.1582094580 0.5972543359 4286611574
-0.2864525914 -0.1575814635 0.5973893404 4287005552
-0.2865170836 -0.1569530517 0.5975238085 4286545001
-0.2865813375 -0.1563242078 0.5976577997 4284833850
-0.2862244546 -0.1554663330 0.5969135761 4282991646
-0.2862881720 -0.1548375636 0.5970464349 4284504865
-0.2863516510 -0.1542083919 0.5971788168 4286939206
-0.2864148915 -0.1535788029 0.5973107219 4286808125
-0.2864778936 -0.1529487818 0.5974420905 4284965921
-0.2861193120 -0.1520943642 0.5966942906 4283651904
-0.2857602835 -0.1512413770 0.5959455371 4282533423
-0.2858224213 -0.1506119817 0.5960751176 4282138163
-0.2854626775 -0.1497609615 0.5953248739 4283256644
-0.2851025164 -0.1489114016 0.5945737362 4285296227
-0.2838982344 -0.1476245821 0.5920622945 4284440918
-0.2784739137 -0.1441587210 0.5807499886 4282269234
-0.2768451869 -0.1426740885 0.5773532987 4284243024
-0.2756375968 -0.1414130777 0.5748350024 4285954394
-0.2752736807 -0.1405885220 0.5740759969 4284243776
-0.2753316462 -0.1399801522 0.5741968751 4283651639
-0.2753893733 -0.1393713951 0.5743172765 4284112190
-0.2758693397 -0.1389750838 0.5753182173 4284046134
-0.2763492465 -0.1385765076 0.5763190389 4283980341
-0.2780970037 -0.1388085634 0.5799639821 4284374847
-0.2798452675 -0.1390327364 0.5836099386 4285098570
-0.2811711431 -0.1390399635 0.5863749981 4285231447
-0.2833431363 -0.1394574791 0.5909046531 4285428826
-0.2846697569 -0.1394508183 0.5936712623 4284441428
-0.2855736017 -0.1392318755 0.5955561996 4285296737
-0.2864775360 -0.1390087903 0.5974413753 4288783264
-0.2869583368 -0.1385771781 0.5984440446 4291480777
-0.2874390483 -0.1381433010 0.5994465947 4291744727
-0.2852494717 -0.1639088243 0.5962613821 4291481303
-0.2853161693 -0.1632844955 0.5964007378 4291086545
-0.2853826284 -0.1626597345 0.5965396762 4290955211
-0.2854488492 -0.1620345265 0.5966781378 4290297281
-0.2855148613 -0.1614088863 0.5968160629 4289639341
-0.2855806351 -0.1607828140 0.5969535708 4289047204
-0.2856462002 -0.1601563245 0.5970906019 4288585877
-0.2857115269 -0.1595293880 0.5972271562 4287796361
-0.2853569686 -0.1586686820 0.5964860916 4287203964
-0.2854217589 -0.1580418199 0.5966215134 4286743413
-0.2854863107 -0.1574145257 0.5967563987 4286940014
-0.2855506241 -0.1567867994 0.5968908668 4286413670
-0.2851947248 -0.1559290141 0.5961468816 4285689416
-0.2852584720 -0.1553013772 0.5962802172 4283320868
-0.2849018276 -0.1544455141 0.5955346823 4283518487
-0.2849650383 -0.1538179517 0.5956668258 4285229105
-0.2850280404 -0.1531899869 0.5957984924 4286479423
-0.2850908041 -0.1525615901 0.5959296823 4285229356
-0.2851533294 -0.1519327909 0.5960603952 4283520318
-0.2852156460 -0.1513035744 0.5961906314 4282928181
-0.2852776945 -0.1506739557 0.5963203907 4283059013
-0.2844978273 -0.1496013105 0.5946902037 4284111701
-0.2841383219 -0.1487523466 0.5939387083 4286217077
-0.2833573520 -0.1476853937 0.5923061967 4285690733
-0.2796278894 -0.1450921744 0.5845105052 4283387717
-0.2775814533 -0.1433856487 0.5802327991 4283453510
-0.2763765156 -0.1421213597 0.5777140856 4286085980
-0.2760135829 -0.1412936896 0.5769554377 4283914811
-0.2756502628 -0.1404675096 0.5761959553 4283783227
-0.2757081091 -0.1398566514 0.5763168931 4284309571
-0.2761873901 -0.1394583285 0.5773187280 4284244029
-0.2766666114 -0.1390577555 0.5783204436 4284507201
-0.2784112692 -0.1392880529 0.5819673538 4285559121
-0.2797344923 -0.1393003613 0.5847333074 4286282844
-0.2814799845 -0.1395158470 0.5883819461 4286152295
-0.2832259536 -0.1397234499 0.5920315981 4285428572
-0.2845502198 -0.1397158653 0.5947996974 4284244049
-0.2850301862 -0.1392895728 0.5958030224 4286809976
-0.2855100930 -0.1388610005 0.5968061686 4290494652
-0.2859899402 -0.1384301633 0.5978091955 4291942098
-0.2838669717 -0.1634939760 0.5947522521 4291547350
-0.2839333713 -0.1628712565 0.5948914289 4291218385
-0.2835812867 -0.1620091498 0.5941537619 4290954953
-0.2836471498 -0.1613864899 0.5942917466 4290428609
-0.2837128043 -0.1607633829 0.5944293141 4289836205
-0.2837782204 -0.1601398438 0.5945663452 4289178275
-0.2838434279 -0.1595158726 0.5947029591 4288585874
-0.2839083970 -0.1588914841 0.5948390961 4287796358
-0.2839731276 -0.1582666636 0.5949747562 4287203960
-0.2836187184 -0.1574088931 0.5942321420 4286743409
-0.2841019332 -0.1570157260 0.5952445865 4286808937
-0.2841660082 -0.1563896239 0.5953788161 4286479972
-0.2838106155 -0.1555333585 0.5946342349 4286479445
-0.2838741541 -0.1549073458 0.5947673321 4284834620
-0.2839374244 -0.1542809010 0.5948999524 4284571436
-0.2840004861 -0.1536540389 0.5950320363 4284505643
-0.2840633392 -0.1530267745 0.5951637030 4286282308
-0.2841259241 -0.1523990780 0.5952948928 4285229620
-0.2841883004 -0.1517709792 0.5954255462 4282993719
-0.2842504382 -0.1511424482 0.5955557227 4283256891
-0.2843123674 -0.1505135298 0.5956854820 4283256393
-0.2843740284 -0.1498841792 0.5958147049 4283914323
-0.2840153277 -0.1490339786 0.5950631499 4285098343
-0.2832359970 -0.1479656845 0.5934302807 4285822066
-0.2811951041 -0.1462448984 0.5891542435 4284045906
-0.2783122659 -0.1440977007 0.5831141472 4282730046
-0.2771099210 -0.1428301036 0.5805950761 4285954394
-0.2767480016 -0.1419993192 0.5798367858 4284309569
-0.2763856947 -0.1411700249 0.5790776610 4284243778
-0.2764437497 -0.1405561417 0.5791993141 4284638536
-0.2773432732 -0.1403678656 0.5810839534 4285033547
-0.2778219581 -0.1399634033 0.5820869207 4284967754
-0.2791426778 -0.1399789453 0.5848540664 4285822294
-0.2804636657 -0.1399884820 0.5876217484 4287072361
-0.2817849517 -0.1399920136 0.5903900862 4286152295
-0.2826852202 -0.1397812217 0.5922763348 4285099607
-0.2835856080 -0.1395662725 0.5941628218 4286218609
-0.2840646505 -0.1391407549 0.5951664448 4289771431
-0.2824869752 -0.1630786657 0.5932414532 4291678936
-0.2821357548 -0.1622176021 0.5925039053 4291218385
-0.2826190293 -0.1618360281 0.5935187936 4291217607
-0.2822671831 -0.1609759182 0.5927798748 4290691263
-0.2823325694 -0.1603544354 0.5929172039 4289967787
-0.2823977172 -0.1597325057 0.5930539966 4289178271
-0.2824626565 -0.1591101587 0.5931903720 4288388747
-0.2825273573 -0.1584873796 0.5933262706 4287533438
-0.2825918198 -0.1578641683 0.5934616923 4286941041
-0.2826561034 -0.1572405398 0.5935966372 4286612076
-0.2823019028 -0.1563848108 0.5928527713 4287006568
-0.2827839255 -0.1559920013 0.5938650966 4286743396
-0.2828475237 -0.1553671062 0.5939986110 4286743383
-0.2824923694 -0.1545128673 0.5932527781 4286151246
-0.2825554013 -0.1538880616 0.5933851600 4285427775
-0.2826181948 -0.1532628238 0.5935170054 4283519778
-0.2826807797 -0.1526371688 0.5936484337 4285558593
-0.2827431262 -0.1520111114 0.5937793851 4285427007
-0.2828052342 -0.1513846219 0.5939098597 4282730808
-0.2828671336 -0.1507577300 0.5940397978 4282730808
-0.2829287946 -0.1501304358 0.5941693187 4283387727
-0.2829902172 -0.1495027244 0.5942983031 4284769380
-0.2826320827 -0.1486540437 0.5935462117 4285295724
-0.2822735310 -0.1478068233 0.5927932262 4285493103
-0.2810755372 -0.1465236843 0.5902773738 4283256392
-0.2790375650 -0.1448102146 0.5859974623 4283453771
-0.2778378725 -0.1435393244 0.5834780335 4284770122
-0.2774769664 -0.1427054256 0.5827201009 4284309571
-0.2771156430 -0.1418730021 0.5819613338 4285033294
-0.2767539322 -0.1410420537 0.5812016726 4284901708
-0.2776519656 -0.1408518702 0.5830876231 4284966982
-0.2785500884 -0.1406575441 0.5849737525 4285361740
-0.2794483602 -0.1404590905 0.5868601799 4285822808
-0.2807670534 -0.1404667795 0.5896294713 4285888601
-0.2816656232 -0.1402591169 0.5915165544 4284639827
-0.2821438313 -0.1398389190 0.5925208330 4286021480
-0.2826219797 -0.1394164413 0.5935249329 4289442211
-0.2831000388 -0.1389917135 0.5945289731 4292205517
-0.2811095715 -0.1626628935 0.5917289853 4291678936
-0.2811754346 -0.1620434076 0.5918676257 4291152592
-0.2812410891 -0.1614234746 0.5920058489 4291217605
-0.2813065052 -0.1608031243 0.5921435952 4290559675
-0.2813717127 -0.1601823270 0.5922808051 4289704615
-0.2814367115 -0.1595611125 0.5924175978 4288783513
-0.2815014720 -0.1589394510 0.5925539732 4287928196
-0.2815659940 -0.1583173722 0.5926898122 4287138680
-0.2812130749 -0.1574612409 0.5919468999 4286678121
-0.2812770903 -0.1568392366 0.5920816064 4286480742
-0.2813408673 -0.1562168002 0.5922158957 4286809440
-0.2814044058 -0.1555939317 0.5923496485 4286743647
-0.2814677358 -0.1549706608 0.5924829245 4286743894
-0.2815308273 -0.1543469578 0.5926157236 4286743894
-0.2815936804 -0.1537228376 0.5927481055 4286019914
-0.2816563249 -0.1530983001 0.5928799510 4283782952
-0.2817187607 -0.1524733603 0.5930113196 4285427272
-0.2817809284 -0.1518479884 0.5931422114 4285493065
-0.2814247310 -0.1509978473 0.5923924446 4282927938
-0.2814863622 -0.1503725797 0.5925221443 4282730559
-0.2815477848 -0.1497469097 0.5926514268 4284177243
-0.2816089690 -0.1491208225 0.5927802324 4285887861
-0.2816699147 -0.1484943330 0.5929085016 4286348412
-0.2808933854 -0.1474280208 0.5912739635 4285361517
-0.2805349827 -0.1465837955 0.5905195475 4283256139
-0.2793385684 -0.1453053504 0.5880011320 4285164136
-0.2781414092 -0.1440320909 0.5854811072 4284638797
-0.2782003880 -0.1434119940 0.5856052637 4284507211
-0.2778401077 -0.1425764561 0.5848468542 4284967499
-0.2770602405 -0.1415282786 0.5832052827 4284835913
-0.2779567540 -0.1413361579 0.5850924253 4285033029
-0.2788533866 -0.1411399096 0.5869798064 4285296201
-0.2797501385 -0.1409395188 0.5888674855 4284770120
-0.2802275121 -0.1405246258 0.5898723006 4284112190
-0.2811244130 -0.1403169036 0.5917602777 4286218861
-0.2811820805 -0.1396880597 0.5918816328 4289705890
-0.2816592753 -0.1392663866 0.5928860903 4292073933
-0.2797347009 -0.1622466594 0.5902147889 4291612889
-0.2798002958 -0.1616287827 0.5903532505 4291086545
-0.2798656821 -0.1610104740 0.5904911757 4291085760
-0.2799308300 -0.1603917331 0.5906286836 4290493623
-0.2799957693 -0.1597725600 0.5907656550 4289638822
-0.2800604999 -0.1591529548 0.5909022093 4288915099
-0.2801249921 -0.1585329175 0.5910383463 4288191368
-0.2801892757 -0.1579124629 0.5911739469 4287467645
-0.2798368931 -0.1570578516 0.5904304385 4287138672
-0.2799006402 -0.1564374715 0.5905649662 4287007086
-0.2803807557 -0.1560485214 0.5915779471 4287072609
-0.2804441452 -0.1554263681 0.5917117000 4287006816
-0.2800905108 -0.1545737684 0.5909655094 4286941527
-0.2801533341 -0.1539516896 0.5910981297 4286809941
-0.2806329429 -0.1535573751 0.5921100378 4286941275
-0.2806954086 -0.1529335380 0.5922418833 4286546517
-0.2803404927 -0.1520829648 0.5914930105 4286742882
-0.2804024220 -0.1514592320 0.5916236639 4284571713
-0.2804641426 -0.1508350819 0.5917539001 4282993480
-0.2801081538 -0.1499869972 0.5910028219 4283256652
-0.2801693380 -0.1493629515 0.5911318660 4284703846
-0.2806478739 -0.1489601731 0.5921415687 4285690741
-0.2802909613 -0.1481136382 0.5913884640 4286085240
-0.2799336016 -0.1472685784 0.5906345248 4284506208
-0.2795758545 -0.1464249790 0.5898796916 4284900968
-0.2792177200 -0.1455828398 0.5891240239 4286216828
-0.2780229747 -0.1443081498 0.5866032839 4284375374
-0.2780819833 -0.1436868906 0.5867277980 4284835925
-0.2781407833 -0.1430652291 0.5868518353 4284770120
-0.2773626447 -0.1420147717 0.5852100253 4284770120
-0.2778392434 -0.1416074634 0.5862155557 4284639039
-0.2787342668 -0.1414102167 0.5881040096 4284046902
-0.2792108357 -0.1409974545 0.5891095400 4284704329
-0.2801060379 -0.1407928616 0.5909982920 4287204463
-0.2805825472 -0.1403746307 0.5920037031 4290363566
-0.2783623934 -0.1618299484 0.5886989236 4291612889
-0.2784277201 -0.1612136960 0.5888370872 4291086545
-0.2784928381 -0.1605970114 0.5889748335 4291085760
-0.2785577476 -0.1599798799 0.5891120434 4290559416
-0.2786224186 -0.1593623310 0.5892488360 4290099373
-0.2786868513 -0.1587443501 0.5893851519 4289770408
-0.2787511051 -0.1581259370 0.5895209908 4289178263
-0.2788151205 -0.1575070918 0.5896563530 4288520333
-0.2784632742 -0.1566540152 0.5889123082 4288125567
-0.2785267532 -0.1560352594 0.5890465379 4287862395
-0.2790058255 -0.1556480378 0.5900596976 4288126067
-0.2790689468 -0.1550274938 0.5901932120 4287533930
-0.2791318297 -0.1544065475 0.5903261900 4287666019
-0.2791945040 -0.1537851691 0.5904587507 4287534433
-0.2792569697 -0.1531633884 0.5905908346 4287862379
-0.2793191671 -0.1525411755 0.5907224417 4288257137
-0.2793811858 -0.1519185603 0.5908535719 4287335022
-0.2794429362 -0.1512955129 0.5909841657 4284045372
-0.2795045078 -0.1506720632 0.5911143422 4282862414
-0.2791491747 -0.1498245895 0.5903629065 4283717723
-0.2792101800 -0.1492012441 0.5904918909 4285032811
-0.2796877623 -0.1487992555 0.5915019512 4285690741
-0.2793314755 -0.1479533464 0.5907484293 4285822581
-0.2789748013 -0.1471088976 0.5899940729 4283914584
-0.2790347934 -0.1464848667 0.5901209712 4287467155
-0.2786773741 -0.1456423998 0.5893650651 4287138190
-0.2779022753 -0.1445843130 0.5877258778 4282928187
-0.2779613137 -0.1439618915 0.5878507495 4283125566
-0.2780201137 -0.1433390677 0.5879750848 4283257394
-0.2776611745 -0.1425015628 0.5872159600 4283257394
-0.2773018181 -0.1416655332 0.5864559412 4283191593
-0.2781951725 -0.1414682269 0.5883452892 4284902211
-0.2790886462 -0.1412667930 0.5902348757 4288191617
-0.2791464627 -0.1406401396 0.5903571844 4291415474
-0.2769926488 -0.1614127904 0.5871813893 4291547866
-0.2770577371 -0.1607981473 0.5873193145 4291218901
-0.2771225572 -0.1601830721 0.5874567628 4290889417
-0.2771871984 -0.1595675796 0.5875937939 4290626245
-0.2772516012 -0.1589516401 0.5877302885 4290493880
-0.2773157954 -0.1583352834 0.5878663659 4290296501
-0.2773797810 -0.1577184945 0.5880019665 4290296484
-0.2774435282 -0.1571012735 0.5881371498 4289835933
-0.2775070369 -0.1564836353 0.5882717967 4289506699
-0.2775703371 -0.1558655798 0.5884060264 4289309320
-0.2776334286 -0.1552470922 0.5885397196 4289836167
-0.2776963115 -0.1546281874 0.5886729956 4289901960
-0.2777589262 -0.1540088654 0.5888057947 4290099327
-0.2778213620 -0.1533891112 0.5889381170 4289901948
-0.2778835595 -0.1527689546 0.5890699029 4290230923
-0.2779455185 -0.1521483809 0.5892012715 4289770372
-0.2780072689 -0.1515273899 0.5893321633 4286020201
-0.2780687809 -0.1509059817 0.5894625783 4282927930
-0.2781300545 -0.1502841562 0.5895925164 4282928465
-0.2777753174 -0.1494382322 0.5888404846 4283520602
-0.2782519758 -0.1490392983 0.5898509622 4285098856
-0.2783125937 -0.1484162509 0.5899794102 4285427821
-0.2783729732 -0.1477928013 0.5901074409 4285493105
-0.2780169249 -0.1469489634 0.5893526673 4284045659
-0.2780767679 -0.1463256329 0.5894795060 4290164665
-0.2777200043 -0.1454837918 0.5887232423 4287072394
-0.2769463658 -0.1444262415 0.5870832801 4282007339
-0.2778383493 -0.1442370117 0.5889741182 4281875753
-0.2783138156 -0.1438283324 0.5899820328 4282271014
-0.2771223485 -0.1425598860 0.5874562860 4283389495
-0.2767637074 -0.1417235434 0.5866960883 4285625692
-0.2776553929 -0.1415261775 0.5885862708 4288652170
-0.2781302035 -0.1411131173 0.5895928144 4291152051
-0.2781878710 -0.1404871643 0.5897150636 4292533704
-0.2756902874 -0.1603821367 0.5857998133 4291482073
-0.2757548690 -0.1597686857 0.5859370232 4291350222
-0.2758192420 -0.1591548026 0.5860738158 4290955464
-0.2758833766 -0.1585405022 0.5862100720 4290625466
-0.2759473026 -0.1579257548 0.5863459110 4290362294
-0.2760110199 -0.1573106050 0.5864812732 4290428071
-0.2760744989 -0.1566950083 0.5866161585 4290296485
-0.2761377692 -0.1560789943 0.5867506266 4290099606
-0.2762008011 -0.1554625630 0.5868845582 4290099606
-0.2762636244 -0.1548456997 0.5870180726 4290888855
-0.2763262391 -0.1542284191 0.5871511102 4291086234
-0.2763886154 -0.1536107212 0.5872836709 4291152530
-0.2764507830 -0.1529926062 0.5874156952 4291218323
-0.2765127122 -0.1523740888 0.5875473022 4290823580
-0.2765744328 -0.1517551392 0.5876784325 4289836685
-0.2766359150 -0.1511357725 0.5878090858 4284769883
-0.2766971886 -0.1505160034 0.5879392624 4283125058
-0.2767582238 -0.1498958170 0.5880689621 4283454551
-0.2768190205 -0.1492752284 0.5881981850 4284309860
-0.2768796086 -0.1486542225 0.5883269310 4284967272
-0.2769399881 -0.1480328143 0.5884552002 4285427823
-0.2770001292 -0.1474110037 0.5885829926 4284440676
-0.2766446471 -0.1465687156 0.5878276825 4286085501
-0.2767042220 -0.1459470242 0.5879542828 4290954433
-0.2763480246 -0.1451067328 0.5871974230 4287862162
-0.2759914398 -0.1442679167 0.5864396691 4285297238
-0.2768816352 -0.1440795660 0.5883312225 4285757789
-0.2777719796 -0.1438870877 0.5902230740 4286876260
-0.2769987583 -0.1428326070 0.5885800719 4288060534
-0.2762249708 -0.1417814791 0.5869359374 4289507220
-0.2766988873 -0.1413714737 0.5879428983 4291020459
-0.2771727145 -0.1409592032 0.5889497399 4292006851
-0.2772302330 -0.1403339654 0.5890719295 4292467402
-0.2739771605 -0.1591142118 0.5835368037 4291613392
-0.2740411460 -0.1585028768 0.5836731195 4291152841
-0.2741049230 -0.1578911096 0.5838089585 4290691259
-0.2741684914 -0.1572789252 0.5839443207 4290164915
-0.2746448517 -0.1569022536 0.5849589109 4289901984
-0.2747080624 -0.1562882811 0.5850935578 4289507226
-0.2743578851 -0.1554398090 0.5843476653 4289244299
-0.2748338580 -0.1550590992 0.5853614807 4289112713
-0.2748964131 -0.1544438601 0.5854946971 4289441927
-0.2749587595 -0.1538282186 0.5856274962 4289507720
-0.2750208974 -0.1532121450 0.5857598186 4289705349
-0.2750827968 -0.1525956690 0.5858916640 4289771142
-0.2751444578 -0.1519787759 0.5860230327 4289836949
-0.2752059102 -0.1513614506 0.5861539245 4288455296
-0.2752671540 -0.1507437378 0.5862843394 4282927687
-0.2753281593 -0.1501255929 0.5864142776 4282993480
-0.2753889561 -0.1495070457 0.5865437388 4283849307
-0.2754495144 -0.1488880962 0.5866727233 4284441444
-0.2755098641 -0.1482687294 0.5868012309 4284836202
-0.2759843469 -0.1478709877 0.5878118873 4285494132
-0.2760443389 -0.1472498775 0.5879396200 4283914079
-0.2756895125 -0.1464082003 0.5871838927 4288322210
-0.2757489383 -0.1457872242 0.5873104930 4291546568
-0.2753933966 -0.1449475437 0.5865532160 4289967536
-0.2750374675 -0.1441093385 0.5857951045 4289639570
-0.2759258747 -0.1439218819 0.5876873136 4289507984
-0.2768144310 -0.1437302828 0.5895798206 4289573767
-0.2760426998 -0.1426763237 0.5879361033 4289705353
-0.2756855786 -0.1418393552 0.5871754885 4290230943
-0.2757433057 -0.1412165314 0.5872985125 4291086252
-0.2762161791 -0.1408050507 0.5883056521 4291941060
-0.2726154327 -0.1586987972 0.5820133090 4291876564
-0.2726791799 -0.1580890864 0.5821493864 4291481806
-0.2727426887 -0.1574789584 0.5822849870 4290955200
-0.2728059888 -0.1568683982 0.5824201107 4290297270
-0.2732812464 -0.1564934403 0.5834348202 4289770400
-0.2733442187 -0.1558811069 0.5835692286 4289046677
-0.2729945779 -0.1550341696 0.5828227401 4288388739
-0.2730570138 -0.1544219106 0.5829560161 4288059774
-0.2735317945 -0.1540415734 0.5839696527 4288322944
-0.2735938728 -0.1534275562 0.5841022134 4288257151
-0.2736557424 -0.1528131366 0.5842342973 4288257404
-0.2737173736 -0.1521982849 0.5843659043 4288125818
-0.2737787962 -0.1515830159 0.5844970345 4288850062
-0.2738400102 -0.1509673446 0.5846276879 4286415721
-0.2739009857 -0.1503512412 0.5847578645 4282336066
-0.2739617527 -0.1497347504 0.5848875642 4283191375
-0.2740222812 -0.1491178423 0.5850167871 4284046688
-0.2740826011 -0.1485005170 0.5851455927 4284901997
-0.2745561600 -0.1481058449 0.5861566067 4285560185
-0.2746161222 -0.1474867761 0.5862845778 4285165427
-0.2746758461 -0.1468673199 0.5864121318 4284112489
-0.2747353315 -0.1462474465 0.5865391493 4289704894
-0.2743807733 -0.1454078555 0.5857821703 4290494398
-0.2744397223 -0.1447881162 0.5859080553 4289375917
-0.2740844488 -0.1439505219 0.5851495266 4288981387
-0.2749710977 -0.1437639445 0.5870424509 4289047180
-0.2758578658 -0.1435732245 0.5889356136 4289310088
-0.2750875950 -0.1425198168 0.5872911811 4289639053
-0.2747311294 -0.1416834593 0.5865301490 4290296484
-0.2752031684 -0.1412741095 0.5875379443 4291283379
-0.2752606273 -0.1406506598 0.5876606107 4292204490
-0.2713830471 -0.1570663452 0.5807593465 4291942096
-0.2714460790 -0.1564574093 0.5808942318 4291415752
-0.2719202638 -0.1560841799 0.5819090009 4291020215
-0.2719829679 -0.1554734856 0.5820431709 4290428078
-0.2716338933 -0.1546280682 0.5812961459 4289901473
-0.2716960609 -0.1540174484 0.5814291835 4289506715
-0.2721697688 -0.1536388397 0.5824428797 4289374878
-0.2722315788 -0.1530264616 0.5825752020 4288848534
-0.2722931802 -0.1524136662 0.5827070475 4288849046
-0.2723545730 -0.1518004537 0.5828384161 4288322702
-0.2724157274 -0.1511868238 0.5829693079 4288915352
-0.2724766731 -0.1505727768 0.5830997229 4284375635
-0.2725374103 -0.1499583274 0.5832296610 4282796101
-0.2725979090 -0.1493434608 0.5833591819 4283519824
-0.2726581991 -0.1487281919 0.5834881663 4284704876
-0.2727182508 -0.1481125206 0.5836166739 4285231220
-0.2731907666 -0.1477195770 0.5846278667 4286218631
-0.2732504606 -0.1471021473 0.5847555995 4284376427
-0.2733099461 -0.1464843154 0.5848829150 4285955463
-0.2733691931 -0.1458660960 0.5850096941 4290758352
-0.2734282315 -0.1452474594 0.5851360559 4289639350
-0.2734870315 -0.1446284354 0.5852618814 4288323490
-0.2735456228 -0.1440089941 0.5853872299 4288520846
-0.2740172744 -0.1436057687 0.5863965750 4288586639
-0.2749022543 -0.1434159428 0.5882904530 4288981135
-0.2745469213 -0.1425777823 0.5875300765 4289441686
-0.2741912007 -0.1417411119 0.5867688060 4290165160
-0.2742487490 -0.1411187649 0.5868918896 4291152055
-0.2743060291 -0.1404960304 0.5870145559 4292205002
-0.2701513171 -0.1554382443 0.5795008540 4292270542
-0.2702136636 -0.1548300982 0.5796345472 4292007370
-0.2702758014 -0.1542215347 0.5797678232 4291743428
-0.2703377008 -0.1536125392 0.5799006224 4291348670
-0.2708103359 -0.1532356739 0.5809144378 4291282628
-0.2708718777 -0.1526249200 0.5810465217 4290558905
-0.2709332407 -0.1520137638 0.5811781287 4290427830
-0.2709943652 -0.1514021754 0.5813092589 4290033072
-0.2710552812 -0.1507901847 0.5814399123 4288783515
-0.2711159587 -0.1501777768 0.5815700889 4283125317
-0.2711764276 -0.1495649666 0.5816997886 4283322445
-0.2712366879 -0.1489517540 0.5818290710 4284046168
-0.2712967098 -0.1483381093 0.5819578171 4285429115
-0.2713565230 -0.1477240771 0.5820860863 4285758080
-0.2718279660 -0.1473328620 0.5830973983 4286284678
-0.2718874216 -0.1467170864 0.5832249522 4284113509
-0.2719466686 -0.1461008936 0.5833519697 4288126630
-0.2720644474 -0.1448673308 0.5836046338 4291152843
-0.2725352943 -0.1444685012 0.5846146941 4290692292
-0.2725937366 -0.1438497901 0.5847400427 4290363313
-0.2734768987 -0.1436640471 0.5866345167 4290494899
-0.2739475965 -0.1432584077 0.5876442194 4291086522
-0.2731803060 -0.1422060579 0.5859982371 4291349694
-0.2732378840 -0.1415848285 0.5861217976 4291744200
-0.2689203024 -0.1538145393 0.5782378316 4291941068
-0.2689819336 -0.1532071829 0.5783703327 4291546310
-0.2690433860 -0.1525994241 0.5785024166 4291742927
-0.2695147991 -0.1522229314 0.5795161128 4291084997
-0.2695758939 -0.1516133994 0.5796474814 4290624957
-0.2696367800 -0.1510034651 0.5797783732 4290559164
-0.2696974277 -0.1503931135 0.5799087882 4286809472
-0.2697578669 -0.1497823447 0.5800387263 4282730306
-0.2698180676 -0.1491711736 0.5801682472 4283585367
-0.2698780596 -0.1485596001 0.5802972317 4284572262
-0.2699378431 -0.1479476094 0.5804257393 4286152840
-0.2699974179 -0.1473352015 0.5805538297 4286810770
-0.2704677880 -0.1469457299 0.5815652609 4286021506
-0.2705269754 -0.1463315934 0.5816925168 4284639853
-0.2705859840 -0.1457170546 0.5818193555 4289968318
-0.2674440145 -0.1546172798 0.5764400959 4291876051
-0.2675058246 -0.1540123969 0.5765733123 4291678672
-0.2675674260 -0.1534070969 0.5767061114 4291546311
-0.2676288188 -0.1528013796 0.5768384337 4291151553
-0.2676899731 -0.1521952599 0.5769702792 4291019715
-0.2677509189 -0.1515887082 0.5771016479 4290690750
-0.2678116858 -0.1509817541 0.5772325397 4289835952
-0.2678721845 -0.1503743827 0.5773630142 4290099124
-0.2683421969 -0.1499955952 0.5783759952 4284704868
-0.2684023678 -0.1493864805 0.5785056949 4282994250
-0.2684623301 -0.1487769485 0.5786349177 4283914849
-0.2685220540 -0.1481669992 0.5787637234 4285099123
-0.2685815990 -0.1475566626 0.5788919926 4287007381
-0.2686409056 -0.1469459087 0.5790198445 4287073174
-0.2691102028 -0.1465581656 0.5800313950 4285099636
-0.2691691518 -0.1459456682 0.5801584721 4286152324
-0.2692278922 -0.1453327835 0.5802850127 4291678421
-0.2656244934 -0.1545714885 0.5738922358 4291678933
-0.2656861544 -0.1539696008 0.5740254521 4291283916
-0.2657476068 -0.1533672810 0.5741582513 4291020744
-0.2658088505 -0.1527645439 0.5742905736 4290757570
-0.2658698857 -0.1521614045 0.5744224191 4290297019
-0.2659307122 -0.1515578330 0.5745537877 4290428607
-0.2659913003 -0.1509538591 0.5746847391 4289639091
-0.2660517097 -0.1503494680 0.5748152137 4289375921
-0.2665206492 -0.1499746889 0.5758283734 4288454819
-0.2665807009 -0.1493685544 0.5759581327 4283453782
-0.2666405439 -0.1487620026 0.5760874152 4283453782
-0.2667001486 -0.1481550485 0.5762162209 4284440423
-0.2671686709 -0.1477739811 0.5772284865 4286085248
-0.2672279477 -0.1471652836 0.5773565769 4286613393
-0.2676963210 -0.1467806101 0.5783684850 4286218635
-0.2677552700 -0.1461701691 0.5784958005 4283915878
-0.2678139508 -0.1455593258 0.5786226392 4287797665
-0.2642784715 -0.1541581452 0.5723575354 4291547350
-0.2647471726 -0.1537944973 0.5733726621 4291086797
-0.2648084760 -0.1531928927 0.5735054016 4290757832
-0.2648695409 -0.1525908709 0.5736376643 4290494659
-0.2649303973 -0.1519884318 0.5737694502 4290034108
-0.2649910450 -0.1513855904 0.5739008188 4290033851
-0.2650514841 -0.1507823169 0.5740317106 4289375921
-0.2651117146 -0.1501786411 0.5741621256 4289178287
-0.2651717365 -0.1495745629 0.5742920637 4286875532
-0.2652315199 -0.1489700675 0.5744215846 4282927954
-0.2656992376 -0.1485934108 0.5754345655 4283717470
-0.2657586932 -0.1479871720 0.5755633116 4284441195
-0.2658179402 -0.1473805159 0.5756915808 4285757055
-0.2658769488 -0.1467734724 0.5758194327 4285692036
-0.2663442492 -0.1463905424 0.5768314600 4285363071
-0.2664029300 -0.1457817405 0.5769585371 4284310638
-0.2664613724 -0.1451725513 0.5770851374 4289442492
-0.2633414865 -0.1539819688 0.5717034340 4291547866
-0.2634027004 -0.1533824205 0.5718363523 4291086797
-0.2634637356 -0.1527824700 0.5719688535 4290692039
-0.2635245621 -0.1521820873 0.5721008778 4290363074
-0.2635851502 -0.1515812874 0.5722324252 4289902523
-0.2636455595 -0.1509800851 0.5723635554 4289639351
-0.2637057304 -0.1503784657 0.5724942088 4289047214
-0.2641727328 -0.1500075608 0.5735080838 4288981423
-0.2642325759 -0.1494041979 0.5736379623 4285231222
-0.2642922103 -0.1488004178 0.5737674236 4283059542
-0.2643516064 -0.1481962204 0.5738964081 4284112230
-0.2644108236 -0.1475916356 0.5740249157 4284506734
-0.2644698024 -0.1469866335 0.5741530061 4285427836
-0.2645285726 -0.1463812292 0.5742805600 4285428866
-0.2645871341 -0.1457754225 0.5744076967 4284705143
-0.2650532424 -0.1453928947 0.5754196048 4285626498
-0.2651114464 -0.1447853446 0.5755459666 4291087317
-0.2620608807 -0.1529699117 0.5702984333 4291415762
-0.2621216476 -0.1523715854 0.5704306364 4290955211
-0.2621822059 -0.1517728567 0.5705624223 4290494659
-0.2622425258 -0.1511736959 0.5706937313 4289902522
-0.2623026669 -0.1505741328 0.5708246231 4289573557
-0.2623625994 -0.1499741524 0.5709550381 4289113006
-0.2628285289 -0.1496050060 0.5719689727 4288455079
-0.2628881037 -0.1490032822 0.5720986724 4284178534
-0.2629474699 -0.1484011412 0.5722278357 4283520093
-0.2630066574 -0.1477985978 0.5723565817 4284178023
-0.2630655766 -0.1471956521 0.5724848509 4284506734
-0.2635309994 -0.1468188763 0.5734977126 4285296250
-0.2635896206 -0.1462141871 0.5736252666 4285626245
-0.2636480033 -0.1456090957 0.5737523437 4284376178
-0.2637061775 -0.1450036019 0.5738789439 4287468702
-0.2611871362 -0.1521962285 0.5697741508 4291349969
-0.2612475157 -0.1515982002 0.5699058771 4290823625
-0.2613076866 -0.1509997696 0.5700371265 4290099902
-0.2613676488 -0.1504009217 0.5701679587 4289770937
-0.2614274025 -0.1498016566 0.5702983141 4289507765
-0.2614869475 -0.1492019892 0.5704281926 4287468184
-0.2615462840 -0.1486019194 0.5705576539 4283389018
-0.2616054118 -0.1480014324 0.5706865788 4283651679
-0.2616643012 -0.1474005431 0.5708150864 4284046437
-0.2617230117 -0.1467992514 0.5709431171 4284769906
-0.2621873319 -0.1464242041 0.5719560981 4285362043
-0.2622456849 -0.1458211690 0.5720833540 4285823108
-0.2627098858 -0.1454425305 0.5730959773 4284507248
-0.2623617649 -0.1446138918 0.5723365545 4289639101
-0.2603138685 -0.1514232904 0.5692483187 4291415764
-0.2603738606 -0.1508255750 0.5693795681 4290560455
-0.2604336739 -0.1502274424 0.5695103407 4290099904
-0.2604932487 -0.1496289074 0.5696406364 4289770939
-0.2601480484 -0.1487985402 0.5688857436 4286152070
-0.2606118023 -0.1484306008 0.5698998570 4282994006
-0.2606707513 -0.1478308290 0.5700287819 4283651426
-0.2607294917 -0.1472306699 0.5701572299 4284309356
-0.2607880235 -0.1466300786 0.5702852011 4285362046
-0.2608463168 -0.1460290998 0.5704127550 4285691011
-0.2617146969 -0.1458793581 0.5723116398 4285099899
-0.2617727518 -0.1452757120 0.5724386573 4285297278
-0.2618305981 -0.1446716487 0.5725651383 4291153110
-0.2589778304 -0.1510128975 0.5677055717 4291613659
-0.2590375543 -0.1504168361 0.5678365231 4290758350
-0.2590970993 -0.1498203576 0.5679670572 4290428615
-0.2591564357 -0.1492234617 0.5680971146 4289375927
-0.2596192956 -0.1488576680 0.5691117644 4284638833
-0.2596783042 -0.1482590288 0.5692411065 4283125594
-0.2597371042 -0.1476599872 0.5693699718 4283783525
-0.2597956657 -0.1470605284 0.5694983602 4284573041
-0.2598540485 -0.1464606673 0.5696263313 4285493889
-0.2603164017 -0.1460872591 0.5706399083 4285822854
-0.2603744268 -0.1454856545 0.5707671046 4284310383
-0.2608366609 -0.1451086402 0.5717803240 4287271068
-0.2576444447 -0.1506020576 0.5661610961 4291613657
-0.2577039301 -0.1500076354 0.5662918091 4290692555
-0.2577632070 -0.1494128108 0.5664220452 4290429385
-0.2578222752 -0.1488175690 0.5665518641 4288521388
-0.2578811347 -0.1482219249 0.5666812062 4283257950
