VERSION 0.7
FIELDS x y z rgba
SIZE 4 4 4 4
TYPE F F F U
COUNT 1 1 1 1
WIDTH 920
HEIGHT 1
VIEWPOINT 0.0 0.0 0.0 1.0 0.0 0.0 0.0
POINTS 920
DATA ascii
-0.2649106979 -0.0957890972 0.5511875749 4280296232
-0.2649511397 -0.0951912180 0.5512717366 4280296232
-0.2649913430 -0.0945930630 0.5513553619 4280230439
-0.2641749680 -0.0936909392 0.5496568084 4280362025
-0.2642145455 -0.0930941775 0.5497391820 4280362025
-0.2642539144 -0.0924971476 0.5498210192 4280362025
-0.2630079389 -0.0914530158 0.5472286344 4280427818
-0.2626565695 -0.0901164412 0.5464975238 4280362538
-0.2631232440 -0.0896682739 0.5474684834 4280362025
-0.2623039782 -0.0887827054 0.5457639098 4280362025
-0.2623415589 -0.0881889537 0.5458421111 4280362025
-0.2628076375 -0.0877380818 0.5468118191 4280427818
-0.2619872093 -0.0868585408 0.5451048613 4280427818
-0.2581843138 -0.0772417039 0.5371922851 4280558636
-0.2586467862 -0.0767821372 0.5381545424 4280492843
-0.2561012506 -0.0754344165 0.5328581333 4280492843
-0.2574225664 -0.0752285197 0.5356073976 4280492843
-0.2565949559 -0.0743934736 0.5338854194 4280427050
-0.2566266060 -0.0738093928 0.5339512825 4280427050
-0.2570879459 -0.0733477473 0.5349110961 4280624429
-0.2571191490 -0.0727622584 0.5349760652 4281019187
-0.2571501136 -0.0721765608 0.5350404978 4281282359
-0.2593311965 -0.0721892267 0.5395785570 4281348152
-0.2602221966 -0.0718356743 0.5414323807 4281282359
-0.2589622736 -0.0708892122 0.5388109684 4281216566
-0.2615737915 -0.0709994063 0.5442446470 4281084980
-0.2620343268 -0.0705186501 0.5452028513 4280953394
-0.2633553445 -0.0702653453 0.5479514003 4280821808
-0.2646763921 -0.0700059459 0.5507000685 4280492843
-0.2677491009 -0.0695807263 0.5570933223 4280492843
-0.2690702975 -0.0693020523 0.5598422885 4280492843
-0.2699609995 -0.0689073727 0.5616955161 4281413945
-0.2708516121 -0.0685085580 0.5635485649 4282335047
-0.2717421651 -0.0681056082 0.5654014945 4283190356
-0.2717712224 -0.0674846247 0.5654619336 4282269256
-0.2722307742 -0.0669694096 0.5664181113 4281282361
-0.2731209397 -0.0665570050 0.5682702661 4280229673
-0.2735802233 -0.0660364702 0.5692258477 4281019189
-0.2753319442 -0.0658227950 0.5728705525 4281282361
-0.2753600478 -0.0651929528 0.5729290843 4283782495
-0.2749569416 -0.0644618794 0.5720903277 4285691521
-0.2736914456 -0.0635324940 0.5694572926 4283388766
-0.2737185955 -0.0629060194 0.5695137978 4287665563
-0.2860805094 -0.1653313488 0.5966133475 4292140005
-0.2861478031 -0.1647071987 0.5967537165 4291876833
-0.2866345346 -0.1643232107 0.5977687836 4291547866
-0.2867015004 -0.1636972576 0.5979083776 4291153108
-0.2863483429 -0.1628321260 0.5971719623 4290955731
-0.2864147425 -0.1622062325 0.5973104239 4290692559
-0.2864809334 -0.1615799069 0.5974484086 4290297799
-0.2869670391 -0.1611891389 0.5984621644 4290100420
-0.2870328426 -0.1605610251 0.5985994339 4290231490
-0.2870984375 -0.1599324793 0.5987362266 4290034111
-0.2867433727 -0.1590702683 0.5979957581 4289902523
-0.2868084013 -0.1584417820 0.5981313586 4289902523
-0.2868732214 -0.1578128636 0.5982665420 4290494402
-0.2869378030 -0.1571835279 0.5984012485 4290889160
-0.2874229848 -0.1567833126 0.5994130373 4291218121
-0.2874872088 -0.1561522037 0.5995469689 4291481293
-0.2875511944 -0.1555206776 0.5996804237 4291743951
-0.2876149416 -0.1548887193 0.5998134017 4291743951
-0.2876784801 -0.1542563587 0.5999459028 4291875283
-0.2881630659 -0.1538484842 0.6009564996 4292138455
-0.2882262170 -0.1532143503 0.6010881662 4292140480
-0.2887106240 -0.1528028697 0.6020984054 4292337859
-0.2887733877 -0.1521669775 0.6022292972 4292665535
-0.2892575860 -0.1517518759 0.6032391191 4292731328
-0.2893199921 -0.1511142254 0.6033692360 4292335752
-0.2898040116 -0.1506955177 0.6043785810 4290954099
-0.2902879417 -0.1502745450 0.6053878665 4291084630
-0.2907718420 -0.1498512924 0.6063970327 4291347802
-0.2908335626 -0.1492092013 0.6065257192 4290689098
-0.2913172543 -0.1487823427 0.6075344086 4289110066
-0.2913785577 -0.1481385082 0.6076623201 4287794202
-0.2914396524 -0.1474942714 0.6077897549 4288188960
-0.2919229865 -0.1470624506 0.6087976694 4288913203
-0.2919836640 -0.1464164704 0.6089242697 4288123687
-0.2916214764 -0.1455591321 0.6081689596 4286807828
-0.2916816175 -0.1449132860 0.6082943082 4286478863
-0.2917414904 -0.1442670375 0.6084191799 4286281243
-0.2918011248 -0.1436203867 0.6085435748 4286018071
-0.2918605208 -0.1429733485 0.6086674333 4286281753
-0.2919196784 -0.1423259228 0.6087908149 4286150167
-0.2919785976 -0.1416780949 0.6089136600 4286873377
-0.2916139960 -0.1408254802 0.6081533432 4288255030
-0.2916723192 -0.1401778162 0.6082749367 4288979005
-0.2917304039 -0.1395297498 0.6083961129 4287531559
-0.2917882502 -0.1388813108 0.6085166931 4287203884
-0.2914222777 -0.1380318552 0.6077534556 4286940712
-0.2910558581 -0.1371839046 0.6069893241 4282466099
-0.2906890512 -0.1363374591 0.6062243581 4282531892
-0.2898980081 -0.1352947056 0.6045746207 4281875001
-0.2891063690 -0.1342553645 0.6029236913 4281546036
-0.2883141637 -0.1332194209 0.6012715697 4280756785
-0.2870973051 -0.1319919229 0.5987339020 4279769890
-0.2858797312 -0.1307697296 0.5961946249 4280558890
-0.2850856483 -0.1297459304 0.5945386291 4281282613
-0.2838667035 -0.1285334080 0.5919964910 4281348406
-0.2817982137 -0.1269438565 0.5876827836 4281216820
-0.2801531851 -0.1255536526 0.5842520595 4281348406
-0.2785072625 -0.1241706908 0.5808195472 4281348406
-0.2768604755 -0.1227949634 0.5773851871 4281282613
-0.2756375074 -0.1216138676 0.5748347640 4281348406
-0.2748386562 -0.1206245720 0.5731687546 4281282613
-0.2736143768 -0.1194532439 0.5706155300 4281282613
-0.2719644308 -0.1181027517 0.5671746731 4281282613
-0.2724387646 -0.1176774576 0.5681638122 4281282613
-0.2720627785 -0.1168846712 0.5673797727 4281282613
-0.2712612748 -0.1159117743 0.5657082200 4281216820
-0.2708844543 -0.1151230857 0.5649223924 4281151027
-0.2705072463 -0.1143359840 0.5641357303 4281151027
-0.2701296508 -0.1135504618 0.5633482337 4281151027
-0.2693261802 -0.1125886664 0.5616726875 4281151027
-0.2689477503 -0.1118072867 0.5608834624 4281019955
-0.2698457837 -0.1115553603 0.5627563000 4281019955
-0.2690411210 -0.1105993018 0.5610781312 4281019955
-0.2690874338 -0.1099948362 0.5611747503 4280888369
-0.2691335082 -0.1093900576 0.5612708330 4281019441
-0.2700311840 -0.1091292351 0.5631429553 4280953648
-0.2692249715 -0.1081795841 0.5614615679 4280822062
-0.2692703307 -0.1075738817 0.5615561604 4280822062
-0.2693154514 -0.1069678813 0.5616502762 4280690990
-0.2694050074 -0.1057549566 0.5618370175 4280690990
-0.2690230608 -0.1049816757 0.5610405207 4280559404
-0.2690671682 -0.1043754220 0.5611324310 4280493611
-0.2682580352 -0.1034399718 0.5594450831 4280493611
-0.2678749561 -0.1026715636 0.5586462021 4280690222
-0.2674915195 -0.1019047797 0.5578464866 4280690222
-0.2666809857 -0.1009780690 0.5561561584 4280624429
-0.2641629279 -0.0994125158 0.5509048104 4280492843
-0.2654852271 -0.0992949829 0.5536624193 4280492843
-0.2642463446 -0.0982193351 0.5510787964 4280427050
-0.2647146583 -0.0977800339 0.5520554185 4280427050
-0.2651828527 -0.0973385274 0.5530318618 4280427050
-0.2643696964 -0.0964274630 0.5513360500 4280296232
-0.2644103169 -0.0958296210 0.5514207482 4280296232
-0.2644507289 -0.0952314958 0.5515050292 4280296232
-0.2640635967 -0.0944802240 0.5506976843 4280296232
-0.2632487416 -0.0935786963 0.5489982963 4280296232
-0.2628608048 -0.0928317159 0.5481892824 4280296232
-0.2624724805 -0.0920864046 0.5473794937 4280296232
-0.2633664608 -0.0917897969 0.5492438078 4280296232
-0.2629776001 -0.0910449252 0.5484328866 4280362025
-0.2625883818 -0.0903017297 0.5476211905 4280362025
-0.2626265287 -0.0897063091 0.5477007031 4280362025
-0.2618088722 -0.0888203755 0.5459954739 4280362025
-0.2622742653 -0.0883705467 0.5469660759 4280362025
-0.2623116076 -0.0877753273 0.5470439792 4280362025
-0.2611015141 -0.0861603990 0.5445203185 4280362025
-0.2611741722 -0.0849740431 0.5446718931 4280296232
-0.2597745061 -0.0791013092 0.5417528749 4280821808
-0.2589506209 -0.0782504231 0.5400346518 4280821808
-0.2576974630 -0.0772746280 0.5374212861 4280821808
-0.2577302754 -0.0766872764 0.5374897122 4280690222
-0.2573339343 -0.0759730786 0.5366631746 4280492843
-0.2569372654 -0.0752606094 0.5358358622 4280492843
-0.2556822300 -0.0743005499 0.5332185626 4280427050
-0.2561428547 -0.0738408938 0.5341791511 4280427050
-0.2566033304 -0.0733790621 0.5351394415 4280558636
-0.2566345036 -0.0727933273 0.5352045298 4280887601
-0.2570946515 -0.0723281354 0.5361641049 4281084980
-0.2575546801 -0.0718607605 0.5371235013 4281084980
-0.2584438324 -0.0715100095 0.5389778018 4281019187
-0.2597623467 -0.0712729320 0.5417274833 4280953394
-0.2593632638 -0.0705624595 0.5408952236 4280756015
-0.2611111104 -0.0704329610 0.5445403457 4280690222
-0.2628591061 -0.0702954009 0.5481857657 4280427050
-0.2641777098 -0.0700358972 0.5509356856 4280229671
-0.2654963434 -0.0697702989 0.5536856651 4280295464
-0.2681039870 -0.0698343366 0.5591238141 4280163878
-0.2694228292 -0.0695535764 0.5618742108 4280756015
-0.2690227032 -0.0688269287 0.5610398054 4282269254
-0.2703414261 -0.0685378984 0.5637899041 4283256149
-0.2708004713 -0.0680268034 0.5647472739 4281940289
-0.2712593675 -0.0675135404 0.5657042265 4280492843
-0.2712881267 -0.0668920949 0.5657642484 4280887601
-0.2721766233 -0.0664805099 0.5676171780 4280690222
-0.2739250660 -0.0662728623 0.5712634921 4280558636
-0.2739533186 -0.0656449199 0.5713224411 4280953394
-0.2735512257 -0.0649147183 0.5704838634 4284572009
-0.2740090489 -0.0643884540 0.5714386702 4288520620
-0.2723157406 -0.0633595660 0.5679072738 4285691521
-0.2723427713 -0.0627348050 0.5679637194 4285428601
-0.2727998495 -0.0622079819 0.5689168572 4290626248
-0.2852494717 -0.1639088243 0.5962613821 4291942624
-0.2853161693 -0.1632844955 0.5964007378 4291482073
-0.2853826284 -0.1626597345 0.5965396762 4291153110
-0.2854488492 -0.1620345265 0.5966781378 4290758352
-0.2855148613 -0.1614088863 0.5968160629 4290166213
-0.2855806351 -0.1607828140 0.5969535708 4289639869
-0.2860656381 -0.1603914946 0.5979673862 4289507767
-0.2861310542 -0.1597636342 0.5981041789 4289047216
-0.2861962616 -0.1591353565 0.5982404351 4288586663
-0.2858414948 -0.1582742333 0.5974988937 4288389284
-0.2859061360 -0.1576460153 0.5976340175 4288783782
-0.2859705687 -0.1570173651 0.5977686644 4289178540
-0.2856147289 -0.1561586559 0.5970248580 4289835952
-0.2860987186 -0.1557588130 0.5980365276 4290493882
-0.2861624360 -0.1551288962 0.5981697440 4291086272
-0.2862259448 -0.1544985622 0.5983024836 4291481030
-0.2867096066 -0.1540937573 0.5993135571 4291941579
-0.2867727578 -0.1534616649 0.5994455218 4292467923
-0.2872562408 -0.1530532390 0.6004561186 4292994760
-0.2873190045 -0.1524193883 0.6005873084 4293126346
-0.2878022790 -0.1520073563 0.6015975475 4293585868
-0.2878646851 -0.1513717324 0.6017279625 4294178005
-0.2883477807 -0.1509560794 0.6027377844 4294770095
-0.2884097695 -0.1503187120 0.6028673649 4294177958
-0.2888926566 -0.1498994529 0.6038767695 4293453431
-0.2893755138 -0.1494779140 0.6048860550 4292466536
-0.2898582816 -0.1490540951 0.6058952212 4290623305
-0.2899196148 -0.1484123021 0.6060234308 4289241652
-0.2899807096 -0.1477700919 0.6061511040 4288452386
-0.2904631197 -0.1473413408 0.6071595550 4288386593
-0.2905238271 -0.1466973871 0.6072863936 4288058405
-0.2905842662 -0.1460530311 0.6074127555 4287466268
-0.2902226448 -0.1451972425 0.6066569090 4287005474
-0.2902825475 -0.1445530206 0.6067820787 4287334439
-0.2903421819 -0.1439083964 0.6069067121 4288650853
-0.2904015779 -0.1432633847 0.6070309281 4289769334
-0.2904607356 -0.1426179856 0.6071545482 4290230137
-0.2905196548 -0.1419721842 0.6072776914 4289374828
-0.2905783355 -0.1413259804 0.6074003577 4289637741
-0.2906367481 -0.1406794041 0.6075224876 4290164085
-0.2906949520 -0.1400324255 0.6076441407 4290229359
-0.2907528877 -0.1393850744 0.6077651978 4290689910
-0.2903878987 -0.1385356635 0.6070022583 4290624883
-0.2900224626 -0.1376877725 0.6062384248 4289440609
-0.2896566391 -0.1368413717 0.6054737568 4283387452
-0.2897133529 -0.1361953020 0.6055923104 4281742627
-0.2889237702 -0.1351530850 0.6039417982 4282204215
-0.2881336212 -0.1341142803 0.6022900939 4281546285
-0.2873428762 -0.1330788732 0.6006372571 4281086009
-0.2861283123 -0.1318518370 0.5980983973 4279901735
-0.2853363454 -0.1308241934 0.5964429379 4280558890
-0.2845438123 -0.1297999769 0.5947863460 4281216820
-0.2833272219 -0.1285869926 0.5922432542 4281414199
-0.2816863060 -0.1271880567 0.5888132453 4281348406
-0.2796208560 -0.1256060302 0.5844957829 4281479992
-0.2779780924 -0.1242225021 0.5810618997 4281414199
-0.2767583132 -0.1230346337 0.5785121322 4281347893
-0.2755378187 -0.1218521222 0.5759609342 4281347893
-0.2743166089 -0.1206749603 0.5734081864 4281413686
-0.2735187411 -0.1196887270 0.5717404485 4281347893
-0.2727203369 -0.1187059656 0.5700715184 4281347893
-0.2719213665 -0.1177266762 0.5684014559 4281347893
-0.2719704509 -0.1171162724 0.5685040355 4281282102
-0.2711705863 -0.1161420345 0.5668320060 4281282102
-0.2703701556 -0.1151712835 0.5651589036 4281347895
-0.2699936926 -0.1143838689 0.5643720031 4281282102
-0.2696168721 -0.1135980338 0.5635842681 4281216566
-0.2700889707 -0.1131696701 0.5645711422 4281216566
-0.2688620389 -0.1120311394 0.5620064139 4281216566
-0.2684840262 -0.1112500876 0.5612162948 4281150773
-0.2685305476 -0.1106456965 0.5613135099 4281150773
-0.2685768306 -0.1100409999 0.5614102483 4281150773
-0.2690478861 -0.1096091419 0.5623949170 4281084980
-0.2690937519 -0.1090028659 0.5624908209 4281019187
-0.2691393793 -0.1083962694 0.5625861883 4280953394
-0.2687595189 -0.1076190919 0.5617921948 4280953394
-0.2688046098 -0.1070128456 0.5618864298 4280822578
-0.2688494623 -0.1064063013 0.5619801283 4280822578
-0.2688940465 -0.1057994440 0.5620733500 4280756785
-0.2689384222 -0.1051922962 0.5621660948 4280756785
-0.2672801018 -0.1039229110 0.5586997271 4280756785
-0.2677493691 -0.1034835279 0.5596806407 4280690992
-0.2673670650 -0.1027148068 0.5588814616 4280887601
-0.2661327422 -0.1016225293 0.5563013554 4280756015
-0.2657495439 -0.1008590013 0.5555003285 4280756015
-0.2640881240 -0.0996151045 0.5520274639 4280690222
-0.2649820149 -0.0993368626 0.5538959503 4280558636
-0.2637868226 -0.0976635218 0.5513976216 4280558636
-0.2638278902 -0.0970659927 0.5514835119 4280492843
-0.2642950118 -0.0966240317 0.5524598956 4280427304
-0.2639093101 -0.0958701000 0.5516536832 4280427304
-0.2639496624 -0.0952717364 0.5517380238 4280493097
-0.2631368339 -0.0943672135 0.5500389338 4280493097
-0.2631765604 -0.0937702358 0.5501220226 4280427304
-0.2623628676 -0.0928709805 0.5484210849 4280427304
-0.2632553279 -0.0925754830 0.5502866507 4280427304
-0.2628676295 -0.0918286368 0.5494762063 4280361511
-0.2620527446 -0.0909353569 0.5477728844 4280362025
-0.2625179589 -0.0904870927 0.5487453341 4280362025
-0.2617022693 -0.0895981416 0.5470402837 4280558890
-0.2625940442 -0.0892935842 0.5489043593 4280493097
-0.2617776394 -0.0884079933 0.5471978784 4280493097
-0.2618149817 -0.0878125355 0.5472758412 4280493097
-0.2605705559 -0.0867899880 0.5446746349 4280296232
-0.2606436312 -0.0856036469 0.5448274016 4280296232
-0.2602524757 -0.0848707408 0.5440097451 4280296232
-0.2607157528 -0.0844163075 0.5449781418 4280296232
-0.2596430182 -0.0804508626 0.5427358150 4280558636
-0.2592492998 -0.0797267631 0.5419127941 4280690222
-0.2584273219 -0.0788737908 0.5401946306 4280756015
-0.2593165636 -0.0785429329 0.5420534015 4280756015
-0.2576379776 -0.0774361491 0.5385446548 4280756015
-0.2572427690 -0.0767199248 0.5377185345 4280492843
-0.2572752833 -0.0761321038 0.5377864838 4280295464
-0.2565149367 -0.0741198435 0.5361971259 4280427050
-0.2565463781 -0.0735331029 0.5362628698 4280558636
-0.2565775812 -0.0729461461 0.5363280773 4280690222
-0.2570369542 -0.0724797770 0.5372882485 4280821808
-0.2583530545 -0.0722508729 0.5400393605 4280756015
-0.2575267255 -0.0714216828 0.5383120775 4280690222
-0.2584141791 -0.0710676387 0.5401670933 4280690222
-0.2605873346 -0.0710600838 0.5447097421 4280624683
-0.2636784017 -0.0700658187 0.5511710048 4280098339
-0.2649945617 -0.0698001087 0.5539222360 4280098339
-0.2663107812 -0.0695282966 0.5566735268 4280032546
-0.2671981156 -0.0691393986 0.5585283637 4280624429
-0.2693722248 -0.0690763444 0.5630728602 4281874496
-0.2698305845 -0.0685672089 0.5640310049 4281874496
-0.2702887952 -0.0680558980 0.5649887919 4280690222
-0.2707468271 -0.0675424263 0.5659462810 4279966499
-0.2703464627 -0.0668146685 0.5651093721 4280690222
-0.2712332308 -0.0664038956 0.5669630170 4280887601
-0.2721199393 -0.0659889802 0.5688164830 4280163878
-0.2730065584 -0.0655699298 0.5706697702 4280229671
-0.2734637856 -0.0650446266 0.5716255307 4283453528
-0.2722034454 -0.0641126633 0.5689910650 4289178550
-0.2722307742 -0.0634868443 0.5690481663 4288717999
-0.2726872563 -0.0629599914 0.5700023770 4285164918
-0.2735730410 -0.0625291318 0.5718539357 4288520361
-0.2839333713 -0.1628712565 0.5948914289 4292206311
-0.2839995623 -0.1622481048 0.5950300694 4291876833
-0.2840655148 -0.1616245210 0.5951682925 4291482075
-0.2841312587 -0.1610004902 0.5953060389 4290758350
-0.2841967642 -0.1603760421 0.5954433084 4290166213
-0.2842620611 -0.1597511470 0.5955801010 4289639867
-0.2843271196 -0.1591258347 0.5957164168 4288916144
-0.2843919694 -0.1585000902 0.5958522558 4288389283
-0.2844565809 -0.1578739136 0.5959876776 4287928732
-0.2845209837 -0.1572473198 0.5961225629 4287928471
-0.2845851183 -0.1566202939 0.5962569714 4288125850
-0.2846490741 -0.1559928358 0.5963909030 4288651931
-0.2847127616 -0.1553649753 0.5965244174 4289309861
-0.2847762406 -0.1547366828 0.5966573954 4290099114
-0.2848394811 -0.1541079730 0.5967898965 4290757044
-0.2853220999 -0.1537048817 0.5978010893 4291546813
-0.2862243354 -0.1535246223 0.5996914506 4292204743
-0.2867069542 -0.1531160623 0.6007025838 4293125831
-0.2867696583 -0.1524819732 0.6008339524 4293586382
-0.2868320942 -0.1518474668 0.6009647846 4294112203
-0.2873143852 -0.1514339447 0.6019752622 4294243789
-0.2873764634 -0.1507976800 0.6021053195 4294506921
-0.2878585458 -0.1503805518 0.6031153798 4294177956
-0.2879202366 -0.1497425288 0.6032446623 4293979777
-0.2884021401 -0.1493217796 0.6042542458 4293321847
-0.2884634435 -0.1486820132 0.6043827534 4291873372
-0.2885245383 -0.1480418444 0.6045107245 4290491719
-0.2885853648 -0.1474012733 0.6046382189 4289899578
-0.2890667319 -0.1469742209 0.6056467295 4289570613
-0.2891272008 -0.1463319063 0.6057734489 4288913714
-0.2891874015 -0.1456891745 0.6058995724 4289176886
-0.2888263464 -0.1448349208 0.6051431298 4290164310
-0.2888860106 -0.1441923380 0.6052680612 4291677549
-0.2889454067 -0.1435493529 0.6053925157 4291743905
-0.2890045643 -0.1429059803 0.6055164933 4292533421
-0.2890634835 -0.1422622055 0.6056399345 4292927925
-0.2891221642 -0.1416180432 0.6057628989 4292730546
-0.2891806066 -0.1409734786 0.6058853269 4292401591
-0.2892388105 -0.1403285414 0.6060072780 4292072626
-0.2892967761 -0.1396832019 0.6061286926 4291479979
-0.2889326811 -0.1388347894 0.6053658724 4292137909
-0.2889900506 -0.1381896287 0.6054860950 4292269746
-0.2886252105 -0.1373432875 0.6047216654 4290756507
-0.2886820138 -0.1366982907 0.6048406959 4285822056
-0.2883164585 -0.1358540207 0.6040747762 4281545511
-0.2879504561 -0.1350112408 0.6033079624 4281743662
-0.2871617675 -0.1339729726 0.6016554832 4281612076
-0.2863725126 -0.1329381019 0.6000018716 4281283127
-0.2855826914 -0.1319066435 0.5983470082 4280098853
-0.2847922742 -0.1308786124 0.5966910124 4280361510
-0.2840013206 -0.1298539788 0.5950337648 4280953647
-0.2832097709 -0.1288327873 0.5933753848 4281151026
-0.2815721333 -0.1274323463 0.5899441838 4281216819
-0.2790878713 -0.1256583482 0.5847392082 4281414198
-0.2774482965 -0.1242742613 0.5813040137 4281479991
-0.2758078575 -0.1228974238 0.5778669715 4281479992
-0.2745896280 -0.1217153817 0.5753145814 4281479992
-0.2733707130 -0.1205387041 0.5727607608 4281676858
-0.2725743353 -0.1195530295 0.5710921884 4281611065
-0.2722007334 -0.1187555119 0.5703094602 4281545272
-0.2709799409 -0.1175920963 0.5677517056 4281479479
-0.2701819539 -0.1166168451 0.5660796762 4281347895
-0.2698069513 -0.1158269048 0.5652940273 4281282102
-0.2694315612 -0.1150385514 0.5645075440 4281282102
-0.2699032128 -0.1146116257 0.5654957294 4281282102
-0.2695272267 -0.1138245240 0.5647079349 4281150773
-0.2691508234 -0.1130390167 0.5639193058 4281216566
-0.2687740624 -0.1122550964 0.5631299019 4281216566
-0.2683968842 -0.1114727780 0.5623397231 4281216566
-0.2680193484 -0.1106920466 0.5615486503 4281150773
-0.2684897184 -0.1102612987 0.5625342131 4281150773
-0.2685357630 -0.1096550897 0.5626307130 4281084980
-0.2681573033 -0.1088762954 0.5618377328 4281019187
-0.2686271667 -0.1084417403 0.5628222227 4281019187
-0.2686725259 -0.1078346074 0.5629171729 4281019187
-0.2687176168 -0.1072271615 0.5630117059 4281019187
-0.2687624991 -0.1066194102 0.5631057024 4280953394
-0.2679578066 -0.1056764126 0.5614197254 4280953394
-0.2680020332 -0.1050699800 0.5615124106 4281019187
-0.2676212490 -0.1042976975 0.5607146025 4281019187
-0.2672400773 -0.1035270393 0.5599159598 4280953394
-0.2664335966 -0.1025943831 0.5582262278 4280953648
-0.2660515904 -0.1018279493 0.5574258566 4280887855
-0.2652441561 -0.1009014472 0.5557341576 4280822062
-0.2635859251 -0.0996570438 0.5522598624 4280756269
-0.2649033368 -0.0995384678 0.5550200939 4280690476
-0.2636693120 -0.0984609798 0.5524345636 4280624683
-0.2637106478 -0.0978625193 0.5525211692 4280690476
-0.2641771436 -0.0974206626 0.5534985662 4280624683
-0.2625161707 -0.0961970389 0.5500185490 4280493097
-0.2629821301 -0.0957555920 0.5509948134 4280493097
-0.2630223632 -0.0951579586 0.5510790944 4280427818
-0.2634880543 -0.0947130546 0.5520547628 4280427818
-0.2626764178 -0.0938098282 0.5503542423 4280362025
-0.2627550960 -0.0926145911 0.5505191088 4280296232
-0.2619808316 -0.0911219567 0.5488969088 4280493097
-0.2611671090 -0.0902309641 0.5471920371 4280493097
-0.2616312206 -0.0897822604 0.5481644273 4280493097
-0.2616690695 -0.0891861022 0.5482437015 4280493097
-0.2617066503 -0.0885896906 0.5483224392 4280493097
-0.2596125305 -0.0872764662 0.5439348817 4280493097
-0.2605020404 -0.0869690776 0.5457985401 4280362025
-0.2596858740 -0.0860920846 0.5440886021 4280296232
-0.2597222030 -0.0854995176 0.5441646576 4280296232
-0.2597582936 -0.0849067047 0.5442402959 4280296232
-0.2602207065 -0.0844520926 0.5452091694 4280296232
-0.2606830299 -0.0839952901 0.5461777449 4280296232
-0.2602917850 -0.0832632929 0.5453580618 4280296232
-0.2599350512 -0.0819389820 0.5446106791 4280230952
-0.2603965700 -0.0814782828 0.5455775857 4280230952
-0.2608579397 -0.0810154006 0.5465442538 4280427050
-0.2600382268 -0.0801554769 0.5448268056 4280492843
-0.2592180073 -0.0792992190 0.5431083441 4280558636
-0.2601057589 -0.0789652988 0.5449683070 4280558636
-0.2584305406 -0.0778551176 0.5414584279 4280427050
-0.2576090693 -0.0770079568 0.5397372842 4280163878
-0.2555053234 -0.0757842883 0.5353295803 4280098085
-0.2555374205 -0.0751989409 0.5353968143 4280295464
-0.2555692792 -0.0746133775 0.5354635119 4280295464
-0.2556008697 -0.0740275905 0.5355297327 4280361257
-0.2560597062 -0.0735644028 0.5364910960 4280427050
-0.2560908794 -0.0729772002 0.5365564227 4280558636
-0.2561218143 -0.0723897889 0.5366212130 4280624429
-0.2565801442 -0.0719220415 0.5375815034 4280624429
-0.2583213747 -0.0718087777 0.5412296653 4280624429
-0.2587795556 -0.0713337362 0.5421896577 4280558636
-0.2600931823 -0.0710903704 0.5449419022 4280361511
-0.2618346810 -0.0709568486 0.5485906601 4280493097
-0.2618647814 -0.0703554153 0.5486537814 4280164132
-0.2644622326 -0.0704376325 0.5540959239 4279900960
-0.2649201155 -0.0699428767 0.5550552607 4280098339
-0.2662338912 -0.0696699768 0.5578078628 4280164132
-0.2671196461 -0.0692799315 0.5596636534 4280361257
-0.2680053115 -0.0688857511 0.5615192652 4280624429
-0.2688909173 -0.0684874281 0.5633747578 4280361257
-0.2693482339 -0.0679768994 0.5643329620 4280427050
-0.2689488530 -0.0672500208 0.5634961724 4280492843
-0.2702623606 -0.0669493154 0.5662482381 4280624429
-0.2711475492 -0.0665373877 0.5681027770 4280887601
-0.2720326185 -0.0661213174 0.5699571967 4280690222
-0.2724891901 -0.0655979663 0.5709137917 4280756015
-0.2720885873 -0.0648681372 0.5700744987 4282927184
-0.2716876566 -0.0641400889 0.5692344308 4288651693
-0.2712863684 -0.0634138286 0.5683937073 4289901760
-0.2717687488 -0.0622612834 0.5694043040 4286086020
-0.2739387453 -0.0621207207 0.5739508867 4292533730
-0.2827502191 -0.1605916470 0.5937942863 4291942624
-0.2828154564 -0.1599688083 0.5939313173 4291416280
-0.2828804851 -0.1593455374 0.5940678716 4290955213
-0.2829453051 -0.1587218344 0.5942039490 4290297283
-0.2830098569 -0.1580976993 0.5943395495 4289507764
-0.2830742300 -0.1574731469 0.5944747329 4288849834
-0.2831383348 -0.1568481624 0.5946093798 4288520608
-0.2832022607 -0.1562227607 0.5947436094 4288323229
-0.2836843431 -0.1558267772 0.5957559943 4288454552
-0.2837478817 -0.1551996022 0.5958894491 4288783517
-0.2838111818 -0.1545720100 0.5960224271 4289178265
-0.2842929661 -0.1541710496 0.5970341563 4289638816
-0.2843559086 -0.1535416842 0.5971663594 4290296997
-0.2848375142 -0.1531371176 0.5981777310 4290823341
-0.2853190601 -0.1527302712 0.5991890430 4291677868
-0.2853814960 -0.1520978063 0.5993201733 4291941040
-0.2854437232 -0.1514649242 0.5994508266 4292138396
-0.2859249413 -0.1510531157 0.6004614234 4291612052
-0.2859867513 -0.1504184902 0.6005912423 4291216754
-0.2864677906 -0.1500030607 0.6016014218 4290821996
-0.2865292430 -0.1493666768 0.6017304659 4290953044
-0.2870100737 -0.1489476413 0.6027402878 4290887251
-0.2870711386 -0.1483095139 0.6028684974 4291215440
-0.2871319652 -0.1476709694 0.6029962897 4290754889
-0.2871925831 -0.1470320225 0.6031235456 4290360647
-0.2876729071 -0.1466066986 0.6041322351 4290229061
-0.2877331078 -0.1459660083 0.6042587161 4290230089
-0.2877930999 -0.1453249156 0.6043846607 4290230089
-0.2874326110 -0.1444722116 0.6036276221 4289901902
-0.2874920070 -0.1438312531 0.6037523746 4290494039
-0.2875511646 -0.1431899071 0.6038765907 4290822286
-0.2876101136 -0.1425481588 0.6040003896 4291480216
-0.2876687944 -0.1419060230 0.6041235924 4291941545
-0.2877272367 -0.1412634999 0.6042463779 4292402096
-0.2877854407 -0.1406205744 0.6043685675 4292073658
-0.2878434062 -0.1399772614 0.6044903398 4292600002
-0.2879011333 -0.1393335611 0.6046115160 4292731346
-0.2875376046 -0.1384867132 0.6038480997 4292797139
-0.2871736884 -0.1376413703 0.6030838490 4293388764
-0.2872304916 -0.1369984001 0.6032031775 4292665041
-0.2872870862 -0.1363550574 0.6033219695 4290230451
-0.2869220972 -0.1355123371 0.6025555134 4283519565
-0.2865566909 -0.1346711367 0.6017881036 4280821790
-0.2861908674 -0.1338314414 0.6010199189 4281940271
-0.2854031026 -0.1327971071 0.5993654728 4281413939
-0.2846147418 -0.1317661852 0.5977098942 4281084974
-0.2838258147 -0.1307386905 0.5960531235 4280362280
-0.2834581435 -0.1299079210 0.5952809453 4280625452
-0.2826681435 -0.1288863271 0.5936219692 4280493866
-0.2814556360 -0.1276767403 0.5910755992 4280428073
-0.2793983221 -0.1260915399 0.5867550373 4280690475
-0.2777620852 -0.1247050092 0.5833188295 4280822061
-0.2761249542 -0.1233257130 0.5798808336 4280953647
-0.2744869888 -0.1219536811 0.5764409900 4281085233
-0.2732705176 -0.1207755804 0.5738862753 4281348406
-0.2720533311 -0.1196028441 0.5713301301 4281348406
-0.2716805041 -0.1188050136 0.5705471635 4281479479
-0.2713072896 -0.1180087551 0.5697633624 4281479479
-0.2705110013 -0.1170312092 0.5680910945 4281479479
-0.2701369226 -0.1162390485 0.5673055053 4281413686
-0.2693396211 -0.1152675226 0.5656311512 4281413686
-0.2693875730 -0.1146594808 0.5657318830 4281347893
-0.2690123320 -0.1138720661 0.5649437904 4281282613
-0.2686367035 -0.1130862460 0.5641549826 4281282613
-0.2682606876 -0.1123020202 0.5633652806 4281413686
-0.2678842843 -0.1115193889 0.5625748038 4281347893
-0.2683540285 -0.1110887900 0.5635613203 4281216820
-0.2679769993 -0.1103074327 0.5627695918 4281216820
-0.2680230141 -0.1097009927 0.5628662109 4281151027
-0.2676452994 -0.1089218855 0.5620729327 4281085234
-0.2676907778 -0.1083157808 0.5621684194 4281085234
-0.2677359879 -0.1077093631 0.5622634292 4281151027
-0.2682046592 -0.1072721034 0.5632476807 4281151027
-0.2669781744 -0.1061585993 0.5606719255 4281085234
-0.2670225203 -0.1055531874 0.5607650876 4281085234
-0.2662625611 -0.1040102243 0.5591691136 4281019441
-0.2658820152 -0.1032411829 0.5583699346 4280953648
-0.2655011117 -0.1024737731 0.5575699806 4281019441
-0.2655439973 -0.1018707231 0.5576600432 4281019441
-0.2651623785 -0.1011056229 0.5568586588 4280953648
-0.2647804022 -0.1003421545 0.5560564399 4280887855
-0.2643980384 -0.0995803252 0.5552535057 4280822062
-0.2644397616 -0.0989790186 0.5553411245 4280822062
-0.2636322081 -0.0980616063 0.5536451936 4280690990
-0.2636733055 -0.0974616706 0.5537315011 4280690990
-0.2620155513 -0.0962375402 0.5502501130 4280625197
-0.2624806464 -0.0957959220 0.5512268543 4280625197
-0.2620960772 -0.0950440019 0.5504192114 4280559404
-0.2617111206 -0.0942937508 0.5496107340 4280493611
-0.2617506981 -0.0936972648 0.5496938825 4280427818
-0.2617900670 -0.0931005105 0.5497765541 4280427818
-0.2614041269 -0.0923533216 0.5489660501 4280427818
-0.2618680596 -0.0919061974 0.5499403477 4280427818
-0.2619066834 -0.0913086459 0.5500214696 4280558636
-0.2615198493 -0.0905635729 0.5492090583 4280492843
-0.2615579367 -0.0899664611 0.5492890477 4280492843
-0.2607450485 -0.0890784636 0.5475819707 4280492843
-0.2607825398 -0.0884827748 0.5476607084 4280427050
-0.2608197927 -0.0878868401 0.5477389097 4280427050
-0.2604312599 -0.0871482417 0.5469229817 4280492843
-0.2604679465 -0.0865527689 0.5470000505 4280492843
-0.2596530914 -0.0856761411 0.5452888012 4280296234
-0.2592634857 -0.0849426314 0.5444705486 4280296234
-0.2597250640 -0.0844878405 0.5454398990 4280296234
-0.2601865232 -0.0840308517 0.5464090109 4280296234
-0.2606478333 -0.0835716650 0.5473778248 4280296234
-0.2606830895 -0.0829747096 0.5474518538 4280296234
-0.2594400644 -0.0819737017 0.5448414087 4280296234
-0.2599007189 -0.0815128163 0.5458088517 4280296234
-0.2603612542 -0.0810497478 0.5467759967 4280427050
-0.2599692941 -0.0803211406 0.5459527969 4280427050
-0.2595769763 -0.0795942470 0.5451289415 4280492843
-0.2566595376 -0.0775019377 0.5390021801 4280295464
-0.2566922903 -0.0769128799 0.5390709043 4280098085
-0.2567248046 -0.0763235986 0.5391392112 4280163878
-0.2571835816 -0.0758598968 0.5401026607 4280295464
-0.2550828755 -0.0746450722 0.5356910229 4280229671
-0.2551144361 -0.0740590468 0.5357573032 4280295464
-0.2555724382 -0.0735956654 0.5367191434 4280361257
-0.2556035519 -0.0730082244 0.5367845297 4280492843
-0.2560612261 -0.0725414753 0.5377456546 4280558636
-0.2556651235 -0.0718327090 0.5369137526 4280624429
-0.2565492690 -0.0714825094 0.5387705564 4280558636
-0.2578603029 -0.0712461323 0.5415238142 4280427050
-0.2578904927 -0.0706527308 0.5415871739 4280098085
-0.2592014670 -0.0704070926 0.5443403721 4279966499
-0.2617937326 -0.0705003813 0.5497842431 4279769120
-0.2626778483 -0.0701255575 0.5516409874 4279834913
-0.2639890611 -0.0698596314 0.5543946028 4280163878
-0.2648731172 -0.0694755465 0.5562511683 4280361257
-0.2657571137 -0.0690873191 0.5581076145 4280295464
-0.2666410208 -0.0686949417 0.5599638820 4280032292
-0.2670975029 -0.0681893229 0.5609225631 4280361257
-0.2679812610 -0.0677896515 0.5627784729 4280229671
-0.2680100203 -0.0671715736 0.5628389120 4280427050
-0.2688935101 -0.0667655915 0.5646942854 4280558636
-0.2693493962 -0.0662503093 0.5656516552 4280887601
-0.2706602812 -0.0659411997 0.5684046149 4280821808
-0.2711158991 -0.0654195994 0.5693614483 4280953394
-0.2702883482 -0.0645892397 0.5676234961 4282532426
-0.2703157663 -0.0639650598 0.5676811337 4288256935
-0.2699151933 -0.0632404760 0.5668398738 4288454314
-0.2703698575 -0.0627161413 0.5677946806 4282401612
-0.2733913958 -0.0627791211 0.5741401315 4284704367
-0.2734180987 -0.0621472746 0.5741962194 4291678423
-0.2819184959 -0.1591749191 0.5934318304 4292402659
-0.2819831371 -0.1585519165 0.5935678482 4291876315
-0.2816303074 -0.1576948613 0.5928251743 4291283663
-0.2816944122 -0.1570719332 0.5929601192 4290691526
-0.2817582786 -0.1564485729 0.5930945277 4289902261
-0.2822394371 -0.1560556442 0.5941073298 4289310124
-0.2823029459 -0.1554305106 0.5942410231 4288915101
-0.2823662162 -0.1548049599 0.5943742394 4288651929
-0.2828470767 -0.1544070691 0.5953864455 4288454542
-0.2829099894 -0.1537797600 0.5955188870 4288520335
-0.2829726934 -0.1531520188 0.5956508517 4288849549
-0.2834532261 -0.1527491659 0.5966623425 4289178514
-0.2839337289 -0.1523440331 0.5976737738 4289901711
-0.2839958966 -0.1517131925 0.5978046656 4289770125
-0.2840578556 -0.1510819495 0.5979350805 4289704559
-0.2841195762 -0.1504502892 0.5980650187 4289441387
-0.2845996022 -0.1500388533 0.5990754366 4289440595
-0.2846609652 -0.1494054347 0.5992045999 4289440595
-0.2847220600 -0.1487716138 0.5993332267 4289966149
-0.2852017581 -0.1483552307 0.6003429890 4290097735
-0.2852624953 -0.1477196664 0.6004708409 4290624071
-0.2853229940 -0.1470836848 0.6005981565 4291018829
-0.2853832543 -0.1464473009 0.6007250547 4291216471
-0.2858624458 -0.1460246295 0.6017337441 4290887506
-0.2859223187 -0.1453865170 0.6018597484 4290427983
-0.2859819829 -0.1447479874 0.6019853354 4290362190
-0.2860413790 -0.1441090703 0.6021103859 4289770830
-0.2861005664 -0.1434697509 0.6022349000 4289441865
-0.2861594856 -0.1428300440 0.6023589969 4289111405
-0.2862181664 -0.1421899348 0.6024824977 4289900921
-0.2862766385 -0.1415494382 0.6026055217 4289901699
-0.2859149873 -0.1407019347 0.6018443108 4290757008
-0.2859728634 -0.1400615871 0.6019661427 4291152292
-0.2860305309 -0.1394208670 0.6020874977 4291678636
-0.2860879302 -0.1387797445 0.6022083163 4291811263
-0.2857249081 -0.1379354000 0.6014441848 4292074435
-0.2857817411 -0.1372944564 0.6015638113 4292600275
-0.2854179740 -0.1364521682 0.6007981300 4292797654
-0.2854742408 -0.1358114183 0.6009165645 4292401871
-0.2851097584 -0.1349712014 0.6001493335 4287862154
-0.2847448587 -0.1341325045 0.5993812084 4281479720
-0.2843795419 -0.1332953125 0.5986122489 4281019169
-0.2840138376 -0.1324596554 0.5978424549 4281413426
-0.2836477160 -0.1316255182 0.5970717669 4281216047
-0.2832812071 -0.1307929009 0.5963002443 4280954417
-0.2824932635 -0.1297684163 0.5946416855 4280888624
-0.2817047834 -0.1287473589 0.5929818749 4280625452
-0.2809157073 -0.1277297437 0.5913209319 4280428073
-0.2797048688 -0.1265249997 0.5887721181 4280493096
-0.2780719697 -0.1251360178 0.5853348970 4280427303
-0.2768595815 -0.1239429191 0.5827829242 4280493096
-0.2748035491 -0.1223797798 0.5784550309 4280558889
-0.2735896111 -0.1211993024 0.5758996606 4280756269
-0.2723749578 -0.1200241894 0.5733429193 4280822062
-0.2715813220 -0.1190392971 0.5716723204 4280887855
-0.2707871497 -0.1180578843 0.5700005889 4281019441
-0.2704142928 -0.1172628850 0.5692157149 4281216820
-0.2696191072 -0.1162874773 0.5675418377 4281282613
-0.2692453861 -0.1154965907 0.5667551756 4281282613
-0.2697154582 -0.1150674298 0.5677447319 4281282613
-0.2680746317 -0.1137404442 0.5642908216 4281347893
-0.2676996887 -0.1129552647 0.5635015368 4281347893
-0.2681689858 -0.1125260964 0.5644893646 4281413686
-0.2677934170 -0.1117421985 0.5636988282 4281347893
-0.2678399384 -0.1111351848 0.5637966990 4281282100
-0.2678861916 -0.1105278581 0.5638940930 4281216307
-0.2679322362 -0.1099202111 0.5639910102 4281151027
-0.2679780126 -0.1093122587 0.5640873909 4281085234
-0.2676008344 -0.1085325405 0.5632934570 4281151027
-0.2672232389 -0.1077544242 0.5624986291 4281216820
-0.2668452859 -0.1069779247 0.5617030263 4281151027
-0.2660439909 -0.1060344651 0.5600163341 4281085234
-0.2665112615 -0.1055973917 0.5609999299 4281151027
-0.2661322355 -0.1048247889 0.5602021217 4281085234
-0.2657528520 -0.1040538177 0.5594034791 4281019441
-0.2653730512 -0.1032844633 0.5586040020 4281019441
-0.2654162049 -0.1026805118 0.5586948395 4281019441
-0.2650357485 -0.1019134596 0.5578939915 4281085234
-0.2642314434 -0.1009862050 0.5562009811 4280822576
-0.2642736733 -0.1003842726 0.5562898517 4280756783
-0.2634685040 -0.0994622335 0.5545949936 4280822576
-0.2635101378 -0.0988616496 0.5546826124 4280822576
-0.2631277740 -0.0981028080 0.5538777709 4280822576
-0.2623212934 -0.0971886143 0.5521801710 4280888369
-0.2619381547 -0.0964340419 0.5513736606 4280822576
-0.2624024749 -0.0959912762 0.5523509979 4280822576
-0.2620187104 -0.0952380896 0.5515431762 4280756783
-0.2616345882 -0.0944865644 0.5507346392 4280625197
-0.2616741955 -0.0938888714 0.5508180261 4280625197
-0.2621377409 -0.0934421122 0.5517937541 4280559404
-0.2613284886 -0.0925424471 0.5500903130 4280493611
-0.2617916167 -0.0920941830 0.5510651469 4280559404
-0.2609815300 -0.0911988318 0.5493599772 4280558636
-0.2614442706 -0.0907490700 0.5503339767 4280558636
-0.2610578835 -0.0900043994 0.5495206714 4280558636
-0.2615202367 -0.0895521641 0.5504939556 4280492843
-0.2607086599 -0.0886645168 0.5487855673 4280427050
-0.2590472400 -0.0874936357 0.5452883244 4280361257
-0.2607829571 -0.0874699503 0.5489419699 4280427050
-0.2600427568 -0.0853971392 0.5473838449 4280427050
-0.2605749369 -0.0837436169 0.5485040545 4280296234
-0.2598294914 -0.0816809982 0.5469349623 4280296234
-0.2594727278 -0.0803551450 0.5461840034 4280427050
-0.2595066130 -0.0797587112 0.5462552905 4280427050
-0.2574128807 -0.0785131752 0.5418480635 4280361257
-0.2582970560 -0.0781787559 0.5437092185 4280163878
-0.2562021315 -0.0769454837 0.5392994285 4280098085
-0.2566602230 -0.0764827952 0.5402637124 4280163878
-0.2566925287 -0.0758920684 0.5403317213 4280163878
-0.2554789782 -0.0743382573 0.5377771854 4280229671
-0.2555103600 -0.0737498179 0.5378432870 4280295464
-0.2555415332 -0.0731611550 0.5379089117 4280361257
-0.2555724382 -0.0725722760 0.5379739404 4280492843
-0.2564551234 -0.0722231343 0.5398319960 4280558636
-0.2564856708 -0.0716318712 0.5398962498 4280427050
-0.2582203746 -0.0715124235 0.5435478091 4280229671
-0.2595290840 -0.0712678805 0.5463026166 4279966499
-0.2599854469 -0.0707851499 0.5472632051 4279571741
-0.2625729144 -0.0708755255 0.5527098179 4279703327
-0.2634555101 -0.0704976022 0.5545676351 4280229671
-0.2639116943 -0.0700024441 0.5555279255 4280361257
-0.2647941411 -0.0696172118 0.5573854446 4280163878
-0.2656764984 -0.0692278370 0.5592427850 4279966499
-0.2665588260 -0.0688343197 0.5611000061 4279966499
-0.2674410641 -0.0684366599 0.5629571080 4280032292
-0.2674700320 -0.0678185225 0.5630181432 4280163878
-0.2679254115 -0.0673073679 0.5639767051 4280558636
-0.2683806121 -0.0667940378 0.5649348497 4280624429
-0.2692623734 -0.0663837418 0.5667909384 4280624429
-0.2701440454 -0.0659693033 0.5686468482 4280624429
-0.2705988288 -0.0654474869 0.5696041584 4280821808
-0.2697728872 -0.0646167845 0.5678655505 4282466633
-0.2685195804 -0.0636885837 0.5652273893 4286941075
-0.2685466111 -0.0630669147 0.5652842522 4285559422
-0.2690003514 -0.0625443459 0.5662393570 4280559408
-0.2703079581 -0.0622161850 0.5689918995 4284309609
-0.2716155648 -0.0618819036 0.5717443824 4291283663
-0.2803171575 -0.1566702574 0.5914437771 4292336353
-0.2803807557 -0.1560485214 0.5915779471 4291744467
-0.2804441452 -0.1554263681 0.5917117000 4291020744
-0.2805072963 -0.1548037827 0.5918449759 4290428342
-0.2809871137 -0.1544098854 0.5928573608 4289770412
-0.2810499370 -0.1537855417 0.5929898620 4289178522
-0.2815295756 -0.1533880234 0.5940018892 4288915350
-0.2815920115 -0.1527619064 0.5941336155 4288981137
-0.2820715010 -0.1523607820 0.5951452255 4289112723
-0.2821335793 -0.1517329067 0.5952762365 4289835918
-0.2821954191 -0.1511046290 0.5954067111 4290164883
-0.2826745510 -0.1506985426 0.5964176655 4290624893
-0.2827360332 -0.1500685066 0.5965473652 4290822272
-0.2827972770 -0.1494380534 0.5966765881 4290887528
-0.2828582823 -0.1488072127 0.5968053341 4290690149
-0.2833369672 -0.1483948231 0.5978152752 4291150165
-0.2833976150 -0.1477622241 0.5979432464 4291084372
-0.2834580243 -0.1471292078 0.5980706811 4291347542
-0.2835181952 -0.1464958042 0.5981976390 4291281749
-0.2839963734 -0.1460771263 0.5992065668 4291282011
-0.2840561569 -0.1454419792 0.5993327498 4290887253
-0.2841157317 -0.1448064297 0.5994583964 4290033225
-0.2841750383 -0.1441704780 0.5995835662 4289967432
-0.2842341065 -0.1435341388 0.5997081995 4289704535
-0.2847116590 -0.1431078464 0.6007157564 4289112398
-0.2847703397 -0.1424697787 0.6008396149 4288453475
-0.2848288119 -0.1418313086 0.6009629369 4288519268
-0.2844680548 -0.1409848034 0.6002017856 4288913777
-0.2845259607 -0.1403464973 0.6003239751 4290163844
-0.2841644883 -0.1395020336 0.5995612741 4290691478
-0.2842218280 -0.1388638914 0.5996822119 4291217822
-0.2842788994 -0.1382253617 0.5998026729 4291548078
-0.2839163840 -0.1373835206 0.5990377665 4292140215
-0.2839728892 -0.1367451549 0.5991570354 4292600782
-0.2836096287 -0.1359053850 0.5983905792 4292271817
-0.2836655974 -0.1352672130 0.5985086560 4292600012
-0.2837212980 -0.1346286535 0.5986261964 4291152566
-0.2833569944 -0.1337915212 0.5978575349 4284703575
-0.2829922736 -0.1329559088 0.5970880389 4280821788
-0.2826271355 -0.1321218163 0.5963176489 4281545012
-0.2826816440 -0.1314846128 0.5964326262 4281610805
-0.2823157907 -0.1306526214 0.5956606865 4281545785
-0.2815293372 -0.1296286881 0.5940013528 4281479992
-0.2807423472 -0.1286081672 0.5923408270 4281216820
-0.2799547613 -0.1275911033 0.5906791091 4281151027
-0.2791666389 -0.1265774667 0.5890162587 4281085234
-0.2779574394 -0.1253775954 0.5864649415 4281019441
-0.2767475247 -0.1241830736 0.5839121342 4281019441
-0.2755368948 -0.1229939088 0.5813578367 4280953648
-0.2739048004 -0.1216232777 0.5779142976 4280953648
-0.2731135190 -0.1206316650 0.5762447715 4280887855
-0.2719007730 -0.1194586083 0.5736860037 4280822062
-0.2706873417 -0.1182909310 0.5711257458 4280822062
-0.2703153193 -0.1174946651 0.5703408122 4280887855
-0.2695217729 -0.1165179163 0.5686665177 4280887855
-0.2687276900 -0.1155446544 0.5669910312 4280887855
-0.2687756419 -0.1149351820 0.5670921803 4280887855
-0.2684019804 -0.1141461954 0.5663038492 4281084723
-0.2680279315 -0.1133587956 0.5655146241 4281084723
-0.2684965134 -0.1129275560 0.5665032864 4281150516
-0.2677002847 -0.1119651049 0.5648233294 4281216309
-0.2677468061 -0.1113568991 0.5649214983 4281216309
-0.2673713863 -0.1105739623 0.5641293526 4281150516
-0.2674173713 -0.1099660844 0.5642263889 4281084980
-0.2670412362 -0.1091854051 0.5634328127 4281084980
-0.2662428021 -0.1082348004 0.5617481470 4281216566
-0.2667098641 -0.1077994406 0.5627335906 4281216566
-0.2663326859 -0.1070226282 0.5619377494 4281216309
-0.2663772404 -0.1064160839 0.5620318055 4281150516
-0.2664215863 -0.1058092341 0.5621253848 4281150516
-0.2660433948 -0.1050353646 0.5613274574 4281150516
-0.2648200989 -0.1039315909 0.5587463975 4281084980
-0.2657082975 -0.1036572903 0.5606204271 4281084980
-0.2649065554 -0.1027235016 0.5589287877 4281085234
-0.2645268440 -0.1019561440 0.5581276417 4281019441
-0.2641467750 -0.1011904255 0.5573257208 4281019441
-0.2637663186 -0.1004263461 0.5565230250 4280953648
-0.2629627287 -0.0995039269 0.5548275113 4280953648
-0.2642728090 -0.0993801355 0.5575916767 4280953648
-0.2630456388 -0.0983020067 0.5550024509 4281019441
-0.2626637816 -0.0975435451 0.5541967154 4281019441
-0.2622815371 -0.0967867374 0.5533902049 4280888369
-0.2618989050 -0.0960315838 0.5525829196 4280888369
-0.2619390786 -0.0954322666 0.5526677370 4280888369
-0.2611325681 -0.0945262685 0.5509660244 4280822576
-0.2607488632 -0.0937760994 0.5501564145 4280822576
-0.2612114847 -0.0933301300 0.5511325002 4280756783
-0.2608271539 -0.0925813690 0.5503216386 4280691245
-0.2608659565 -0.0919836015 0.5504034758 4280691245
-0.2609044909 -0.0913855657 0.5504848361 4280690222
-0.2605192065 -0.0906398818 0.5496718884 4280690222
-0.2609808743 -0.0901887044 0.5506459475 4280559406
-0.2610186934 -0.0895898789 0.5507257581 4280493613
-0.2597849071 -0.0885573998 0.5481225848 4280362027
-0.2598220706 -0.0879609808 0.5482010245 4280296234
-0.2590111792 -0.0870792642 0.5464900732 4280427050
-0.2590477467 -0.0864842832 0.5465672016 4280427050
-0.2599321306 -0.0861701891 0.5484331846 4280492843
-0.2591201365 -0.0852935687 0.5467199683 4280427050
-0.2595801353 -0.0848364532 0.5476905107 4280362027
-0.2600400150 -0.0843771473 0.5486608148 4280296234
-0.2592269480 -0.0835056379 0.5469453335 4280296234
-0.2596863806 -0.0830448642 0.5479146838 4280296234
-0.2605700791 -0.0827166140 0.5497792363 4280427050
-0.2593315542 -0.0817155167 0.5471660495 4280427050
-0.2597904503 -0.0812510923 0.5481342673 4280492843
-0.2585510015 -0.0802573338 0.5455191731 4280427050
-0.2590093911 -0.0797924399 0.5464863181 4280427050
-0.2581936717 -0.0789358690 0.5447652340 4280229671
-0.2582269311 -0.0783406869 0.5448353887 4280032292
-0.2574104071 -0.0774895325 0.5431125760 4280032292
-0.2561685741 -0.0765151754 0.5404924750 4280098085
-0.2549262047 -0.0755464733 0.5378711224 4280032292
-0.2553829849 -0.0750831515 0.5388349295 4280163878
-0.2545646727 -0.0742458031 0.5371083617 4280229671
-0.2550210357 -0.0737810656 0.5380712152 4280295464
-0.2550521493 -0.0731921643 0.5381368995 4280361257
-0.2555081844 -0.0727240518 0.5390990376 4280492843
-0.2555388510 -0.0721337348 0.5391638279 4280492843
-0.2572702765 -0.0720193684 0.5428169370 4280361257
-0.2568753958 -0.0713066459 0.5419837832 4280098085
-0.2581815124 -0.0710639730 0.5447396040 4279835167
-0.2594877183 -0.0708151907 0.5474954844 4279506202
-0.2607939541 -0.0705602989 0.5502515435 4280032546
-0.2625257075 -0.0704134181 0.5539054275 4280624683
-0.2629809976 -0.0699190348 0.5548660159 4280558890
-0.2638617158 -0.0695346370 0.5567243099 4280098339
-0.2643167377 -0.0690349191 0.5576843619 4279703581
-0.2647716105 -0.0685330331 0.5586440563 4279769374
-0.2652263343 -0.0680289716 0.5596034527 4280098085
-0.2661066353 -0.0676309392 0.5614608526 4280032292
-0.2665610611 -0.0671215430 0.5624196529 4280098085
-0.2674412131 -0.0667162165 0.5642766356 4280295464
-0.2683212459 -0.0663067400 0.5661334991 4280492843
-0.2687752545 -0.0657888576 0.5670914054 4280624429
-0.2683771253 -0.0650622547 0.5662513971 4279900706
-0.2671265602 -0.0641328692 0.5636128187 4280492843
-0.2671537101 -0.0635131076 0.5636700988 4282072393
-0.2688851058 -0.0632943958 0.5673232079 4281282877
-0.2697642744 -0.0628689453 0.5691781044 4280164650
-0.2702171206 -0.0623410232 0.5701335669 4284638574
-0.2736535370 -0.0624923185 0.5773841143 4290428354
-0.2790689468 -0.1550274938 0.5901932120 4292468190
-0.2791318297 -0.1544065475 0.5903261900 4292007374
-0.2796106040 -0.1540143639 0.5913387537 4291546823
-0.2796731293 -0.1533916444 0.5914710164 4291086521
-0.2801517248 -0.1529958397 0.5924831629 4290691763
-0.2802139223 -0.1523713619 0.5926146507 4290494633
-0.2806923091 -0.1519719511 0.5936264396 4290560426
-0.2807541490 -0.1513457149 0.5937571526 4291020192
-0.2808157206 -0.1507190615 0.5938874483 4291217571
-0.2808770835 -0.1500920057 0.5940172076 4291611539
-0.2813550532 -0.1496862918 0.5950280428 4292203676
-0.2814160585 -0.1490574777 0.5951570272 4292992138
-0.2814768255 -0.1484282613 0.5952855349 4292926345
-0.2819544375 -0.1480175853 0.5962956548 4292992621
-0.2820148170 -0.1473866254 0.5964233279 4292400484
-0.2820749879 -0.1467552632 0.5965505838 4292136807
-0.2821349204 -0.1461234838 0.5966773033 4291807842
-0.2821946144 -0.1454913020 0.5968035460 4290953307
-0.2822540700 -0.1448587328 0.5969293118 4290492756
-0.2827309072 -0.1444391012 0.5979377627 4290164811
-0.2827899754 -0.1438048035 0.5980626941 4289506881
-0.2828488350 -0.1431700885 0.5981871486 4288913750
-0.2833253145 -0.1427455246 0.5991948843 4288847957
-0.2833837569 -0.1421090961 0.5993185043 4288125022
-0.2834419906 -0.1414722651 0.5994415879 4287730264
-0.2830818295 -0.1406273246 0.5986799002 4288124009
-0.2827212512 -0.1397838742 0.5979173779 4288781939
