VERSION 0.7
FIELDS x y z rgba
SIZE 4 4 4 4
TYPE F F F U
COUNT 1 1 1 1
WIDTH 920
HEIGHT 1
VIEWPOINT 0.0 0.0 0.0 1.0 0.0 0.0 0.0
POINTS 920
DATA ascii
-0.2713061571 -0.1396547258 0.5431560874 4280497758
-0.2709293664 -0.1388581246 0.5424017906 4280497758
-0.2705521882 -0.1380630136 0.5416466594 4280563290
-0.2701746225 -0.1372693628 0.5408907533 4280563290
-0.2697966099 -0.1364771873 0.5401340127 4280563290
-0.2694182396 -0.1356864870 0.5393764973 4280563290
-0.2690394521 -0.1348972768 0.5386181474 4280563803
-0.2686602473 -0.1341095567 0.5378590226 4280563803
-0.2691531181 -0.1337568760 0.5388457179 4280563805
-0.2687732875 -0.1329702735 0.5380853415 4280563805
-0.2688294947 -0.1324001104 0.5381978154 4280695137
-0.2688854933 -0.1318295747 0.5383099318 4280695137
-0.2689412534 -0.1312586963 0.5384215713 4280760932
-0.2694334686 -0.1308996081 0.5394070148 4280826725
-0.2699256539 -0.1305383146 0.5403923392 4280892518
-0.2699809372 -0.1299645156 0.5405030251 4280958311
-0.2704729438 -0.1295997202 0.5414880514 4281024105
-0.2705278695 -0.1290242970 0.5415980220 4281024105
-0.2710197270 -0.1286560148 0.5425826311 4280958828
-0.2710742950 -0.1280789524 0.5426918864 4281024621
-0.2715659440 -0.1277071834 0.5436761975 4281024621
-0.2720575333 -0.1273332089 0.5446603894 4281024621
-0.2725490928 -0.1269570291 0.5456444621 4281090414
-0.2726030350 -0.1263757795 0.5457524657 4281090414
-0.2730943859 -0.1259961128 0.5467361808 4281090414
-0.2731479704 -0.1254132390 0.5468434095 4281156207
-0.2736391127 -0.1250300854 0.5478267074 4281353586
-0.2741302252 -0.1246447042 0.5488098860 4281287793
-0.2746212780 -0.1242571175 0.5497930050 4281287795
-0.2755503356 -0.1240645647 0.5516529679 4281287795
-0.2760413289 -0.1236716211 0.5526359677 4281353588
-0.2769705355 -0.1234718263 0.5544962287 4281287795
-0.2774614692 -0.1230735183 0.5554791093 4281287795
-0.2779523730 -0.1226729900 0.5564618707 4281287795
-0.2784431875 -0.1222702563 0.5574445128 4281222002
-0.2789339423 -0.1218653023 0.5584269762 4281222002
-0.2798632979 -0.1216488034 0.5602875352 4281222002
-0.2803539634 -0.1212384850 0.5612698793 4281222002
-0.2812834084 -0.1210147366 0.5631306171 4281222002
-0.2817740142 -0.1205990389 0.5641128421 4281222002
-0.2822645605 -0.1201811284 0.5650948882 4281222002
-0.2827550173 -0.1197609976 0.5660767555 4281222002
-0.2832453847 -0.1193386540 0.5670585036 4281287795
-0.2841748893 -0.1190981716 0.5689193606 4281353588
-0.2846651673 -0.1186704487 0.5699009299 4281353588
-0.2855947316 -0.1184226945 0.5717619061 4281353588
-0.2860849202 -0.1179895923 0.5727432966 4281419381
-0.2870145440 -0.1177345738 0.5746043921 4281485174
-0.2875046432 -0.1172960848 0.5755855441 4281550967
-0.2884342968 -0.1170337871 0.5774467587 4281616760
-0.2893640399 -0.1167673767 0.5793080926 4281747576
-0.2907336652 -0.1166733652 0.5820500255 4281879162
-0.2916635573 -0.1163977757 0.5839117169 4282142072
-0.2925935388 -0.1161180735 0.5857735276 4282273658
-0.2935235202 -0.1158342436 0.5876353979 4282602359
-0.2944535911 -0.1155463010 0.5894973874 4282733945
-0.2949434519 -0.1150824651 0.5904781222 4283128441
-0.2963137925 -0.1149580404 0.5932215452 4283523199
-0.2963632345 -0.1143180057 0.5933204889 4283522940
-0.2968528569 -0.1138465554 0.5943007469 4284049284
-0.2977828681 -0.1135408431 0.5961626172 4285166733
-0.2982723117 -0.1130639985 0.5971425176 4287535281
-0.2987616658 -0.1125849336 0.5981221199 4290166481
-0.2996915877 -0.1122687459 0.5999838710 4291745513
-0.3010623455 -0.1121125743 0.6027281284 4293325050
-0.3074070811 -0.1866880506 0.6168017983 4289836997
-0.3074841201 -0.1860493422 0.6169563532 4287206051
-0.3071301579 -0.1851504892 0.6162461638 4285692812
-0.3067757785 -0.1842529476 0.6155351400 4285495952
-0.3059899807 -0.1830988377 0.6139584184 4283522162
-0.3043413460 -0.1814338565 0.6106505394 4282600808
-0.3013981283 -0.1790073216 0.6047450304 4282469222
-0.2988844514 -0.1768480837 0.5997014642 4282206310
-0.3028402328 -0.1785135716 0.6076385975 4281745759
-0.2973046601 -0.1745877564 0.5965316892 4281680482
-0.2952190042 -0.1727048457 0.5923468471 4281614689
-0.2927003503 -0.1705788821 0.5872932673 4281549668
-0.2919074595 -0.1694660634 0.5857023597 4281483875
-0.2911139727 -0.1683564037 0.5841102600 4281483876
-0.2903198302 -0.1672499180 0.5825168490 4281418083
-0.2895250618 -0.1661466211 0.5809221268 4281286497
-0.2882974148 -0.1647994220 0.5784589648 4281220704
-0.2875012755 -0.1637033969 0.5768615007 4281220704
-0.2862720788 -0.1623652875 0.5743951797 4281154911
-0.2854745984 -0.1612765491 0.5727950335 4280958302
-0.2846764624 -0.1601910293 0.5711936355 4280892509
-0.2838777304 -0.1591086984 0.5695909858 4280826462
-0.2830783427 -0.1580296010 0.5679870248 4280826462
-0.2822783589 -0.1569537073 0.5663819313 4280694878
-0.2806116641 -0.1554014087 0.5630377531 4280563292
-0.2815428078 -0.1552894264 0.5649060607 4280498010
-0.2807411551 -0.1542214006 0.5632975698 4280498010
-0.2799389064 -0.1531566083 0.5616878867 4280432219
-0.2791360319 -0.1520950645 0.5600769520 4280432219
-0.2783325315 -0.1510367692 0.5584647655 4280497499
-0.2779620886 -0.1502160728 0.5577214360 4280497499
-0.2771574855 -0.1491633803 0.5561070442 4280431706
-0.2763522565 -0.1481139362 0.5544914007 4280431706
-0.2759803534 -0.1472993642 0.5537452102 4280300633
-0.2751740217 -0.1462555528 0.5521273017 4280300633
-0.2734988332 -0.1447554678 0.5487660766 4280300633
-0.2748622298 -0.1448643059 0.5515016913 4280366426
-0.2731857300 -0.1433717012 0.5481378436 4280431706
-0.2728115022 -0.1425671130 0.5473870039 4280431706
-0.2720023692 -0.1415378898 0.5457634330 4280431706
-0.2716272175 -0.1407371312 0.5450107455 4280497499
-0.2708169818 -0.1397135854 0.5433850288 4280432219
-0.2704409361 -0.1389166862 0.5426304936 4280432219
-0.2700644732 -0.1381212473 0.5418751836 4280432217
-0.2696876228 -0.1373272985 0.5411190391 4280498010
-0.2688753009 -0.1363142431 0.5394890904 4280498012
-0.2693678737 -0.1359634548 0.5404774547 4280498012
-0.2694251835 -0.1353917420 0.5405924320 4280563805
-0.2686115503 -0.1343840510 0.5389599204 4280563805
-0.2691036463 -0.1340303272 0.5399473310 4280563805
-0.2687246799 -0.1332424879 0.5391868949 4280629598
-0.2687809169 -0.1326711774 0.5392997265 4280695137
-0.2688369155 -0.1320995092 0.5394121408 4280695137
-0.2688927352 -0.1315274686 0.5395240784 4280695139
-0.2689483166 -0.1309550852 0.5396355987 4280760932
-0.2690036595 -0.1303823441 0.5397467017 4280761702
-0.2694948912 -0.1300196350 0.5407322645 4280827495
-0.2699860632 -0.1296547204 0.5417178273 4280827495
-0.2700409293 -0.1290790588 0.5418279171 4280827495
-0.2705319226 -0.1287106574 0.5428130627 4280958826
-0.2705864608 -0.1281333715 0.5429224968 4281024619
-0.2710772753 -0.1277614683 0.5439072847 4280958826
-0.2711314261 -0.1271825582 0.5440159440 4281024619
-0.2716220617 -0.1268071681 0.5450003743 4281090412
-0.2721126378 -0.1264295578 0.5459846854 4281090412
-0.2726031542 -0.1260497421 0.5469689369 4281090412
-0.2726566494 -0.1254666448 0.5470762849 4281090412
-0.2731469870 -0.1250833422 0.5480601192 4281222000
-0.2736372650 -0.1246978268 0.5490438342 4281222000
-0.2741274536 -0.1243100986 0.5500273705 4281222513
-0.2750549018 -0.1241174787 0.5518882871 4281288306
-0.2755450606 -0.1237243861 0.5528717637 4281222513
-0.2760351598 -0.1233290806 0.5538551211 4281222513
-0.2769627571 -0.1231260672 0.5557162762 4281288306
-0.2774527967 -0.1227253973 0.5566995740 4281222513
-0.2779427767 -0.1223224998 0.5576826930 4281156720
-0.2784326971 -0.1219173968 0.5586656928 4281222513
-0.2793604136 -0.1217008308 0.5605271459 4281156466
-0.2798502743 -0.1212903485 0.5615100265 4281090673
-0.2807780802 -0.1210665256 0.5633715987 4281156209
-0.2812678516 -0.1206506714 0.5643543601 4281222002
-0.2817575336 -0.1202325970 0.5653368831 4281287793
-0.2822471559 -0.1198123097 0.5663192868 4281222000
-0.2827366889 -0.1193898022 0.5673015118 4281222000
-0.2836645842 -0.1191492304 0.5691633224 4281287793
-0.2841540277 -0.1187213436 0.5701453686 4281484402
-0.2850819826 -0.1184735075 0.5720072389 4281484402
-0.2855713069 -0.1180402339 0.5729891062 4281615988
-0.2864993215 -0.1177851185 0.5748510957 4281747574
-0.2869885564 -0.1173464656 0.5758327842 4281813621
-0.2879166007 -0.1170840710 0.5776948333 4281747828
-0.2892836928 -0.1169951037 0.5804378390 4281813367
-0.2902119160 -0.1167235300 0.5823003054 4281879160
-0.2911401987 -0.1164478436 0.5841628909 4282010999
-0.2916293442 -0.1159933433 0.5851443410 4282142585
-0.2925576568 -0.1157103628 0.5870069265 4282471289
-0.2934859991 -0.1154232621 0.5888696313 4282602875
-0.2944143713 -0.1151320338 0.5907323956 4283128188
-0.2953428030 -0.1148366854 0.5925952792 4283720325
-0.2953921258 -0.1141973361 0.5926942229 4283851653
-0.2958808243 -0.1137266532 0.5936747789 4284114825
-0.2963694334 -0.1132537499 0.5946551561 4287403955
-0.2972976863 -0.1129456982 0.5965176821 4290562019
-0.2977861166 -0.1124673933 0.5974977016 4290693595
-0.2982744277 -0.1119868681 0.5984774828 4290627802
-0.2996426225 -0.1118325517 0.6012227535 4293325049
-0.3059891462 -0.1862419695 0.6153280139 4289639618
-0.3056360185 -0.1853441596 0.6146178842 4287074465
-0.3057124317 -0.1847074330 0.6147715449 4286416535
-0.3053585291 -0.1838113517 0.6140599251 4285232780
-0.3045739830 -0.1826585978 0.6124822497 4283061611
-0.3033585250 -0.1812518537 0.6100379825 4282206563
-0.3008509874 -0.1790814549 0.6049954891 4282338149
-0.2987724543 -0.1771766543 0.6008156538 4282141287
-0.2992763221 -0.1768067777 0.6018289328 4281746529
-0.2971958816 -0.1749136597 0.5976452231 4281680995
-0.2951141298 -0.1730290949 0.5934590101 4281549409
-0.2926002145 -0.1709013879 0.5884036422 4281549668
-0.2918089628 -0.1697872430 0.5868124366 4281549668
-0.2905859053 -0.1684263647 0.5843529701 4281549669
-0.2897932827 -0.1673194617 0.5827590227 4281483876
-0.2885686457 -0.1659676433 0.5802963376 4281352290
-0.2873432040 -0.1646208167 0.5778320432 4281220704
-0.2865484655 -0.1635252684 0.5762338638 4281089118
-0.2853214443 -0.1621875465 0.5737664104 4281023325
-0.2840935886 -0.1608548462 0.5712972283 4280958302
-0.2837286294 -0.1600142568 0.5705633163 4280892509
-0.2829312682 -0.1589324325 0.5689598918 4280826462
-0.2817012668 -0.1576120704 0.5664864182 4280760669
-0.2809025645 -0.1565375924 0.5648802519 4280694876
-0.2801032662 -0.1554663181 0.5632728934 4280629083
-0.2797357142 -0.1546372920 0.5625337958 4280498010
-0.2798001766 -0.1540477872 0.5626634359 4280432217
-0.2794318795 -0.1532206833 0.5619227886 4280432217
-0.2781978548 -0.1519224495 0.5594412684 4280432217
-0.2778285444 -0.1511000097 0.5586985946 4280497497
-0.2774588168 -0.1502790004 0.5579550266 4280431704
-0.2766557038 -0.1492258757 0.5563400388 4280431706
-0.2758519948 -0.1481760293 0.5547238588 4280431706
-0.2754808366 -0.1473611444 0.5539774299 4280366426
-0.2746760249 -0.1463169158 0.5523589849 4280366426
-0.2743039131 -0.1455058306 0.5516107678 4280300633
-0.2734979987 -0.1444672495 0.5499900579 4280366426
-0.2731249928 -0.1436599791 0.5492399931 4280431706
-0.2723179460 -0.1426270455 0.5476170778 4280431706
-0.2723777592 -0.1420497894 0.5477373600 4280497499
-0.2715697289 -0.1410216242 0.5461124182 4280497499
-0.2711950243 -0.1402211040 0.5453588963 4280432219
-0.2708198726 -0.1394220442 0.5446045399 4280432219
-0.2704443634 -0.1386244595 0.5438493490 4280498010
-0.2696342170 -0.1376067549 0.5422202349 4280498010
-0.2683892250 -0.1363717169 0.5397166014 4280498012
-0.2693153322 -0.1362405419 0.5415789485 4280498012
-0.2689381838 -0.1354488730 0.5408205390 4280563805
-0.2685606480 -0.1346586794 0.5400612950 4280563805
-0.2681826949 -0.1338699609 0.5393012762 4280432733
-0.2682391107 -0.1332987845 0.5394147038 4280498526
-0.2682952881 -0.1327272505 0.5395276546 4280498528
-0.2683512568 -0.1321553588 0.5396402478 4280498528
-0.2684069872 -0.1315831095 0.5397523046 4280630116
-0.2684625089 -0.1310105026 0.5398640037 4280695909
-0.2685178220 -0.1304375529 0.5399752259 4280761702
-0.2685729265 -0.1298642308 0.5400859714 4280827495
-0.2690631747 -0.1295001209 0.5410718322 4280893288
-0.2695533633 -0.1291337758 0.5420576334 4280893288
-0.2700435221 -0.1287652403 0.5430433154 4280958826
-0.2705336213 -0.1283944845 0.5440288782 4280958826
-0.2710236907 -0.1280215234 0.5450143814 4280958826
-0.2706420720 -0.1272365600 0.5442469120 4281024619
-0.2711318433 -0.1268610209 0.5452318788 4281090414
-0.2716215849 -0.1264832914 0.5462167263 4281090414
-0.2721112669 -0.1261033267 0.5472014546 4281156207
-0.2721647322 -0.1255200058 0.5473089218 4281156207
-0.2726542354 -0.1251365542 0.5482932925 4281222000
-0.2731436491 -0.1247508973 0.5492774844 4281222000
-0.2736330032 -0.1243630275 0.5502615571 4281222513
-0.2741223276 -0.1239729375 0.5512455702 4281222513
-0.2750481665 -0.1237771064 0.5531073213 4281222259
-0.2755374312 -0.1233816519 0.5540912151 4281222259
-0.2760266066 -0.1229839772 0.5550749898 4281288052
-0.2769525945 -0.1227777451 0.5569370389 4281288052
-0.2774417400 -0.1223747060 0.5579206944 4281222002
-0.2779307961 -0.1219694465 0.5589042306 4281287795
-0.2784198225 -0.1215619668 0.5598875880 4281222002
-0.2789087296 -0.1211522743 0.5608707666 4281156209
-0.2798348367 -0.1209293157 0.5627331138 4281222002
-0.2803236842 -0.1205142438 0.5637161732 4281222002
-0.2808124721 -0.1200969517 0.5646991134 4281287793
-0.2813011706 -0.1196774468 0.5656818748 4281222000
-0.2822273672 -0.1194408983 0.5675443411 4281222000
-0.2827159762 -0.1190160140 0.5685269237 4281287793
-0.2836422324 -0.1187721938 0.5703895688 4281484402
-0.2841307521 -0.1183419228 0.5713719726 4281550195
-0.2850570381 -0.1180908307 0.5732347369 4281615988
-0.2855454683 -0.1176551729 0.5742169023 4281747574
-0.2864718139 -0.1173968017 0.5760797262 4281813367
-0.2869601250 -0.1169557571 0.5770617127 4281813367
-0.2883247137 -0.1168677062 0.5798058510 4281879160
-0.2892512381 -0.1165969893 0.5816690326 4281944953
-0.2901778221 -0.1163221449 0.5835323334 4282076793
-0.2911044657 -0.1160431802 0.5853957534 4282274172
-0.2920311391 -0.1157600954 0.5872592330 4282537082
-0.2929578722 -0.1154728904 0.5891228318 4282734461
-0.2938846350 -0.1151815578 0.5909864902 4283325567
-0.2943727076 -0.1147151291 0.5919679999 4283786118
-0.2939831316 -0.1139064655 0.5911846161 4283259516
-0.2944708467 -0.1134375036 0.5921654105 4285496478
-0.2949584723 -0.1129663140 0.5931459665 4289377745
-0.2954459786 -0.1124929041 0.5941262841 4289706710
-0.2959333360 -0.1120172739 0.5951063633 4290233044
-0.2968597412 -0.1117046550 0.5969693065 4290759388
-0.2982253730 -0.1115522012 0.5997155309 4293390843
-0.3045736253 -0.1857953966 0.6138525605 4289705924
-0.3042210042 -0.1848990321 0.6131418347 4287074465
-0.3038679361 -0.1840039939 0.6124302745 4287271844
-0.3039437234 -0.1833692640 0.6125829816 4285364366
-0.3031604588 -0.1822178662 0.6110044122 4283193197
-0.3023765683 -0.1810695827 0.6094244719 4282338149
-0.3003031611 -0.1791555136 0.6052456498 4282469735
-0.3016662896 -0.1792931855 0.6079929471 4282075492
-0.2970121801 -0.1758619547 0.5986128449 4281614941
-0.2949351668 -0.1739716977 0.5944266915 4281549407
-0.2971572578 -0.1746170074 0.5989052057 4281417821
-0.2924978733 -0.1712240428 0.5895144939 4281615204
-0.2912779450 -0.1698576659 0.5870558023 4281615204
-0.2900572121 -0.1684962511 0.5845954418 4281483875
-0.2888356149 -0.1671398282 0.5821333528 4281483875
-0.2863214910 -0.1650438309 0.5770663023 4281352289
-0.2876818776 -0.1651837975 0.5798081160 4281220703
-0.2855965495 -0.1633468866 0.5756052732 4281089117
-0.2839408517 -0.1617640704 0.5722682476 4281023324
-0.2831460536 -0.1606772244 0.5706663728 4280958301
-0.2827817202 -0.1598372310 0.5699320436 4280892508
-0.2815546095 -0.1585131437 0.5674588680 4280826716
-0.2807579339 -0.1574359238 0.5658532381 4280760923
-0.2799606621 -0.1563619226 0.5642463565 4280695130
-0.2787312865 -0.1550511420 0.5617686510 4280629337
-0.2792274058 -0.1547018290 0.5627685189 4280563544
-0.2788601220 -0.1538739055 0.5620283484 4280563544
-0.2784924507 -0.1530473977 0.5612872839 4280432217
-0.2776924968 -0.1519859284 0.5596750379 4280432217
-0.2773239017 -0.1511631757 0.5589321256 4280431704
-0.2769548893 -0.1503418535 0.5581884384 4280431704
-0.2761532962 -0.1492883265 0.5565728545 4280431706
-0.2753511071 -0.1482380629 0.5549560785 4280431706
-0.2749806643 -0.1474228650 0.5542094707 4280366426
-0.2741773725 -0.1463782340 0.5525904298 4280366426
-0.2733734548 -0.1453368664 0.5509701967 4280366426
-0.2738668919 -0.1449859291 0.5519647002 4280366426
-0.2726293206 -0.1437202543 0.5494704247 4280431706
-0.2718237936 -0.1426869184 0.5478469133 4280431706
-0.2714506090 -0.1418831646 0.5470948219 4280497499
-0.2710770369 -0.1410808712 0.5463418961 4280497499
-0.2707030177 -0.1402800381 0.5455880761 4280432219
-0.2703286409 -0.1394806653 0.5448335409 4280498012
-0.2699538469 -0.1386827826 0.5440781116 4280498010
-0.2695786357 -0.1378863603 0.5433219075 4280563803
-0.2692030072 -0.1370914131 0.5425649285 4280563805
-0.2683934271 -0.1360781044 0.5409331918 4280563805
-0.2684505880 -0.1355059445 0.5410484672 4280498526
-0.2680737972 -0.1347154379 0.5402889848 4280498526
-0.2681304514 -0.1341434866 0.5404031873 4280498526
-0.2677529156 -0.1333550364 0.5396422744 4280498526
-0.2678090334 -0.1327832788 0.5397554040 4280498528
-0.2678649426 -0.1322111785 0.5398681164 4280564321
-0.2679206431 -0.1316387057 0.5399803519 4280630116
-0.2679761350 -0.1310658753 0.5400921702 4280695909
-0.2680313885 -0.1304927021 0.5402035117 4280761702
-0.2680864036 -0.1299191713 0.5403144360 4280827495
-0.2685758173 -0.1295549124 0.5413007736 4280893288
-0.2690651715 -0.1291884482 0.5422870517 4280959081
-0.2695544958 -0.1288197786 0.5432732701 4281089644
-0.2700437605 -0.1284488887 0.5442593694 4281023851
-0.2705329657 -0.1280757785 0.5452453494 4281024621
-0.2705871165 -0.1274954826 0.5453544855 4281090414
-0.2710761428 -0.1271188855 0.5463401079 4281090414
-0.2711299360 -0.1265369654 0.5464484692 4281156207
-0.2716187835 -0.1261568666 0.5474337339 4281222000
-0.2721075714 -0.1257745475 0.5484188795 4281222000
-0.2725962996 -0.1253900230 0.5494038463 4281287795
-0.2730849683 -0.1250032932 0.5503887534 4281287795
-0.2731379569 -0.1244159043 0.5504955649 4281287795
-0.2736264169 -0.1240256727 0.5514800549 4281287795
-0.2745506167 -0.1238297746 0.5533427000 4281222259
-0.2754749060 -0.1236297861 0.5552055836 4281288052
-0.2759633660 -0.1232310310 0.5561900139 4281353845
-0.2764517367 -0.1228300482 0.5571743250 4281353845
-0.2769400477 -0.1224268526 0.5581584573 4281419381
-0.2774282694 -0.1220214441 0.5591424704 4281353588
-0.2779164314 -0.1216138080 0.5601263642 4281287795
-0.2784045339 -0.1212039590 0.5611100793 4281222002
-0.2788925469 -0.1207918972 0.5620936751 4281352818
-0.2793804705 -0.1203776076 0.5630770326 4281352818
-0.2803049684 -0.1201482490 0.5649402738 4281418611
-0.2807928026 -0.1197285801 0.5659235716 4281484404
-0.2812806070 -0.1193066910 0.5669066310 4281418611
-0.2822051346 -0.1190669015 0.5687699914 4281484404
-0.2826928198 -0.1186396256 0.5697529316 4281550197
-0.2836174369 -0.1183925569 0.5716164112 4281615990
-0.2841050327 -0.1179599017 0.5725991726 4281681783
-0.2850297093 -0.1177055538 0.5744627714 4281747576
-0.2855171859 -0.1172675043 0.5754452944 4281813369
-0.2868792117 -0.1171845049 0.5781903863 4281879162
-0.2878040671 -0.1169178039 0.5800543427 4281879160
-0.2887289524 -0.1166469827 0.5819184184 4281879160
-0.2892163694 -0.1161962524 0.5829007626 4282076793
-0.2901412845 -0.1159181371 0.5847648978 4282274172
-0.2910662591 -0.1156358942 0.5866291523 4282471289
-0.2919912934 -0.1153495312 0.5884934664 4282734461
-0.2929163277 -0.1150590405 0.5903578997 4283391362
-0.2938414216 -0.1147644222 0.5922223926 4283786120
-0.2930146158 -0.1137853414 0.5905559659 4283391102
-0.2930633724 -0.1131480113 0.5906541944 4286614959
-0.2935499847 -0.1126785502 0.5916349888 4289114573
-0.2940365076 -0.1122068539 0.5926155448 4287535541
-0.2945229113 -0.1117329448 0.5935958028 4290298837
-0.2954475284 -0.1114221215 0.5954594016 4290956767
-0.2968105972 -0.1112715229 0.5982065797 4293259257
-0.3031605780 -0.1853483021 0.6123754382 4288915895
-0.3032367527 -0.1847143024 0.6125292778 4285429640
-0.3028842807 -0.1838198304 0.6118173003 4285627019
-0.3025313616 -0.1829266697 0.6111044288 4284509055
-0.3021780252 -0.1820348352 0.6103906631 4283061609
-0.3013955057 -0.1808869988 0.6088100076 4282601319
-0.2997546792 -0.1792294979 0.6054956317 4282469733
-0.3006864190 -0.1791117638 0.6073777080 4282009699
-0.2981860042 -0.1769530922 0.6023269296 4281549148
-0.2939674854 -0.1737899333 0.5938056707 4281680736
-0.2944684625 -0.1734252274 0.5948176384 4281680736
-0.2919639349 -0.1712949276 0.5897585154 4281549411
-0.2903168499 -0.1696770042 0.5864314437 4281483618
-0.2890982628 -0.1683159769 0.5839699507 4281483618
-0.2874491811 -0.1667107344 0.5806388855 4281417825
-0.2853692770 -0.1648640037 0.5764375329 4281286496
-0.2862972617 -0.1647575647 0.5783120394 4281220703
-0.2842155993 -0.1629217416 0.5741071105 4281154910
-0.2829928398 -0.1615856886 0.5716372132 4281089117
-0.2821994722 -0.1604993194 0.5700345635 4280892508
-0.2805448771 -0.1589286625 0.5666923523 4280892508
-0.2819019556 -0.1590647697 0.5694336295 4280826716
-0.2798155546 -0.1572594941 0.5652191639 4280760923
-0.2794502676 -0.1564270258 0.5644813180 4280695130
-0.2782231867 -0.1551157236 0.5620026588 4280629337
-0.2778568864 -0.1542878896 0.5612626672 4280563544
-0.2779210210 -0.1536997557 0.5613922477 4280563544
-0.2775539756 -0.1528738439 0.5606508255 4280498010
-0.2767554224 -0.1518128812 0.5590378046 4280432217
-0.2763874531 -0.1509907395 0.5582945347 4280497497
-0.2760190666 -0.1501700133 0.5575503707 4280431704
-0.2756502926 -0.1493507028 0.5568054318 4280431704
-0.2748495936 -0.1483000368 0.5551880598 4280431704
-0.2744798660 -0.1474845260 0.5544412732 4280300633
-0.2741097510 -0.1466704607 0.5536935925 4280300633
-0.2728756964 -0.1453977078 0.5512008667 4280366426
-0.2733682692 -0.1450466514 0.5521958470 4280366426
-0.2725649774 -0.1440086961 0.5505731702 4280431706
-0.2717610598 -0.1429740340 0.5489493012 4280497499
-0.2709565461 -0.1419426650 0.5473242402 4280497499
-0.2705836892 -0.1411400586 0.5465710759 4280563292
-0.2702104449 -0.1403389126 0.5458170772 4280498012
-0.2698367536 -0.1395392418 0.5450623035 4280498012
-0.2694627047 -0.1387410313 0.5443066955 4280563803
-0.2686555982 -0.1377225220 0.5426763892 4280563803
-0.2682806253 -0.1369282007 0.5419189930 4280563805
-0.2687708735 -0.1365751922 0.5429092050 4280629598
-0.2679623961 -0.1355629712 0.5412760973 4280629598
-0.2675863206 -0.1347721517 0.5405164361 4280629598
-0.2680759728 -0.1344171315 0.5415055752 4280629598
-0.2676993012 -0.1336274445 0.5407446623 4280695391
-0.2673221827 -0.1328392625 0.5399829149 4280630114
-0.2673780322 -0.1322669238 0.5400957465 4280630114
-0.2674336731 -0.1316942424 0.5402081609 4280695909
-0.2674891055 -0.1311211884 0.5403200984 4280695909
-0.2675442994 -0.1305477917 0.5404316187 4280761702
-0.2680329978 -0.1301846951 0.5414187312 4280827495
-0.2680878341 -0.1296096593 0.5415295362 4280893288
-0.2685763538 -0.1292430609 0.5425163507 4280893288
-0.2690648437 -0.1288742572 0.5435030460 4281089644
-0.2695532739 -0.1285032332 0.5444896221 4281089644
-0.2700416446 -0.1281299889 0.5454761386 4281221230
-0.2696614861 -0.1273443997 0.5447082520 4281221230
-0.2705839276 -0.1271727234 0.5465715528 4281287023
-0.2710720599 -0.1267937720 0.5475575328 4281352816
-0.2711256444 -0.1262103468 0.5476658344 4281287793
-0.2716135979 -0.1258278936 0.5486514568 4281287793
-0.2721014619 -0.1254432350 0.5496369600 4281353588
-0.2725892961 -0.1250563413 0.5506223440 4281353588
-0.2730770707 -0.1246672422 0.5516076684 4281353588
-0.2731298804 -0.1240783483 0.5517143011 4281353588
-0.2740524411 -0.1238823906 0.5535778403 4281419381
-0.2749750912 -0.1236823425 0.5554416180 4281419381
-0.2754627168 -0.1232834309 0.5564265251 4281485174
-0.2759502530 -0.1228823066 0.5574113727 4281485174
-0.2764376998 -0.1224789545 0.5583959818 4281615990
-0.2769250870 -0.1220733896 0.5593805313 4281550197
-0.2774124146 -0.1216656044 0.5603649020 4281484404
-0.2778996825 -0.1212555990 0.5613491535 4281418611
-0.2783868313 -0.1208433732 0.5623332262 4281418611
-0.2788739502 -0.1204289347 0.5633171201 4281418611
-0.2793609500 -0.1200122684 0.5643008947 4281418611
-0.2802838087 -0.1197796687 0.5661650300 4281484404
-0.2807707489 -0.1193576157 0.5671486259 4281484404
-0.2816936672 -0.1191177443 0.5690128803 4281484404
-0.2826166451 -0.1188737527 0.5708772540 4281550197
-0.2831034958 -0.1184431463 0.5718606710 4281681783
-0.2840265334 -0.1181918755 0.5737252235 4281747576
-0.2849496305 -0.1179364920 0.5755898356 4281813369
-0.2854363620 -0.1174973249 0.5765730143 4281879162
-0.2863595188 -0.1172346473 0.5784378052 4281944955
-0.2872827351 -0.1169678494 0.5803026557 4281879160
-0.2877693176 -0.1165201142 0.5812855363 4281944953
-0.2886925638 -0.1162460223 0.5831504464 4282076792
-0.2896158695 -0.1159678027 0.5850154757 4282274171
-0.2905392051 -0.1156854630 0.5868806243 4282537082
-0.2914625704 -0.1153989881 0.5887458324 4282800254
-0.2923859954 -0.1151083931 0.5906111002 4283391360
-0.2928723395 -0.1146425530 0.5915935040 4283786118
-0.2920469940 -0.1136640236 0.5899263024 4283391102
-0.2920956314 -0.1130273938 0.5900245309 4287601854
-0.2925813496 -0.1125586927 0.5910056829 4288193471
-0.2930669487 -0.1120877713 0.5919865966 4287206576
-0.2939898968 -0.1117809638 0.5938509703 4290956767
-0.2949129045 -0.1114700213 0.5957154036 4290759388
-0.2958359420 -0.1111549512 0.5975798368 4293061878
-0.3021773994 -0.1851626188 0.6117619276 4288389551
-0.3022533655 -0.1845292896 0.6119157076 4284376439
-0.3019014895 -0.1836353689 0.6112033725 4283981681
-0.3015491962 -0.1827427745 0.6104900837 4283455597
-0.3011964262 -0.1818515062 0.6097759604 4282863460
-0.3004153073 -0.1807041466 0.6081945896 4282601319
-0.3000616133 -0.1798164248 0.6074784398 4282403940
-0.2992793024 -0.1786744297 0.6058946848 4282140515
-0.2976398170 -0.1770261377 0.6025755405 4281811550
-0.2959992886 -0.1753845811 0.5992542505 4281746529
-0.2939292192 -0.1734968722 0.5950633883 4281746529
-0.2914293110 -0.1713657379 0.5900022984 4281417825
-0.2893566191 -0.1694960743 0.5858061314 4281483618
-0.2881402373 -0.1681354195 0.5833435059 4281483618
-0.2864941359 -0.1665304452 0.5800109506 4281417825
-0.2852759659 -0.1651806682 0.5775447488 4281352289
-0.2844860554 -0.1640833765 0.5759456158 4281286496
-0.2832663357 -0.1627427042 0.5734762549 4281154911
-0.2820457816 -0.1614070386 0.5710052252 4281154911
-0.2812537849 -0.1603211612 0.5694018006 4281023325
-0.2796021998 -0.1587507874 0.5660581589 4281023325
-0.2809567451 -0.1588878781 0.5688004494 4280892509
-0.2788740993 -0.1570828110 0.5645841360 4280760923
-0.2785094380 -0.1562509239 0.5638458729 4280695130
-0.2777144611 -0.1551802456 0.5622364283 4280629337
-0.2769188583 -0.1541127861 0.5606257319 4280629337
-0.2769828439 -0.1535253525 0.5607552528 4280629337
-0.2766164243 -0.1527000368 0.5600134134 4280497497
-0.2758193016 -0.1516395807 0.5583996177 4280497497
-0.2758823633 -0.1510536820 0.5585272908 4280497497
-0.2755146921 -0.1502326429 0.5577829480 4280497497
-0.2747160196 -0.1491792053 0.5561660528 4280431704
-0.2743474543 -0.1483619511 0.5554198623 4280431704
-0.2739784718 -0.1475461274 0.5546728373 4280365911
-0.2736090720 -0.1467317343 0.5539249778 4280365911
-0.2728082836 -0.1456886381 0.5523037910 4280431706
-0.2724379599 -0.1448780745 0.5515540838 4280431706
-0.2720672488 -0.1440689415 0.5508035421 4280431706
-0.2712648511 -0.1430338770 0.5491790771 4280497499
-0.2708932161 -0.1422285736 0.5484267473 4280497499
-0.2705211937 -0.1414247453 0.5476735830 4280563292
-0.2701487541 -0.1406223774 0.5469195247 4280563292
-0.2693442702 -0.1395977587 0.5452908874 4280629085
-0.2689709365 -0.1387992352 0.5445350409 4280629596
-0.2685971856 -0.1380022019 0.5437784195 4280629596
-0.2677911222 -0.1369856894 0.5421465039 4280629598
-0.2682805359 -0.1366325617 0.5431372523 4280629598
-0.2674735487 -0.1356199384 0.5415036082 4280629598
-0.2675304115 -0.1350469887 0.5416187048 4280695391
-0.2671547532 -0.1342564225 0.5408581495 4280695391
-0.2672110796 -0.1336836815 0.5409721732 4280695391
-0.2672671974 -0.1331105679 0.5410857797 4280760930
-0.2668905258 -0.1323226243 0.5403231978 4280760930
-0.2669461071 -0.1317497194 0.5404357314 4280826725
-0.2670014799 -0.1311764568 0.5405478477 4280892518
-0.2674894333 -0.1308145076 0.5415357351 4280958311
-0.2675444782 -0.1302396059 0.5416471362 4281024104
-0.2680322826 -0.1298741698 0.5426346660 4281024104
-0.2680869401 -0.1292976290 0.5427453518 4281024104
-0.2685745656 -0.1289286762 0.5437325835 4281155437
-0.2690621316 -0.1285575181 0.5447196960 4281221230
-0.2695496678 -0.1281841397 0.5457066894 4281221230
-0.2696036994 -0.1276033968 0.5458161235 4281287023
-0.2700910568 -0.1272265315 0.5468027592 4281352816
-0.2705783546 -0.1268474311 0.5477892756 4281352816
-0.2706318796 -0.1262637824 0.5478976369 4281287793
-0.2711189985 -0.1258811802 0.5488837957 4281353586
-0.2716060281 -0.1254963726 0.5498698354 4281353588
-0.2720930278 -0.1251093447 0.5508557558 4281353588
-0.2725799382 -0.1247201040 0.5518414974 4281419381
-0.2726326883 -0.1241309792 0.5519483089 4281419381
-0.2735536098 -0.1239349619 0.5538127422 4281419381
-0.2744746506 -0.1237348467 0.5556773543 4281419381
-0.2749614120 -0.1233357862 0.5566628575 4281419381
-0.2754481137 -0.1229345053 0.5576481223 4281419381
-0.2763692737 -0.1227239668 0.5595130324 4281485174
-0.2768559158 -0.1223173067 0.5604982376 4281419381
-0.2769077718 -0.1217173487 0.5606032014 4281419381
-0.2773941755 -0.1213071868 0.5615879893 4281419381
-0.2778804898 -0.1208948120 0.5625725389 4281419381
-0.2783667445 -0.1204802096 0.5635569692 4281353588
-0.2788529396 -0.1200633869 0.5645412803 4281353588
-0.2797741294 -0.1198307052 0.5664062500 4281419381
-0.2802602351 -0.1194084957 0.5673903823 4281485174
-0.2811815143 -0.1191685349 0.5692554712 4281419381
-0.2821028531 -0.1189244539 0.5711207986 4281485174
-0.2825888693 -0.1184936911 0.5721046925 4281616760
-0.2835102677 -0.1182423234 0.5739700794 4281682553
-0.2844317555 -0.1179868504 0.5758356452 4281682553
-0.2849176228 -0.1175475121 0.5768193007 4281748346
-0.2858391404 -0.1172847375 0.5786849260 4281814139
-0.2867607176 -0.1170178503 0.5805506706 4282076539
-0.2872464657 -0.1165699363 0.5815340877 4282142332
-0.2881681025 -0.1162957475 0.5833998919 4282339451
-0.2886537015 -0.1158424392 0.5843830705 4282471037
-0.2895753384 -0.1155609414 0.5862489343 4282799738
-0.2904970050 -0.1152753159 0.5881148577 4282997117
-0.2914187312 -0.1149855629 0.5899809003 4283522946
-0.2919041514 -0.1145204976 0.5909636617 4283851911
-0.2915166616 -0.1137127429 0.5901791453 4283588481
-0.2915652692 -0.1130758524 0.5902774930 4288193991
-0.2920501232 -0.1126069725 0.5912591815 4288587971
-0.2925348878 -0.1121358573 0.5922405720 4288259006
-0.2930195332 -0.1116625220 0.5932217240 4290627287
-0.2943775952 -0.1115178764 0.5959711075 4290429908
-0.2952989936 -0.1112026870 0.5978364944 4293193464
-0.3007684648 -0.1847146153 0.6102817655 4288192172
-0.3004174232 -0.1838217527 0.6095694900 4284442232
-0.3004927635 -0.1831904203 0.6097223759 4283652716
-0.3005678952 -0.1825585961 0.6098748446 4283258218
-0.3002157509 -0.1816678941 0.6091603041 4283060839
-0.2994360328 -0.1805209965 0.6075781584 4282798185
-0.2990829051 -0.1796338558 0.6068616509 4282337634
-0.2983019948 -0.1784923226 0.6052771211 4282074722
-0.2970929742 -0.1770990938 0.6028239131 4281877343
-0.2950279415 -0.1752029955 0.5986338258 4281811552
-0.2946723402 -0.1743275076 0.5979123116 4281614173
-0.2908940613 -0.1714364737 0.5902458429 4281483618
-0.2883973420 -0.1693148762 0.5851798654 4281483618
-0.2871831357 -0.1679545939 0.5827161670 4281483618
-0.2859680951 -0.1665992886 0.5802507401 4281417825
-0.2847522199 -0.1652489901 0.5777836442 4281417825
-0.2839638293 -0.1641512811 0.5761839151 4281352032
-0.2827464044 -0.1628100872 0.5737136602 4281220704
-0.2815281451 -0.1614739001 0.5712417364 4281154911
-0.2807376683 -0.1603876054 0.5696377754 4281089118
-0.2803752720 -0.1595484763 0.5689024329 4281089118
-0.2791548371 -0.1582246423 0.5664260983 4280892509
-0.2783625126 -0.1571479887 0.5648183823 4280826716
-0.2779985666 -0.1563158035 0.5640799403 4280760923
-0.2772050798 -0.1552446932 0.5624699593 4280695130
-0.2764109969 -0.1541768312 0.5608586669 4280629337
-0.2760456204 -0.1533506960 0.5601173043 4280563544
-0.2756798267 -0.1525259763 0.5593750477 4280497497
-0.2748841047 -0.1514660120 0.5577604771 4280497497
-0.2749469876 -0.1508808136 0.5578880906 4280563290
-0.2750096619 -0.1502952129 0.5580152869 4280563290
-0.2742125392 -0.1492413729 0.5563977957 4280497497
-0.2738446891 -0.1484237909 0.5556513667 4280497497
-0.2734764218 -0.1476076543 0.5549041629 4280497497
-0.2731077373 -0.1467929631 0.5541561246 4280497497
-0.2723084688 -0.1457494646 0.5525343418 4280431704
-0.2719388902 -0.1449385732 0.5517843962 4280431704
-0.2711385190 -0.1439007223 0.5501604080 4280497499
-0.2707680464 -0.1430936605 0.5494086742 4280497499
-0.2703971267 -0.1422880590 0.5486561060 4280563292
-0.2700258493 -0.1414839178 0.5479027033 4280563292
-0.2696541250 -0.1406812370 0.5471484661 4280629085
-0.2692820132 -0.1398800164 0.5463934541 4280629085
-0.2689095140 -0.1390802711 0.5456375480 4280694876
-0.2681055665 -0.1380600333 0.5440062881 4280629083
-0.2677321434 -0.1372641623 0.5432485938 4280694878
-0.2673583329 -0.1364697665 0.5424901247 4280760671
-0.2669841051 -0.1356768459 0.5417308211 4280629598
-0.2670409083 -0.1351036876 0.5418460369 4280695391
-0.2666659951 -0.1343128085 0.5410853028 4280695391
-0.2667222619 -0.1337398440 0.5411995053 4280695391
-0.2667783201 -0.1331665069 0.5413132310 4280695137
-0.2668341398 -0.1325928271 0.5414265394 4280760930
-0.2668897808 -0.1320187747 0.5415393710 4280826725
-0.2669451833 -0.1314443648 0.5416517854 4280892518
-0.2670003474 -0.1308695972 0.5417637229 4280958311
-0.2674874365 -0.1305053085 0.5427520871 4281024104
-0.2675422728 -0.1299288869 0.5428633690 4281089897
-0.2680291831 -0.1295610964 0.5438513160 4281155690
-0.2680836618 -0.1289830506 0.5439618826 4281024621
-0.2685703933 -0.1286117584 0.5449494720 4281090414
-0.2690570951 -0.1282382458 0.5459370017 4281090414
-0.2695437372 -0.1278625131 0.5469244719 4281090414
-0.2700303197 -0.1274845749 0.5479117632 4281222000
-0.2705168426 -0.1271044016 0.5488989949 4281222000
-0.2705704272 -0.1265195906 0.5490077138 4281222000
-0.2706237733 -0.1259344220 0.5491158962 4281287793
-0.2711099684 -0.1255494654 0.5501024723 4281353588
-0.2715961039 -0.1251623034 0.5510888696 4281353588
-0.2720821798 -0.1247729138 0.5520752072 4281288052
-0.2721348703 -0.1241835579 0.5521820784 4281353845
-0.2730541825 -0.1239874735 0.5540474057 4281353845
-0.2739735842 -0.1237872913 0.5559129119 4281353845
-0.2744594812 -0.1233880892 0.5568988919 4281288052
-0.2749453187 -0.1229866594 0.5578846931 4281288052
-0.2758648694 -0.1227760538 0.5597504973 4281353845
-0.2763506472 -0.1223692372 0.5607361794 4281288052
-0.2768363655 -0.1219602004 0.5617217422 4281288052
-0.2768880129 -0.1213587299 0.5618265867 4281353845
-0.2773734927 -0.1209461913 0.5628116727 4281419638
-0.2778589129 -0.1205314323 0.5637965798 4281419638
-0.2783442438 -0.1201144531 0.5647813678 4281419638
-0.2792638242 -0.1198816895 0.5666472316 4281485431
-0.2797490656 -0.1194593161 0.5676318407 4281419638
-0.2806687057 -0.1192192733 0.5694978833 4281419638
-0.2815884352 -0.1189751104 0.5713640451 4281485431
-0.2825082242 -0.1187268347 0.5732303858 4281551224
-0.2829933465 -0.1182927266 0.5742147565 4281617017
-0.2834784091 -0.1178563982 0.5751989484 4281617017
-0.2843982279 -0.1175976545 0.5770653486 4281682810
-0.2853181064 -0.1173347905 0.5789318681 4281748603
-0.2862380743 -0.1170677990 0.5807985067 4282076539
-0.2867229581 -0.1166197136 0.5817824006 4282142332
-0.2876429260 -0.1163454205 0.5836490989 4282339705
-0.2881277204 -0.1158919409 0.5846327543 4282471291
-0.2886123955 -0.1154362261 0.5856162310 4282799738
-0.2895323634 -0.1151514500 0.5874828696 4282997117
-0.2904523611 -0.1148625389 0.5893496275 4283457153
-0.2909368873 -0.1143982410 0.5903327465 4283851911
-0.2905500829 -0.1135911122 0.5895478725 4283654274
-0.2905985415 -0.1129549220 0.5896462202 4288391370
-0.2915182412 -0.1126552001 0.5915123820 4290035417
-0.2920021713 -0.1121839061 0.5924943089 4289377487
-0.2924859822 -0.1117103845 0.5934759974 4288982462
-0.2938416004 -0.1115656942 0.5962266326 4290035150
-0.2951973975 -0.1114149466 0.5989776254 4293127670
-0.2993620038 -0.1842661202 0.6087999344 4287797414
-0.2994373739 -0.1836359352 0.6089532971 4284639611
-0.2995125651 -0.1830052733 0.6091061234 4283850095
-0.2995875180 -0.1823741347 0.6092585921 4283455597
-0.2988097072 -0.1812254786 0.6076768041 4283060839
-0.2984576225 -0.1803375632 0.6069607735 4282732905
-0.2976786494 -0.1791942716 0.6053766012 4282206561
-0.2960458696 -0.1775424480 0.6020560861 4281878113
-0.2969721258 -0.1774269193 0.6039397717 4281746527
-0.2932038903 -0.1745130718 0.5962765217 4281877345
-0.2919949293 -0.1731337309 0.5938178897 4281745759
-0.2899311185 -0.1712549180 0.5896208286 4281549409
-0.2878660560 -0.1693847030 0.5854211450 4281549409
-0.2862269580 -0.1677734852 0.5820877552 4281483616
-0.2850141227 -0.1664185673 0.5796212554 4281483616
-0.2838004231 -0.1650686413 0.5771530867 4281417823
-0.2830134332 -0.1639714092 0.5755525827 4281352030
-0.2822258174 -0.1628773808 0.5739508271 4281220703
-0.2810098529 -0.1615406871 0.5714779496 4281220703
-0.2802208960 -0.1604539603 0.5698734522 4281154910
-0.2785754502 -0.1588823497 0.5665272474 4281089117
-0.2794971168 -0.1587764770 0.5684016347 4280892508
-0.2778502703 -0.1572131068 0.5650524497 4280826715
-0.2774870396 -0.1563806087 0.5643137693 4280760922
-0.2762667537 -0.1550686657 0.5618321896 4280760922
-0.2759025097 -0.1542408019 0.5610914230 4280695130
-0.2755378485 -0.1534143537 0.5603498220 4280563544
-0.2751727998 -0.1525893211 0.5596073866 4280563290
-0.2743785977 -0.1515289545 0.5579922795 4280563290
-0.2744414210 -0.1509435475 0.5581200123 4280563290
-0.2740751207 -0.1501227915 0.5573750734 4280563290
-0.2737084031 -0.1493034661 0.5566293001 4280563290
-0.2733412683 -0.1484855860 0.5558826923 4280497497
-0.2729737461 -0.1476691365 0.5551352501 4280497497
-0.2726058066 -0.1468541324 0.5543869734 4280497497
-0.2718080580 -0.1458102167 0.5527646542 4280431704
-0.2722981870 -0.1454578787 0.5537614226 4280431704
-0.2710699439 -0.1441892684 0.5512635708 4280497497
-0.2702705860 -0.1431533843 0.5496379733 4280497497
-0.2699004114 -0.1423474699 0.5488851666 4280563292
-0.2695298493 -0.1415430158 0.5481315851 4280629085
-0.2691588700 -0.1407400221 0.5473771691 4280629085
-0.2687875032 -0.1399385035 0.5466219187 4280629085
-0.2684157193 -0.1391384453 0.5458658338 4280629596
-0.2676132917 -0.1381178051 0.5442339778 4280563803
-0.2668102682 -0.1371005028 0.5426008701 4280629598
-0.2672979832 -0.1367471218 0.5435926914 4280695391
-0.2664940655 -0.1357337087 0.5419577956 4280629598
-0.2661201954 -0.1349419653 0.5411974788 4280695391
-0.2666073143 -0.1345865726 0.5421881676 4280761184
-0.2662328184 -0.1337959617 0.5414265394 4280695391
-0.2662888169 -0.1332224160 0.5415404439 4280695137
-0.2663446069 -0.1326484978 0.5416538715 4280760930
-0.2664001584 -0.1320742369 0.5417668819 4280826725
-0.2664555013 -0.1314996034 0.5418794155 4280892518
-0.2665106356 -0.1309246123 0.5419915318 4280958311
-0.2669968903 -0.1305601895 0.5429803729 4281024104
-0.2670516670 -0.1299835593 0.5430917740 4281089897
-0.2675377131 -0.1296156347 0.5440802574 4281089897
-0.2675921619 -0.1290373802 0.5441909432 4280959341
-0.2680780292 -0.1286659390 0.5451790690 4280959341
-0.2685638666 -0.1282922924 0.5461671352 4281025134
-0.2690496743 -0.1279164255 0.5471550822 4281090927
-0.2695354223 -0.1275383383 0.5481429100 4281156466
-0.2700211108 -0.1271580309 0.5491306186 4281222259
-0.2700746059 -0.1265729964 0.5492394567 4281222259
-0.2701279223 -0.1259876043 0.5493478179 4281222259
-0.2706132531 -0.1256025136 0.5503348708 4281222259
-0.2710985541 -0.1252152026 0.5513218045 4281288052
-0.2715837955 -0.1248256713 0.5523086190 4281222772
-0.2720689774 -0.1244339123 0.5532953143 4281222772
-0.2725540996 -0.1240399405 0.5542818308 4281288567
-0.2734718621 -0.1238396913 0.5561482310 4281222774
-0.2739569247 -0.1234403402 0.5571346879 4281222774
-0.2744419277 -0.1230387613 0.5581210256 4281288567
-0.2753598094 -0.1228280813 0.5599877238 4281223544
-0.2758447528 -0.1224211156 0.5609739423 4281157751
-0.2763296366 -0.1220119298 0.5619599819 4281222774
-0.2763812244 -0.1214102134 0.5620649457 4281222774
-0.2768658698 -0.1209975258 0.5630505085 4281288567
-0.2773504257 -0.1205826104 0.5640359521 4281288567
-0.2782683671 -0.1203529313 0.5659027100 4281420153
-0.2787528634 -0.1199326292 0.5668880343 4281420153
-0.2792372704 -0.1195100918 0.5678731203 4281420153
-0.2801552713 -0.1192699671 0.5697400570 4281420153
-0.2815071046 -0.1192094013 0.5724892020 4281420151
-0.2824253142 -0.1189600900 0.5743565559 4281485944
-0.2829096913 -0.1185248643 0.5753415823 4281551737
-0.2833939791 -0.1180874184 0.5763264894 4281551737
-0.2838781774 -0.1176477447 0.5773111582 4281682810
-0.2847964168 -0.1173847839 0.5791785717 4281682810
-0.2852804959 -0.1169397086 0.5801630020 4282076539
-0.2861987948 -0.1166694462 0.5820304751 4282076539
-0.2866827548 -0.1162189618 0.5830147266 4282273912
-0.2876010537 -0.1159413904 0.5848822594 4282537084
-0.2880848944 -0.1154854968 0.5858662128 4282733945
-0.2885686159 -0.1150273830 0.5868499279 4282931324
-0.2894869149 -0.1147393212 0.5887174010 4283457153
-0.2899705172 -0.1142757908 0.5897008777 4283851911
-0.2900191844 -0.1136396676 0.5897998810 4283983239
-0.2900676131 -0.1130032167 0.5898983479 4288128198
-0.2905507088 -0.1125349179 0.5908808708 4290035417
-0.2914687693 -0.1122319028 0.5927478075 4288456385
-0.2923868299 -0.1119247526 0.5946148038 4287271844
-0.2933048904 -0.1116134524 0.5964819193 4289377220
-0.2950935066 -0.1116273105 0.6001192927 4293127671
-0.2975329459 -0.1835548878 0.6064501405 4287139995
-0.2976079583 -0.1829271764 0.6066029668 4284376439
-0.2976827025 -0.1822989881 0.6067553759 4283652716
-0.2977572680 -0.1816703230 0.6069073081 4283389804
-0.2978315949 -0.1810411811 0.6070588231 4282863460
-0.2970545590 -0.1798961163 0.6054750085 4282535526
-0.2962768674 -0.1787541807 0.6038898826 4282140768
-0.2954985201 -0.1776153892 0.6023033857 4281812320
-0.2947195470 -0.1764797270 0.6007156372 4281680734
-0.2905319333 -0.1733141989 0.5921801925 4281812322
-0.2884725332 -0.1714323908 0.5879825950 4281680736
-0.2915263772 -0.1725870073 0.5942071080 4281417823
-0.2869078219 -0.1692030430 0.5847933292 4281483616
-0.2852717042 -0.1675920933 0.5814584494 4281483614
-0.2840610445 -0.1662375629 0.5789908171 4281549407
-0.2824229300 -0.1646393239 0.5756519437 4281483616
-0.2820639610 -0.1637912840 0.5749202967 4281352030
-0.2812777460 -0.1626977324 0.5733177662 4281220703
-0.2804909348 -0.1616073996 0.5717139840 4281154910
-0.2792764306 -0.1602751911 0.5692385435 4281154910
-0.2780611217 -0.1589480191 0.5667614341 4281154910
-0.2789811492 -0.1588421464 0.5686367154 4281089117
-0.2773373723 -0.1572781652 0.5652862787 4281023324
-0.2769748867 -0.1564453393 0.5645474195 4280760922
-0.2757569253 -0.1551328897 0.5620648861 4280695129
-0.2753933966 -0.1543047130 0.5613238811 4280695130
-0.2750294805 -0.1534779519 0.5605821013 4280629337
-0.2746651173 -0.1526526064 0.5598394871 4280629083
-0.2738724351 -0.1515918374 0.5582237840 4280629083
-0.2743632197 -0.1512421519 0.5592241287 4280563290
-0.2735696137 -0.1501851380 0.5576065779 4280497497
-0.2732036412 -0.1493654996 0.5568605661 4280497497
-0.2728372514 -0.1485473067 0.5561137795 4280497497
-0.2728988528 -0.1479628235 0.5562393665 4280497497
-0.2725317180 -0.1471465975 0.5554910898 4280497497
-0.2713069916 -0.1458709091 0.5529947281 4280431704
-0.2717962861 -0.1455184519 0.5539920330 4280431704
-0.2705703378 -0.1442493498 0.5514932871 4280497497
-0.2702014148 -0.1434407383 0.5507412553 4280497497
-0.2694031000 -0.1424068362 0.5491140485 4280563290
-0.2690332532 -0.1416020691 0.5483602285 4280629083
-0.2686630189 -0.1407987624 0.5476055741 4280629085
-0.2682923675 -0.1399969310 0.5468501449 4280694878
-0.2679213285 -0.1391965747 0.5460938215 4280629596
-0.2671204209 -0.1381755322 0.5444613695 4280563803
-0.2663189173 -0.1371578127 0.5428277254 4280629598
-0.2668057680 -0.1368043274 0.5438200831 4280695391
-0.2660034001 -0.1357904971 0.5421845913 4280629598
-0.2656302452 -0.1349984556 0.5414240360 4280695391
-0.2661165297 -0.1346429288 0.5424152017 4280761184
-0.2657427788 -0.1338520199 0.5416533947 4280695391
-0.2657987177 -0.1332782507 0.5417674184 4280760930
-0.2658544481 -0.1327041239 0.5418810248 4280760930
-0.2659099400 -0.1321296394 0.5419941545 4280760932
-0.2659652531 -0.1315547824 0.5421068668 4280826725
-0.2660202980 -0.1309795827 0.5422191024 4280958311
-0.2665057182 -0.1306150407 0.5432084799 4281024104
-0.2665604353 -0.1300381869 0.5433200002 4280893288
-0.2670456469 -0.1296701282 0.5443090200 4280893288
-0.2671000063 -0.1290916353 0.5444198251 4280893807
-0.2675850689 -0.1287200749 0.5454084277 4280893807
-0.2685010433 -0.1285526305 0.5472754240 4280959600
-0.2681239247 -0.1277648807 0.5465068221 4281025393
-0.2690398991 -0.1275920719 0.5483737588 4281091186
-0.2695247233 -0.1272116154 0.5493620038 4281156979
-0.2695781887 -0.1266263574 0.5494709611 4281222772
-0.2700628340 -0.1262423992 0.5504588485 4281222772
-0.2705474198 -0.1258562356 0.5514465570 4281156981
-0.2710319757 -0.1254678369 0.5524341464 4281222774
-0.2710847855 -0.1248783693 0.5525417924 4281026165
-0.2715691030 -0.1244864762 0.5535289645 4281026165
-0.2724851966 -0.1242893264 0.5553962588 4281091958
-0.2729694843 -0.1238920391 0.5563833117 4281091958
-0.2734537125 -0.1234925389 0.5573703051 4281157751
-0.2739378512 -0.1230908036 0.5583571196 4281223544
-0.2744219601 -0.1226868555 0.5593438148 4281223289
-0.2753382027 -0.1224729419 0.5612114072 4281223289
-0.2753899097 -0.1218722761 0.5613167882 4281157751
-0.2758737803 -0.1214616522 0.5623030663 4281157751
-0.2763575912 -0.1210488081 0.5632891655 4281157751
-0.2768413126 -0.1206337288 0.5642750859 4281157751
-0.2777575850 -0.1204039827 0.5661427379 4281223544
-0.2782412469 -0.1199835092 0.5671285391 4281223544
-0.2795903981 -0.1199321225 0.5698785186 4281289337
-0.2796411514 -0.1193206087 0.5699819326 4281289337
-0.2809905410 -0.1192600355 0.5727323890 4281485944
-0.2819071412 -0.1190106347 0.5746005774 4281485944
-0.2823906541 -0.1185752451 0.5755861402 4281551737
-0.2828741074 -0.1181376278 0.5765715241 4281551737
-0.2837907374 -0.1178777516 0.5784398317 4281617532
-0.2842740715 -0.1174347326 0.5794250369 4281617532
-0.2851907313 -0.1171675473 0.5812934041 4282208125
-0.2856739461 -0.1167191193 0.5822783113 4282076539
-0.2861570418 -0.1162684634 0.5832630396 4282339451
-0.2866400778 -0.1158155799 0.5842475891 4282668416
-0.2871229947 -0.1153604686 0.5852319002 4282799738
-0.2880395949 -0.1150764301 0.5871001482 4282997117
-0.2885223925 -0.1146159023 0.5880842209 4283522948
-0.2894389927 -0.1143245548 0.5899525285 4283917706
-0.2890536189 -0.1135177240 0.5891669989 4283588481
-0.2895359993 -0.1130514666 0.5901502371 4286549166
-0.2900182605 -0.1125829816 0.5911332369 4287337904
-0.2909346521 -0.1122798547 0.5930010676 4286153630
-0.2922853827 -0.1121392101 0.5957542062 4286877086
-0.2936362624 -0.1119925156 0.5985076427 4289640392
-0.2949873209 -0.1118397564 0.6012614369 4293325050
-0.2965564728 -0.1833675951 0.6058313251 4287204761
-0.2966312766 -0.1827405542 0.6059841514 4284441203
-0.2967058718 -0.1821130514 0.6061365008 4283783273
-0.2967802286 -0.1814850569 0.6062884331 4283652717
-0.2960050106 -0.1803391278 0.6047047377 4282994787
-0.2956539392 -0.1794541627 0.6039875150 4282469474
-0.2948775589 -0.1783135980 0.6024014354 4282206302
