VERSION 0.7
FIELDS x y z rgba
SIZE 4 4 4 4
TYPE F F F U
COUNT 1 1 1 1
WIDTH 920
HEIGHT 1
VIEWPOINT 0.0 0.0 0.0 1.0 0.0 0.0 0.0
POINTS 920
DATA ascii
-0.3176145256 -0.1212698892 0.4907378554 4279312958
-0.3176733255 -0.1207470000 0.4908287227 4279247681
-0.3177318871 -0.1202238202 0.4909192026 4279379267
-0.3183225393 -0.1199008524 0.4918318093 4279576649
-0.3183807433 -0.1193762124 0.4919217527 4279576649
-0.3189712465 -0.1190500408 0.4928340912 4279511117
-0.3195616603 -0.1187218204 0.4937463701 4279511117
-0.3201520741 -0.1183915585 0.4946585596 4279642449
-0.3212752044 -0.1182553694 0.4963938892 4279708242
-0.3223985136 -0.1181153730 0.4981294572 4279511893
-0.3229889572 -0.1177772209 0.4990417361 4279577686
-0.3241124153 -0.1176304966 0.5007776022 4279643479
-0.3236365020 -0.1169021875 0.5000422597 4279709272
-0.3247599900 -0.1167504862 0.5017781258 4279775065
-0.3242834806 -0.1160224974 0.5010418892 4279775065
-0.3254069388 -0.1158658266 0.5027776957 4279775324
-0.3259969652 -0.1155162752 0.5036893487 4279775324
-0.3265869319 -0.1151646823 0.5046008825 4279709531
-0.3266431093 -0.1146237478 0.5046877265 4279709531
-0.3272328675 -0.1142689437 0.5055989027 4279709531
-0.3288903832 -0.1142831445 0.5081598759 4279643738
-0.3294801712 -0.1139224768 0.5090711713 4279577945
-0.3322063088 -0.1142947748 0.5132832527 4279512152
-0.3311937749 -0.1133778617 0.5117188096 4279446361
-0.3323177397 -0.1131921411 0.5134553909 4279380568
-0.3323730826 -0.1126404107 0.5135409236 4279576395
-0.3329626024 -0.1122686118 0.5144518018 4279510602
-0.3340866268 -0.1120740846 0.5161884427 4279444809
-0.3352107108 -0.1118757278 0.5179252625 4279379016
-0.3358002007 -0.1114960015 0.5188360810 4279378500
-0.3363896012 -0.1111142188 0.5197467208 4279378500
-0.3369789124 -0.1107303947 0.5206573009 4279377987
-0.3381031156 -0.1105193868 0.5223942399 4279377987
-0.3381572962 -0.1099565849 0.5224779248 4279378242
-0.3387463391 -0.1095665991 0.5233880877 4279378242
-0.3393352926 -0.1091745645 0.5242980719 4279443520
-0.3399241865 -0.1087804809 0.5252079368 4279443520
-0.3399775624 -0.1082139313 0.5252904296 4279377727
-0.3405661583 -0.1078166366 0.5261998177 4279311934
-0.3411546648 -0.1074172854 0.5271091461 4279377211
-0.3445270061 -0.1067047864 0.5323196650 4279441974
-0.3328928053 -0.1479302496 0.5152280927 4279838530
-0.3340188563 -0.1478562504 0.5169709325 4279773250
-0.3340895474 -0.1473130286 0.5170803070 4279839043
-0.3341599703 -0.1467694491 0.5171893835 4279838789
-0.3331741989 -0.1457635313 0.5156636238 4279772996
-0.3353564441 -0.1461415738 0.5190411210 4279772996
-0.3364828825 -0.1460538208 0.5207845569 4279772996
-0.3365528286 -0.1455054432 0.5208928585 4279773250
-0.3366225660 -0.1449567229 0.5210007429 4279707457
-0.3366920650 -0.1444076598 0.5211083293 4279707457
-0.3367613256 -0.1438582540 0.5212154984 4279707457
-0.3368303478 -0.1433085203 0.5213223696 4279707457
-0.3363702595 -0.1425343305 0.5206102133 4279641664
-0.3364386857 -0.1419847757 0.5207161903 4279641664
-0.3343904912 -0.1405453682 0.5175461173 4279641664
-0.3344580531 -0.1399985999 0.5176506639 4279707457
-0.3334667087 -0.1390102059 0.5161163807 4279707457
-0.3319453299 -0.1378051639 0.5137616396 4279707457
-0.3304230571 -0.1366049945 0.5114055872 4279641664
-0.3294295371 -0.1356277615 0.5098679066 4279641410
-0.3284353912 -0.1346536726 0.5083292127 4279575617
-0.3274405599 -0.1336827278 0.5067895055 4279510337
-0.3264451027 -0.1327149421 0.5052487850 4279510337
-0.3254489899 -0.1317503303 0.5037070513 4279444544
-0.3244522214 -0.1307888627 0.5021643639 4279378751
-0.3234547973 -0.1298305839 0.5006206036 4279378751
-0.3229871094 -0.1290874332 0.4998967648 4279312958
-0.3219885230 -0.1281346232 0.4983511865 4279247165
-0.3209892809 -0.1271849871 0.4968046546 4279247165
-0.3205200732 -0.1264479011 0.4960784316 4279378240
-0.3195196390 -0.1255037636 0.4945300817 4279312447
-0.3185186088 -0.1245628297 0.4929807186 4279246652
-0.3180478811 -0.1238318235 0.4922522008 4279246652
-0.3175767362 -0.1231022626 0.4915229976 4279312445
-0.3176363409 -0.1225791425 0.4916152060 4279312445
-0.3176956773 -0.1220557243 0.4917070866 4279312958
-0.3177548051 -0.1215320155 0.4917985797 4279312958
-0.3178136945 -0.1210080162 0.4918897450 4279313474
-0.3173407912 -0.1202822477 0.4911578000 4279445060
-0.3179307878 -0.1199591458 0.4920709431 4279510856
-0.3179889917 -0.1194342747 0.4921610057 4279576649
-0.3185787797 -0.1191079617 0.4930738807 4279511117
-0.3191685677 -0.1187796071 0.4939866662 4279576910
-0.3197582662 -0.1184492037 0.4948994219 4279576656
-0.3208801150 -0.1183129698 0.4966356754 4279642449
-0.3214698434 -0.1179775968 0.4975484312 4279511893
-0.3220595121 -0.1176401824 0.4984610975 4279577686
-0.3226491511 -0.1173007190 0.4993736744 4279577686
-0.3237712383 -0.1171518937 0.5011103749 4279709272
-0.3243608475 -0.1168074533 0.5020229816 4279775065
-0.3254831433 -0.1166518927 0.5037599206 4279775065
-0.3260727227 -0.1163024753 0.5046724677 4279775065
-0.3266622722 -0.1159510091 0.5055849552 4279775065
-0.3267187774 -0.1154092252 0.5056723952 4279840860
-0.3283742666 -0.1154293194 0.5082346201 4279840860
-0.3273642063 -0.1145113185 0.5066713095 4279840860
-0.3284865618 -0.1143390462 0.5084084272 4279775067
-0.3290757239 -0.1139782146 0.5093202591 4279709274
-0.3296647668 -0.1136153415 0.5102319717 4279577688
-0.3302537799 -0.1132504195 0.5111436248 4279511895
-0.3324435651 -0.1134296507 0.5145328045 4279380309
-0.3330326676 -0.1130579636 0.5154445767 4279642188
-0.3336217403 -0.1126842275 0.5163562894 4279576395
-0.3347445726 -0.1124878451 0.5180941820 4279445063
-0.3353335559 -0.1121091098 0.5190057158 4279379270
-0.3353883922 -0.1115506962 0.5190905929 4279444293
-0.3359771371 -0.1111687496 0.5200018287 4279378500
-0.3370999992 -0.1109606028 0.5217397213 4279378242
-0.3376886547 -0.1105736569 0.5226507783 4279378242
-0.3382772207 -0.1101846620 0.5235617161 4279443520
-0.3383311927 -0.1096204370 0.5236452818 4279443520
-0.3405232131 -0.1097450852 0.5270379186 4279443774
-0.3400423527 -0.1090053618 0.5262936950 4279443774
-0.3400958180 -0.1084376499 0.5263764262 4279508797
-0.3422882855 -0.1085481048 0.5297697783 4279443004
-0.3418066502 -0.1078075767 0.5290243030 4279442491
-0.3423945606 -0.1074042097 0.5299342275 4279376698
-0.3419122100 -0.1066649407 0.5291876793 4279310903
-0.3430348933 -0.1064252853 0.5309253335 4279310903
-0.3441576660 -0.1061817929 0.5326630473 4279245363
-0.3341312706 -0.1481607109 0.5180354118 4279838789
-0.3336749077 -0.1473835558 0.5173279047 4279838789
-0.3342725933 -0.1470717341 0.5182545185 4279838789
-0.3343428969 -0.1465267241 0.5183635354 4279838789
-0.3359953761 -0.1466721445 0.5209255219 4279772996
-0.3360655606 -0.1461238712 0.5210343003 4279772996
-0.3361355066 -0.1455752552 0.5211427808 4279707203
-0.3362052143 -0.1450262964 0.5212508440 4279707203
-0.3362746835 -0.1444769949 0.5213585496 4279707203
-0.3363439143 -0.1439273655 0.5214658976 4279707203
-0.3364129066 -0.1433773935 0.5215728879 4279707457
-0.3359534740 -0.1426028609 0.5208605528 4279641664
-0.3360218704 -0.1420530677 0.5209666491 4279641664
-0.3350331783 -0.1410579681 0.5194337368 4279641664
-0.3329867125 -0.1396227479 0.5162609220 4279707457
-0.3314678073 -0.1384148747 0.5139060020 4279707457
-0.3315343261 -0.1378715634 0.5140091777 4279707457
-0.3289562762 -0.1362327933 0.5100121498 4279641664
-0.3306087255 -0.1363476217 0.5125740767 4279641664
-0.3280289471 -0.1347186118 0.5085743666 4279575871
-0.3270353973 -0.1337472349 0.5070340633 4279510335
-0.3260412514 -0.1327790022 0.5054926872 4279444542
-0.3250464201 -0.1318139434 0.5039502978 4279444544
-0.3240509331 -0.1308520436 0.5024069548 4279444544
-0.3230548203 -0.1298933178 0.5008625388 4279312958
-0.3225877583 -0.1291498393 0.5001384616 4279312958
-0.3215904534 -0.1281965971 0.4985922277 4279312958
-0.3205925226 -0.1272465289 0.4970450103 4279247165
-0.3201239407 -0.1265091002 0.4963185489 4279377981
-0.3191248477 -0.1255645305 0.4947695136 4279377981
-0.3186552823 -0.1248308718 0.4940415621 4279312445
-0.3176550269 -0.1238918304 0.4924907088 4279246652
-0.3171845078 -0.1231619343 0.4917612374 4279246652
-0.3172440827 -0.1226385832 0.4918535948 4279312445
-0.3173034191 -0.1221149340 0.4919455945 4279312956
-0.3173625171 -0.1215909943 0.4920372367 4279312956
-0.3174214065 -0.1210667640 0.4921285212 4279444546
-0.3174800575 -0.1205422431 0.4922194481 4279510339
-0.3175384700 -0.1200174242 0.4923100173 4279510856
-0.3175966442 -0.1194923222 0.4924001992 4279576649
-0.3181857765 -0.1191658750 0.4933136106 4279576910
-0.3187748790 -0.1188373789 0.4942269325 4279576910
-0.3193639219 -0.1185068339 0.4951401949 4279642449
-0.3204843998 -0.1183705553 0.4968774021 4279708242
-0.3210734725 -0.1180350408 0.4977906644 4279577426
-0.3216624856 -0.1176974773 0.4987038672 4279643219
-0.3222514391 -0.1173578724 0.4996169806 4279709014
-0.3239040673 -0.1174017712 0.5021792054 4279774807
-0.3244931102 -0.1170563027 0.5030924678 4279840600
-0.3245500624 -0.1165177748 0.5031807423 4279840600
-0.3251388967 -0.1161690876 0.5040937066 4279840600
-0.3257276714 -0.1158183590 0.5050065517 4279840600
-0.3263163865 -0.1154655740 0.5059192777 4279906393
-0.3269050419 -0.1151107401 0.5068319440 4279906393
-0.3274936378 -0.1147538573 0.5077444911 4279906138
-0.3291473687 -0.1147663370 0.5103084445 4279906138
-0.3297360241 -0.1144035831 0.5112210512 4279774552
-0.3303245902 -0.1140387803 0.5121335983 4279642966
-0.3314459920 -0.1138549671 0.5138721466 4279445587
-0.3315015435 -0.1133030057 0.5139583349 4279379794
-0.3320899010 -0.1129320487 0.5148705244 4279576395
-0.3326781988 -0.1125590280 0.5157825947 4279576395
-0.3337996304 -0.1123634577 0.5175212622 4279575879
-0.3349211812 -0.1121640503 0.5192601085 4279510086
-0.3355093896 -0.1117831022 0.5201720595 4279444293
-0.3360975385 -0.1114000902 0.5210839510 4279378500
-0.3372191787 -0.1111909673 0.5228229165 4279444035
-0.3378072381 -0.1108029634 0.5237346292 4279444035
-0.3378614783 -0.1102387458 0.5238187313 4279509313
-0.3384492695 -0.1098475233 0.5247300267 4279443520
-0.3390369713 -0.1094542518 0.5256412029 4279574592
-0.3401586115 -0.1092303917 0.5273801684 4279574592
-0.3402121365 -0.1086615324 0.5274631381 4279443004
-0.3397312164 -0.1079227105 0.5267175436 4279377211
-0.3413868845 -0.1078605950 0.5292844772 4279311418
-0.3409054577 -0.1071212441 0.5285381079 4279245625
-0.3414924145 -0.1067174301 0.5294480920 4279245623
-0.3420792818 -0.1063115671 0.5303580165 4279245623
-0.3321363330 -0.1475301385 0.5158306956 4279838789
-0.3337861598 -0.1476870179 0.5183930397 4279838789
-0.3338567019 -0.1471421272 0.5185025334 4279773250
-0.3344536722 -0.1468281150 0.5194297433 4279839043
-0.3350506425 -0.1465120316 0.5203568935 4279772996
-0.3356476128 -0.1461938918 0.5212839842 4279772996
-0.3351905048 -0.1454164088 0.5205740929 4279772996
-0.3357872367 -0.1450958550 0.5215008259 4279707203
-0.3358567059 -0.1445463300 0.5216087103 4279707203
-0.3359259069 -0.1439964473 0.5217162371 4279707203
-0.3359948993 -0.1434462368 0.5218233466 4279707203
-0.3356044888 -0.1421213448 0.5212169886 4279641663
-0.3346170783 -0.1411257833 0.5196834803 4279641663
-0.3336290121 -0.1401333660 0.5181489587 4279707457
-0.3326402605 -0.1391440779 0.5166133642 4279707457
-0.3327070773 -0.1385979205 0.5167171359 4279707457
-0.3285479844 -0.1362983882 0.5102577806 4279641664
-0.3301984370 -0.1364133060 0.5128210187 4279575871
-0.3276219070 -0.1347835362 0.5088195205 4279575871
-0.3266296685 -0.1338117123 0.5072785020 4279510335
-0.3256368041 -0.1328430474 0.5057364702 4279510335
-0.3246432543 -0.1318775415 0.5041934848 4279510337
-0.3241779208 -0.1311291307 0.5034707785 4279444544
-0.3231832087 -0.1301690936 0.5019258857 4279378751
-0.3216587901 -0.1290000528 0.4995583892 4279312958
-0.3211918473 -0.1282585412 0.4988331795 4279312958
-0.3201951981 -0.1273080409 0.4972853363 4279312958
-0.3197272718 -0.1265702844 0.4965586066 4279312445
-0.3187294602 -0.1256252825 0.4950089157 4279312445
-0.3182605505 -0.1248912960 0.4942806661 4279312445
-0.3172615767 -0.1239518151 0.4927291870 4279246652
-0.3167916834 -0.1232215986 0.4919994473 4279246652
-0.3168512583 -0.1226980090 0.4920919538 4279312445
-0.3169105649 -0.1221741289 0.4921840727 4279312956
-0.3169696629 -0.1216499582 0.4922758639 4279312956
-0.3170285225 -0.1211254969 0.4923672676 4279312958
-0.3170871437 -0.1206007376 0.4924583137 4279510337
-0.3171455562 -0.1200756878 0.4925490022 4279510856
-0.3177341521 -0.1197502688 0.4934631586 4279642442
-0.3177921772 -0.1192237660 0.4935532510 4279642190
-0.3183805943 -0.1188951284 0.4944671392 4279642190
-0.3194997013 -0.1187617332 0.4962051809 4279708242
-0.3200881481 -0.1184281185 0.4971190691 4279774035
-0.3212074637 -0.1182879806 0.4988574088 4279708496
-0.3217958808 -0.1179493964 0.4997712970 4279774289
-0.3223842680 -0.1176087633 0.5006850958 4279840082
-0.3229725957 -0.1172660813 0.5015988350 4279971668
-0.3235608637 -0.1169213429 0.5025124550 4279971414
-0.3241491020 -0.1165745631 0.5034260154 4279971414
-0.3247372508 -0.1162257269 0.5043394566 4279971414
-0.3258569539 -0.1160641834 0.5060784221 4279905621
-0.3264450729 -0.1157103628 0.5069918036 4279971414
-0.3270331621 -0.1153544933 0.5079051852 4279971414
-0.3286848962 -0.1153699383 0.5104703903 4279840600
-0.3282091320 -0.1146365926 0.5097315311 4279840600
-0.3287970126 -0.1142745689 0.5106445551 4279709014
-0.3293848336 -0.1139104888 0.5115574598 4279577428
-0.3305048048 -0.1137274951 0.5132968426 4279445842
-0.3310925663 -0.1133584231 0.5142096877 4279314256
-0.3316802382 -0.1129872948 0.5151224136 4279576395
-0.3322678506 -0.1126141176 0.5160350204 4279510602
-0.3328554034 -0.1122388840 0.5169475079 4279575881
-0.3350408375 -0.1123976707 0.5203416348 4279444295
-0.3356831968 -0.1114546806 0.5213392973 4279378500
-0.3368035257 -0.1112454683 0.5230792165 4279378499
-0.3379239142 -0.1110324264 0.5248192549 4279312706
-0.3379782140 -0.1104670614 0.5249035954 4279378242
-0.3380322456 -0.1099014208 0.5249875188 4279378242
-0.3386192918 -0.1095079705 0.5258992314 4279443520
-0.3392062485 -0.1091124639 0.5268107653 4279377727
-0.3397930861 -0.1087149009 0.5277221799 4279443004
-0.3398463428 -0.1081455052 0.5278049111 4279311418
-0.3409665227 -0.1079136059 0.5295445919 4279245625
-0.3410193920 -0.1073418930 0.5296267271 4279179832
-0.3327732682 -0.1480684727 0.5177129507 4279772996
-0.3323180676 -0.1472914964 0.5170047879 4279772996
-0.3339661360 -0.1474446952 0.5195687413 4279839043
-0.3345625401 -0.1471296996 0.5204966664 4279839043
-0.3346328139 -0.1465821713 0.5206059217 4279838789
-0.3352290988 -0.1462638974 0.5215336084 4279772996
-0.3347726166 -0.1454860717 0.5208234787 4279772996
-0.3348421752 -0.1449375004 0.5209317207 4279772996
-0.3354381025 -0.1446156204 0.5218588114 4279707718
-0.3360339999 -0.1442916840 0.5227858424 4279641925
-0.3361030817 -0.1437403709 0.5228933096 4279641923
-0.3356449902 -0.1429642886 0.5221806765 4279641923
-0.3357135057 -0.1424131542 0.5222872496 4279576128
-0.3347274959 -0.1414162964 0.5207532644 4279641921
-0.3337408304 -0.1404225528 0.5192182064 4279641921
-0.3322261572 -0.1392109841 0.5168617964 4279641921
-0.3307105899 -0.1380042732 0.5145039558 4279641921
-0.3297217488 -0.1370216906 0.5129655600 4279576128
-0.3287322223 -0.1360422373 0.5114260912 4279510335
-0.3277420402 -0.1350659579 0.5098856091 4279510335
-0.3267512023 -0.1340928078 0.5083441138 4279576130
-0.3257597387 -0.1331228316 0.5068016648 4279510337
-0.3247676194 -0.1321560293 0.5052581429 4279510337
-0.3237748444 -0.1311923712 0.5037136078 4279444544
-0.3227814138 -0.1302319020 0.5021681190 4279444544
-0.3217873573 -0.1292746067 0.5006216168 4279378751
-0.3202641606 -0.1281090826 0.4982518852 4279378751
-0.3197973073 -0.1273695529 0.4975255728 4279312958
-0.3193300068 -0.1266314536 0.4967985749 4279312447
-0.3183334768 -0.1256860197 0.4952482283 4279312447
-0.3178652227 -0.1249516979 0.4945197403 4279312447
-0.3173965216 -0.1242188215 0.4937905669 4279246654
-0.3169274032 -0.1234873906 0.4930607378 4279181372
-0.3164578676 -0.1227574199 0.4923302233 4279247165
-0.3165171742 -0.1222333089 0.4924224913 4279312958
-0.3165762424 -0.1217089072 0.4925144017 4279312958
-0.3166350722 -0.1211842075 0.4926059246 4279247681
-0.3166936934 -0.1206592172 0.4926971197 4279379267
-0.3172817528 -0.1203348339 0.4936119914 4279510856
-0.3173400164 -0.1198083833 0.4937026203 4279642442
-0.3179278970 -0.1194807813 0.4946172237 4279642190
-0.3185157478 -0.1191511229 0.4955317676 4279642190
-0.3191035390 -0.1188194230 0.4964462519 4279642449
-0.3202214539 -0.1186821684 0.4981854558 4279774035
-0.3208092749 -0.1183454916 0.4990999401 4279708494
-0.3213970363 -0.1180067584 0.5000143647 4279774287
-0.3219847381 -0.1176659837 0.5009287000 4279840082
-0.3231029510 -0.1175161153 0.5026683211 4279905875
-0.3236906528 -0.1171703488 0.5035826564 4279971414
-0.3242782950 -0.1168225333 0.5044968724 4279971414
-0.3253966868 -0.1166629866 0.5062368512 4279840596
-0.3259843290 -0.1163101792 0.5071510077 4279840596
-0.3260408640 -0.1157667786 0.5072389841 4279906391
-0.3266282678 -0.1154107526 0.5081528425 4279906391
-0.3272156119 -0.1150526702 0.5090666413 4279840600
-0.3283341825 -0.1148784310 0.5108068585 4279774807
-0.3278587162 -0.1141453534 0.5100671649 4279577685
-0.3289772570 -0.1139661223 0.5118072629 4279446099
-0.3300958574 -0.1137830541 0.5135475993 4279314513
-0.3312146068 -0.1135961562 0.5152880549 4279314513
-0.3312699795 -0.1130425259 0.5153742433 4279510602
-0.3323887587 -0.1128497422 0.5171147585 4279510602
-0.3335075974 -0.1126531288 0.5188553929 4279510088
-0.3335625827 -0.1120951101 0.5189409256 4279444295
-0.3341493607 -0.1117147133 0.5198538303 4279377987
-0.3347360790 -0.1113322601 0.5207666159 4279377987
-0.3363872468 -0.1112999618 0.5233353972 4279312449
-0.3375062943 -0.1110868305 0.5250763893 4279312449
-0.3375605941 -0.1105212048 0.5251608491 4279312447
-0.3376146257 -0.1099553108 0.5252448916 4279312447
-0.3382009864 -0.1095616817 0.5261571407 4279377727
-0.3387872577 -0.1091659963 0.5270692110 4279311934
-0.3388406634 -0.1085975021 0.5271523595 4279377211
-0.3388938308 -0.1080287397 0.5272350311 4279311418
-0.3394796550 -0.1076286733 0.5281464458 4279245625
-0.3400653601 -0.1072265506 0.5290576816 4279179832
-0.3401179016 -0.1066552028 0.5291393995 4279049013
-0.3412365317 -0.1064161360 0.5308796763 4279049013
-0.3340736628 -0.1477474570 0.5206356645 4279773507
-0.3346695006 -0.1474314779 0.5215642452 4279773507
-0.3347398639 -0.1468828619 0.5216739178 4279773509
-0.3348099589 -0.1463338882 0.5217831731 4279773509
-0.3348798454 -0.1457845718 0.5218920708 4279773511
-0.3344236910 -0.1450069100 0.5211811662 4279773511
-0.3344929814 -0.1444577724 0.5212891698 4279707718
-0.3350881040 -0.1441345662 0.5222166181 4279641925
-0.3351570368 -0.1435838789 0.5223240852 4279641923
-0.3346994817 -0.1428083181 0.5216109753 4279641923
-0.3342414796 -0.1420341432 0.5208972096 4279445312
-0.3343095183 -0.1414841861 0.5210032463 4279511105
-0.3333241343 -0.1404899955 0.5194675922 4279445312
-0.3307580650 -0.1388357133 0.5154684782 4279445312
-0.3308246136 -0.1382908225 0.5155722499 4279511105
-0.3282564878 -0.1366488934 0.5115699172 4279445312
-0.3293760419 -0.1365446299 0.5133147240 4279510337
-0.3273331821 -0.1351309419 0.5101310015 4279510337
-0.3263436556 -0.1341573745 0.5085888505 4279576130
-0.3253534734 -0.1331869513 0.5070457458 4279576130
-0.3243626356 -0.1322196871 0.5055015683 4279510337
-0.3233711720 -0.1312556118 0.5039563775 4279444544
-0.3223790526 -0.1302946955 0.5024102330 4279444544
-0.3213862777 -0.1293369532 0.5008630753 4279444544
-0.3203928769 -0.1283823997 0.4993149042 4279378751
-0.3193988204 -0.1274310350 0.4977657199 4279378751
-0.3184041381 -0.1264828444 0.4962155819 4279246913
-0.3179369569 -0.1257467419 0.4954874814 4279246913
-0.3174693286 -0.1250120848 0.4947587252 4279246913
-0.3170012832 -0.1242788732 0.4940292835 4279181120
-0.3165327907 -0.1235471144 0.4932991862 4279181374
-0.3165924251 -0.1230221987 0.4933921099 4279312960
-0.3166518211 -0.1224969774 0.4934846759 4279182142
-0.3167109787 -0.1219714656 0.4935768545 4279182142
-0.3167698979 -0.1214456558 0.4936687052 4279379267
-0.3168285787 -0.1209195554 0.4937601686 4279445060
-0.3168870509 -0.1203931645 0.4938512743 4279510856
-0.3174743950 -0.1200665906 0.4947666228 4279576649
-0.3175324798 -0.1195387393 0.4948571622 4279576910
-0.3181196749 -0.1192089468 0.4957722425 4279576910
-0.3187067807 -0.1188771054 0.4966872334 4279642449
-0.3192938864 -0.1185432151 0.4976021647 4279642449
-0.3204105198 -0.1184029803 0.4993424118 4279643217
-0.3209975958 -0.1180641055 0.5002573133 4279643217
-0.3215846419 -0.1177231818 0.5011721849 4279709010
-0.3227015138 -0.1175732687 0.5029127598 4279774803
-0.3232885301 -0.1172273532 0.5038276315 4279774805
-0.3238754869 -0.1168793887 0.5047423840 4279840598
-0.3244624138 -0.1165293679 0.5056570768 4279775318
-0.3250492513 -0.1161772981 0.5065716505 4279775318
-0.3256360590 -0.1158231720 0.5074861050 4279972697
-0.3262227774 -0.1154669970 0.5084004998 4279906904
-0.3268094361 -0.1151087582 0.5093147755 4279709785
-0.3268654346 -0.1145624965 0.5094020367 4279578199
-0.3274518847 -0.1142010391 0.5103159547 4279446613
-0.3285690546 -0.1140217334 0.5120570660 4279380820
-0.3296863437 -0.1138385981 0.5137982965 4279249233
-0.3302727640 -0.1134691983 0.5147122145 4279249233
-0.3308591247 -0.1130977497 0.5156259537 4279641672
-0.3309142292 -0.1125435904 0.5157118440 4279575879
-0.3320315778 -0.1123486757 0.5174531937 4279575366
-0.3331490159 -0.1121499240 0.5191946626 4279443780
-0.3337351382 -0.1117693558 0.5201081038 4279377987
-0.3343212008 -0.1113867313 0.5210214257 4279312194
-0.3359703422 -0.1113544405 0.5235915780 4279246656
-0.3365564048 -0.1109659150 0.5245049000 4279246656
-0.3371423483 -0.1105753332 0.5254180431 4279311934
-0.3371963501 -0.1100091785 0.5255022049 4279311934
-0.3377820551 -0.1096153706 0.5264149904 4279443004
-0.3383676410 -0.1092195138 0.5273276567 4279443004
-0.3384210467 -0.1086507589 0.5274108648 4279377211
-0.3384741843 -0.1080817357 0.5274936557 4279311418
-0.3385270536 -0.1075124443 0.5275760889 4279245623
-0.3391120434 -0.1071110368 0.5284876823 4279179830
-0.3391644657 -0.1065403149 0.5285694003 4278983733
-0.3408142030 -0.1064684018 0.5311404467 4278983733
-0.3314154744 -0.1479757130 0.5173885822 4279838789
-0.3325349689 -0.1478987485 0.5191362500 4279838789
-0.3331300318 -0.1475855857 0.5200652480 4279772996
-0.3347745538 -0.1477334648 0.5226325989 4279772996
-0.3343201578 -0.1469530612 0.5219231844 4279838789
-0.3349151909 -0.1466336846 0.5228521824 4279838789
-0.3344601095 -0.1458542943 0.5221416950 4279838789
-0.3345297277 -0.1453044116 0.5222504139 4279838789
-0.3345991373 -0.1447541714 0.5223587155 4279772996
-0.3346682787 -0.1442035884 0.5224667192 4279772996
-0.3347372115 -0.1436526775 0.5225743055 4279772996
-0.3342803121 -0.1428767592 0.5218610168 4279772996
-0.3338229358 -0.1421022564 0.5211470127 4279642176
-0.3333651423 -0.1413291395 0.5204322934 4279642176
-0.3329068720 -0.1405574083 0.5197168589 4279576128
-0.3313961029 -0.1393447220 0.5173583627 4279576128
-0.3319889903 -0.1390181780 0.5182839632 4279576128
-0.3294244409 -0.1373728812 0.5142803192 4279576128
-0.3279112875 -0.1361730993 0.5119180083 4279576128
-0.3269236982 -0.1351959258 0.5103762746 4279576128
-0.3264620304 -0.1344387382 0.5096555352 4279576128
-0.3249466121 -0.1332510412 0.5072897077 4279510335
-0.3239570856 -0.1322833449 0.5057449341 4279510337
-0.3229669034 -0.1313188225 0.5041990876 4279444544
-0.3219760954 -0.1303574741 0.5026522875 4279444544
-0.3209846318 -0.1293992996 0.5011044741 4279378751
-0.3199925125 -0.1284442991 0.4995556474 4279378751
-0.3195270300 -0.1277032346 0.4988289773 4279378751
-0.3185337484 -0.1267537475 0.4972783327 4279247167
-0.3175398409 -0.1258074492 0.4957266748 4279247167
-0.3170728683 -0.1250724494 0.4949976504 4279050302
-0.3166054487 -0.1243389100 0.4942679703 4279050302
-0.3166653812 -0.1238131821 0.4943615198 4279116349
-0.3161972165 -0.1230816692 0.4936306477 4279182142
-0.3162566125 -0.1225562245 0.4937233329 4279247933
-0.3163157403 -0.1220304742 0.4938156605 4279247933
-0.3163746595 -0.1215044335 0.4939076304 4279313728
-0.3164333403 -0.1209781021 0.4939992428 4279379521
-0.3164917827 -0.1204514727 0.4940904677 4279379782
-0.3170784414 -0.1201247647 0.4950063527 4279445575
-0.3176650703 -0.1197960079 0.4959221780 4279511115
-0.3182516694 -0.1194651946 0.4968379438 4279511115
-0.3188382089 -0.1191323325 0.4977536201 4279642703
-0.3194247186 -0.1187974215 0.4986692369 4279774289
-0.3200111687 -0.1184604540 0.4995847940 4279577424
-0.3205975890 -0.1181214377 0.5005002618 4279643217
-0.3211839497 -0.1177803725 0.5014156699 4279839828
-0.3222994804 -0.1176303998 0.5031571388 4279905621
-0.3228858113 -0.1172843426 0.5040725470 4280036696
-0.3234721124 -0.1169362217 0.5049878359 4280102489
-0.3240583539 -0.1165860593 0.5059030056 4279971416
-0.3246445358 -0.1162338331 0.5068181157 4279905623
-0.3257603347 -0.1160682812 0.5085600615 4279840857
-0.3263464868 -0.1157110631 0.5094751716 4279906650
-0.3274624348 -0.1155387461 0.5112172961 4279644762
-0.3269886076 -0.1148043871 0.5104776025 4279513176
-0.3281602859 -0.1140773371 0.5123067498 4279314773
-0.3287459910 -0.1137107238 0.5132211447 4279379794
-0.3298619688 -0.1135245711 0.5149633288 4279314001
-0.3304476440 -0.1131529510 0.5158776641 4279641672
-0.3305027485 -0.1125985458 0.5159636736 4279575879
-0.3316187561 -0.1124035567 0.5177059174 4279444292
-0.3337962329 -0.1125626341 0.5211052895 4279378499
-0.3344365358 -0.1116183624 0.5221049190 4279246913
-0.3350219131 -0.1112326235 0.5230187774 4279181120
-0.3361382186 -0.1110202074 0.5247614980 4279181120
-0.3367235065 -0.1106294468 0.5256751776 4279246654
-0.3373086751 -0.1102366373 0.5265887976 4279312447
-0.3378937840 -0.1098417640 0.5275021791 4279246906
-0.3384788036 -0.1094448268 0.5284155011 4279246906
-0.3380008340 -0.1087040007 0.5276693106 4279246906
-0.3385854661 -0.1083047390 0.5285820365 4279115320
-0.3386384249 -0.1077342853 0.5286647081 4279049014
-0.3392227888 -0.1073318049 0.5295769572 4279049014
-0.3304042518 -0.1483545452 0.5167058706 4279772996
-0.3304748237 -0.1478120089 0.5168161988 4279772996
-0.3310689926 -0.1475025117 0.5177454352 4279772996
-0.3321871161 -0.1474234760 0.5194939971 4279772996
-0.3333054781 -0.1473406553 0.5212429166 4279838789
-0.3338998258 -0.1470232308 0.5221724510 4279904582
-0.3344942033 -0.1467037350 0.5231019258 4279904582
-0.3345641494 -0.1461530924 0.5232113600 4279838789
-0.3346338570 -0.1456020921 0.5233203769 4279838789
-0.3347033560 -0.1450507641 0.5234290361 4279772996
-0.3352973163 -0.1447255760 0.5243579149 4279772996
-0.3353664279 -0.1441726834 0.5244659781 4279707203
-0.3349103928 -0.1433947086 0.5237528086 4279707203
-0.3339288235 -0.1423942298 0.5222178102 4279707714
-0.3334717751 -0.1416198909 0.5215030313 4279641921
-0.3324889839 -0.1406248063 0.5199660659 4279641921
-0.3315055668 -0.1396328658 0.5184281468 4279576128
-0.3305214643 -0.1386440545 0.5168891549 4279576130
-0.3279599845 -0.1369997263 0.5128833652 4279576130
-0.3296026587 -0.1371132284 0.5154522657 4279510335
-0.3270394504 -0.1354786903 0.5114437342 4279510335
-0.3265785277 -0.1347202957 0.5107229352 4279510337
-0.3250651658 -0.1335311830 0.5083562136 4279510337
-0.3240770400 -0.1325621754 0.5068109632 4279379521
-0.3230882585 -0.1315963417 0.5052646399 4279313728
-0.3215725422 -0.1304202229 0.5028942823 4279313474
-0.3205823898 -0.1294616163 0.5013458133 4279247681
-0.3201180995 -0.1287178993 0.5006197095 4279247935
-0.3196533620 -0.1279756129 0.4998929501 4279247935
-0.3186614811 -0.1270248145 0.4983417988 4279247167
-0.3176689744 -0.1260772049 0.4967896640 4279247167
-0.3172027469 -0.1253410131 0.4960605204 4279247167
-0.3167360723 -0.1246062666 0.4953307211 4279247167
-0.3162689805 -0.1238729730 0.4946002662 4279116349
-0.3158014417 -0.1231411323 0.4938691258 4279116349
-0.3158608079 -0.1226154491 0.4939619303 4279312956
-0.3159199357 -0.1220894679 0.4940544069 4279378749
-0.3159788251 -0.1215631962 0.4941464961 4279313728
-0.3160374761 -0.1210366338 0.4942382574 4279379521
-0.3160959184 -0.1205097735 0.4943296015 4279445575
-0.3166819215 -0.1201829314 0.4952460229 4279511368
-0.3167399764 -0.1196546033 0.4953368306 4279511115
-0.3173257709 -0.1193245351 0.4962529540 4279511115
-0.3184396625 -0.1191900820 0.4979948997 4279642703
-0.3190254867 -0.1188550219 0.4989110529 4279708496
-0.3196112514 -0.1185179129 0.4998271167 4279577426
-0.3212537467 -0.1185687855 0.5023957491 4279643219
-0.3207826614 -0.1178375408 0.5016590357 4279774037
-0.3218968511 -0.1176875159 0.5034014583 4279839830
-0.3224825263 -0.1173413098 0.5043174028 4280036696
-0.3230681419 -0.1169930473 0.5052332282 4280102489
-0.3236536980 -0.1166427284 0.5061489344 4279971416
-0.3247681558 -0.1164800599 0.5078917742 4280037209
-0.3248246610 -0.1159359217 0.5079801083 4279840857
-0.3254100382 -0.1155794337 0.5088955760 4279972443
-0.3259953558 -0.1152208894 0.5098109245 4279710555
-0.3271099031 -0.1150464490 0.5115539432 4279513176
-0.3276951611 -0.1146829054 0.5124692321 4279512152
-0.3277508914 -0.1141329184 0.5125563741 4279314773
-0.3283359408 -0.1137661487 0.5134713054 4279314001
-0.3289209306 -0.1133973151 0.5143861175 4279379794
-0.3295058310 -0.1130264327 0.5153008103 4279707467
-0.3300906420 -0.1126534864 0.5162154436 4279575881
-0.3312053382 -0.1124584153 0.5179586411 4279444293
-0.3323201239 -0.1122595072 0.5197019577 4279378500
-0.3334349990 -0.1120567545 0.5214455128 4279246913
-0.3340197504 -0.1116728932 0.5223599672 4279181120
-0.3351347446 -0.1114633456 0.5241036415 4279181120
-0.3357194364 -0.1110744774 0.5250180364 4279181120
-0.3363040388 -0.1106835529 0.5259322524 4279180861
-0.3374190927 -0.1104642451 0.5276760459 4279246654
-0.3380036056 -0.1100683063 0.5285901427 4279246652
-0.3385879993 -0.1096702963 0.5295041203 4279180859
-0.3386415541 -0.1090992317 0.5295878053 4279181113
-0.3386948109 -0.1085278913 0.5296711326 4279115320
-0.3387478292 -0.1079562828 0.5297540426 4279114807
-0.3393316269 -0.1075527221 0.5306670070 4279114807
-0.3404464126 -0.1073145196 0.5324103832 4279049527
-0.3415612876 -0.1070724577 0.5341538787 4279049527
-0.3421449363 -0.1066609249 0.5350666046 4279049013
-0.3295348883 -0.1476480514 0.5162429810 4279772996
-0.3334086537 -0.1476427019 0.5223115087 4279838789
-0.3329554200 -0.1468624622 0.5216014981 4279904582
-0.3340725899 -0.1467737705 0.5233516693 4279904582
-0.3346662521 -0.1464520842 0.5242816806 4279904582
-0.3347360790 -0.1458999813 0.5243910551 4279838789
-0.3348056376 -0.1453475505 0.5245000124 4279772996
-0.3348749876 -0.1447947770 0.5246086121 4279772996
-0.3354682326 -0.1444673836 0.5255380273 4279707203
-0.3355372250 -0.1439130604 0.5256460905 4279707203
-0.3340328038 -0.1426863968 0.5232893229 4279773250
-0.3335764706 -0.1419108510 0.5225744247 4279773250
-0.3325951099 -0.1409144551 0.5210370421 4279641923
-0.3305636644 -0.1394784003 0.5178546309 4279641923
-0.3306303918 -0.1389310658 0.5179591775 4279576130
-0.3275474012 -0.1370654553 0.5131294131 4279576130
-0.3297131062 -0.1373978257 0.5165221095 4279510337
-0.3271532655 -0.1357616484 0.5125119686 4279510337
-0.3261678517 -0.1347850114 0.5109682083 4279510337
-0.3246564567 -0.1335953474 0.5086004734 4279510337
-0.3236696422 -0.1326258928 0.5070545673 4279379267
-0.3226821721 -0.1316596270 0.5055076480 4279313474
-0.3211684227 -0.1304829717 0.5031362176 4279313474
-0.3207052946 -0.1297366023 0.5024107099 4279247681
-0.3197159171 -0.1287798584 0.5008607507 4279247681
-0.3192518353 -0.1280372441 0.5001336932 4279247681
-0.3182612658 -0.1270860136 0.4985819161 4279378240
-0.3177962005 -0.1263471693 0.4978533685 4279378240
-0.3168044686 -0.1254014522 0.4962997139 4279312960
-0.3163384497 -0.1246663705 0.4955696464 4279312960
-0.3158719838 -0.1239327416 0.4948389232 4279247165
-0.3159316480 -0.1234062538 0.4949324131 4279312958
-0.3154644370 -0.1226746589 0.4942004681 4279378751
-0.3155235648 -0.1221484542 0.4942930639 4279378751
-0.3155824244 -0.1216219440 0.4943853021 4279313728
-0.3156410754 -0.1210951433 0.4944771826 4279445314
-0.3156994879 -0.1205680519 0.4945686758 4279576649
-0.3162848055 -0.1202410683 0.4954856336 4279576649
-0.3168700635 -0.1199120358 0.4964025021 4279511117
-0.3174553216 -0.1195809469 0.4973193407 4279576910
-0.3180405200 -0.1192478091 0.4982360899 4279642703
-0.3191531897 -0.1191094816 0.4999791682 4279708496
-0.3197383881 -0.1187713519 0.5008959174 4279577939
-0.3203235269 -0.1184311658 0.5018126369 4279643732
-0.3209086061 -0.1180889159 0.5027292371 4279709014
-0.3214936554 -0.1177446172 0.5036457181 4279709014
-0.3220786452 -0.1173982620 0.5045621991 4280037209
-0.3226636052 -0.1170498505 0.5054785013 4280037209
-0.3232484758 -0.1166993827 0.5063948035 4279971416
-0.3243615627 -0.1165366545 0.5081385374 4280103002
-0.3249464333 -0.1161811873 0.5090547800 4279775577
-0.3250027597 -0.1156356335 0.5091429949 4279907163
-0.3255873919 -0.1152769327 0.5100588799 4279710555
-0.3267005980 -0.1151024252 0.5118028522 4279513176
-0.3262277544 -0.1143679991 0.5110620260 4279512406
-0.3283985555 -0.1145574376 0.5144628286 4279315027
-0.3289830983 -0.1141887233 0.5153785348 4279314001
-0.3290385902 -0.1136352569 0.5154654384 4279379794
-0.3296779692 -0.1127084121 0.5164670944 4279510604
-0.3307912946 -0.1125132591 0.5182112455 4279510088
-0.3319047391 -0.1123142689 0.5199555159 4279378502
-0.3324888349 -0.1119332016 0.5208705664 4279312707
-0.3336023688 -0.1117274165 0.5226150155 4279246914
-0.3347159922 -0.1115177795 0.5243595839 4279181120
-0.3353000283 -0.1111287400 0.5252745152 4279181120
-0.3358839452 -0.1107376367 0.5261892676 4279246654
-0.3364677727 -0.1103444770 0.5271039009 4279246654
-0.3370515406 -0.1099492460 0.5280184150 4279246652
-0.3376351893 -0.1095519587 0.5289327502 4279246652
-0.3382187486 -0.1091526076 0.5298469663 4279181113
-0.3382720053 -0.1085810065 0.5299303532 4279115320
-0.3388552964 -0.1081784293 0.5308441520 4279115320
-0.3389081359 -0.1076053977 0.5309268832 4279049527
-0.3394911289 -0.1071995944 0.5318402052 4279049527
-0.3400740325 -0.1067917272 0.5327534080 4279049527
-0.3296405077 -0.1479528099 0.5173085332 4279838789
-0.3312783539 -0.1481103003 0.5198788047 4279838789
-0.3308261335 -0.1473312825 0.5191690922 4279838789
-0.3319416642 -0.1472492963 0.5209197402 4279904582
-0.3325345516 -0.1469324976 0.5218501687 4279904582
-0.3331274390 -0.1466136128 0.5227805972 4279904582
-0.3342433870 -0.1465219706 0.5245318413 4279904582
-0.3348363638 -0.1461980790 0.5254623890 4279838789
-0.3343827128 -0.1454169750 0.5247505307 4279772996
-0.3344520330 -0.1448639631 0.5248593092 4279772996
-0.3345211148 -0.1443106085 0.5249676704 4279707203
-0.3345899582 -0.1437568963 0.5250757337 4279707203
-0.3341348171 -0.1429787576 0.5243614912 4279707457
-0.3331554234 -0.1419787705 0.5228245258 4279773250
-0.3326992989 -0.1412042826 0.5221087337 4279772996
-0.3311946392 -0.1399881989 0.5197474360 4279707203
-0.3296891153 -0.1387770027 0.5173848271 4279576130
-0.3302797377 -0.1384497285 0.5183116794 4279510337
-0.3277241588 -0.1368070394 0.5143011808 4279510337
-0.3267407119 -0.1358267814 0.5127578378 4279576130
-0.3262811601 -0.1350668371 0.5120366812 4279510337
-0.3242471814 -0.1336594820 0.5088446736 4279510337
-0.3232616484 -0.1326895952 0.5072981119 4279379267
-0.3228003681 -0.1319374144 0.5065742135 4279313474
-0.3212887049 -0.1307593435 0.5042018890 4279313474
-0.3203012347 -0.1297989935 0.5026522875 4279247681
-0.3198383451 -0.1290537268 0.5019258857 4279247681
-0.3188497126 -0.1280988604 0.5003743768 4279247681
-0.3178604543 -0.1271471977 0.4988219440 4279312960
-0.3173960447 -0.1264080107 0.4980931282 4279312960
-0.3164055943 -0.1254618615 0.4965388477 4279247167
-0.3159402311 -0.1247264594 0.4958085120 4279247167
-0.3154744208 -0.1239925027 0.4950775206 4279182142
-0.3155340850 -0.1234657764 0.4951711297 4279247935
-0.3155935109 -0.1229387522 0.4952643812 4279247935
-0.3151265979 -0.1222074106 0.4945316613 4279247935
-0.3151854575 -0.1216806769 0.4946240485 4279313474
-0.3152440786 -0.1211536452 0.4947160482 4279445060
-0.3153024614 -0.1206263155 0.4948076904 4279511113
-0.3158871233 -0.1202991977 0.4957251549 4279511113
-0.3164717257 -0.1199700236 0.4966425896 4279576910
-0.3170562685 -0.1196388006 0.4975599349 4279642703
-0.3181675375 -0.1195033714 0.4993038774 4279708242
-0.3187521100 -0.1191671491 0.5002212524 4279774035
-0.3193366230 -0.1188288704 0.5011385083 4279578198
-0.3209752142 -0.1188789457 0.5037099719 4279643991
-0.3199783564 -0.1179518327 0.5021455884 4279840600
-0.3216171265 -0.1179951429 0.5047173500 4279906393
-0.3222015202 -0.1176477522 0.5056344271 4280103002
-0.3227858841 -0.1172983050 0.5065514445 4280037209
-0.3233701587 -0.1169468015 0.5074684024 4279906393
-0.3239544034 -0.1165932342 0.5083852410 4279972186
-0.3245385885 -0.1162376106 0.5093020201 4279775577
-0.3251226842 -0.1158799306 0.5102186799 4279907163
-0.3257067502 -0.1155201867 0.5111352205 4279776348
-0.3262907267 -0.1151583865 0.5120516419 4279578969
-0.3268746436 -0.1147945300 0.5129680037 4279512406
-0.3274585009 -0.1144286022 0.5138842463 4279380820
-0.3280422688 -0.1140606254 0.5148003697 4279445587
-0.3286259770 -0.1136905849 0.5157164335 4279379794
-0.3292096257 -0.1133184806 0.5166323185 4279510604
-0.3292646706 -0.1127633154 0.5167186856 4279510604
-0.3303766549 -0.1125680953 0.5184637904 4279444809
-0.3314887583 -0.1123690233 0.5202090144 4279313223
-0.3320721686 -0.1119877845 0.5211245418 4279312707
-0.3326555192 -0.1116044819 0.5220400095 4279246914
-0.3337677121 -0.1113956571 0.5237853527 4279181120
-0.3348799944 -0.1111829877 0.5255308747 4279181120
-0.3354632556 -0.1107917130 0.5264462233 4279312447
-0.3355171978 -0.1102245152 0.5265308619 4279312447
-0.3366294801 -0.1100029722 0.5282763839 4279312445
-0.3372124732 -0.1096055061 0.5291912556 4279312445
-0.3372658789 -0.1090348065 0.5292751193 4279246906
-0.3373190463 -0.1084638387 0.5293585062 4279181113
-0.3384312093 -0.1082313582 0.5311038494 4279115320
-0.3390137255 -0.1078265309 0.5320180058 4279115320
-0.3390663266 -0.1072520688 0.5321005583 4279049527
-0.3291519582 -0.1485663950 0.5174437165 4279838789
-0.3287007213 -0.1477885842 0.5167343616 4279838789
-0.3298145831 -0.1477133334 0.5184854269 4279838789
-0.3304066956 -0.1474014074 0.5194162726 4279838789
-0.3315208852 -0.1473194212 0.5211678147 4279838789
-0.3321131170 -0.1470024884 0.5220987797 4279904582
-0.3327052891 -0.1466834992 0.5230297446 4279904582
-0.3338198960 -0.1465918273 0.5247819424 4279838789
-0.3344121873 -0.1462678164 0.5257130861 4279838789
-0.3344818056 -0.1457140446 0.5258225203 4279838789
-0.3345512152 -0.1451599300 0.5259316564 4279772996
-0.3346203864 -0.1446054727 0.5260403752 4279772996
-0.3346893191 -0.1440506727 0.5261487365 4279772996
-0.3337118924 -0.1430470943 0.5246121287 4279773250
-0.3332569599 -0.1422700137 0.5238969922 4279773250
-0.3328015804 -0.1414943188 0.5231810808 4279773250
-0.3312989771 -0.1402768046 0.5208189487 4279707457
-0.3303190172 -0.1392849088 0.5192784071 4279576128
-0.3277676105 -0.1376365721 0.5152674913 4279576128
-0.3262623250 -0.1364345998 0.5129010677 4279576130
-0.3242323697 -0.1350193918 0.5097098351 4279576130
-0.3258686662 -0.1351316124 0.5122821927 4279510337
-0.3259333372 -0.1345891356 0.5123838782 4279444544
-0.3233771920 -0.1329687834 0.5083655119 4279313728
-0.3223924637 -0.1320007592 0.5068174005 4279313728
-0.3214070499 -0.1310359091 0.5052683353 4279313728
-0.3204210103 -0.1300742477 0.5037182570 4279247935
-0.3189098239 -0.1289037466 0.5013425350 4279247681
-0.3184470236 -0.1281604618 0.5006150007 4279247681
-0.3174590766 -0.1272083670 0.4990618825 4279181888
-0.3169952929 -0.1264688522 0.4983328283 4279116095
-0.3160061836 -0.1255222708 0.4967778623 4279116095
-0.3155414462 -0.1247865260 0.4960472882 4279116095
-0.3156014085 -0.1242589951 0.4961415529 4279182142
-0.3151359260 -0.1235252842 0.4954097867 4279247935
-0.3151953220 -0.1229980290 0.4955031872 4279313728
-0.3152544796 -0.1224704757 0.4955962002 4279313728
-0.3147878945 -0.1217393875 0.4948627055 4279248194
-0.3148465157 -0.1212121248 0.4949548244 4279379780
-0.3154306114 -0.1208860427 0.4958730638 4279445320
-0.3154888451 -0.1203573123 0.4959646165 4279511113
-0.3160727620 -0.1200279966 0.4968825579 4279576910
-0.3166566491 -0.1196966320 0.4978004396 4279708496
-0.3177665770 -0.1195611581 0.4995453358 4279643219
-0.3188766539 -0.1194218621 0.5012904406 4279709012
-0.3194606006 -0.1190825626 0.5022084117 4279578198
-0.3205708563 -0.1189364940 0.5039538145 4279578198
-0.3201018274 -0.1182033643 0.5032164454 4279906393
-0.3212120831 -0.1180523038 0.5049618483 4280037979
-0.3217958212 -0.1177047640 0.5058794618 4280168795
-0.3223794699 -0.1173551679 0.5067970157 4280103002
-0.3229630888 -0.1170035154 0.5077145100 4279972186
-0.3235466480 -0.1166497990 0.5086318851 4279906393
-0.3241301477 -0.1162940189 0.5095491409 4279775578
-0.3247135580 -0.1159361899 0.5104663372 4279841371
-0.3252969384 -0.1155762896 0.5113834143 4279710554
-0.3258802593 -0.1152143329 0.5123004317 4279578968
-0.3259360790 -0.1146647707 0.5123881698 4279512406
-0.3265191615 -0.1142995805 0.5133048296 4279446613
-0.3276297450 -0.1141160950 0.5150507092 4279511380
-0.3282127678 -0.1137458906 0.5159673095 4279445587
-0.3287957311 -0.1133736223 0.5168837309 4279576397
-0.3288507760 -0.1128182113 0.5169702172 4279576397
-0.3299614191 -0.1126229092 0.5187162161 4279444809
-0.3305441439 -0.1122444570 0.5196323395 4279313223
-0.3316549063 -0.1120423526 0.5213785172 4279312707
-0.3322375715 -0.1116588861 0.5222944617 4279246914
-0.3333484232 -0.1114499792 0.5240407586 4279246913
-0.3339309990 -0.1110614836 0.5249565840 4279312706
-0.3345134854 -0.1106709316 0.5258722901 4279247167
-0.3350958824 -0.1102783158 0.5267878771 4279312960
-0.3362067938 -0.1100566760 0.5285342932 4279378238
-0.3367891014 -0.1096590310 0.5294497013 4279312445
-0.3368425071 -0.1090880781 0.5295336843 4279312699
-0.3368956745 -0.1085168421 0.5296172500 4279181113
-0.3380064666 -0.1082842648 0.5313634872 4279115320
-0.3385882974 -0.1078792587 0.5322781205 4279049527
-0.3391700387 -0.1074721962 0.5331926346 4278983734
-0.3282827139 -0.1478588134 0.5169799328 4279838789
-0.3293952346 -0.1477835476 0.5187318921 4279838789
-0.3331145048 -0.1488693506 0.5245890021 4279838789
-0.3321423531 -0.1478537321 0.5230580568 4279838789
-0.3316910565 -0.1470724642 0.5223473310 4279838789
-0.3328042030 -0.1469837278 0.5241003036 4279838789
-0.3333958089 -0.1466616690 0.5250319839 4279838789
-0.3345092535 -0.1465661824 0.5267854333 4279838789
-0.3345789909 -0.1460113078 0.5268952250 4279838789
-0.3346484601 -0.1454560906 0.5270046592 4279838789
-0.3352398872 -0.1451265961 0.5279360414 4279838789
-0.3347867131 -0.1443446279 0.5272223949 4279838789
-0.3338107169 -0.1433397382 0.5256853700 4279839043
-0.3333565295 -0.1425614357 0.5249701738 4279773250
-0.3339471221 -0.1422296911 0.5259001851 4279641921
-0.3314014077 -0.1405656040 0.5218911767 4279641921
-0.3304228485 -0.1395723969 0.5203501582 4279641921
-0.3299665451 -0.1388023049 0.5196316242 4279576128
-0.3279407322 -0.1373763233 0.5164412856 4279510337
-0.3264369369 -0.1361752152 0.5140731931 4279510337
-0.3233625889 -0.1343269348 0.5092316866 4279444544
-0.3239501715 -0.1340041906 0.5101569891 4279444544
-0.3224439323 -0.1328169405 0.5077849627 4279313728
-0.3219839334 -0.1320640892 0.5070605874 4279247935
-0.3204762042 -0.1308849305 0.5046861768 4279247935
-0.3194913566 -0.1299237013 0.5031352639 4279247935
-0.3190297484 -0.1291777790 0.5024083257 4279247681
-0.3180437386 -0.1282220483 0.5008555651 4279247681
-0.3170571029 -0.1272695065 0.4993017912 4279116097
-0.3165939748 -0.1265296638 0.4985724688 4279116097
-0.3156061769 -0.1255826503 0.4970168471 4279116095
-0.3151420951 -0.1248465776 0.4962860048 4279181888
-0.3146775663 -0.1241119578 0.4955544770 4279182142
-0.3142126203 -0.1233787984 0.4948222935 4279247935
-0.3142718971 -0.1228521913 0.4949156642 4279248192
-0.3143309653 -0.1223252863 0.4950086474 4279313985
-0.3143897951 -0.1217980832 0.4951013029 4279313987
-0.3144483864 -0.1212705821 0.4951935709 4279379780
-0.3145067394 -0.1207427979 0.4952854514 4279445320
-0.3145648539 -0.1202147081 0.4953770041 4279511113
-0.3151479959 -0.1198861450 0.4962953329 4279511117
-0.3162564337 -0.1197544485 0.4980408847 4279642703
-0.3168395758 -0.1194208860 0.4989592433 4279643219
-0.3184737563 -0.1194795892 0.5015327334 4279709012
-0.3190570176 -0.1191401407 0.5024512410 4279512405
-0.3196402192 -0.1187986359 0.5033696890 4279512405
-0.3202233613 -0.1184550747 0.5042880177 4279840598
-0.3208064437 -0.1181094497 0.5052062869 4280037977
-0.3213894963 -0.1177617610 0.5061244369 4280168795
-0.3224985898 -0.1176038682 0.5078710318 4280103002
-0.3230816126 -0.1172511727 0.5087891817 4280037979
-0.3236645758 -0.1168964207 0.5097072124 4279906393
-0.3237211108 -0.1163504198 0.5097962618 4279710555
-0.3243038654 -0.1159924269 0.5107139945 4279644762
-0.3248865306 -0.1156323776 0.5116316080 4279710555
-0.3254691660 -0.1152702644 0.5125491023 4279644762
-0.3260517120 -0.1149060875 0.5134665370 4279578199
-0.3261073828 -0.1143551022 0.5135541558 4279446613
-0.3272166252 -0.1141715422 0.5153009892 4279511893
-0.3277989626 -0.1138011813 0.5162181258 4279380307
-0.3283812404 -0.1134287566 0.5171350837 4279576395
-0.3289634585 -0.1130542606 0.5180519223 4279510602
-0.3295455873 -0.1126777083 0.5189686418 4279444809
-0.3301276267 -0.1122990921 0.5198852420 4279313223
-0.3312370181 -0.1120969057 0.5216323733 4279247684
-0.3318189979 -0.1117132679 0.5225488544 4279181891
-0.3329285085 -0.1115042791 0.5242961049 4279312706
-0.3335103989 -0.1111156121 0.5252124667 4279312706
-0.3340921998 -0.1107248887 0.5261287093 4279312960
-0.3341460526 -0.1101580709 0.5262134671 4279312960
-0.3352555633 -0.1099372357 0.5279607177 4279378240
-0.3363651335 -0.1097125486 0.5297080874 4279312447
-0.3364185393 -0.1091413274 0.5297921896 4279312445
-0.3369998634 -0.1087402776 0.5307076573 4279180859
-0.3375811279 -0.1083371565 0.5316230059 4279049527
-0.3381622732 -0.1079319715 0.5325382352 4278983734
-0.3387433290 -0.1075247228 0.5334532857 4278983734
-0.3315070868 -0.1495726854 0.5229723454 4279838789
-0.3300163746 -0.1483216435 0.5206206441 4279838789
-0.3311279714 -0.1482408494 0.5223742723 4279838789
-0.3327605724 -0.1483884752 0.5249497890 4279838789
-0.3323101103 -0.1476051360 0.5242391825 4279838789
-0.3329011500 -0.1472841650 0.5251715779 4279838789
-0.3334921896 -0.1469611079 0.5261039734 4279838789
-0.3346043825 -0.1468647420 0.5278585553 4279838789
-0.3341529071 -0.1460808814 0.5271462798 4279838789
-0.3342223763 -0.1455254257 0.5272558928 4279838789
-0.3348131180 -0.1451957971 0.5281878114 4279838789
-0.3348821998 -0.1446387768 0.5282968283 4279838789
-0.3333858848 -0.1434081495 0.5259362459 4279707716
-0.3329323530 -0.1426295042 0.5252208114 4279707716
-0.3324783742 -0.1418522447 0.5245046020 4279641921
-0.3309798241 -0.1406327635 0.5221405625 4279641921
-0.3300025761 -0.1396391094 0.5205988884 4279641923
-0.3295469284 -0.1388686746 0.5198801160 4279576130
-0.3270013630 -0.1372228414 0.5158643126 4279576130
-0.3254994750 -0.1360220462 0.5134949684 4279510337
-0.3245192766 -0.1350436360 0.5119487047 4279444546
-0.3224931061 -0.1336352080 0.5087522268 4279444546
-0.3220341802 -0.1328805834 0.5080282688 4279313728
-0.3205290735 -0.1316977143 0.5056538582 4279247935
-0.3211150467 -0.1313756406 0.5065782666 4279247681
-0.3196086586 -0.1301991194 0.5042018294 4279247681
-0.3191477656 -0.1294519901 0.5034748316 4279247681
-0.3181631863 -0.1284949481 0.5019215345 4279247681
-0.3171779513 -0.1275410950 0.5003672838 4279181890
-0.3161920905 -0.1265904605 0.4988120198 4279181890
-0.3152055740 -0.1256430149 0.4972557425 4279312960
-0.3147421479 -0.1249066070 0.4965246320 4279312960
