VERSION 0.7
FIELDS x y z rgba
SIZE 4 4 4 4
TYPE F F F U
COUNT 1 1 1 1
WIDTH 920
HEIGHT 1
VIEWPOINT 0.0 0.0 0.0 1.0 0.0 0.0 0.0
POINTS 920
DATA ascii
-0.2063886970 -0.1634745151 0.4817476273 4288848285
-0.2064485550 -0.1629865021 0.4818873405 4288914078
-0.2061320990 -0.1622020751 0.4811486602 4288914078
-0.2069440633 -0.1623043120 0.4830439687 4288914078
-0.2066272199 -0.1615199298 0.4823043644 4288914080
-0.2066864818 -0.1610302329 0.4824427068 4288848287
-0.2067455947 -0.1605401039 0.4825806916 4288914080
-0.2068045735 -0.1600495726 0.4827183485 4289045666
-0.2068634033 -0.1595586091 0.4828556478 4289045666
-0.2065451741 -0.1587774903 0.4821128547 4289111459
-0.2066035867 -0.1582865864 0.4822492301 4289111459
-0.2066618651 -0.1577952653 0.4823852479 4289111459
-0.2067199945 -0.1573035270 0.4825209379 4289045664
-0.2067779750 -0.1568113863 0.4826562703 4289111457
-0.2068357915 -0.1563188285 0.4827912450 4289111457
-0.2068934739 -0.1558258533 0.4829258621 4289111457
-0.2069510072 -0.1553324610 0.4830601513 4289045923
-0.2070083767 -0.1548386663 0.4831940830 4289111716
-0.2070656121 -0.1543444544 0.4833276570 4289045923
-0.2071226835 -0.1538498402 0.4834608734 4289045923
-0.2071796060 -0.1533548236 0.4835937321 4289111716
-0.2076145411 -0.1531383246 0.4846089780 4289111716
-0.2072929889 -0.1523635387 0.4838584065 4288980643
-0.2077278346 -0.1521444321 0.4848734140 4288980643
-0.2077842504 -0.1516468674 0.4850050807 4289046436
-0.2078405023 -0.1511489153 0.4851363897 4289112229
-0.2078966051 -0.1506505460 0.4852673709 4289112229
-0.2079525590 -0.1501517743 0.4853979647 4289178022
-0.2080083489 -0.1496526003 0.4855282009 4289177509
-0.2080639899 -0.1491530389 0.4856580496 4289309095
-0.2081194669 -0.1486530602 0.4857875705 4289309095
-0.2077956051 -0.1478828341 0.4850316048 4289243302
-0.2078506798 -0.1473829746 0.4851601422 4289309095
-0.2079055756 -0.1468827128 0.4852882922 4289309095
-0.2079603374 -0.1463820636 0.4854161143 4289309095
-0.2080149204 -0.1458810121 0.4855435193 4289374888
-0.2080693543 -0.1453795731 0.4856705964 4289375401
-0.2077438533 -0.1446133703 0.4849107862 4289309608
-0.2077978700 -0.1441120654 0.4850368798 4289309608
-0.2082317024 -0.1438729018 0.4860495329 4289309608
-0.2079054117 -0.1431082785 0.4852879047 4289309608
-0.2083391398 -0.1428664923 0.4863002896 4289375401
-0.2083926052 -0.1423627138 0.4864251018 4289375401
-0.2084459215 -0.1418585479 0.4865495265 4289243815
-0.2084990591 -0.1413539797 0.4866735935 4289374890
-0.2085520476 -0.1408490390 0.4867972732 4289440683
-0.2086048722 -0.1403437108 0.4869205654 4289440683
-0.2090383023 -0.1400931776 0.4879322648 4289440683
-0.2087100297 -0.1393319070 0.4871660173 4289440683
-0.2091433108 -0.1390787661 0.4881773889 4289440683
-0.2091955841 -0.1385709792 0.4882993996 4289440683
-0.2092476785 -0.1380628198 0.4884209931 4289374890
-0.2092996091 -0.1375542730 0.4885421991 4289440683
-0.2093513757 -0.1370453537 0.4886630476 4289440683
-0.2090215534 -0.1362873614 0.4878931642 4289440683
-0.2090728879 -0.1357786208 0.4880129993 4289374890
-0.2091240585 -0.1352695078 0.4881324470 4289374890
-0.2091750652 -0.1347600073 0.4882515073 4289440683
-0.2092259079 -0.1342501491 0.4883701801 4289506476
-0.2092765719 -0.1337399185 0.4884884357 4289440683
-0.2093270719 -0.1332293153 0.4886063039 4289506476
-0.2093774080 -0.1327183396 0.4887237847 4289506476
-0.2094275653 -0.1322070062 0.4888408780 4289506476
-0.2094775587 -0.1316952854 0.4889575541 4289506476
-0.2099097222 -0.1314226091 0.4899663329 4289440683
-0.2099594623 -0.1309092343 0.4900824428 4289440683
-0.2100090384 -0.1303954870 0.4901981354 4289506476
-0.2100584358 -0.1298813820 0.4903134406 4289374890
-0.2101076692 -0.1293669194 0.4904283583 4289243817
-0.2101567239 -0.1288520992 0.4905428588 4289243817
-0.2102055997 -0.1283369213 0.4906569421 4289309610
-0.2102543116 -0.1278213710 0.4907706380 4289309610
-0.2103028446 -0.1273054630 0.4908839166 4289309610
-0.2103511989 -0.1267892122 0.4909968078 4289375403
-0.2103993893 -0.1262726039 0.4911092818 4289375403
-0.2104474008 -0.1257556230 0.4912213385 4289441196
-0.2104952335 -0.1252383143 0.4913330078 4289572267
-0.2105428874 -0.1247206330 0.4914442599 4289572267
-0.2105903774 -0.1242026091 0.4915550947 4289506474
-0.2106376886 -0.1236842349 0.4916655123 4289440681
-0.2106848210 -0.1231655106 0.4917755127 4289506474
-0.2107317746 -0.1226464435 0.4918851256 4289506474
-0.2107785493 -0.1221270263 0.4919942915 4289572267
-0.2108251452 -0.1216072589 0.4921030700 4289506474
-0.2108715624 -0.1210871562 0.4922114313 4289506474
-0.2109178007 -0.1205667034 0.4923193455 4289440681
-0.2109638602 -0.1200459152 0.4924268723 4289506474
-0.2110097408 -0.1195247844 0.4925339818 4289638060
-0.2110554427 -0.1190033108 0.4926406443 4289572267
-0.2111009657 -0.1184815019 0.4927469194 4289572267
-0.2111463100 -0.1179593578 0.4928527474 4289572267
-0.2111914754 -0.1174368709 0.4929581583 4289572267
-0.2112364471 -0.1169140562 0.4930631518 4289638062
-0.2112812549 -0.1163909063 0.4931676984 4289572269
-0.2113258690 -0.1158674210 0.4932718575 4289572269
-0.2113703042 -0.1153436080 0.4933755696 4289638062
-0.2114145458 -0.1148194671 0.4934788644 4289638062
-0.2114586234 -0.1142949983 0.4935817122 4289638062
-0.2115025073 -0.1137701944 0.4936841428 4289638062
-0.2115461975 -0.1132450700 0.4937861562 4289638062
-0.2115897089 -0.1127196252 0.4938877225 4289703855
-0.2116330415 -0.1121938452 0.4939888716 4289638062
-0.2116761953 -0.1116677523 0.4940895736 4289703855
-0.2117191553 -0.1111413389 0.4941898584 4289703855
-0.2117619216 -0.1106145978 0.4942896962 4289769648
-0.2118045092 -0.1100875437 0.4943890870 4289769648
-0.2118469179 -0.1095601693 0.4944880605 4289769648
-0.2118891329 -0.1090324819 0.4945866168 4289769648
-0.2123171836 -0.1087021157 0.4955857694 4289769648
-0.2119729966 -0.1079761609 0.4947823584 4289769648
-0.2120146453 -0.1074475348 0.4948796034 4289769648
-0.2120561153 -0.1069185883 0.4949763715 4289769648
-0.2120973915 -0.1063893437 0.4950727224 4289835441
-0.2125248909 -0.1060526073 0.4960705638 4289901234
-0.2125658542 -0.1055217758 0.4961661994 4289901234
-0.2126066387 -0.1049906388 0.4962614179 4289901234
-0.2126472294 -0.1044591963 0.4963561594 4290032820
-0.2126876414 -0.1039274484 0.4964504540 4289967027
-0.2127278447 -0.1033954024 0.4965443015 4289967027
-0.2131547183 -0.1030500755 0.4975407124 4289901234
-0.2131946087 -0.1025164574 0.4976338446 4289901234
-0.2132343203 -0.1019825414 0.4977265298 4289901234
-0.2128867656 -0.1012642086 0.4969152808 4289901234
-0.2133131623 -0.1009138152 0.4979105294 4289901234
-0.2133522779 -0.1003790125 0.4980018735 4289901234
-0.2133912146 -0.0998439118 0.4980927408 4289967027
-0.2134299576 -0.0993085206 0.4981831610 4289967027
-0.2134685069 -0.0987728387 0.4982731342 4289901234
-0.2135068476 -0.0982368737 0.4983626604 4289967027
-0.2135450095 -0.0977006108 0.4984517097 4289901234
-0.2135829777 -0.0971640646 0.4985403419 4289901234
-0.2140084356 -0.0968025997 0.4995334446 4290032820
-0.2140460610 -0.0962645113 0.4996212721 4289901234
-0.2136956751 -0.0955527201 0.4988034070 4289901234
-0.2141207457 -0.0951874778 0.4997956157 4289901234
-0.2141578048 -0.0946485400 0.4998820722 4289901234
-0.2141946405 -0.0941093266 0.4999680817 4289967027
-0.2142312974 -0.0935698375 0.5000536442 4289967027
-0.2142677456 -0.0930300653 0.5001387000 4289967027
-0.2143040001 -0.0924900249 0.5002233386 4289967027
-0.2143400609 -0.0919497088 0.5003075004 4289901234
-0.2143759131 -0.0914091170 0.5003911853 4289901234
-0.2147999853 -0.0910328776 0.5013810992 4289967027
-0.2148355097 -0.0904907659 0.5014640093 4290032820
-0.2148708254 -0.0899483860 0.5015464425 4290032820
-0.2152945697 -0.0895674154 0.5025355220 4290098613
-0.2153295428 -0.0890235305 0.5026171207 4290164406
-0.2153643221 -0.0884793699 0.5026983023 4290032820
-0.2153989077 -0.0879349560 0.5027790070 4290098613
-0.2154332697 -0.0873902738 0.5028592944 4290164406
-0.2154674530 -0.0868453309 0.5029390454 4290098613
-0.2155014127 -0.0863001347 0.5030183196 4290032820
-0.2155351788 -0.0857546777 0.5030971169 4290032820
-0.2155687362 -0.0852089673 0.5031754375 4290032820
-0.2156020999 -0.0846630037 0.5032533407 4290032820
-0.2156352550 -0.0841167867 0.5033307076 4290032820
-0.2156682014 -0.0835703164 0.5034075975 4290032820
-0.2157009393 -0.0830236003 0.5034840703 4289967027
-0.2157334834 -0.0824766308 0.5035600066 4290098613
-0.2157658190 -0.0819294155 0.5036354661 4290164406
-0.2157979459 -0.0813819543 0.5037104487 4290164406
-0.2158298641 -0.0808342546 0.5037849545 4290164406
-0.2158615738 -0.0802863091 0.5038589835 4290230199
-0.2158930898 -0.0797381252 0.5039325356 4290230199
-0.2163141370 -0.0793326423 0.5049153566 4290164406
-0.2163452953 -0.0787829831 0.5049880743 4290164406
-0.2163762301 -0.0782330930 0.5050603151 4290098613
-0.2164069712 -0.0776829720 0.5051320195 4290098613
-0.2164375037 -0.0771326125 0.5052033067 4290098613
-0.2164678127 -0.0765820220 0.5052740574 4290164406
-0.2164979279 -0.0760312006 0.5053443313 4290230199
-0.2165278196 -0.0754801482 0.5054141283 4290230199
-0.2169477046 -0.0750638768 0.5063942075 4290361785
-0.2169772387 -0.0745113790 0.5064631701 4290295992
-0.2173968703 -0.0740916729 0.5074426532 4290295992
-0.2174260318 -0.0735377371 0.5075107217 4290295992
-0.2174549848 -0.0729835704 0.5075783134 4290230199
-0.2174837291 -0.0724291876 0.5076453686 4290361785
-0.2175122648 -0.0718745887 0.5077120066 4290427578
-0.2175405771 -0.0713197663 0.5077781081 4290493371
-0.2179592997 -0.0708917752 0.5087554455 4290361785
-0.2179872394 -0.0703355297 0.5088206530 4290361785
-0.2180149704 -0.0697790682 0.5088853836 4290361785
-0.2180424929 -0.0692223981 0.5089496374 4290361785
-0.2180697918 -0.0686655119 0.5090133548 4290361785
-0.2180968821 -0.0681084245 0.5090765953 4290295992
-0.2181237638 -0.0675511286 0.5091393590 4290295992
-0.2181504220 -0.0669936240 0.5092015862 4290295992
-0.2181768715 -0.0664359182 0.5092633367 4290427578
-0.2182031125 -0.0658780113 0.5093245506 4290427578
-0.2178380340 -0.0652028397 0.5084723830 4290361785
-0.2178637981 -0.0646455362 0.5085325241 4290361785
-0.2178893387 -0.0640880316 0.5085921288 4290427578
-0.2183058858 -0.0636443943 0.5095644593 4290295992
-0.2183310390 -0.0630854964 0.5096231699 4290230199
-0.2183559835 -0.0625264123 0.5096814036 4290427578
-0.2187720686 -0.0620781854 0.5106526017 4290427578
-0.2187966257 -0.0615177192 0.5107098818 4290427578
-0.2188209593 -0.0609570630 0.5107666850 4290427578
-0.2188450694 -0.0603962168 0.5108230114 4290427578
-0.2188689709 -0.0598351918 0.5108788013 4290361785
-0.2188926488 -0.0592739806 0.5109340549 4290361785
-0.2189161032 -0.0587125868 0.5109888315 4290361785
-0.2185476869 -0.0580469891 0.5101288557 4290361785
-0.2189623713 -0.0575892664 0.5110968351 4290361785
-0.2189851850 -0.0570273399 0.5111500621 4290295992
-0.2190077752 -0.0564652421 0.5112027526 4290361785
-0.2190301418 -0.0559029654 0.5112549663 4290361785
-0.2194441557 -0.0554395206 0.5122213364 4290361785
-0.2190742195 -0.0547779053 0.5113578439 4290361785
-0.2194878757 -0.0543121099 0.5123233795 4290361785
-0.2195093930 -0.0537481532 0.5123736262 4290427578
-0.2195307016 -0.0531840287 0.5124233961 4290230199
-0.2191597372 -0.0525257811 0.5115574598 4290230199
-0.2191805691 -0.0519623421 0.5116060972 4290295992
-0.2199854255 -0.0515826382 0.5134847760 4290295992
-0.2200058848 -0.0510168634 0.5135325789 4290295992
-0.2200261205 -0.0504509322 0.5135797858 4290361785
-0.2200461477 -0.0498848483 0.5136265159 4290427578
-0.2200659364 -0.0493186079 0.5136727095 4290295992
-0.2200855017 -0.0487522148 0.5137184262 4290295992
-0.2201048583 -0.0481856726 0.5137635469 4290361785
-0.2201239765 -0.0476189815 0.5138081908 4290361785
-0.2201428860 -0.0470521450 0.5138522983 4290361785
-0.2201615572 -0.0464851633 0.5138959289 4290427578
-0.2205725014 -0.0459998846 0.5148550868 4290493371
-0.2205907553 -0.0454316065 0.5148977637 4290493371
-0.2206088006 -0.0448631868 0.5149398446 4290427578
-0.2206266224 -0.0442946292 0.5149814487 4290295992
-0.2206442058 -0.0437259339 0.5150225163 4290361785
-0.2206615806 -0.0431571044 0.5150630474 4290295992
-0.2206787169 -0.0425881408 0.5151030421 4290295992
-0.2210883349 -0.0420938134 0.5160591602 4290427578
-0.2211050540 -0.0415235721 0.5160982013 4290427578
-0.2215142995 -0.0410259478 0.5170534849 4290493371
-0.2215306014 -0.0404544398 0.5170915127 4290559164
-0.2215466797 -0.0398828089 0.5171290040 4290361785
-0.2215625197 -0.0393110514 0.5171660185 4290295992
-0.2215781510 -0.0387391746 0.5172024965 4290230199
-0.2215935439 -0.0381671786 0.5172383785 4290230199
-0.2216086984 -0.0375950634 0.5172737837 4290230199
-0.2216236442 -0.0370228291 0.5173086524 4290230199
-0.2212453783 -0.0363858528 0.5164257288 4290230199
-0.2216528356 -0.0358780213 0.5173768401 4290295992
-0.2216670960 -0.0353054479 0.5174100995 4290230199
-0.2220741808 -0.0347943492 0.5183603168 4290230199
-0.2220880091 -0.0342205465 0.5183925629 4290230199
-0.2221015990 -0.0336466357 0.5184243321 4290164406
-0.2221149802 -0.0330726206 0.5184555054 4290098613
-0.2221281230 -0.0324985012 0.5184862018 4290098613
-0.2221410275 -0.0319242813 0.5185163617 4290098613
-0.2221537083 -0.0313499607 0.5185459256 4290032820
-0.2225593776 -0.0308300164 0.5194928646 4290032818
-0.2225716263 -0.0302544869 0.5195214748 4289967025
-0.2225836515 -0.0296788644 0.5195494890 4289901232
-0.2225954384 -0.0291031487 0.5195770264 4289901232
-0.2226070017 -0.0285273418 0.5196040273 4289901232
-0.2230116427 -0.0280008316 0.5205485225 4289835439
-0.2230227590 -0.0274238326 0.5205744505 4289769646
-0.2230336517 -0.0268467478 0.5205999017 4289769646
-0.2230443060 -0.0262695793 0.5206247568 4289703853
-0.2230547369 -0.0256923288 0.5206490755 4289638060
-0.2234583497 -0.0251592938 0.5215911865 4289638060
-0.2234683335 -0.0245808661 0.5216144919 4289638060
-0.2234780788 -0.0240023620 0.5216372609 4289572267
-0.2234876007 -0.0234237835 0.5216594934 4289440681
-0.2234968841 -0.0228451323 0.5216811895 4289243302
-0.2238994390 -0.0223056115 0.5226207972 4289045923
-0.2239082903 -0.0217257999 0.5226414204 4288916130
-0.2239168882 -0.0211459212 0.5226615071 4288916130
-0.2247123569 -0.0206382647 0.5245182514 4288979871
-0.2247205228 -0.0200562160 0.5245373249 4289177250
-0.2251220345 -0.0195082109 0.5254745483 4288584594
-0.2255233377 -0.0189581048 0.5264112353 4287071355
-0.2255308330 -0.0183738358 0.5264287591 4285558884
-0.2255381048 -0.0177895091 0.5264457464 4287664260
-0.2259387523 -0.0172351524 0.5273808837 4287994515
-0.2263391912 -0.0166787039 0.5283156037 4283652177
-0.2267394215 -0.0161201619 0.5292498469 4280624160
-0.2275331020 -0.0155864945 0.5311024189 4280426781
-0.2299012393 -0.0151524832 0.5366300344 4279574305
-0.2279388309 -0.0144319981 0.5320494175 4280561200
-0.2287318856 -0.0138890091 0.5339005589 4281167474
-0.2310995311 -0.0134334341 0.5394270420 4283075471
-0.2322859168 -0.0128999790 0.5421963334 4290958801
-0.2334721237 -0.0123603595 0.5449651480 4293853181
-0.2185134739 -0.2115957141 0.5113747120 4287795596
-0.2149138749 -0.2075512558 0.5029507875 4287861390
-0.2087391764 -0.2010453343 0.4885005057 4287861390
-0.2088097185 -0.2005703300 0.4886655807 4287992976
-0.2055704147 -0.1969243288 0.4810848236 4287927183
-0.2045359910 -0.1954015791 0.4786640108 4287992976
-0.2027647197 -0.1931822002 0.4745188057 4288124562
-0.2028326839 -0.1927195489 0.4746778607 4287992976
-0.2029005289 -0.1922564358 0.4748366475 4287992976
-0.2029682547 -0.1917928457 0.4749951363 4287992978
-0.2030358762 -0.1913288087 0.4751533568 4288058771
-0.2027347535 -0.1905179024 0.4744486809 4288058771
-0.2028020024 -0.1900537759 0.4746060669 4288058771
-0.2028691322 -0.1895892024 0.4747631550 4288124562
-0.2029361427 -0.1891241521 0.4749199748 4288190355
-0.2030030340 -0.1886586398 0.4750764966 4288256148
-0.2030697912 -0.1881926656 0.4752327502 4288321941
-0.2031364441 -0.1877262443 0.4753887355 4288321941
-0.2032029629 -0.1872593611 0.4755444229 4288321941
-0.2032693624 -0.1867920160 0.4756998122 4288387734
-0.2033356428 -0.1863242090 0.4758549035 4288453527
-0.2034018040 -0.1858559549 0.4760097265 4288453527
-0.2030978948 -0.1850501746 0.4752985239 4288453527
-0.2031636834 -0.1845818460 0.4754524827 4288519320
-0.2032293379 -0.1841130704 0.4756061435 4288453527
-0.2032948881 -0.1836438477 0.4757595360 4288519320
-0.2033603042 -0.1831741631 0.4759126008 4288585113
-0.2034255862 -0.1827040315 0.4760653973 4288585113
-0.2034907490 -0.1822334379 0.4762178957 4288585113
-0.2035557926 -0.1817623973 0.4763700962 4288585115
-0.2036207020 -0.1812909096 0.4765219986 4288519322
-0.2036854774 -0.1808189750 0.4766736031 4288453786
-0.2037501335 -0.1803465784 0.4768249094 4288453786
-0.2038146555 -0.1798737347 0.4769759178 4288519579
-0.2038790584 -0.1794004440 0.4771266282 4288585372
-0.2043147981 -0.1792526245 0.4781463742 4288716701
-0.2043790519 -0.1787775755 0.4782967567 4288716701
-0.2040714622 -0.1779778898 0.4775769114 4288716701
-0.2041353434 -0.1775028110 0.4777263999 4288716701
-0.2041990906 -0.1770272851 0.4778755903 4288716701
-0.2042627037 -0.1765513271 0.4780244529 4288650908
-0.2043261826 -0.1760749072 0.4781730175 4288716701
-0.2043895423 -0.1755980551 0.4783212841 4288782494
-0.2044527531 -0.1751207560 0.4784692228 4288848287
-0.2045158446 -0.1746430099 0.4786168635 4288848287
-0.2045787871 -0.1741648167 0.4787641764 4288914080
-0.2046416104 -0.1736861914 0.4789111912 4288914080
-0.2047042847 -0.1732071191 0.4790578783 4288979871
-0.2047668397 -0.1727276146 0.4792042375 4288914078
-0.2048292458 -0.1722476780 0.4793502986 4288914078
-0.2048915178 -0.1717672944 0.4794960618 4288914078
-0.2049536705 -0.1712864637 0.4796414673 4288848285
-0.2046422362 -0.1704940945 0.4789126515 4288848285
-0.2050775290 -0.1703235060 0.4799313545 4288848285
-0.2051392645 -0.1698413789 0.4800758064 4288848285
-0.2052008510 -0.1693588197 0.4802199602 4288848285
-0.2052623034 -0.1688758135 0.4803637564 4288848285
-0.2053236216 -0.1683923751 0.4805072546 4288914080
-0.2053847909 -0.1679085195 0.4806504250 4288979873
-0.2054458261 -0.1674242169 0.4807932377 4288914080
-0.2058810443 -0.1672435701 0.4818117619 4288914080
-0.2055674642 -0.1664543301 0.4810779393 4288848287
-0.2056280822 -0.1659687310 0.4812197685 4288782494
-0.2060632110 -0.1657841355 0.4822380841 4288782492
-0.2057488859 -0.1649962664 0.4815024734 4288914078
-0.2058090717 -0.1645093858 0.4816433191 4288979871
-0.2058691084 -0.1640220881 0.4817838371 4288979871
-0.2059290111 -0.1635343581 0.4819240272 4289045664
-0.2063639760 -0.1633431911 0.4829419255 4289111457
-0.2064236850 -0.1628537327 0.4830816984 4289111457
-0.2064832598 -0.1623638421 0.4832211137 4289045664
-0.2065427005 -0.1618735194 0.4833602011 4289046177
-0.2066019773 -0.1613827795 0.4834989309 4289046177
-0.2066611201 -0.1608916223 0.4836373329 4289111970
-0.2067201138 -0.1604000330 0.4837753773 4289111970
-0.2064029872 -0.1596172899 0.4830332696 4289111970
-0.2060855180 -0.1588359177 0.4822902679 4289046177
-0.2061438560 -0.1583448648 0.4824267924 4289046177
-0.2065783143 -0.1581414491 0.4834435582 4288980384
-0.2062600851 -0.1573615223 0.4826987982 4289111716
-0.2063179761 -0.1568692178 0.4828342795 4289111716
-0.2067523152 -0.1566618681 0.4838507473 4289111716
-0.2064333111 -0.1558833867 0.4831041992 4289111716
-0.2064907402 -0.1553898454 0.4832386076 4289177509
-0.2069249451 -0.1551785618 0.4842547774 4289111716
-0.2069821954 -0.1546833068 0.4843887389 4289111716
-0.2070392966 -0.1541876346 0.4845223427 4289111716
-0.2070962340 -0.1536915451 0.4846556187 4289177509
-0.2071530223 -0.1531950533 0.4847885072 4289111716
-0.2072096616 -0.1526981592 0.4849210680 4289177509
-0.2072661370 -0.1522008628 0.4850532413 4289243302
-0.2073224783 -0.1517031491 0.4851850569 4289177509
-0.2073786557 -0.1512050331 0.4853165448 4289243302
-0.2074346691 -0.1507065147 0.4854476452 4289243302
-0.2074905336 -0.1502075791 0.4855783880 4289243302
-0.2075462490 -0.1497082561 0.4857087433 4289440681
-0.2076018006 -0.1492085308 0.4858387709 4289440681
-0.2080354542 -0.1489792764 0.4868535995 4289309095
-0.2080907971 -0.1484778374 0.4869831204 4289309095
-0.2081459761 -0.1479759961 0.4871122539 4289374888
-0.2082010061 -0.1474737525 0.4872410297 4289374888
-0.2082558721 -0.1469711214 0.4873694479 4289309095
-0.2083105892 -0.1464680880 0.4874974787 4289374888
-0.2076074481 -0.1454338729 0.4858519733 4289309095
-0.2072826922 -0.1446674019 0.4850919843 4289309095
-0.2073366344 -0.1441659331 0.4852181971 4289309095
-0.2073904127 -0.1436640769 0.4853440523 4289309095
-0.2078232616 -0.1434235573 0.4863570333 4289374888
-0.2078768164 -0.1429199874 0.4864823818 4289440681
-0.2079302222 -0.1424160451 0.4866073430 4289440681
-0.2079834491 -0.1419117153 0.4867319167 4289374888
-0.2080365270 -0.1414069980 0.4868561029 4289374888
-0.2080894262 -0.1409018934 0.4869799316 4289374888
-0.2085219920 -0.1406525970 0.4879922271 4289440681
-0.2085746676 -0.1401457936 0.4881155193 4289440681
-0.2086271942 -0.1396386176 0.4882384241 4289440681
-0.2086795419 -0.1391310543 0.4883609414 4289440681
-0.2087317258 -0.1386231035 0.4884830713 4289440681
-0.2087837458 -0.1381147802 0.4886048138 4289506474
-0.2088356018 -0.1376060694 0.4887261689 4289440681
-0.2085068077 -0.1368472576 0.4879567027 4289440681
-0.2089388222 -0.1365875304 0.4889677167 4289440681
-0.2089901716 -0.1360776871 0.4890879095 4289440681
-0.2090413719 -0.1355674714 0.4892076850 4289440683
-0.2087115347 -0.1348108798 0.4884358048 4289440683
-0.2087622881 -0.1343008429 0.4885545969 4289440683
-0.2088128924 -0.1337904483 0.4886730015 4289440683
-0.2092444450 -0.1335228831 0.4896829724 4289572269
-0.2092947960 -0.1330108047 0.4898007810 4289506476
-0.2093449831 -0.1324983686 0.4899182320 4289440683
-0.2093949914 -0.1319855601 0.4900352657 4289440683
-0.2094448358 -0.1314723790 0.4901518822 4289440683
-0.2094945014 -0.1309588253 0.4902681410 4289374890
-0.2095440030 -0.1304449141 0.4903839827 4289374890
-0.2095933259 -0.1299306452 0.4904994071 4289440683
-0.2096424699 -0.1294160187 0.4906144440 4289441196
-0.2096914649 -0.1289010197 0.4907290637 4289375403
-0.2097402662 -0.1283856630 0.4908432961 4289374890
-0.2097889036 -0.1278699338 0.4909571111 4289309097
-0.2098373771 -0.1273538619 0.4910705388 4289309097
-0.2098856568 -0.1268374324 0.4911835492 4289374890
-0.2099337727 -0.1263206452 0.4912961423 4289375403
-0.2099817097 -0.1258035004 0.4914083481 4289441196
-0.2100294828 -0.1252859980 0.4915201366 4289506476
-0.2100770772 -0.1247681528 0.4916315079 4289506476
-0.2101244926 -0.1242499575 0.4917424619 4289506476
-0.2101717293 -0.1237314045 0.4918529987 4289506476
-0.2102187872 -0.1232125014 0.4919631481 4289506476
-0.2102656811 -0.1226932555 0.4920728803 4289506476
-0.2103123814 -0.1221736595 0.4921821654 4289506476
-0.2103589177 -0.1216537207 0.4922910631 4289506476
-0.2104052603 -0.1211334392 0.4923995435 4289440683
-0.2104514390 -0.1206128076 0.4925076067 4289374890
-0.2104974389 -0.1200918406 0.4926152527 4289374890
-0.2105432451 -0.1195705235 0.4927224815 4289374890
-0.2105888873 -0.1190488786 0.4928292632 4289440683
-0.2106343359 -0.1185268834 0.4929356575 4289506476
-0.2106796205 -0.1180045605 0.4930416048 4289572269
-0.2107247114 -0.1174818948 0.4931471348 4289638062
-0.2107696235 -0.1169588938 0.4932522476 4289638062
-0.2111983597 -0.1166476533 0.4942555726 4289703855
-0.2112429887 -0.1161230356 0.4943600297 4289572269
-0.2112874389 -0.1155980825 0.4944640398 4289506476
-0.2113317102 -0.1150728017 0.4945676625 4289638062
-0.2113757879 -0.1145471931 0.4946708083 4289638062
-0.2110352963 -0.1138139442 0.4938739538 4289572269
-0.2110789269 -0.1132886335 0.4939760864 4289638062
-0.2111223787 -0.1127629951 0.4940777719 4289703855
-0.2111656517 -0.1122370362 0.4941790402 4289703855
-0.2112087309 -0.1117107570 0.4942798615 4289703855
-0.2112516314 -0.1111841574 0.4943802357 4289769648
-0.2112943381 -0.1106572375 0.4944802225 4289703855
-0.2113368660 -0.1101299897 0.4945797324 4289703855
-0.2113792151 -0.1096024364 0.4946788251 4289769648
-0.2114213705 -0.1090745553 0.4947774708 4289703855
-0.2114633322 -0.1085463688 0.4948756993 4289769648
-0.2118903697 -0.1082146168 0.4958750606 4289769648
-0.2119320333 -0.1076848358 0.4959725738 4289769648
-0.2119735181 -0.1071547419 0.4960696399 4289835441
-0.2120148093 -0.1066243425 0.4961662591 4289835441
-0.2120559067 -0.1060936302 0.4962624609 4289901234
-0.2120968252 -0.1055626050 0.4963582158 4289901234
-0.2121375501 -0.1050312817 0.4964535236 4289967027
-0.2121780813 -0.1044996455 0.4965483844 4289967027
-0.2122184187 -0.1039677113 0.4966427982 4289967027
-0.2122585773 -0.1034354717 0.4967367649 4289967027
-0.2126845419 -0.1030900255 0.4977335930 4289967027
-0.2127243727 -0.1025562212 0.4978268445 4289901234
-0.2127640247 -0.1020221114 0.4979196191 4289901234
-0.2128034830 -0.1014877036 0.4980119765 4289901234
-0.2128427476 -0.1009529978 0.4981038570 4289901234
-0.2128818184 -0.1004180014 0.4981952906 4289901234
-0.2129206955 -0.0998827070 0.4982862771 4289901234
-0.2129593790 -0.0993471220 0.4983768165 4289901234
-0.2133844495 -0.0989905819 0.4993715584 4289967027
-0.2134228051 -0.0984534398 0.4994613230 4289967027
-0.2134609818 -0.0979160145 0.4995506704 4289967027
-0.2134989500 -0.0973782986 0.4996395409 4289967027
-0.2135367393 -0.0968402922 0.4997279346 4289967027
-0.2135743201 -0.0963020101 0.4998159111 4289967027
-0.2136117071 -0.0957634374 0.4999033809 4289901234
-0.2136489004 -0.0952245817 0.4999904335 4289835441
-0.2136858851 -0.0946854502 0.5000770092 4289901234
-0.2137226760 -0.0941460356 0.5001631379 4289901234
-0.2141465247 -0.0937759206 0.5011550188 4289967027
-0.2141829878 -0.0932349786 0.5012403727 4289967027
-0.2142192572 -0.0926937610 0.5013252497 4290032820
-0.2142553329 -0.0921522602 0.5014096498 4289901234
-0.2142912000 -0.0916104913 0.5014935732 4289967027
-0.2143268585 -0.0910684541 0.5015770197 4289967027
-0.2147499621 -0.0906898454 0.5025672317 4290032820
-0.2147853076 -0.0901462883 0.5026499033 4290098613
-0.2148204297 -0.0896024629 0.5027320981 4290098613
-0.2148553580 -0.0890583694 0.5028138757 4290098613
-0.2148900926 -0.0885140151 0.5028951168 4290098613
-0.2149246186 -0.0879693925 0.5029759407 4290032820
-0.2149589509 -0.0874245092 0.5030562878 4290032820
-0.2149930596 -0.0868793651 0.5031360984 4290032820
-0.2150269896 -0.0863339677 0.5032154918 4289967027
-0.2150606960 -0.0857883096 0.5032944083 4290032820
-0.2150942236 -0.0852423906 0.5033728480 4290032820
-0.2151275277 -0.0846962258 0.5034508109 4290032820
-0.2151606381 -0.0841498002 0.5035282373 4290098613
-0.2151935399 -0.0836031288 0.5036052465 4290098613
-0.2152262330 -0.0830562040 0.5036817789 4290098613
-0.2152587175 -0.0825090334 0.5037578344 4290098613
-0.2152910084 -0.0819616094 0.5038333535 4290164406
-0.2153230906 -0.0814139470 0.5039084554 4290164406
-0.2153549641 -0.0808660388 0.5039830804 4290164406
-0.2153866440 -0.0803178847 0.5040571690 4290230199
-0.2158069462 -0.0799134821 0.5050407648 4290295992
-0.2162271589 -0.0795068592 0.5060241818 4290164406
-0.2158693671 -0.0788139999 0.5051868558 4290230199
-0.2159002572 -0.0782639012 0.5052591562 4290164406
-0.2159309536 -0.0777135715 0.5053309798 4290164406
-0.2163505554 -0.0773020312 0.5063129663 4290164406
-0.2163808793 -0.0767502412 0.5063839555 4290164406
-0.2164110094 -0.0761982203 0.5064544678 4290164406
-0.2164409161 -0.0756459683 0.5065244436 4290164406
-0.2164706141 -0.0750934854 0.5065939426 4290295992
-0.2165001184 -0.0745407790 0.5066629648 4290295992
-0.2165293992 -0.0739878416 0.5067315102 4290295992
-0.2169479579 -0.0735667646 0.5077110529 4290361785
-0.2169768810 -0.0730123892 0.5077787042 4290361785
-0.2173951715 -0.0725878775 0.5087576509 4290427578
-0.2170340717 -0.0719029829 0.5079125762 4290427578
-0.2170623541 -0.0713479519 0.5079787374 4290427578
-0.2170904130 -0.0707926974 0.5080444217 4290361785
-0.2175080776 -0.0703633353 0.5090218186 4290427578
-0.2175357640 -0.0698066652 0.5090866685 4290427578
-0.2171733528 -0.0691256747 0.5082384944 4290427578
-0.2172005624 -0.0685695782 0.5083022118 4290427578
-0.2172275633 -0.0680132732 0.5083653927 4290427578
-0.2176444083 -0.0675778687 0.5093408823 4290361785
-0.2176710218 -0.0670201555 0.5094032288 4290295992
-0.2173072994 -0.0663431212 0.5085520148 4290361785
-0.2173334509 -0.0657860041 0.5086131692 4290361785
-0.2173593789 -0.0652286783 0.5086739063 4290427578
-0.2173850983 -0.0646711588 0.5087340474 4290361785
-0.2178009301 -0.0642285421 0.5097072124 4290295992
-0.2178262770 -0.0636696294 0.5097665191 4290361785
-0.2178513855 -0.0631105229 0.5098252892 4290427578
-0.2178763002 -0.0625512153 0.5098835826 4290361785
-0.2179009914 -0.0619917251 0.5099413395 4290427578
-0.2179254591 -0.0614320412 0.5099986196 4290361785
-0.2183403075 -0.0609812587 0.5109694600 4290361785
-0.2183643878 -0.0604202002 0.5110258460 4290361785
-0.2183882445 -0.0598589554 0.5110816956 4290361785
-0.2180211842 -0.0591914468 0.5102226138 4290361785
-0.2180445641 -0.0586308427 0.5102773905 4290361785
-0.2184585333 -0.0581741259 0.5112461448 4290295992
-0.2184815258 -0.0576121584 0.5112999678 4290361785
-0.2185043097 -0.0570500158 0.5113532543 4290361785
-0.2185268551 -0.0564876944 0.5114060640 4290361785
-0.2185491920 -0.0559252016 0.5114583373 4290230199
-0.2185713202 -0.0553625375 0.5115100741 4290230199
-0.2185932100 -0.0547997020 0.5115613341 4290361785
-0.2186148912 -0.0542366989 0.5116120577 4290427578
-0.2186363488 -0.0536735281 0.5116623044 4290427578
-0.2186575830 -0.0531101972 0.5117120147 4290230199
-0.2186786085 -0.0525466986 0.5117611885 4290230199
-0.2186994106 -0.0519830361 0.5118098855 4290295992
-0.2195025235 -0.0516031869 0.5136893392 4290295992
-0.2195229530 -0.0510371923 0.5137371421 4290295992
-0.2195431590 -0.0504710376 0.5137844682 4290295992
-0.2195631564 -0.0499047302 0.5138312578 4290361785
-0.2195829153 -0.0493382663 0.5138775110 4290295992
-0.2196024656 -0.0487716533 0.5139232278 4290295992
-0.2196217775 -0.0482048877 0.5139684677 4290295992
-0.2196408808 -0.0476379767 0.5140131116 4290295992
-0.2196597606 -0.0470709167 0.5140573382 4290295992
-0.2196784168 -0.0465037078 0.5141009688 4290361785
-0.2200884521 -0.0460182428 0.5150605440 4290295992
-0.2201066911 -0.0454497412 0.5151032805 4290295992
-0.2201247066 -0.0448810980 0.5151454210 4290361785
-0.2201424986 -0.0443123132 0.5151870251 4290361785
-0.2201600671 -0.0437433943 0.5152281523 4290295992
-0.2201774120 -0.0431743413 0.5152687430 4290295992
-0.2201945335 -0.0426051505 0.5153087974 4290295992
-0.2206032574 -0.0421106294 0.5162653327 4290295992
-0.2206199616 -0.0415401645 0.5163044333 4290295992
-0.2210283279 -0.0410423428 0.5172600746 4290295992
-0.2210446000 -0.0404706113 0.5172981620 4290361785
-0.2210606486 -0.0398987532 0.5173357725 4290295992
-0.2210764736 -0.0393267684 0.5173727870 4290230199
-0.2210920751 -0.0387546644 0.5174092650 4290230199
-0.2211074531 -0.0381824411 0.5174452662 4290164406
-0.2211225927 -0.0376100987 0.5174807310 4290098613
-0.2211375087 -0.0370376408 0.5175155997 4290098613
-0.2211522013 -0.0364650637 0.5175499916 4290164406
-0.2215588093 -0.0359560177 0.5185015798 4290164406
-0.2211809009 -0.0353195779 0.5176171660 4290098613
-0.2215871066 -0.0348082781 0.5185678005 4290098613
-0.2216009051 -0.0342342444 0.5186001062 4290164406
-0.2216144949 -0.0336601064 0.5186318755 4290098613
-0.2216278464 -0.0330858603 0.5186631083 4290098613
-0.2216409594 -0.0325115137 0.5186938047 4290098613
-0.2216538638 -0.0319370665 0.5187240243 4290032820
-0.2216665298 -0.0313625187 0.5187536478 4289967027
-0.2220713198 -0.0308423657 0.5197009444 4289901234
-0.2220835537 -0.0302666072 0.5197295547 4289967027
-0.2220955491 -0.0296907555 0.5197576880 4289901234
-0.2221073210 -0.0291148107 0.5197852254 4289835441
-0.2221188694 -0.0285387747 0.5198122263 4289835441
-0.2225226313 -0.0280120540 0.5207571387 4289835441
-0.2225337327 -0.0274348240 0.5207831264 4289769648
-0.2225446105 -0.0268575102 0.5208085775 4289769648
-0.2225552499 -0.0262801107 0.5208334923 4289703855
-0.2225656658 -0.0257026292 0.5208578706 4289572269
-0.2229683995 -0.0251693819 0.5218003392 4289572269
-0.2229783684 -0.0245907232 0.5218236446 4289572269
-0.2229881138 -0.0240119882 0.5218464732 4289506476
-0.2229976207 -0.0234331787 0.5218687057 4289440683
-0.2230068892 -0.0228542965 0.5218904018 4289243304
-0.2234085649 -0.0223145597 0.5228304267 4289045925
-0.2238100469 -0.0217727125 0.5237699747 4289243807
-0.2242113203 -0.0212287605 0.5247091055 4289178014
-0.2242197096 -0.0206465442 0.5247287154 4288914848
-0.2246205658 -0.0200994033 0.5256668329 4288783262
-0.2246285081 -0.0195160396 0.5256854296 4288058252
-0.2250289470 -0.0189657137 0.5266225338 4286742392
-0.2250364274 -0.0183812100 0.5266400576 4285229921
-0.2254364341 -0.0178277083 0.5275761485 4287532676
-0.2258362323 -0.0172721092 0.5285117626 4287926666
-0.2258430421 -0.0166853983 0.5285276771 4284110672
-0.2258496135 -0.0160986353 0.5285430551 4280296218
-0.2266415358 -0.0155657753 0.5303964019 4280230425
-0.2286116779 -0.0151066538 0.5350070000 4279707431
-0.2282248139 -0.0144876642 0.5341016054 4280233775
-0.2294089794 -0.0139663303 0.5368728638 4280906871
-0.2305929512 -0.0134388283 0.5396436453 4282749075
-0.2317767590 -0.0129051590 0.5424140692 4290893521
-0.2329603732 -0.0123653226 0.5451839566 4293722108
-0.2176554352 -0.2113140821 0.5106940866 4287795597
-0.2136972994 -0.2069141865 0.5014070272 4287927183
-0.2079029679 -0.2007617801 0.4878115058 4287992976
-0.2050389051 -0.1974615604 0.4810914397 4288124562
-0.2040073425 -0.1959362924 0.4786710441 4288124562
-0.2029749304 -0.1944155693 0.4762486219 4288190355
-0.2026759833 -0.1936008632 0.4755472243 4288256148
-0.2023766786 -0.1927873790 0.4748449326 4288124562
-0.2024444193 -0.1923241466 0.4750038683 4288058769
-0.2025120407 -0.1918604374 0.4751625359 4288124564
-0.2025795430 -0.1913962811 0.4753209352 4288190357
-0.2026469409 -0.1909316629 0.4754790366 4288256150
-0.2027142048 -0.1904665679 0.4756368697 4288321943
-0.2024133205 -0.1896561831 0.4749309123 4288321941
-0.2024802268 -0.1891910285 0.4750879109 4288321941
-0.2025470138 -0.1887253970 0.4752446115 4288387734
-0.2026136816 -0.1882593036 0.4754010141 4288453527
-0.2026802301 -0.1877927482 0.4755571485 4288453527
-0.2027466446 -0.1873257458 0.4757130146 4288453527
-0.2028129399 -0.1868582815 0.4758685529 4288453527
-0.2028791159 -0.1863903552 0.4760238528 4288519320
-0.2029451728 -0.1859219670 0.4761788249 4288519320
-0.2030111104 -0.1854531318 0.4763335288 4288519320
-0.2030769140 -0.1849838346 0.4764879346 4288650906
-0.2031425983 -0.1845140904 0.4766420424 4288650906
-0.2028386891 -0.1837092489 0.4759289622 4288716699
-0.2029040009 -0.1832394451 0.4760822058 4288716699
-0.2029691935 -0.1827691793 0.4762351811 4288782494
-0.2030342519 -0.1822984666 0.4763878286 4288848287
-0.2030991912 -0.1818273067 0.4765401781 4288848287
-0.2031639963 -0.1813556850 0.4766922593 4288914080
-0.2032286823 -0.1808836162 0.4768440127 4288782494
-0.2032932341 -0.1804111004 0.4769954979 4288782494
-0.2033576667 -0.1799381226 0.4771466553 4288782494
-0.2034219652 -0.1794647127 0.4772975147 4288782494
-0.2038567811 -0.1793168783 0.4783177674 4288782494
-0.2039209306 -0.1788416952 0.4784682989 4288782494
-0.2039849609 -0.1783660650 0.4786185026 4288782494
-0.2040488571 -0.1778899878 0.4787684381 4288782494
-0.2041126192 -0.1774134636 0.4789180458 4288914080
-0.2041762620 -0.1769365072 0.4790673554 4288914080
-0.2042397559 -0.1764590889 0.4792163670 4288979873
-0.2043031305 -0.1759812236 0.4793650508 4288979873
-0.2039947808 -0.1751838326 0.4786415696 4288979873
-0.2040577829 -0.1747059524 0.4787893593 4288979873
-0.2041206360 -0.1742276400 0.4789368510 4288979873
-0.2041833550 -0.1737488657 0.4790840149 4289045666
-0.2042459399 -0.1732696742 0.4792308509 4288914591
-0.2043083906 -0.1727900356 0.4793773890 4288914591
-0.2043707073 -0.1723099500 0.4795235991 4288914591
-0.2048052698 -0.1721424162 0.4805432260 4288914591
-0.2048674226 -0.1716605723 0.4806890786 4288914591
-0.2049294412 -0.1711783111 0.4808346033 4288980384
-0.2049913257 -0.1706956029 0.4809798002 4288980384
-0.2050530761 -0.1702124476 0.4811246693 4288980384
-0.2047417462 -0.1694202721 0.4803942144 4288914337
-0.2048031092 -0.1689371318 0.4805381596 4288914337
-0.2048643231 -0.1684535593 0.4806818068 4288980130
-0.2049254030 -0.1679695547 0.4808251262 4288980130
-0.2049863487 -0.1674851179 0.4809681177 4288914337
-0.2050471604 -0.1670002341 0.4811107814 4288848544
-0.2051078081 -0.1665149331 0.4812531173 4288914337
-0.2055420429 -0.1663316339 0.4822719693 4288848544
-0.2052287161 -0.1655430496 0.4815367758 4288848544
-0.2052889466 -0.1650564522 0.4816781282 4288980130
-0.2053490430 -0.1645694375 0.4818191230 4288980130
-0.2054090053 -0.1640819907 0.4819597900 4288980130
-0.2054688036 -0.1635941267 0.4821001291 4289045923
-0.2059028447 -0.1634029150 0.4831185341 4289045923
-0.2059624791 -0.1629133075 0.4832584262 4288980130
-0.2060219646 -0.1624232680 0.4833980203 4288980130
-0.2060813010 -0.1619328111 0.4835372269 4289045923
-0.2061404884 -0.1614419222 0.4836761355 4289111716
-0.2061995417 -0.1609506160 0.4838146865 4289111716
-0.2062584460 -0.1604588926 0.4839528799 4289177509
-0.2059420794 -0.1596758962 0.4832105935 4289177509
-0.2056253552 -0.1588942558 0.4824674428 4289111716
-0.2060589343 -0.1586921215 0.4834847748 4289046436
-0.2057417035 -0.1579114497 0.4827404320 4288980643
-0.2057996541 -0.1574194133 0.4828764200 4289111716
-0.2058574557 -0.1569269747 0.4830120504 4289111716
-0.2062908709 -0.1567195803 0.4840289652 4289111716
-0.2063484788 -0.1562254131 0.4841641486 4289177509
-0.2060299814 -0.1554471552 0.4834168255 4289177509
-0.2064632624 -0.1552358121 0.4844334424 4289177509
-0.2065204233 -0.1547404081 0.4845675528 4289111716
-0.2065774202 -0.1542445868 0.4847013354 4289111716
-0.2066342831 -0.1537483484 0.4848347306 4289111716
-0.2066909820 -0.1532517076 0.4849677682 4289111716
-0.2067475468 -0.1527546644 0.4851004779 4289177509
-0.2068039328 -0.1522572041 0.4852328002 4289243302
-0.2068601847 -0.1517593414 0.4853647649 4289309095
-0.2069162726 -0.1512610614 0.4854964018 4289309095
-0.2069722116 -0.1507623941 0.4856276512 4289309095
-0.2070280015 -0.1502633095 0.4857585132 4289374888
-0.2070836276 -0.1497638375 0.4858890474 4289375142
-0.2071391046 -0.1492639482 0.4860191941 4289440935
-0.2071944177 -0.1487636566 0.4861489832 4289440935
-0.2072495818 -0.1482629776 0.4862784147 4289375142
-0.2073045820 -0.1477618963 0.4864074886 4289375142
-0.2073594332 -0.1472604126 0.4865361750 4289375142
-0.2074141204 -0.1467585266 0.4866644740 4289309095
-0.2074686438 -0.1462562531 0.4867924452 4289374888
-0.2071450204 -0.1454880834 0.4860330820 4289309095
-0.2071991265 -0.1449859291 0.4861600697 4289309095
-0.2072530836 -0.1444833875 0.4862866402 4289374888
-0.2069285810 -0.1437177211 0.4855252504 4289374888
-0.2073605210 -0.1434771270 0.4865387380 4289374888
-0.2074139863 -0.1429734081 0.4866642058 4289440681
-0.2074673027 -0.1424693018 0.4867892861 4289440681
-0.2075204551 -0.1419648081 0.4869140089 4289440681
-0.2075734586 -0.1414599270 0.4870383441 4289440681
-0.2076262832 -0.1409546584 0.4871622920 4289440681
-0.2076789588 -0.1404490024 0.4872858822 4289440681
-0.2081105262 -0.1401983351 0.4882985055 4289440681
-0.2077838033 -0.1394365430 0.4875319004 4289440681
-0.2082152367 -0.1391832530 0.4885441959 4289506474
-0.2082673460 -0.1386751533 0.4886664748 4289506474
-0.2083192915 -0.1381666511 0.4887883365 4289506474
-0.2083710730 -0.1376577914 0.4889098406 4289440681
-0.2084226906 -0.1371485293 0.4890309274 4289440681
-0.2084741294 -0.1366389096 0.4891516566 4289440681
-0.2085254192 -0.1361289024 0.4892719686 4289440681
-0.2081966102 -0.1353714913 0.4885004759 4289440683
-0.2082474679 -0.1348616630 0.4886198044 4289440683
-0.2082981616 -0.1343514770 0.4887387455 4289440683
-0.2083486766 -0.1338409036 0.4888572693 4289440683
-0.2083990276 -0.1333299577 0.4889754355 4289572269
-0.2088295966 -0.1330610216 0.4899856746 4289506476
-0.2088796943 -0.1325484067 0.4901032448 4289506476
-0.2089296430 -0.1320354193 0.4902204275 4289506476
-0.2089793980 -0.1315220743 0.4903371930 4289506476
-0.2090290040 -0.1310083568 0.4904535413 4289440683
-0.2090784311 -0.1304942816 0.4905695319 4289440683
-0.2091276795 -0.1299798340 0.4906850755 4289440683
-0.2091767639 -0.1294650286 0.4908002615 4289309610
-0.2092256695 -0.1289498508 0.4909150302 4289309610
-0.2092744112 -0.1284343302 0.4910293818 4289374890
-0.2093229741 -0.1279184371 0.4911433160 4289374890
-0.2093713731 -0.1274021864 0.4912568629 4289374890
-0.2094195932 -0.1268855780 0.4913700223 4289374890
-0.2094676346 -0.1263686270 0.4914827347 4289375403
-0.2095154971 -0.1258513033 0.4915950596 4289375403
-0.2095631957 -0.1253336370 0.4917069674 4289440683
-0.2096107155 -0.1248156056 0.4918184578 4289440683
-0.2096580714 -0.1242972314 0.4919295609 4289506476
-0.2097052336 -0.1237784997 0.4920402467 4289506476
-0.2097522318 -0.1232594252 0.4921505153 4289506476
-0.2097990513 -0.1227400005 0.4922603369 4289506476
-0.2098456919 -0.1222202331 0.4923697710 4289572269
-0.2098921537 -0.1217001081 0.4924787879 4289572269
-0.2099384367 -0.1211796477 0.4925873876 4289506476
-0.2099845409 -0.1206588447 0.4926955700 4289506476
-0.2100304663 -0.1201376915 0.4928033352 4289572269
-0.2100762129 -0.1196162030 0.4929106832 4289572269
-0.2101217806 -0.1190943718 0.4930176139 4289572269
-0.2101671845 -0.1185722053 0.4931240976 4289638062
-0.2102123946 -0.1180496961 0.4932301939 4289638062
-0.2102574110 -0.1175268516 0.4933358431 4289703855
-0.2103022635 -0.1170036718 0.4934410751 4289703855
-0.2107300758 -0.1166923270 0.4944448769 4289703855
-0.2107746452 -0.1161675230 0.4945494533 4289703855
-0.2108190358 -0.1156423911 0.4946535826 4289638062
-0.2108632326 -0.1151169315 0.4947572947 4289703855
-0.2109072506 -0.1145911366 0.4948605895 4289638062
-0.2109510899 -0.1140650138 0.4949634373 4289638062
-0.2106111199 -0.1133321300 0.4941657484 4289638062
-0.2106545120 -0.1128063127 0.4942675531 4289703855
-0.2106977105 -0.1122801676 0.4943689406 4289703855
-0.2107407302 -0.1117537022 0.4944698811 4289703855
-0.2107835710 -0.1112269163 0.4945703745 4289769648
-0.2108262181 -0.1106998101 0.4946704507 4289703855
-0.2108686864 -0.1101723835 0.4947700799 4289769648
-0.2109109610 -0.1096446365 0.4948692918 4289769648
-0.2109530568 -0.1091165692 0.4949680567 4289769648
-0.2109949738 -0.1085881963 0.4950663745 4289769648
-0.2114626914 -0.1077263653 0.4961638451 4289835441
-0.2115041167 -0.1071960852 0.4962610304 4289835441
-0.2115453482 -0.1066654921 0.4963577688 4289901234
-0.2115863860 -0.1061345935 0.4964540601 4289901234
-0.2116272449 -0.1056033820 0.4965499341 4289967027
-0.2120527625 -0.1052629054 0.4975483418 4289967027
-0.2120933086 -0.1047301143 0.4976434708 4290032820
-0.2121336758 -0.1041970253 0.4977381825 4290032820
-0.2121738344 -0.1036636233 0.4978324175 4289967027
-0.2122138143 -0.1031299233 0.4979262054 4289967027
-0.2122536004 -0.1025959253 0.4980195761 4289967027
-0.2122931927 -0.1020616218 0.4981124699 4289967027
-0.2123325914 -0.1015270203 0.4982049167 4289967027
-0.2123717964 -0.1009921283 0.4982969165 4289967027
-0.2127963156 -0.1006392539 0.4992929697 4289967027
-0.2128352076 -0.1001027972 0.4993842244 4289967027
-0.2128739059 -0.0995660424 0.4994750321 4289967027
-0.2129124105 -0.0990290046 0.4995653629 4289967027
-0.2129507214 -0.0984916687 0.4996552765 4289967027
-0.2129888386 -0.0979540423 0.4997446835 4289967027
-0.2130267620 -0.0974161327 0.4998336732 4289967027
-0.2130644917 -0.0968779325 0.4999221861 4289967027
-0.2131020129 -0.0963394493 0.5000102520 4289901234
-0.2131393403 -0.0958006829 0.5000978112 4289901234
-0.2131764889 -0.0952616334 0.5001849532 4289835441
-0.2132134289 -0.0947223082 0.5002716184 4289835441
-0.2132501602 -0.0941826925 0.5003578663 4289901234
-0.2136730999 -0.0938124508 0.5013502240 4289901234
-0.2137095183 -0.0932713076 0.5014356375 4289967027
-0.2137457281 -0.0927298889 0.5015206337 4290032820
-0.2141683251 -0.0923549011 0.5025122166 4289901234
-0.2138175666 -0.0916462243 0.5016891360 4289967027
-0.2142398953 -0.0912687331 0.5026801229 4290032820
-0.2142753750 -0.0907252431 0.5027633309 4290032820
-0.2143106610 -0.0901814848 0.5028461218 4290098613
-0.2147326469 -0.0897992551 0.5038362741 4290098613
-0.2143806219 -0.0890931636 0.5030102730 4290032820
-0.2144152969 -0.0885486007 0.5030916929 4290032820
-0.2144497782 -0.0880037770 0.5031725764 4290032820
-0.2144840509 -0.0874586925 0.5032529831 4290098613
-0.2145181298 -0.0869133472 0.5033329129 4290098613
-0.2145520002 -0.0863677487 0.5034124255 4290098613
-0.2145856768 -0.0858218819 0.5034914017 4290164406
-0.2146191299 -0.0852757692 0.5035699010 4290164406
-0.2146524042 -0.0847293958 0.5036479831 4290164406
-0.2146854550 -0.0841827691 0.5037255287 4290164406
-0.2147183120 -0.0836358890 0.5038025975 4290164406
-0.2151385993 -0.0832387432 0.5047887564 4290098613
-0.2151710987 -0.0826903805 0.5048650503 4290098613
-0.2148156464 -0.0819937587 0.5040310025 4290164406
-0.2148476839 -0.0814458877 0.5041061640 4290164406
-0.2148795128 -0.0808977783 0.5041808486 4290164406
-0.2152990699 -0.0804944560 0.5051652789 4290230199
-0.2157185227 -0.0800889134 0.5061494708 4290230199
-0.2153618038 -0.0793950334 0.5053125024 4290230199
-0.2153928727 -0.0788449720 0.5053853989 4290230199
-0.2154237330 -0.0782946646 0.5054577589 4290230199
-0.2158425748 -0.0778842047 0.5064405799 4290230199
-0.2158730775 -0.0773324370 0.5065121055 4290230199
-0.2159033567 -0.0767804310 0.5065831542 4290230199
-0.2159334421 -0.0762282014 0.5066537261 4290230199
-0.2159633040 -0.0756757408 0.5067238212 4290230199
-0.2159929723 -0.0751230493 0.5067934394 4290230199
-0.2160224169 -0.0745701343 0.5068625212 4290295992
-0.2160516679 -0.0740169883 0.5069311261 4290295992
-0.2164693326 -0.0735957548 0.5079110861 4290295992
-0.2168868929 -0.0731723011 0.5088908672 4290295992
-0.2169155926 -0.0726164952 0.5089582205 4290295992
-0.2169440985 -0.0720604733 0.5090250969 4290361785
-0.2169723958 -0.0715042353 0.5090914965 4290427578
-0.2170004696 -0.0709477812 0.5091573596 4290361785
-0.2170283347 -0.0703911036 0.5092227459 4290361785
-0.2170559913 -0.0698342174 0.5092875957 4290361785
-0.2170834243 -0.0692771226 0.5093520284 4290295992
-0.2171106637 -0.0687198117 0.5094158649 4290295992
-0.2171376795 -0.0681622997 0.5094792843 4290361785
-0.2171644717 -0.0676045716 0.5095421672 4290361785
-0.2171910554 -0.0670466423 0.5096045732 4290427578
-0.2172174305 -0.0664885044 0.5096664429 4290295992
-0.2168542743 -0.0658120140 0.5088143349 4290361785
-0.2168801725 -0.0652544796 0.5088750720 4290361785
-0.2172952741 -0.0648128986 0.5098490715 4290361785
-0.2173207849 -0.0642539635 0.5099089146 4290427578
-0.2173460871 -0.0636948273 0.5099682808 4290427578
-0.2177607268 -0.0632486492 0.5109411478 4290361785
-0.2177856416 -0.0626881272 0.5109996200 4290361785
-0.2178103328 -0.0621274188 0.5110575557 4290361785
-0.2178348154 -0.0615665168 0.5111150146 4290361785
-0.2178590745 -0.0610054247 0.5111719370 4290427578
-0.2178831249 -0.0604441464 0.5112283826 4290361785
-0.2179069519 -0.0598826855 0.5112842917 4290361785
-0.2179305702 -0.0593210384 0.5113396645 4290295992
-0.2183438689 -0.0588643253 0.5123094320 4290295992
-0.2179771513 -0.0581972040 0.5114489794 4290295992
-0.2180001140 -0.0576350167 0.5115028620 4290230199
-0.2184128761 -0.0571747534 0.5124713182 4290295992
-0.2184354365 -0.0566112064 0.5125242472 4290295992
-0.2184577882 -0.0560474880 0.5125766993 4290230199
-0.2184799016 -0.0554835983 0.5126286149 4290230199
-0.2185018212 -0.0549195372 0.5126799941 4290230199
-0.2185235023 -0.0543553084 0.5127308965 4290230199
-0.2185449749 -0.0537909120 0.5127812624 4290230199
-0.2185662091 -0.0532263480 0.5128311515 4290230199
-0.2189775705 -0.0527556613 0.5137963295 4290230199
-0.2189984173 -0.0521897636 0.5138452053 4290230199
