VERSION 0.7
FIELDS x y z rgba
SIZE 4 4 4 4
TYPE F F F U
COUNT 1 1 1 1
WIDTH 921
HEIGHT 1
VIEWPOINT 0.0 0.0 0.0 1.0 0.0 0.0 0.0
POINTS 921
DATA ascii
-0.2674469948 -0.0826056153 0.5148246288 4293981176
-0.2674836814 -0.0820448548 0.5148952603 4293981176
-0.2675201297 -0.0814838707 0.5149654150 4293915383
-0.2675563097 -0.0809226558 0.5150350928 4293915383
-0.2675922811 -0.0803612173 0.5151042938 4293981176
-0.2676279843 -0.0797995478 0.5151730776 4293915383
-0.2676634789 -0.0792376548 0.5152413845 4293915383
-0.2676987052 -0.0786755458 0.5153092146 4294046969
-0.2681905925 -0.0782465041 0.5162560344 4294046969
-0.2682254016 -0.0776829869 0.5163230300 4293981176
-0.2682599723 -0.0771192536 0.5163896084 4294046969
-0.2682943046 -0.0765553042 0.5164556503 4294047224
-0.2687855065 -0.0761205927 0.5174012184 4294047224
-0.2688193917 -0.0755552500 0.5174664855 4294178810
-0.2688530385 -0.0749896988 0.5175312161 4294178810
-0.2693437338 -0.0745505020 0.5184758306 4294178810
-0.2693769634 -0.0739835575 0.5185397863 4294178810
-0.2689525485 -0.0732917637 0.5177227259 4294113017
-0.2689852118 -0.0727253705 0.5177856684 4294047224
-0.2685601115 -0.0720360577 0.5169673562 4294113017
-0.2685922384 -0.0714702159 0.5170292258 4294113017
-0.2686241269 -0.0709041730 0.5170905590 4294113017
-0.2691134512 -0.0704577565 0.5180324912 4294113017
-0.2691448927 -0.0698903501 0.5180929899 4294113015
-0.2691760659 -0.0693227500 0.5181530714 4294113015
-0.2696648538 -0.0688718781 0.5190939307 4294113015
-0.2696956098 -0.0683029145 0.5191531181 4294113015
-0.2701840699 -0.0678487569 0.5200933814 4294047224
-0.2702143490 -0.0672784373 0.5201517344 4294047224
-0.2707024515 -0.0668210015 0.5210912824 4294178040
-0.2707323134 -0.0662493333 0.5211487412 4294178040
-0.2707619369 -0.0656774864 0.5212057829 4294178040
-0.2707912922 -0.0651054457 0.5212622881 4294178040
-0.2703621686 -0.0644240305 0.5204362273 4294047224
-0.2703909576 -0.0638525933 0.5204916596 4294047224
-0.2704195082 -0.0632809699 0.5205466151 4294047224
-0.2704478204 -0.0627091676 0.5206011534 4294047224
-0.2700174451 -0.0620318726 0.5197726488 4294178040
-0.2700451910 -0.0614606850 0.5198261142 4294243833
-0.2705312371 -0.0609926991 0.5207616687 4294309626
-0.2710171044 -0.0605225973 0.5216969848 4294309626
-0.2710441947 -0.0599489473 0.5217491388 4294375419
-0.2710710466 -0.0593751259 0.5218008161 4294375419
-0.2710976303 -0.0588011369 0.5218520164 4294966525
-0.2715827227 -0.0583254993 0.5227857828 4294900475
-0.2716088593 -0.0577502027 0.5228360295 4294377468
-0.2716347277 -0.0571747422 0.5228858590 4294180089
-0.2716603577 -0.0565991141 0.5229351521 4294309626
-0.2716857195 -0.0560233258 0.5229840279 4294375419
-0.2717108130 -0.0554473773 0.5230323076 4293512915
-0.2721946836 -0.0549639575 0.5239637494 4289499542
-0.2722193301 -0.0543867201 0.5240111947 4289945437
-0.2722437084 -0.0538093261 0.5240581036 4289550679
-0.2722678483 -0.0532317758 0.5241045952 4291973198
-0.2727508843 -0.0527428687 0.5250344276 4292367956
-0.2727745473 -0.0521640405 0.5250799656 4291973713
-0.2732571959 -0.0516719073 0.5260090232 4291578955
-0.2732803822 -0.0510918088 0.5260536671 4291382092
-0.2737626433 -0.0505964532 0.5269820094 4291513678
-0.2737853229 -0.0500150882 0.5270256996 4291775823
-0.2742671967 -0.0495165177 0.5279532671 4291446858
-0.2742893994 -0.0489338897 0.5279960036 4291183682
-0.2747708559 -0.0484321080 0.5289227962 4291183682
-0.2752521038 -0.0479282364 0.5298491716 4291118656
-0.2748140693 -0.0472641997 0.5290059447 4291052863
-0.2748352885 -0.0466800407 0.5290468335 4290987586
-0.2753158808 -0.0461728275 0.5299718976 4291184965
-0.2753365934 -0.0455874242 0.5300118327 4291118406
-0.2748973966 -0.0449267589 0.5291663408 4290921027
-0.2753772736 -0.0444162227 0.5300901532 4291182916
-0.2753972411 -0.0438304283 0.5301285386 4291380295
-0.2754169106 -0.0432445109 0.5301664472 4291577672
-0.2758961618 -0.0427296795 0.5310889482 4291709258
-0.2759153545 -0.0421425328 0.5311259031 4291578440
-0.2759342790 -0.0415552668 0.5311623216 4291578440
-0.2759529650 -0.0409678780 0.5311982632 4290794578
-0.2759713531 -0.0403803699 0.5312336683 4292176231
-0.2759895027 -0.0397927463 0.5312685966 4292188309
-0.2769273818 -0.0393356942 0.5330740213 4294293685
-0.2769450545 -0.0387458801 0.5331080556 4294630109
-0.2769624591 -0.0381559581 0.5331415534 4294962158
-0.2769796252 -0.0375659242 0.5331745744 4294966014
-0.2774566114 -0.0370372050 0.5340927839 4294966527
-0.2774732411 -0.0364459753 0.5341247916 4293851896
-0.2774896324 -0.0358546376 0.5341563225 4293851896
-0.2779659331 -0.0353216790 0.5350731611 4294113526
-0.2779818177 -0.0347291566 0.5351037383 4294179319
-0.2779974043 -0.0341365337 0.5351337790 4294375417
-0.2780127525 -0.0335438140 0.5351632833 4294375417
-0.2780278027 -0.0329509936 0.5351922512 4294441213
-0.2785029411 -0.0324116498 0.5361068845 4294441213
-0.2785174847 -0.0318176597 0.5361348987 4294309626
-0.2789921761 -0.0312751867 0.5370486379 4294309626
-0.2794666290 -0.0307306591 0.5379619002 4294309626
-0.2794804275 -0.0301344339 0.5379884839 4294309626
-0.2794939280 -0.0295381192 0.5380145311 4294309626
-0.2799676657 -0.0289893989 0.5389264226 4294309626
-0.2804411948 -0.0284386296 0.5398379564 4294178808
-0.2799934149 -0.0277943835 0.5389760137 4294178808
-0.2804664373 -0.0272414871 0.5398865342 4294244601
-0.2813997567 -0.0267302915 0.5416831970 4294244601
-0.2814117670 -0.0261295568 0.5417062640 4294310394
-0.2814234793 -0.0255287439 0.5417287946 4294244601
-0.2814349234 -0.0249278601 0.5417508483 4294244601
-0.2814460993 -0.0243269019 0.5417723656 4294310394
-0.2814570069 -0.0237258729 0.5417933464 4294376187
-0.2814676464 -0.0231247749 0.5418137908 4294441980
-0.2823993564 -0.0225973371 0.5436073542 4294376187
-0.2824094892 -0.0219941381 0.5436268449 4294507773
-0.2824193239 -0.0213908758 0.5436457992 4294639359
-0.2824289203 -0.0207875520 0.5436642170 4294639359
-0.2828989625 -0.0202170927 0.5445690751 4294639359
-0.2829079926 -0.0196126644 0.5445864797 4294573566
-0.2829167545 -0.0190081801 0.5446033478 4294507771
-0.2838468552 -0.0184635855 0.5463936925 4294507771
-0.2838550806 -0.0178570226 0.5464095473 4294309878
-0.2843238711 -0.0172784105 0.5473119617 4293980913
-0.2843315899 -0.0166707598 0.5473268032 4293783534
-0.2847998738 -0.0160890948 0.5482282043 4293520362
-0.2848070264 -0.0154803628 0.5482420325 4293125604
-0.2852748036 -0.0148956506 0.5491424203 4292796639
-0.2857422829 -0.0143089248 0.5500423312 4292401881
-0.2862095535 -0.0137201874 0.5509417653 4292007123
-0.2866765261 -0.0131294392 0.5518407226 4291743951
-0.2866823673 -0.0125165591 0.5518519282 4291480779
-0.2871488035 -0.0119227804 0.5527498722 4291151812
-0.2871541083 -0.0113088433 0.5527600050 4290954433
-0.2880809605 -0.0107292067 0.5545442104 4290888640
-0.2880856991 -0.0101132346 0.5545532703 4290757054
-0.2885510921 -0.0095124291 0.5554491878 4290559675
-0.2885552645 -0.0088954140 0.5554572344 4290428089
-0.2885591686 -0.0082783736 0.5554647446 4290164404
-0.2894847095 -0.0076857856 0.5572463870 4290032818
-0.2894880772 -0.0070667267 0.5572528243 4289638314
-0.2899521291 -0.0064579146 0.5581461191 4289177763
-0.2899549007 -0.0058378302 0.5581514835 4288783005
-0.2904184163 -0.0052260244 0.5590437055 4288519833
-0.2904206514 -0.0046049226 0.5590479970 4288454040
-0.2904225886 -0.0039838068 0.5590517521 4288454040
-0.2908852398 -0.0033680175 0.5599423647 4288585885
-0.2913476229 -0.0027502461 0.5608323812 4288454299
-0.2918097377 -0.0021304952 0.5617219210 4288125332
-0.2922715545 -0.0015087659 0.5626109242 4287927953
-0.2922720909 -0.0008836664 0.5626119971 4288059539
-0.2936553657 -0.0002597880 0.5652746558 4288125332
-0.2931943238 0.0003676944 0.5643872023 4288191127
-0.2936550081 0.0009963320 0.5652740598 4288388506
-0.2941154242 0.0016269387 0.5661602616 4288585885
-0.2945755422 0.0022595127 0.5670459867 4288651678
-0.2954963446 0.0028985736 0.5688185096 4288717469
-0.2954948843 0.0035305542 0.5688157082 4288783262
-0.2959541380 0.0041690185 0.5696997046 4288849055
-0.2959520817 0.0048019625 0.5696957707 4288783262
-0.2968717217 0.0054518236 0.5714660883 4288717471
-0.2968690991 0.0060867094 0.5714610219 4288717471
-0.2968661785 0.0067215776 0.5714554191 4288717473
-0.2973239720 0.0073678493 0.5723366141 4288651680
-0.2973204553 0.0080036623 0.5723298788 4288585887
-0.2977776527 0.0086528463 0.5732099414 4288585887
-0.2982345223 0.0093039768 0.5740893483 4288717473
-0.2982301414 0.0099416850 0.5740809441 4288849059
-0.2982254922 0.0105793644 0.5740720034 4288915366
-0.2986814678 0.0112343505 0.5749497414 4289112745
-0.2986761928 0.0118729519 0.5749396086 4289112747
-0.2995924950 0.0125501351 0.5767034292 4289310126
-0.2995866537 0.0131906364 0.5766921639 4289441712
-0.2995805144 0.0138310995 0.5766803622 4289573298
-0.3000349700 0.0144937858 0.5775551796 4289704884
-0.3000282347 0.0151351513 0.5775421858 4289244333
-0.3009429276 0.0158249419 0.5793029666 4289310126
-0.2974877656 -0.2738029361 0.5738788843 4287466891
-0.2963213325 -0.2720942497 0.5716286898 4287598477
-0.2960020006 -0.2711665928 0.5710126758 4287598479
-0.2956822217 -0.2702398896 0.5703958273 4287598479
-0.2953620255 -0.2693141699 0.5697781444 4287795858
-0.2946168780 -0.2680032849 0.5683406591 4287993237
-0.2942956686 -0.2670803070 0.5677210093 4287927444
-0.2943988442 -0.2665429413 0.5679200292 4287795858
-0.2940768898 -0.2656211555 0.5672990084 4287992724
-0.2937545478 -0.2647003531 0.5666771531 4287926931
-0.2930064797 -0.2633982599 0.5652340651 4287926931
-0.2926830947 -0.2624802291 0.5646102428 4287926931
-0.2919337153 -0.2611824870 0.5631646514 4287861138
-0.2907579243 -0.2595073283 0.5608963966 4287861138
-0.2904327810 -0.2585946620 0.5602692366 4287861138
-0.2896812260 -0.2573046088 0.5588194132 4287795345
-0.2885028124 -0.2556395233 0.5565460920 4287729552
-0.2877496481 -0.2543554008 0.5550932288 4287795345
-0.2869957685 -0.2530738711 0.5536389351 4287729552
-0.2858145833 -0.2514196932 0.5513603091 4287663759
-0.2850590944 -0.2501441538 0.5499029160 4287663759
-0.2843028903 -0.2488712072 0.5484441519 4287532173
-0.2826919258 -0.2468550950 0.5453364253 4287400587
-0.2832155228 -0.2467052788 0.5463464856 4287400587
-0.2820299864 -0.2450680882 0.5440595150 4287335048
-0.2812708914 -0.2438056320 0.5425951481 4287532427
-0.2800834775 -0.2421760708 0.5403045416 4287532173
-0.2788950503 -0.2405507267 0.5380119681 4287597966
-0.2781335413 -0.2392977625 0.5365429521 4287861138
-0.2773712873 -0.2380474359 0.5350725055 4287992724
-0.2766083479 -0.2367997766 0.5336006880 4288058771
-0.2762729824 -0.2359205484 0.5329537988 4287992978
-0.2755087316 -0.2346774191 0.5314794779 4287532684
-0.2747437954 -0.2334369570 0.5300037861 4287137926
-0.2739781141 -0.2321991622 0.5285267830 4286874756
-0.2732117176 -0.2309640646 0.5270483494 4286808963
-0.2724446356 -0.2297316343 0.5255685449 4286874756
-0.2716768086 -0.2285019010 0.5240873694 4286940549
-0.2709082961 -0.2272748649 0.5226048231 4286874754
-0.2701390684 -0.2260505259 0.5211209655 4286808961
-0.2689395249 -0.2244703174 0.5188069344 4286283130
-0.2681687474 -0.2232522070 0.5173199773 4286283130
-0.2673972547 -0.2220368087 0.5158317089 4286348923
-0.2670550942 -0.2211803049 0.5151716471 4286809474
-0.2662823200 -0.2199695557 0.5136809349 4288256922
-0.2655088603 -0.2187615335 0.5121888518 4290033333
-0.2651651502 -0.2179099917 0.5115258098 4291217607
-0.2639598250 -0.2163536996 0.5092006326 4291480779
-0.2631842494 -0.2151539177 0.5077044964 4291283916
-0.2624079585 -0.2139568776 0.5062069893 4291349709
-0.2616309822 -0.2127625942 0.5047081113 4291415502
-0.2608533204 -0.2115710676 0.5032079220 4291481295
-0.2596436441 -0.2100334316 0.5008744001 4291481297
-0.2588644326 -0.2088482678 0.4993712008 4291415504
-0.2576529384 -0.2073186189 0.4970341623 4291415504
-0.2568722069 -0.2061398327 0.4955280423 4291349711
-0.2565226257 -0.2053094804 0.4948536754 4291349968
-0.2561726272 -0.2044802904 0.4941785038 4291349968
-0.2558222115 -0.2036522627 0.4935025275 4291349968
-0.2554713786 -0.2028254271 0.4928257465 4291349968
-0.2546877265 -0.2016573697 0.4913140237 4291349968
-0.2547684908 -0.2011752427 0.4914697707 4291415761
-0.2544164062 -0.2003519237 0.4907905757 4291415761
-0.2544967234 -0.1998697072 0.4909455478 4291415761
-0.2537109852 -0.1987088323 0.4894298017 4291415761
-0.2533576787 -0.1978890747 0.4887481928 4291415761
-0.2534371614 -0.1974079460 0.4889015257 4291415761
-0.2535164952 -0.1969263852 0.4890545905 4291415761
-0.2535956800 -0.1964443475 0.4892073572 4291415761
-0.2536747456 -0.1959618777 0.4893598557 4291415761
-0.2533198893 -0.1951447874 0.4886752963 4291415761
-0.2533985078 -0.1946622431 0.4888269603 4291415761
-0.2534769773 -0.1941792369 0.4889783561 4291415762
-0.2535553277 -0.1936957836 0.4891294837 4291547348
-0.2531991899 -0.1928810477 0.4884424806 4291482324
-0.2532770932 -0.1923975348 0.4885927737 4291482324
-0.2533548474 -0.1919135749 0.4887427688 4291285971
-0.2534324527 -0.1914291531 0.4888924956 4291220178
-0.2530750930 -0.1906167865 0.4882030785 4290958034
-0.2535872161 -0.1904590130 0.4891910553 4290826448
-0.2536644042 -0.1899732649 0.4893398881 4290497483
-0.2537414134 -0.1894870847 0.4894884527 4290694862
-0.2538182437 -0.1890004575 0.4896367192 4291219923
-0.2534594536 -0.1881900430 0.4889445901 4291417302
-0.2535358965 -0.1877033710 0.4890920222 4291416532
-0.2531763911 -0.1868945807 0.4883985221 4291350739
-0.2532523870 -0.1864078641 0.4885451198 4291612630
-0.2533282340 -0.1859207153 0.4886914194 4291612630
-0.2534039021 -0.1854331344 0.4888374209 4291546835
-0.2539157271 -0.1852634251 0.4898247421 4291678421
-0.2539912164 -0.1847741157 0.4899703860 4291744214
-0.2540665865 -0.1842843890 0.4901157320 4291810007
-0.2541417778 -0.1837942153 0.4902608097 4291941593
-0.2542168200 -0.1833035946 0.4904055595 4291744214
-0.2542916834 -0.1828125566 0.4905500114 4291612628
-0.2543663979 -0.1823210865 0.4906941652 4292007386
-0.2544409931 -0.1818291694 0.4908379912 4291941593
-0.2549526989 -0.1816484034 0.4918251634 4292007386
-0.2550270855 -0.1811547875 0.4919686317 4291678421
-0.2542261481 -0.1800409704 0.4904235899 4291349456
-0.2542999685 -0.1795481890 0.4905659854 4291546321
-0.2539357841 -0.1787467897 0.4898634553 4291612114
-0.2540091574 -0.1782539934 0.4900049567 4291612114
-0.2545204163 -0.1780672520 0.4909912348 4291809493
-0.2545935810 -0.1775727570 0.4911323786 4292006871
-0.2546665967 -0.1770778447 0.4912732244 4291941078
-0.2547394335 -0.1765824854 0.4914137125 4291941079
-0.2552506626 -0.1763897985 0.4923999608 4291875286
-0.2548846006 -0.1755905151 0.4916938245 4291941079
-0.2553957999 -0.1753952652 0.4926798940 4291941079
-0.2554681003 -0.1748973727 0.4928193986 4291941079
-0.2551011741 -0.1740994006 0.4921115637 4291875286
-0.2547338307 -0.1733027101 0.4914029241 4291677907
-0.2548053861 -0.1728052646 0.4915409982 4291677907
-0.2544373572 -0.1720103174 0.4908310175 4291612114
-0.2545084655 -0.1715128869 0.4909681976 4291612114
-0.2545794249 -0.1710150391 0.4911050498 4291875286
-0.2546502054 -0.1705167890 0.4912416041 4291875286
-0.2547208071 -0.1700181067 0.4913778007 4291941079
-0.2547912598 -0.1695190221 0.4915136993 4292138458
-0.2548615336 -0.1690195203 0.4916492701 4292006871
-0.2549316287 -0.1685196161 0.4917845130 4292072664
-0.2550015748 -0.1680192798 0.4919194281 4292138457
-0.2550713420 -0.1675185412 0.4920540154 4292072664
-0.2551409304 -0.1670174003 0.4921882749 4292006871
-0.2552103698 -0.1665158421 0.4923222065 4292072664
-0.2552796006 -0.1660138667 0.4924558103 4292138457
-0.2553487122 -0.1655114889 0.4925890565 4292138457
-0.2554176152 -0.1650087088 0.4927220047 4292401629
-0.2554863393 -0.1645055264 0.4928545952 4292072664
-0.2555549145 -0.1640019268 0.4929868579 4291348941
-0.2551818192 -0.1632155478 0.4922671318 4290230460
-0.2548083067 -0.1624305099 0.4915466011 4289440944
-0.2548761070 -0.1619274467 0.4916774035 4289638323
-0.2549437582 -0.1614239812 0.4918078780 4290493632
-0.2550112009 -0.1609201133 0.4919379950 4291217355
-0.2550784945 -0.1604158431 0.4920678139 4292138458
-0.2555877864 -0.1601883322 0.4930502772 4292138458
-0.2556548417 -0.1596823931 0.4931796193 4292138458
-0.2557216883 -0.1591760516 0.4933086336 4292270044
-0.2562309206 -0.1589438319 0.4942909777 4292401630
-0.2562975585 -0.1584358364 0.4944195151 4292401630
-0.2559212446 -0.1576546729 0.4936935604 4292335837
-0.2564302683 -0.1574186385 0.4946755469 4292401630
-0.2560533881 -0.1566384435 0.4939484596 4292401630
-0.2565622926 -0.1563998610 0.4949301779 4292335837
-0.2566280067 -0.1558898836 0.4950569570 4292204251
-0.2566935718 -0.1553795189 0.4951834083 4292138458
-0.2567589283 -0.1548687667 0.4953095317 4292072665
-0.2563805580 -0.1540910304 0.4945795834 4292072665
-0.2564454377 -0.1535803676 0.4947047532 4292204251
-0.2569539249 -0.1533341557 0.4956856966 4292270044
-0.2570185661 -0.1528218538 0.4958103895 4292401629
-0.2566390038 -0.1520460993 0.4950781763 4292533215
-0.2567031682 -0.1515339017 0.4952019453 4292664802
-0.2567671239 -0.1510213166 0.4953253567 4292533216
-0.2568309307 -0.1505083591 0.4954483807 4292401630
-0.2564500570 -0.1497355103 0.4947136939 4292533216
-0.2565133572 -0.1492226720 0.4948358238 4292599008
-0.2565764785 -0.1487094611 0.4949575663 4292599008
-0.2566394210 -0.1481958628 0.4950789809 4292599008
-0.2567021549 -0.1476818919 0.4952000082 4292599008
-0.2567647099 -0.1471675485 0.4953207076 4292664802
-0.2568270862 -0.1466528177 0.4954410195 4292401630
-0.2573345006 -0.1463910043 0.4964198172 4292006872
-0.2573965788 -0.1458746344 0.4965396225 4291414735
-0.2574585080 -0.1453578919 0.4966590405 4290756804
-0.2575202286 -0.1448407918 0.4967781007 4290427839
-0.2580273747 -0.1445730031 0.4977564812 4291217355
-0.2576430738 -0.1438054591 0.4970151186 4291809492
-0.2581500709 -0.1435351372 0.4979931712 4292401629
-0.2582111359 -0.1430156529 0.4981109500 4292664801
-0.2582720220 -0.1424957961 0.4982283711 4292730594
-0.2578864992 -0.1417303681 0.4974847138 4292796387
-0.2579468787 -0.1412106752 0.4976011813 4292862180
-0.2580070794 -0.1406906247 0.4977172911 4292862180
-0.2576205730 -0.1399277002 0.4969716966 4292730595
-0.2576802671 -0.1394078135 0.4970868528 4292730595
-0.2577397525 -0.1388875693 0.4972016215 4292862181
-0.2582458556 -0.1386067867 0.4981779158 4292862181
-0.2578581572 -0.1378460228 0.4974300265 4292796388
-0.2583640814 -0.1375627071 0.4984059632 4292730595
-0.2584228814 -0.1370401233 0.4985194206 4292664802
-0.2584815025 -0.1365171969 0.4986324906 4292599009
-0.2585399151 -0.1359938979 0.4987452030 4292599009
-0.2585981488 -0.1354702562 0.4988574982 4292796388
-0.2586561441 -0.1349462718 0.4989694357 4293059560
-0.2587139904 -0.1344219148 0.4990809858 4293322732
-0.2587715983 -0.1338972151 0.4991921484 4293256939
-0.2588290274 -0.1333721727 0.4993029237 4293125353
-0.2588862479 -0.1328467727 0.4994133115 4293125353
-0.2589432597 -0.1323210299 0.4995233119 4293256939
-0.2590000927 -0.1317949295 0.4996329248 4293125867
-0.2590567172 -0.1312685013 0.4997421205 4293125867
-0.2591131330 -0.1307417154 0.4998509586 4293191660
-0.2587209642 -0.1299893111 0.4990944266 4293323246
-0.2587768734 -0.1294627488 0.4992022812 4293520625
-0.2588325739 -0.1289358586 0.4993097782 4293454832
-0.2588880956 -0.1284086108 0.4994168580 4293257453
-0.2589433789 -0.1278810352 0.4995235205 4293191660
-0.2589984834 -0.1273531318 0.4996298254 4293257455
-0.2590533793 -0.1268248707 0.4997357130 4293454834
-0.2591080666 -0.1262962967 0.4998412132 4293652213
-0.2591625750 -0.1257673800 0.4999463260 4293652213
-0.2592168450 -0.1252381206 0.5000510216 4293586420
-0.2592709064 -0.1247085407 0.5001553297 4293586420
-0.2597742081 -0.1243938357 0.5011262894 4293652213
-0.2598279715 -0.1238626763 0.5012299418 4293586420
-0.2598814964 -0.1233311817 0.5013332367 4293586420
-0.2599348426 -0.1227993593 0.5014361143 4293257455
-0.2599879801 -0.1222672164 0.5015386343 4292994283
-0.2600408792 -0.1217347383 0.5016406775 4292402146
-0.2600935996 -0.1212019473 0.5017423630 4291546839
-0.2601460814 -0.1206688210 0.5018436313 4290823116
-0.2601983845 -0.1201353818 0.5019444823 4290165186
-0.2598001957 -0.1193946898 0.5011763573 4289507256
-0.2598519623 -0.1188615337 0.5012762547 4289835703
-0.2599035501 -0.1183280572 0.5013757348 4290427840
-0.2599548995 -0.1177942604 0.5014747977 4291152590
-0.2600060403 -0.1172601506 0.5015734434 4292139485
-0.2600569427 -0.1167257279 0.5016716719 4292797931
-0.2605584562 -0.1163923591 0.5026391149 4293324275
-0.2606090605 -0.1158563793 0.5027367473 4293456115
-0.2611103952 -0.1155196056 0.5037038922 4293456115
-0.2611606419 -0.1149820760 0.5038008094 4293521138
-0.2612106800 -0.1144442409 0.5038973093 4293718517
-0.2612604797 -0.1139060929 0.5039933920 4293653240
-0.2613101006 -0.1133676395 0.5040891171 4293521654
-0.2613594830 -0.1128288805 0.5041843653 4293587447
-0.2609571517 -0.1120958775 0.5034082532 4293455861
-0.2610060275 -0.1115574390 0.5035025477 4293389554
-0.2610546649 -0.1110187024 0.5035963655 4293257968
-0.2615548372 -0.1106708050 0.5045612454 4293325049
-0.2611513138 -0.1099403203 0.5037828088 4293259256
-0.2611993253 -0.1094006822 0.5038753748 4293652211
-0.2612470984 -0.1088607535 0.5039675832 4293718004
-0.2617467046 -0.1085079312 0.5049313903 4293914355
-0.2617941201 -0.1079664677 0.5050228238 4293980148
-0.2618413270 -0.1074247137 0.5051138997 4293456887
-0.2614359856 -0.1066980734 0.5043319464 4293522680
-0.2619350553 -0.1063403338 0.5052947402 4293128953
-0.2619816065 -0.1057977080 0.5053845048 4292668402
-0.2620279193 -0.1052547991 0.5054738522 4290239716
-0.2620739937 -0.1047115922 0.5055627227 4288265926
-0.2625725865 -0.1043480188 0.5065245628 4283938742
-0.2626183033 -0.1038033068 0.5066127777 4282886054
-0.2626638114 -0.1032583117 0.5067005157 4281248428
-0.2631620467 -0.1028901264 0.5076616406 4281445807
-0.2632071674 -0.1023436263 0.5077487230 4281182381
-0.2637051940 -0.1019720510 0.5087094307 4281577139
-0.2637499273 -0.1014240533 0.5087957382 4281116591
-0.2637944818 -0.1008757725 0.5088816881 4280392868
-0.2638387680 -0.1003272161 0.5089671612 4280065443
-0.2638828456 -0.0997783840 0.5090521574 4280065443
-0.2639267147 -0.0992292762 0.5091367364 4280524964
-0.2639703155 -0.0986799002 0.5092208982 4281314480
-0.2640137374 -0.0981302485 0.5093046427 4283543221
-0.2640568912 -0.0975803286 0.5093879104 4285451218
-0.2640998363 -0.0970301330 0.5094707608 4289452772
-0.2641425431 -0.0964796767 0.5095531344 4290571253
-0.2641850114 -0.0959289521 0.5096350908 4292799733
-0.2642272711 -0.0953779593 0.5097165704 4293062905
-0.2642692924 -0.0948267058 0.5097976327 4293455861
-0.2643110752 -0.0942751914 0.5098782778 4293587447
-0.2643526495 -0.0937234163 0.5099584460 4293652726
-0.2639396787 -0.0930112898 0.5091618299 4293389554
-0.2639807165 -0.0924599469 0.5092409253 4293061103
-0.2644759417 -0.0920665339 0.5101962686 4292929517
-0.2645165622 -0.0915137306 0.5102746487 4292995310
-0.2645569742 -0.0909606665 0.5103526115 4293126896
-0.2641425133 -0.0902520120 0.5095530748 4293521140
-0.2646370828 -0.0898537859 0.5105071068 4293652726
-0.2646767795 -0.0892999694 0.5105836987 4293652724
-0.2647162378 -0.0887459069 0.5106598139 4293652724
-0.2652103901 -0.0883431286 0.5116130710 4293652724
-0.2652494609 -0.0877876207 0.5116884708 4293652724
-0.2652882934 -0.0872318670 0.5117633343 4293718517
-0.2657819688 -0.0868245438 0.5127157569 4293784310
-0.2658204138 -0.0862673521 0.5127898455 4293849590
-0.2658585906 -0.0857099146 0.5128635168 4293783797
-0.2658965588 -0.0851522386 0.5129367709 4293915383
-0.2659342587 -0.0845943317 0.5130094886 4293915383
-0.2659717500 -0.0840361789 0.5130817890 4293981176
-0.2660089731 -0.0834777951 0.5131536722 4294046969
-0.2660459876 -0.0829191804 0.5132250190 4293981176
-0.2665383816 -0.0825013593 0.5141748786 4293981176
-0.2665749788 -0.0819413215 0.5142454505 4293981176
-0.2666113079 -0.0813810527 0.5143156052 4293915383
-0.2666474283 -0.0808205530 0.5143852830 4293981176
-0.2666832805 -0.0802598298 0.5144544244 4293981176
-0.2667189240 -0.0796988830 0.5145232081 4293981176
-0.2667542994 -0.0791377053 0.5145914555 4293981176
-0.2667894661 -0.0785763115 0.5146592259 4293981176
-0.2668243647 -0.0780146942 0.5147265792 4293981176
-0.2673152089 -0.0775852576 0.5156734586 4294046969
-0.2668934464 -0.0768908039 0.5148598552 4294046969
-0.2669276297 -0.0763285309 0.5149258375 4293981431
-0.2674179077 -0.0758955628 0.5158715844 4294047224
-0.2674516737 -0.0753318965 0.5159367323 4294047224
-0.2674852014 -0.0747680217 0.5160013437 4294113017
-0.2679749727 -0.0743305609 0.5169461966 4294113017
-0.2680080533 -0.0737653002 0.5170100331 4294113017
-0.2680408955 -0.0731998384 0.5170733929 4294047224
-0.2676168084 -0.0725104213 0.5162552595 4294047224
-0.2676490843 -0.0719455034 0.5163175464 4294047224
-0.2672243416 -0.0712585747 0.5154981613 4294047224
-0.2677129209 -0.0708150640 0.5164406896 4294113017
-0.2677444816 -0.0702495426 0.5165016055 4294113017
-0.2677758038 -0.0696838200 0.5165619850 4294113017
-0.2678068578 -0.0691178963 0.5166218877 4294113017
-0.2682947516 -0.0686687604 0.5175630450 4294113017
-0.2683253586 -0.0681014881 0.5176221728 4294113017
-0.2683557272 -0.0675340146 0.5176807642 4294113015
-0.2688430846 -0.0670804381 0.5186208487 4294113015
-0.2693302929 -0.0666247308 0.5195606947 4294113015
-0.2693600059 -0.0660547540 0.5196180940 4294047222
-0.2693895102 -0.0654845834 0.5196749568 4294047222
-0.2694187462 -0.0649142340 0.5197313428 4294047222
-0.2694477141 -0.0643436983 0.5197872519 4293981429
-0.2694764733 -0.0637729764 0.5198426843 4294047222
-0.2690473795 -0.0630947724 0.5190150142 4293981429
-0.2690755725 -0.0625246614 0.5190693736 4294047222
-0.2691035271 -0.0619543679 0.5191232562 4294243831
-0.2691312134 -0.0613838993 0.5191766620 4294243831
-0.2691586316 -0.0608132556 0.5192295909 4294309624
-0.2701014280 -0.0604473464 0.5210483074 4294375417
-0.2701284587 -0.0598744154 0.5211004615 4294375417
-0.2701552212 -0.0593013130 0.5211520791 4294375417
-0.2701817453 -0.0587280393 0.5212032795 4294835199
-0.2702080309 -0.0581545979 0.5212539434 4294967039
-0.2702340484 -0.0575809926 0.5213041306 4294507253
-0.2707178593 -0.0571038425 0.5222374797 4294375667
-0.2707434297 -0.0565289371 0.5222867727 4294376700
-0.2707687318 -0.0559538677 0.5223355889 4294310907
-0.2707937658 -0.0553786345 0.5223839283 4294044401
-0.2708185613 -0.0548032485 0.5224317312 4292267990
-0.2713013887 -0.0543194562 0.5233631134 4291200133
-0.2713257074 -0.0537427813 0.5234100223 4289094757
-0.2713497579 -0.0531659499 0.5234564543 4291054667
-0.2713735700 -0.0525889695 0.5235024095 4291778390
-0.2718555927 -0.0520996936 0.5244322419 4291908949
-0.2718789279 -0.0515214317 0.5244772434 4291579984
-0.2723605335 -0.0510289334 0.5254063010 4291514193
-0.2723833919 -0.0504494049 0.5254504085 4291514193
-0.2728646100 -0.0499536879 0.5263786912 4291775821
-0.2728869915 -0.0493728928 0.5264219046 4291578442
-0.2729091048 -0.0487919562 0.5264645815 4291185478
-0.2733896971 -0.0482919067 0.5273916721 4291251271
-0.2734113336 -0.0477097146 0.5274334550 4290989639
-0.2734327316 -0.0471273847 0.5274747014 4290923846
-0.2734538615 -0.0465449207 0.5275154710 4290989126
-0.2739335895 -0.0460394397 0.5284408927 4291120712
-0.2739542425 -0.0454557277 0.5284807086 4291447371
-0.2739746273 -0.0448718891 0.5285200477 4291249992
-0.2744536996 -0.0443621017 0.5294442177 4291512910
-0.2744736075 -0.0437770225 0.5294826031 4291578703
-0.2744932175 -0.0431918204 0.5295204520 4290594894
-0.2749716640 -0.0426777415 0.5304433703 4290594894
-0.2749907970 -0.0420913100 0.5304803252 4291190627
-0.2750096917 -0.0415047593 0.5305167437 4292835452
-0.2750283182 -0.0409180857 0.5305526853 4293239976
-0.2764241993 -0.0405332893 0.5332454443 4294950851
-0.2750647664 -0.0397443920 0.5306230187 4293520098
-0.2750825882 -0.0391573682 0.5306574106 4294243821
-0.2760186791 -0.0386990160 0.5324631929 4294311675
-0.2760360539 -0.0381098092 0.5324966908 4294574079
-0.2760531604 -0.0375204906 0.5325297117 4294967039
-0.2765293419 -0.0369925126 0.5334482789 4294966783
-0.2765459418 -0.0364019983 0.5334802866 4293982710
-0.2765622735 -0.0358113796 0.5335118175 4293982710
-0.2770377696 -0.0352791622 0.5344290733 4294178808
-0.2770535946 -0.0346873552 0.5344596505 4294178808
-0.2770691514 -0.0340954475 0.5344896317 4294440442
-0.2770844400 -0.0335034393 0.5345191360 4294506235
-0.2770994902 -0.0329113342 0.5345481634 4294244603
-0.2775737941 -0.0323727317 0.5354631543 4294244603
-0.2775883079 -0.0317794569 0.5354911685 4294309626
-0.2776025832 -0.0311860889 0.5355186462 4294309626
-0.2776165605 -0.0305926315 0.5355456471 4294309626
-0.2780899405 -0.0300487522 0.5364587903 4294243833
-0.2781034112 -0.0294541344 0.5364848375 4294243831
-0.2785763144 -0.0289071333 0.5373970866 4294178038
-0.2785892785 -0.0283113625 0.5374220610 4294178038
-0.2790617049 -0.0277612470 0.5383334160 4294178038
-0.2795338929 -0.0272090826 0.5392443538 4294309624
-0.2804656625 -0.0266986415 0.5410417914 4294375417
-0.2804776132 -0.0260986183 0.5410648584 4294376187
-0.2804892957 -0.0254985187 0.5410873890 4294441980
-0.2805007100 -0.0248983447 0.5411094427 4294507773
-0.2809717357 -0.0243379325 0.5420180559 4294573566
-0.2809826136 -0.0237366315 0.5420390368 4294573566
-0.2809932530 -0.0231352635 0.5420595407 4294639359
-0.2810035944 -0.0225338265 0.5420795083 4294573564
-0.2819335163 -0.0220041145 0.5438734293 4294507771
-0.2819433510 -0.0214005802 0.5438923836 4294441978
-0.2819529176 -0.0207969826 0.5439108610 4294113013
-0.2824221849 -0.0202262662 0.5448161364 4293849327
-0.2824312449 -0.0196215641 0.5448335409 4293454569
-0.2829000056 -0.0190477762 0.5457378030 4293059811
-0.2833684981 -0.0184719637 0.5466416478 4292862432
-0.2838367820 -0.0178941265 0.5475449562 4292467674
-0.2838447690 -0.0172862522 0.5475603342 4292204502
-0.2843125165 -0.0167053565 0.5484626889 4292006608
-0.2843199670 -0.0160963964 0.5484770536 4291809229
-0.2847871780 -0.0155124497 0.5493783951 4291546057
-0.2847940922 -0.0149024120 0.5493916869 4291348678
-0.2857209146 -0.0143385101 0.5511795878 4291217092
-0.2857272923 -0.0137264160 0.5511919260 4291019713
-0.2861934900 -0.0131353997 0.5520912409 4290954433
-0.2866594493 -0.0125423735 0.5529900789 4290691261
-0.2871251106 -0.0119473394 0.5538884401 4290428089
-0.2871304154 -0.0113321384 0.5538986325 4290164917
-0.2880557179 -0.0107512530 0.5556836724 4289901232
-0.2880604565 -0.0101340152 0.5556927919 4289506474
-0.2885250747 -0.0095319506 0.5565890670 4289045923
-0.2885292768 -0.0089136697 0.5565971732 4288519579
-0.2885331810 -0.0082953628 0.5566046834 4288256661
-0.2889969945 -0.0076892758 0.5574994087 4288388247
-0.2894605398 -0.0070811938 0.5583936572 4288388247
-0.2894636095 -0.0064608473 0.5583995581 4288190868
-0.2899265885 -0.0058497670 0.5592927337 4288059282
-0.2899290919 -0.0052283979 0.5592975616 4288190868
-0.2903915346 -0.0046143266 0.5601896644 4288388247
-0.2908537090 -0.0039982689 0.5610812306 4288651419
-0.2913155854 -0.0033802271 0.5619722605 4288520092
-0.2917772233 -0.0027602026 0.5628626943 4288454299
-0.2917783260 -0.0021348300 0.5628648400 4288387993
-0.2926995754 -0.0015142127 0.5646420717 4288453786
-0.2927001417 -0.0008868566 0.5646430850 4288651165
-0.2931606174 -0.0002599060 0.5655314326 4288848544
-0.2931605875 0.0003684398 0.5655313730 4288849057
-0.2931602895 0.0009967847 0.5655307770 4288914850
-0.2936199009 0.0016276777 0.5664174557 4288651678
-0.2940792441 0.0022605387 0.5673035383 4288651678
-0.2949984968 0.0028998901 0.5690768361 4288716958
-0.2949970365 0.0035321577 0.5690740347 4288585372
-0.2954555154 0.0041709119 0.5699584484 4288585626
-0.2954534590 0.0048041432 0.5699545145 4288519833
-0.2963715494 0.0054542995 0.5717256069 4288520092
-0.2963689268 0.0060894741 0.5717205405 4288717471
-0.2968262136 0.0067350725 0.5726026893 4288915366
-0.2968230247 0.0073711951 0.5725964904 4288981159
-0.2972797155 0.0080197109 0.5734775066 4289243817
-0.2972759306 0.0086567756 0.5734702349 4289375403
-0.2981922030 0.0093225883 0.5752377510 4289638321
-0.2981878221 0.0099615725 0.5752293468 4289835700
-0.2981831729 0.0106005277 0.5752203465 4289836470
-0.2981781960 0.0112394514 0.5752107501 4289968056
-0.2986330986 0.0118966736 0.5760883093 4290297019
-0.2990877032 0.0125558330 0.5769652724 4290362812
-0.2995419800 0.0132169276 0.5778415799 4290428091
-0.2995358407 0.0138586666 0.5778297782 4290625470
-0.2995294034 0.0145003647 0.5778173208 4290691009
-0.3004428744 0.0151885413 0.5795794725 4290296251
-0.3004358411 0.0158321243 0.5795659423 4289507505
-0.2968592048 -0.2744486928 0.5738959312 4287664270
-0.2973875701 -0.2742984295 0.5749173760 4287466891
-0.2958002388 -0.2721989453 0.5718486905 4287598477
-0.2950582206 -0.2708823681 0.5704142451 4287598479
-0.2951624095 -0.2703440487 0.5706156492 4287532686
-0.2952664793 -0.2698051333 0.5708168745 4287730067
-0.2940990925 -0.2681066990 0.5685600042 4287927446
-0.2942024469 -0.2675690055 0.5687598586 4287927444
-0.2938815951 -0.2666459382 0.5681395531 4287795858
-0.2939845324 -0.2661078572 0.5683385134 4287729552
-0.2936629653 -0.2651860118 0.5677168965 4287729552
-0.2933409512 -0.2642651498 0.5670943856 4287926931
-0.2921691835 -0.2625819743 0.5648290515 4287992724
-0.2914212048 -0.2612837851 0.5633830428 4287861138
-0.2902475297 -0.2596080601 0.5611140728 4287861138
-0.2890728414 -0.2579364479 0.5588431358 4287926931
-0.2895981669 -0.2577831447 0.5598586798 4287795345
-0.2871458232 -0.2549834251 0.5551177859 4287795345
-0.2880959511 -0.2552083135 0.5569546223 4287795345
-0.2864923775 -0.2531724274 0.5538545251 4287729552
-0.2857391834 -0.2518930733 0.5523983836 4287729552
-0.2845592499 -0.2502416968 0.5501173735 4287795345
-0.2838044763 -0.2489683330 0.5486581922 4287663759
-0.2821964025 -0.2469515055 0.5455493927 4287400587
-0.2827191353 -0.2468016893 0.5465599895 4287269001
-0.2815357447 -0.2451639175 0.5442722440 4287334278
-0.2807780802 -0.2439010292 0.5428074598 4287597450
-0.2800196707 -0.2426407784 0.5413413048 4287531659
-0.2784065604 -0.2406449765 0.5382227898 4287531659
-0.2776464522 -0.2393915802 0.5367532969 4287597966
-0.2773129046 -0.2385083437 0.5361084938 4287729552
-0.2765514851 -0.2372594625 0.5346365571 4287861392
-0.2757893801 -0.2360132486 0.5331631899 4287861392
-0.2750265300 -0.2347696871 0.5316884518 4287795599
-0.2742629945 -0.2335287929 0.5302123427 4287466634
-0.2734987140 -0.2322905809 0.5287348628 4287137928
-0.2727337480 -0.2310550511 0.5272559524 4287269514
-0.2719680667 -0.2298222035 0.5257757306 4287203721
-0.2707732320 -0.2282309234 0.5234658718 4286874756
-0.2704345584 -0.2273645848 0.5228111148 4286743170
-0.2696667612 -0.2261398286 0.5213267803 4286611584
-0.2684693635 -0.2245590538 0.5190119743 4286283130
-0.2677000165 -0.2233405113 0.5175246000 4286217337
-0.2673590779 -0.2224818021 0.5168655515 4286348923
-0.2665884495 -0.2212678939 0.5153757334 4286546302
-0.2662465274 -0.2204122245 0.5147147179 4286414203
-0.2654746175 -0.2192029804 0.5132224560 4286677375
-0.2647020221 -0.2179964632 0.5117288232 4288322715
-0.2634988427 -0.2164396197 0.5094028115 4290230712
-0.2627246976 -0.2152394056 0.5079061985 4291086537
-0.2623799741 -0.2143934071 0.5072398186 4291152330
-0.2616045773 -0.2131979018 0.5057407618 4291218636
-0.2608284652 -0.2120051533 0.5042403340 4291350222
-0.2596211135 -0.2104661316 0.5019062757 4291415504
-0.2588434517 -0.2092797458 0.5004028678 4291415504
-0.2576342821 -0.2077487260 0.4980652928 4291349711
-0.2572860718 -0.2069152892 0.4973921478 4291349711
-0.2565063536 -0.2057372630 0.4958847463 4291219406
-0.2557259202 -0.2045620084 0.4943760037 4291219406
-0.2553761899 -0.2037337124 0.4936998785 4291219406
-0.2545945048 -0.2025632560 0.4921887517 4291219406
-0.2542438209 -0.2017381191 0.4915107489 4291219152
-0.2538926899 -0.2009141594 0.4908319414 4291284945
-0.2539730668 -0.2004322559 0.4909873605 4291284945
-0.2531892061 -0.1992697865 0.4894719422 4291284945
-0.2528368235 -0.1984493732 0.4887907207 4291415761
-0.2524840534 -0.1976301521 0.4881087244 4291481554
-0.2525633276 -0.1971497089 0.4882619679 4291415761
-0.2522098422 -0.1963320524 0.4875786304 4291415761
-0.2522886992 -0.1958515346 0.4877310693 4291415761
-0.2523674071 -0.1953705549 0.4878832102 4291415761
-0.2520129383 -0.1945548505 0.4871979952 4291349968
-0.2520912290 -0.1940738112 0.4873493314 4291415761
-0.2521693707 -0.1935923100 0.4875003695 4291677394
-0.2522473633 -0.1931103766 0.4876511693 4291677394
-0.2518916726 -0.1922970116 0.4869635105 4290892241
-0.2519692183 -0.1918150038 0.4871134460 4290431690
-0.2520466447 -0.1913325489 0.4872631133 4288595907
-0.2521239221 -0.1908496618 0.4874124825 4287609012
-0.2522010207 -0.1903663278 0.4875615835 4285575078
-0.2522780001 -0.1898825467 0.4877103865 4284653976
-0.2523548305 -0.1893983185 0.4878589213 4283799437
-0.2524315119 -0.1889136583 0.4880071282 4285049504
-0.2525080144 -0.1884285510 0.4881550670 4287873211
-0.2521496713 -0.1876195222 0.4874622822 4289254864
-0.2517908812 -0.1868117154 0.4867686629 4290892759
-0.2518666983 -0.1863269657 0.4869152308 4290958552
-0.2519423366 -0.1858417839 0.4870614707 4291940314
-0.2520178556 -0.1853561550 0.4872074425 4291874521
-0.2525286078 -0.1851893812 0.4881948531 4291678934
-0.2526039183 -0.1847020388 0.4883404672 4291744727
-0.2526791096 -0.1842142642 0.4884858131 4291678934
-0.2527541220 -0.1837260574 0.4886308312 4291613141
-0.2528289855 -0.1832374036 0.4887755811 4291744727
-0.2529036999 -0.1827483326 0.4889200032 4291678934
-0.2529782653 -0.1822588146 0.4890641272 4291547347
-0.2530526519 -0.1817688793 0.4892079532 4291547347
-0.2531268895 -0.1812784970 0.4893514812 4291613140
-0.2536375225 -0.1810993999 0.4903386831 4291613140
-0.2528382242 -0.1799855977 0.4887934327 4290757831
-0.2529118657 -0.1794947833 0.4889357984 4290099901
-0.2534222901 -0.1793126911 0.4899225533 4290428866
-0.2526216209 -0.1782035381 0.4883746803 4290363073
-0.2526946664 -0.1777122915 0.4885158837 4290165694
-0.2532048523 -0.1775272191 0.4895021915 4290560452
-0.2532776892 -0.1770342737 0.4896430075 4291612114
-0.2533503771 -0.1765408814 0.4897835255 4291875286
-0.2534228861 -0.1760470867 0.4899237156 4291941079
-0.2534952462 -0.1755528599 0.4900636077 4291941079
-0.2535674572 -0.1750582010 0.4902032018 4291941079
-0.2540775537 -0.1748646200 0.4911893308 4291941079
-0.2537113726 -0.1740676314 0.4904814065 4291875286
-0.2542213798 -0.1738715023 0.4914673865 4291875286
-0.2538546026 -0.1730753779 0.4907583296 4291875286
-0.2530488670 -0.1719824970 0.4892006516 4292072665
-0.2535585165 -0.1717842519 0.4901859164 4291809493
-0.2531906366 -0.1709911674 0.4894747436 4291546321
-0.2532612681 -0.1704948843 0.4896112978 4291677907
-0.2533317506 -0.1699981838 0.4897475243 4291677907
-0.2534020543 -0.1695010513 0.4898834527 4291677907
-0.2534722090 -0.1690035313 0.4900190234 4291875286
-0.2535421550 -0.1685055792 0.4901542962 4291941078
-0.2536119521 -0.1680072248 0.4902892411 4292072664
-0.2536816001 -0.1675084531 0.4904238582 4292138457
-0.2537510693 -0.1670092791 0.4905581474 4292072664
-0.2538203597 -0.1665097028 0.4906921089 4292072664
-0.2538894713 -0.1660096943 0.4908257425 4292006871
-0.2539584339 -0.1655092984 0.4909590483 4292072664
-0.2540272176 -0.1650084853 0.4910920262 4292204250
-0.2540958226 -0.1645072699 0.4912246764 4292006871
-0.2541642785 -0.1640056372 0.4913569689 4292204250
-0.2542325258 -0.1635036170 0.4914889336 4292138457
-0.2538599074 -0.1627186835 0.4907685518 4291480527
-0.2534868717 -0.1619350910 0.4900473952 4291151562
-0.2535543740 -0.1614336073 0.4901778996 4291612113
-0.2536216974 -0.1609317064 0.4903080761 4292204250
-0.2536888719 -0.1604294181 0.4904379249 4292270043
-0.2537558675 -0.1599267274 0.4905674458 4291941079
-0.2542641163 -0.1597008854 0.4915499985 4291612114
-0.2543308735 -0.1591965258 0.4916790426 4291480528
-0.2543974519 -0.1586917639 0.4918077588 4291875286
-0.2544638515 -0.1581866145 0.4919361174 4292335837
-0.2545300722 -0.1576810628 0.4920641482 4292335837
-0.2545961142 -0.1571751237 0.4921918213 4292335837
-0.2546619773 -0.1566687822 0.4923191667 4292467423
-0.2547276616 -0.1561620533 0.4924461544 4292335837
-0.2552355230 -0.1559251696 0.4934279621 4292401630
-0.2553009689 -0.1554167718 0.4935545027 4292467423
-0.2553662360 -0.1549079865 0.4936806560 4292467423
-0.2554313242 -0.1543988138 0.4938064814 4292401630
-0.2554962337 -0.1538892537 0.4939319491 4292335837
-0.2551180422 -0.1531134695 0.4932008088 4292138458
-0.2556254864 -0.1528689563 0.4941818416 4291941079
-0.2556898296 -0.1523582339 0.4943062663 4292138457
-0.2553107738 -0.1515839547 0.4935734272 4292401629
-0.2553746402 -0.1510733515 0.4936968982 4292533216
-0.2554383278 -0.1505623609 0.4938200414 4292533216
-0.2555018365 -0.1500509977 0.4939428270 4292533216
-0.2551214695 -0.1492796242 0.4932074845 4292533216
-0.2551845014 -0.1487683803 0.4933293462 4292467422
-0.2552473545 -0.1482567638 0.4934508204 4292533215
-0.2553100288 -0.1477447599 0.4935719669 4292401629
-0.2553724945 -0.1472323835 0.4936927259 4292401629
-0.2554347813 -0.1467196345 0.4938131571 4292467423
-0.2559412122 -0.1464607716 0.4947922230 4292467423
-0.2560032308 -0.1459463835 0.4949121177 4292533216
-0.2560650706 -0.1454316229 0.4950316548 4292335837
-0.2561267018 -0.1449164748 0.4951508045 4291809492
-0.2561881542 -0.1444009691 0.4952695966 4291612113
-0.2566942871 -0.1441348940 0.4962480962 4292467422
-0.2567554712 -0.1436177343 0.4963663518 4292862180
-0.2568164766 -0.1431002319 0.4964842796 4292862180
-0.2568772733 -0.1425823420 0.4966017902 4292664801
-0.2569378614 -0.1420640945 0.4967189729 4292533215
-0.2569982708 -0.1415454745 0.4968357384 4292533215
-0.2566129863 -0.1407820731 0.4960908890 4292533215
-0.2566729188 -0.1402636319 0.4962067306 4292664801
-0.2567326427 -0.1397448182 0.4963222146 4292730595
-0.2563463449 -0.1389839351 0.4955754280 4292730595
-0.2564055920 -0.1384653002 0.4956899583 4292796388
-0.2564646304 -0.1379463226 0.4958041012 4292862181
-0.2569696009 -0.1376659721 0.4967803359 4292796388
-0.2570283711 -0.1371453702 0.4968939126 4292796388
-0.2570869327 -0.1366243958 0.4970071316 4292796388
-0.2571452856 -0.1361030787 0.4971199632 4292730595
-0.2572034597 -0.1355814040 0.4972324073 4292927973
-0.2572614253 -0.1350593865 0.4973444641 4292730594
-0.2573191822 -0.1345369965 0.4974561632 4292730594
-0.2573767602 -0.1340142637 0.4975674450 4293059559
-0.2574341297 -0.1334911883 0.4976783693 4293256939
-0.2574913204 -0.1329677552 0.4977889061 4293191146
-0.2575483024 -0.1324439794 0.4978990555 4293059560
-0.2576050758 -0.1319198459 0.4980088174 4293059560
-0.2576616406 -0.1313953847 0.4981181920 4293191146
-0.2577180266 -0.1308705658 0.4982271791 4293256939
-0.2577742040 -0.1303454041 0.4983357787 4293322732
-0.2573825419 -0.1295945197 0.4975786209 4293388525
-0.2574382126 -0.1290695816 0.4976862669 4293388525
-0.2574936748 -0.1285443008 0.4977934957 4293388525
-0.2575489581 -0.1280186921 0.4979003370 4293322732
-0.2576040328 -0.1274927408 0.4980067909 4293454318
-0.2576588988 -0.1269664615 0.4981128573 4293323246
-0.2577135563 -0.1264398396 0.4982185364 4293125867
-0.2577680051 -0.1259128749 0.4983237982 4293191660
-0.2578222454 -0.1253855824 0.4984286726 4293257453
-0.2583247721 -0.1250751168 0.4994001687 4293191662
-0.2583787143 -0.1245462373 0.4995044470 4293060076
-0.2584324479 -0.1240170375 0.4996083081 4292664548
-0.2589347064 -0.1237018928 0.5005792975 4291940825
-0.2589881122 -0.1231711134 0.5006825924 4291217102
-0.2590413094 -0.1226400062 0.5007854104 4290361793
-0.2590942979 -0.1221085712 0.5008878708 4289638072
-0.2586979568 -0.1213661060 0.5001215935 4289177521
-0.2587504387 -0.1208349392 0.5002231002 4288782763
-0.2588027120 -0.1203034520 0.5003241301 4289638072
-0.2588547766 -0.1197716445 0.5004248023 4291085518
-0.2584571242 -0.1190325096 0.4996560514 4291940827
-0.2585086823 -0.1185009852 0.4997557104 4292600289
-0.2585600317 -0.1179691479 0.4998549819 4292995047
-0.2590609193 -0.1176412255 0.5008233190 4293060587
-0.2586620748 -0.1169045195 0.5000522733 4292863208
-0.2591627240 -0.1165741235 0.5010201335 4292929517
-0.2592132986 -0.1160400957 0.5011178851 4293390068
-0.2597137988 -0.1157062873 0.5020854473 4293456628
-0.2597640455 -0.1151707172 0.5021826029 4293390835
-0.2598140538 -0.1146348268 0.5022792816 4293522421
-0.2598638833 -0.1140986308 0.5023756027 4293719800
-0.2599134743 -0.1135621294 0.5024715066 4293587701
-0.2599628866 -0.1130253226 0.5025669932 4293324529
-0.2600120604 -0.1124882102 0.5026620626 4293652213
-0.2596102953 -0.1117567644 0.5018853545 4293718006
-0.2596589625 -0.1112199798 0.5019794106 4293586420
-0.2597073913 -0.1106828824 0.5020730495 4293586420
-0.2602065802 -0.1103367209 0.5030381083 4293588213
-0.2602546513 -0.1097980961 0.5031310916 4293325041
-0.2603025436 -0.1092591733 0.5032236576 4293784050
-0.2603501976 -0.1087199599 0.5033157468 4293586671
-0.2603976130 -0.1081804410 0.5034074783 4293325041
-0.2604448497 -0.1076406389 0.5034987330 4293522420
-0.2604918480 -0.1071005389 0.5035895705 4293390835
-0.2609901428 -0.1067448258 0.5045529604 4293719800
-0.2610367835 -0.1062032059 0.5046431422 4293390835
-0.2610832155 -0.1056612954 0.5047328472 4293390835
-0.2611294091 -0.1051190943 0.5048221350 4293259510
-0.2611753941 -0.1045766100 0.5049110055 4292930545
-0.2612211406 -0.1040338427 0.5049994588 4290831086
-0.2612666786 -0.1034907848 0.5050874949 4289252054
-0.2617640793 -0.1031255573 0.5060490966 4284989127
-0.2618092299 -0.1025809944 0.5061364174 4283475888
-0.2623064220 -0.1022123843 0.5070976019 4280456604
-0.2628035545 -0.1018416062 0.5080586672 4279864467
-0.2623957694 -0.1011199728 0.5072703362 4279538071
-0.2628926039 -0.1007467583 0.5082308054 4280261794
-0.2629368007 -0.1001989171 0.5083162785 4280722862
-0.2629807591 -0.0996508002 0.5084012747 4281117620
-0.2630245090 -0.0991024077 0.5084857941 4281707449
-0.2630680203 -0.0985537469 0.5085699558 4281707449
-0.2631112933 -0.0980048105 0.5086536407 4282100665
-0.2631543577 -0.0974556059 0.5087368488 4281903286
-0.2631971836 -0.0969061330 0.5088196397 4282886578
-0.2632398009 -0.0963563919 0.5089020133 4284399817
-0.2632821798 -0.0958063826 0.5089839101 4288533721
-0.2633243203 -0.0952561125 0.5090653896 4290046960
-0.2633662224 -0.0947055742 0.5091464520 4293061103
-0.2634079158 -0.0941547826 0.5092270374 4293521654
-0.2634493709 -0.0936037228 0.5093071461 4293652472
-0.2634905875 -0.0930524021 0.5093868375 4293652472
-0.2635315657 -0.0925008282 0.5094661117 4293455863
-0.2635723352 -0.0919489935 0.5095449090 4293324277
-0.2631591558 -0.0912395939 0.5087460876 4293258482
-0.2631993890 -0.0906881988 0.5088238716 4293192689
-0.2632393837 -0.0901365578 0.5089011788 4293257968
-0.2632791400 -0.0895846635 0.5089780688 4293389554
-0.2633186877 -0.0890325159 0.5090544820 4293718519
-0.2633579671 -0.0884801298 0.5091304779 4293850105
-0.2638511658 -0.0880790874 0.5100839734 4293850103
-0.2638900876 -0.0875252485 0.5101591349 4293784310
-0.2639287412 -0.0869711712 0.5102338791 4293850103
-0.2644214928 -0.0865655839 0.5111865401 4293981689
-0.2644597590 -0.0860100612 0.5112605095 4294046969
-0.2644977868 -0.0854543000 0.5113340020 4294046969
-0.2645355761 -0.0848983005 0.5114070773 4293915383
-0.2645731568 -0.0843420625 0.5114796758 4293915383
-0.2646104693 -0.0837855861 0.5115518570 4293981176
-0.2646475434 -0.0832288787 0.5116235018 4293981176
-0.2651391923 -0.0828139856 0.5125739574 4293981176
-0.2651758492 -0.0822558552 0.5126448274 4293981176
-0.2652122974 -0.0816974938 0.5127152801 4294046969
-0.2652484775 -0.0811389014 0.5127852559 4293981176
-0.2652844489 -0.0805800855 0.5128547549 4294046969
-0.2653201520 -0.0800210387 0.5129238367 4293981176
-0.2653556466 -0.0794617683 0.5129923820 4294046969
-0.2653908730 -0.0789022744 0.5130605102 4294046969
-0.2658811510 -0.0784769356 0.5140083432 4293981176
-0.2659159601 -0.0779160336 0.5140756369 4293981176
-0.2659505606 -0.0773549229 0.5141425133 4293981176
