VERSION 0.7
FIELDS x y z rgba
SIZE 4 4 4 4
TYPE F F F U
COUNT 1 1 1 1
WIDTH 920
HEIGHT 1
VIEWPOINT 0.0 0.0 0.0 1.0 0.0 0.0 0.0
POINTS 920
DATA ascii
-0.2710310221 -0.1446924061 0.5118743181 4293190894
-0.2710934877 -0.1441569030 0.5119922757 4293388273
-0.2711557746 -0.1436210275 0.5121098757 4293519859
-0.2712178230 -0.1430847794 0.5122271180 4293585650
-0.2712796926 -0.1425481588 0.5123439431 4293585650
-0.2713413537 -0.1420111805 0.5124604106 4293585650
-0.2709482014 -0.1412368715 0.5117179155 4293585650
-0.2714640796 -0.1409361362 0.5126921535 4293454064
-0.2710703015 -0.1401628852 0.5119484663 4293388271
-0.2711310387 -0.1396253556 0.5120632052 4293519346
-0.2711915672 -0.1390874535 0.5121775270 4293519346
-0.2712518871 -0.1385492086 0.5122914314 4293519600
-0.2713119984 -0.1380105913 0.5124049783 4293519600
-0.2718272507 -0.1377022862 0.5133780837 4293585391
-0.2718870342 -0.1371620446 0.5134909749 4293651184
-0.2719466388 -0.1366214603 0.5136035681 4293585904
-0.2720060050 -0.1360805184 0.5137156844 4293520111
-0.2725208998 -0.1357662529 0.5146881342 4293454318
-0.2725799680 -0.1352237016 0.5147996545 4293651697
-0.2726388276 -0.1346807927 0.5149108171 4293650673
-0.2726974487 -0.1341375411 0.5150215626 4293782259
-0.2727558911 -0.1335939318 0.5151318908 4294240498
-0.2728140950 -0.1330499649 0.5152418613 4293845740
-0.2724157870 -0.1322840750 0.5144895911 4292462802
-0.2724734843 -0.1317403316 0.5145985484 4289962668
-0.2725309730 -0.1311962456 0.5147071481 4289422193
-0.2725882232 -0.1306518167 0.5148152709 4287777368
-0.2726452649 -0.1301070452 0.5149230361 4287575877
-0.2727020979 -0.1295619309 0.5150303245 4288102221
-0.2732156217 -0.1292325854 0.5160001516 4289348171
-0.2732720971 -0.1286858767 0.5161068439 4289019206
-0.2728713155 -0.1279245615 0.5153499246 4289018432
-0.2729272842 -0.1273780912 0.5154556632 4289281604
-0.2729830444 -0.1268312931 0.5155609250 4288953411
-0.2730385959 -0.1262841523 0.5156658292 4289019204
-0.2730939090 -0.1257366836 0.5157703161 4288889421
-0.2731490135 -0.1251888722 0.5158743858 4289021007
-0.2732038796 -0.1246407405 0.5159780383 4288563285
-0.2732585669 -0.1240922734 0.5160812736 4288694871
-0.2733129859 -0.1235434785 0.5161840916 4288434783
-0.2738251090 -0.1232003793 0.5171512961 4288697955
-0.2738792300 -0.1226500124 0.5172534585 4289222506
-0.2739330828 -0.1220993176 0.5173552036 4289354092
-0.2739867568 -0.1215483025 0.5174565315 4288767092
-0.2744984329 -0.1211993024 0.5184229612 4289293436
-0.2740933895 -0.1204453036 0.5176579356 4288774281
-0.2741463780 -0.1198933199 0.5177580118 4289761176
-0.2746576667 -0.1195405871 0.5187236667 4290028970
-0.2747102976 -0.1189870387 0.5188230276 4290752693
-0.2747626901 -0.1184331775 0.5189220309 4291478726
-0.2748148739 -0.1178790033 0.5190205574 4292070863
-0.2748668194 -0.1173245087 0.5191186666 4292729052
-0.2749185562 -0.1167697012 0.5192163587 4293189603
-0.2749700546 -0.1162145808 0.5193136334 4293518570
-0.2750213146 -0.1156591475 0.5194104910 4293650156
-0.2750723660 -0.1151034087 0.5195068717 4293584878
-0.2755824924 -0.1147385910 0.5204703212 4293650671
-0.2756331861 -0.1141813025 0.5205660462 4293454834
-0.2756836116 -0.1136237085 0.5206612945 4293454834
-0.2757338583 -0.1130658090 0.5207561255 4293454834
-0.2753241956 -0.1123200953 0.5199824572 4293389041
-0.2753738761 -0.1117625237 0.5200763345 4293454834
-0.2754233181 -0.1112046465 0.5201696754 4293520627
-0.2754725516 -0.1106464714 0.5202626586 4293520627
-0.2755215466 -0.1100879908 0.5203551650 4293586420
-0.2755703032 -0.1095292196 0.5204472542 4293454834
-0.2756188214 -0.1089701504 0.5205389261 4293520627
-0.2756671309 -0.1084107906 0.5206301212 4293520625
-0.2757152021 -0.1078511328 0.5207208991 4293454832
-0.2757630348 -0.1072911844 0.5208112597 4293454832
-0.2758106291 -0.1067309529 0.5209011436 4293520625
-0.2763185203 -0.1063476652 0.5218603611 4293520625
-0.2768263519 -0.1059622243 0.5228194594 4293454832
-0.2768734097 -0.1053992510 0.5229083300 4293454834
-0.2769202292 -0.1048359871 0.5229967833 4293520627
-0.2769668102 -0.1042724401 0.5230847597 4293520627
-0.2774740756 -0.1038811654 0.5240427852 4293454834
-0.2775202692 -0.1033161134 0.5241300464 4293520627
-0.2775662243 -0.1027507782 0.5242168307 4293454834
-0.2776119411 -0.1021851674 0.5243031383 4293257455
-0.2776574194 -0.1016192734 0.5243890285 4293257455
-0.2777026594 -0.1010531038 0.5244745016 4293520627
-0.2777476609 -0.1004866585 0.5245594978 4293586420
-0.2777924240 -0.0999199376 0.5246440172 4293586420
-0.2778369486 -0.0993529409 0.5247281194 4293586420
-0.2778812647 -0.0987856761 0.5248118043 4293454834
-0.2779253125 -0.0982181355 0.5248949528 4293454834
-0.2779690921 -0.0976503268 0.5249776840 4293586420
-0.2780126631 -0.0970822573 0.5250599980 4293520627
-0.2780559957 -0.0965139121 0.5251418352 4293389041
-0.2780990899 -0.0959453136 0.5252231956 4293520627
-0.2781419158 -0.0953764394 0.5253040791 4293586420
-0.2781845331 -0.0948073119 0.5253845453 4293389041
-0.2782268822 -0.0942379162 0.5254645944 4293257455
-0.2791934907 -0.0939794555 0.5272901058 4293060076
-0.2792355120 -0.0934076533 0.5273694396 4292731109
-0.2788149118 -0.0926818922 0.5265750885 4292731109
-0.2788563669 -0.0921105221 0.5266534090 4292599009
-0.2788975835 -0.0915388986 0.5267311931 4292664802
-0.2789385319 -0.0909670293 0.5268086195 4292730595
-0.2789792717 -0.0903948992 0.5268855095 4292862181
-0.2790197432 -0.0898225233 0.5269619226 4292927974
-0.2790599763 -0.0892499015 0.5270379186 4292927974
-0.2790999711 -0.0886770263 0.5271134377 4293125353
-0.2791396976 -0.0881039053 0.5271885395 4293454318
-0.2791791856 -0.0875305459 0.5272631049 4293389039
-0.2792184353 -0.0869569406 0.5273372531 4293257453
-0.2792574465 -0.0863830969 0.5274108648 4293191660
-0.2792961895 -0.0858090147 0.5274840593 4293257453
-0.2793346941 -0.0852346867 0.5275567770 4293191660
-0.2793729603 -0.0846601278 0.5276290774 4293257453
-0.2794109583 -0.0840853304 0.5277008414 4293389039
-0.2799121439 -0.0836487934 0.5286473632 4293060074
-0.2804132104 -0.0832101181 0.5295937061 4293126122
-0.2804506123 -0.0826327130 0.5296643376 4293126122
-0.2804877460 -0.0820550844 0.5297344327 4293060329
-0.2805246413 -0.0814772248 0.5298041105 4293060329
-0.2805612683 -0.0808991343 0.5298733115 4293125352
-0.2810614407 -0.0804535821 0.5308179259 4293125352
-0.2810976207 -0.0798740909 0.5308862925 4293125352
-0.2811335623 -0.0792943761 0.5309541821 4293059559
-0.2807052732 -0.0785845444 0.5301452875 4292994534
-0.2807406485 -0.0780053437 0.5302121043 4292994534
-0.2807757556 -0.0774259269 0.5302783847 4292928741
-0.2812747955 -0.0769733116 0.5312208533 4292928741
-0.2817736566 -0.0765185580 0.5321630239 4292862948
-0.2822723985 -0.0760616809 0.5331049562 4292797155
-0.2823066711 -0.0754785240 0.5331696868 4292797155
-0.2818763256 -0.0747719780 0.5323569179 4292731362
-0.2819100320 -0.0741893575 0.5324205756 4292731362
-0.2819434702 -0.0736065358 0.5324837565 4292797155
-0.2819766700 -0.0730235055 0.5325464606 4292797155
-0.2820096016 -0.0724402666 0.5326086879 4292797155
-0.2820422947 -0.0718568265 0.5326703787 4292731364
-0.2820747197 -0.0712731853 0.5327316523 4292731364
-0.2816421390 -0.0705728903 0.5319146514 4292665571
-0.2816739976 -0.0699898079 0.5319747925 4292665571
-0.2817055881 -0.0694065318 0.5320345163 4292599778
-0.2817369401 -0.0688230619 0.5320937037 4292599778
-0.2822329700 -0.0683519989 0.5330305099 4292599776
-0.2822638452 -0.0677671805 0.5330888629 4292599776
-0.2822944820 -0.0671821684 0.5331466794 4292599776
-0.2823248506 -0.0665969625 0.5332040191 4292599776
-0.2828201056 -0.0661203265 0.5341393948 4292665569
-0.2833152115 -0.0656415671 0.5350744724 4292665569
-0.2833448946 -0.0650538802 0.5351305008 4292665569
-0.2833743095 -0.0644659996 0.5351860523 4292665569
-0.2834034562 -0.0638779476 0.5352411270 4292665567
-0.2834323645 -0.0632897094 0.5352957249 4292665567
-0.2834610045 -0.0627012849 0.5353497863 4292599774
-0.2839548886 -0.0622146837 0.5362825394 4292599774
-0.2844485641 -0.0617259704 0.5372149348 4292599774
-0.2844765186 -0.0611350909 0.5372677445 4292599774
-0.2845042050 -0.0605440401 0.5373200178 4292533983
-0.2845316231 -0.0599528141 0.5373717546 4292533983
-0.2845587730 -0.0593614206 0.5374230742 4292599776
-0.2845856547 -0.0587698556 0.5374737978 4292599776
-0.2846122682 -0.0581781268 0.5375241041 4292533983
-0.2851044834 -0.0576804802 0.5384536982 4292468190
-0.2851306200 -0.0570874512 0.5385030508 4292533983
-0.2856224179 -0.0565865710 0.5394319296 4292533983
-0.2856480777 -0.0559922531 0.5394803286 4292468190
-0.2856734395 -0.0553977713 0.5395282507 4292468190
-0.2856985629 -0.0548031330 0.5395756960 4292402910
-0.2861895263 -0.0542967729 0.5405029058 4292402910
-0.2862141430 -0.0537008531 0.5405494571 4292402910
-0.2862384915 -0.0531047843 0.5405954123 4292402910
-0.2862625718 -0.0525085591 0.5406408906 4292402910
-0.2858201265 -0.0518276393 0.5398052931 4292402910
-0.2863099277 -0.0513156690 0.5407303572 4292337117
-0.2867995501 -0.0508016050 0.5416550636 4292337117
-0.2868226171 -0.0502038226 0.5416985750 4292337117
-0.2868453860 -0.0496058948 0.5417416096 4292337117
-0.2878007889 -0.0491672046 0.5435460210 4292337117
-0.2868901491 -0.0484096184 0.5418261290 4292271324
-0.2864455879 -0.0477335304 0.5409865379 4292336604
-0.2864672542 -0.0471360199 0.5410274863 4292336604
-0.2864886522 -0.0465383753 0.5410678387 4292402397
-0.2869763970 -0.0460154228 0.5419890285 4292336604
-0.2869972885 -0.0454165377 0.5420284867 4292336604
-0.2870179117 -0.0448175259 0.5420674682 4292270811
-0.2870382667 -0.0442183837 0.5421058536 4292467420
-0.2875250876 -0.0436900407 0.5430253148 4292467420
-0.2880117297 -0.0431596264 0.5439443588 4292467420
-0.2880313098 -0.0425581597 0.5439813733 4292467420
-0.2885175049 -0.0420245752 0.5448995829 4292336604
-0.2890034616 -0.0414889157 0.5458174348 4292270811
-0.2890223265 -0.0408851393 0.5458530188 4292205018
-0.2890408933 -0.0402812436 0.5458880663 4292270811
-0.2890591621 -0.0396772362 0.5459226370 4292205018
-0.2867421508 -0.0387574956 0.5415466428 4292205018
-0.2904960513 -0.0386553183 0.5486363173 4292270811
-0.2891124189 -0.0378645286 0.5460231304 4292270811
-0.2891296148 -0.0372600742 0.5460556149 4292270811
-0.2896136343 -0.0367147289 0.5469698310 4292205018
-0.2900974751 -0.0361673273 0.5478835702 4292270809
-0.2905810475 -0.0356178656 0.5487968922 4292336602
-0.2905972302 -0.0350100622 0.5488274097 4292401881
-0.2906131446 -0.0344021581 0.5488574505 4292467674
-0.2906287611 -0.0337941535 0.5488869548 4292533467
-0.2906441092 -0.0331860520 0.5489159226 4292599260
-0.2911264598 -0.0326302312 0.5498269200 4292205527
-0.2906739414 -0.0319695659 0.5489723086 4292337113
-0.2906884551 -0.0313611850 0.5489997268 4292205270
-0.2907027006 -0.0307527129 0.5490266085 4292271063
-0.2907166481 -0.0301441513 0.5490529537 4292270809
-0.2907303274 -0.0295355041 0.5490788221 4292270809
-0.2907437384 -0.0289267730 0.5491040945 4292598749
-0.2907568514 -0.0283179563 0.5491288900 4292269784
-0.2912371755 -0.0277536083 0.5500360131 4292204765
-0.2912497520 -0.0271436516 0.5500597954 4292073179
-0.2912620902 -0.0265336167 0.5500830412 4291026912
-0.2912741005 -0.0259235054 0.5501057506 4290632154
-0.2912858427 -0.0253133196 0.5501279831 4288469460
-0.2912973166 -0.0247030612 0.5501496196 4288140495
-0.2917761207 -0.0241314042 0.5510538816 4287025613
-0.2922546566 -0.0235577170 0.5519576669 4286170304
-0.2922653258 -0.0229452904 0.5519778132 4285053373
-0.2922756970 -0.0223327968 0.5519974232 4284527029
-0.2922858298 -0.0217202399 0.5520164967 4283083951
-0.2922956347 -0.0211076196 0.5520350933 4282623400
-0.2923052013 -0.0204949379 0.5520530939 4281182635
-0.2923144698 -0.0198821984 0.5520706177 4280985256
-0.2923234403 -0.0192694012 0.5520876050 4279937453
-0.2927998900 -0.0186863970 0.5529873967 4279805867
-0.2928083241 -0.0180725101 0.5530033112 4279414193
-0.2928164601 -0.0174585693 0.5530187488 4279414193
-0.2928243577 -0.0168445799 0.5530335903 4279283635
-0.2932997346 -0.0162564684 0.5539314151 4279349428
-0.2933070362 -0.0156414006 0.5539452434 4279546549
-0.2937819064 -0.0150502548 0.5548420548 4279546549
-0.2947242856 -0.0144800860 0.5566218495 4279546547
-0.2961342931 -0.0139279552 0.5592848063 4279414961
-0.2970762253 -0.0133488737 0.5610637665 4279151791
-0.2984857261 -0.0127858706 0.5637258291 4279678135
-0.3008307517 -0.0122550596 0.5681546330 4279808952
-0.3027076721 -0.0116963228 0.5716994405 4280664261
-0.3050522804 -0.0111467959 0.5761274695 4280989881
-0.3073966205 -0.0105874222 0.5805550814 4279674021
-0.3102086782 -0.0100333365 0.5858659744 4284918958
-0.3120847046 -0.0094391387 0.5894090533 4288142815
-0.3148962855 -0.0088634007 0.5947190523 4292008669
-0.3177076280 -0.0082758572 0.6000286341 4292337634
-0.3195829391 -0.0076540960 0.6035703421 4292402910
-0.3214579523 -0.0070244591 0.6071115732 4292468703
-0.3233326972 -0.0063869478 0.6106522679 4292470241
-0.3242713213 -0.0057250410 0.6124249697 4292338655
-0.3256775737 -0.0050664698 0.6150808334 4292141530
-0.3266156316 -0.0043956949 0.6168524027 4292207323
-0.3280212879 -0.0037262961 0.6195071936 4292337887
-0.3289587200 -0.0030466614 0.6212776303 4292074715
-0.3294278979 -0.0023597383 0.6221637130 4292206301
-0.2693147063 -0.2465814650 0.5097020268 4288519070
-0.2695057988 -0.2456229925 0.5100637078 4288255898
-0.2691711783 -0.2447520047 0.5094304085 4288321691
-0.2692662776 -0.2442722619 0.5096103549 4288321691
-0.2689309716 -0.2434025705 0.5089757442 4288321691
-0.2690256834 -0.2429225743 0.5091549754 4288322204
-0.2686896622 -0.2420541644 0.5085190535 4288190618
-0.2687839866 -0.2415739298 0.5086975694 4288190877
-0.2684472799 -0.2407068163 0.5080603361 4288256670
-0.2685411870 -0.2402263433 0.5082380772 4288519842
-0.2686349750 -0.2397453636 0.5084155798 4288848807
-0.2678659558 -0.2384957671 0.5069601536 4288980391
-0.2679592073 -0.2380153388 0.5071366429 4288980391
-0.2676207125 -0.2371518910 0.5064959526 4289177252
-0.2677135468 -0.2366712242 0.5066716671 4289243045
-0.2678062916 -0.2361900508 0.5068471432 4289308838
-0.2678988874 -0.2357083857 0.5070224404 4289374631
-0.2679913640 -0.2352262139 0.5071974397 4289374631
-0.2676513195 -0.2343649268 0.5065538883 4289308838
-0.2677434087 -0.2338825464 0.5067281723 4289374631
-0.2678353488 -0.2333996594 0.5069021583 4289506217
-0.2679271698 -0.2329162806 0.5070759654 4289900975
-0.2675858736 -0.2320569158 0.5064300299 4289835182
-0.2676773071 -0.2315733135 0.5066030622 4289900975
-0.2677685916 -0.2310892344 0.5067758560 4290032561
-0.2674263120 -0.2302315086 0.5061280727 4290164147
-0.2670836151 -0.2293748558 0.5054795146 4290295733
-0.2671742439 -0.2288908511 0.5056509972 4290427319
-0.2672647238 -0.2284063548 0.5058221817 4290427319
-0.2673550546 -0.2279213816 0.5059931874 4290427578
-0.2670111060 -0.2270666808 0.5053422451 4290624957
-0.2671010494 -0.2265815139 0.5055124760 4290690750
-0.2671908438 -0.2260958403 0.5056824088 4290756543
-0.2664113343 -0.2248760015 0.5042070746 4290953922
-0.2665005624 -0.2243909389 0.5043759942 4291217094
-0.2665897012 -0.2239053845 0.5045446754 4291677645
-0.2666786611 -0.2234193385 0.5047130585 4292006610
-0.2663323283 -0.2225691527 0.5040575862 4292335575
-0.2664209008 -0.2220829278 0.5042251945 4292598747
-0.2665093243 -0.2215962261 0.5043925643 4292861919
-0.2661620080 -0.2207477540 0.5037352443 4293059298
-0.2662500441 -0.2202608883 0.5039018393 4293191397
-0.2659020126 -0.2194138318 0.5032431483 4293257190
-0.2659896016 -0.2189268023 0.5034089684 4293388776
-0.2656408846 -0.2180811763 0.5027489662 4293586155
-0.2657280564 -0.2175939828 0.5029139519 4293848812
-0.2658151090 -0.2171062976 0.5030786991 4294046191
-0.2659020126 -0.2166181505 0.5032432079 4294177777
-0.2655520141 -0.2157746106 0.5025807619 4294243570
-0.2656385005 -0.2152862996 0.5027444363 4294440949
-0.2652877867 -0.2144442350 0.5020807385 4294440949
-0.2649366856 -0.2136032879 0.5014162064 4294309363
-0.2650224566 -0.2131151557 0.5015785098 4294375156
-0.2651080787 -0.2126265615 0.5017406344 4294309365
-0.2651935816 -0.2121374756 0.5019024014 4294309365
-0.2652789354 -0.2116479278 0.5020639896 4294243572
-0.2653641701 -0.2111579031 0.5022252202 4294111986
-0.2650111914 -0.2103197724 0.5015572309 4294111986
-0.2650959790 -0.2098296285 0.5017176867 4293914607
-0.2647423148 -0.2089929879 0.5010483265 4293783021
-0.2648266554 -0.2085026950 0.5012080073 4293717228
-0.2653494775 -0.2083563358 0.5021974444 4293322472
-0.2649949491 -0.2075207233 0.5015264750 4293125093
-0.2650788724 -0.2070290446 0.5016853213 4292993507
-0.2651626468 -0.2065368891 0.5018438697 4292730335
-0.2652462721 -0.2060442716 0.5020021796 4292335834
-0.2653297782 -0.2055511773 0.5021601319 4292138455
-0.2654131055 -0.2050576359 0.5023179054 4292006869
-0.2650567293 -0.2042249292 0.5016434193 4291941076
-0.2651396394 -0.2037312686 0.5018002987 4291743697
-0.2652223706 -0.2032371461 0.5019569397 4291612111
-0.2653049827 -0.2027425617 0.5021132231 4291677906
-0.2653874457 -0.2022475153 0.5022693276 4291677906
-0.2654697299 -0.2017520070 0.5024250746 4291612113
-0.2655518949 -0.2012560368 0.5025805235 4291612113
-0.2656338811 -0.2007596046 0.5027357340 4291612113
-0.2657157481 -0.2002627105 0.5028906465 4291480527
-0.2657974362 -0.1997653693 0.5030452609 4291743440
-0.2649971247 -0.1986066401 0.5015305877 4291611854
-0.2650782466 -0.1981100291 0.5016841292 4291414732
-0.2647179961 -0.1972841471 0.5010023117 4291348939
-0.2647986710 -0.1967874616 0.5011550188 4291283146
-0.2648791969 -0.1962903142 0.5013074279 4291217353
-0.2649595737 -0.1957927048 0.5014595389 4291217353
-0.2645980418 -0.1949691623 0.5007752776 4291217353
-0.2646779716 -0.1944714934 0.5009265542 4291085769
-0.2647577226 -0.1939733624 0.5010775328 4291085769
-0.2648373246 -0.1934747845 0.5012282133 4291151562
-0.2649167776 -0.1929757595 0.5013785362 4291283148
-0.2645536959 -0.1921549588 0.5006913543 4291480527
-0.2641901672 -0.1913353801 0.5000033379 4291809492
-0.2642688751 -0.1908366680 0.5001522899 4292072664
-0.2643474340 -0.1903375238 0.5003010035 4292204250
-0.2644258142 -0.1898379475 0.5004493594 4292402144
-0.2645040452 -0.1893379092 0.5005974174 4292599523
-0.2645821273 -0.1888374239 0.5007451773 4292862695
-0.2642167211 -0.1880210340 0.5000535846 4292994281
-0.2642943263 -0.1875205189 0.5002005100 4292994281
-0.2643718123 -0.1870195568 0.5003471375 4293125867
-0.2644490898 -0.1865181476 0.5004934072 4293257453
-0.2645262182 -0.1860163063 0.5006393790 4293323246
-0.2646031976 -0.1855140328 0.5007850528 4293191660
-0.2642359138 -0.1847008914 0.5000899434 4293257453
-0.2643124461 -0.1841985732 0.5002347827 4293323246
-0.2643887997 -0.1836958230 0.5003792644 4293323246
-0.2644649744 -0.1831926405 0.5005234480 4293389039
-0.2645410001 -0.1826890260 0.5006673336 4293257453
-0.2646168470 -0.1821849793 0.5008109212 4293322732
-0.2646925449 -0.1816804856 0.5009541512 4293322732
-0.2647680640 -0.1811755747 0.5010970831 4293388525
-0.2648434043 -0.1806702316 0.5012397170 4293322732
-0.2662543356 -0.1810728312 0.5039099455 4293322732
-0.2649936378 -0.1796582341 0.5015239716 4293388525
-0.2650684714 -0.1791515946 0.5016656518 4293388525
-0.2651431561 -0.1786445230 0.5018069744 4293322732
-0.2652176619 -0.1781370342 0.5019479990 4293257453
-0.2648461461 -0.1773305684 0.5012448430 4293257453
-0.2649201751 -0.1768230647 0.5013849735 4293257453
-0.2649940550 -0.1763151437 0.5015248060 4293323246
-0.2650677562 -0.1758068055 0.5016642809 4293257453
-0.2651412785 -0.1752980351 0.5018034577 4293257453
-0.2652146518 -0.1747888327 0.5019422770 4293389039
-0.2657344341 -0.1745726168 0.5029260516 4293389039
-0.2658075690 -0.1740617305 0.5030644536 4293323246
-0.2658805251 -0.1735504121 0.5032025576 4293257453
-0.2659533322 -0.1730386764 0.5033403039 4293389041
-0.2660259306 -0.1725265086 0.5034776926 4293389041
-0.2665455937 -0.1723030359 0.5044612288 4293389041
-0.2666179836 -0.1717891842 0.5045982003 4293389041
-0.2666901648 -0.1712749004 0.5047348142 4293389041
-0.2667621970 -0.1707602143 0.5048711300 4293323248
-0.2668340504 -0.1702451110 0.5050071478 4293323248
-0.2669056952 -0.1697295755 0.5051427484 4293323248
-0.2665292621 -0.1689297259 0.5044302940 4293389039
-0.2666004300 -0.1684142351 0.5045650005 4293389039
-0.2666714489 -0.1678983420 0.5046994090 4293389039
-0.2671905756 -0.1676633358 0.5056819320 4293389039
-0.2672613561 -0.1671457440 0.5058158636 4293389039
-0.2673319280 -0.1666277498 0.5059494376 4293323246
-0.2674023509 -0.1661093384 0.5060826540 4293389039
-0.2674725652 -0.1655905098 0.5062155724 4293389039
-0.2675426006 -0.1650712788 0.5063481331 4293323248
-0.2676124573 -0.1645516455 0.5064803362 4293323248
-0.2672329843 -0.1637563854 0.5057621598 4293389041
-0.2677516043 -0.1635111570 0.5067437291 4293389041
-0.2678208947 -0.1629903018 0.5068748593 4293323248
-0.2678900361 -0.1624690443 0.5070056915 4293323248
-0.2679589391 -0.1619473845 0.5071361065 4293257455
-0.2680276930 -0.1614253223 0.5072662234 4293257455
-0.2680962384 -0.1609028578 0.5073959827 4293454064
-0.2686145604 -0.1606490910 0.5083768964 4293454064
-0.2686828673 -0.1601249427 0.5085061789 4293454064
-0.2683008015 -0.1593330652 0.5077830553 4293454064
-0.2683686018 -0.1588090062 0.5079113841 4293454064
-0.2684361935 -0.1582845449 0.5080393553 4293454064
-0.2685036361 -0.1577596962 0.5081669688 4293454064
-0.2681202292 -0.1569706351 0.5074414015 4293454064
-0.2681871653 -0.1564458758 0.5075680614 4293059306
-0.2678030729 -0.1556586623 0.5068411231 4292072411
-0.2678695023 -0.1551340073 0.5069668293 4292072665
-0.2679357529 -0.1546089500 0.5070921779 4292993767
-0.2684529722 -0.1543429196 0.5080711246 4293322478
-0.2685189545 -0.1538162082 0.5081959963 4293322478
-0.2685847282 -0.1532891095 0.5083204508 4293454064
-0.2686503232 -0.1527616084 0.5084446073 4293454064
-0.2682640851 -0.1519778818 0.5077136159 4293454066
-0.2683291733 -0.1514505148 0.5078367591 4293519859
-0.2683940530 -0.1509227604 0.5079596043 4293519859
-0.2689107060 -0.1506478190 0.5089374185 4293585652
-0.2689753175 -0.1501184106 0.5090596676 4293585652
-0.2685875595 -0.1493372023 0.5083258152 4293519859
-0.2681993842 -0.1485574096 0.5075911880 4293519859
-0.2682631910 -0.1480286419 0.5077118874 4293585652
-0.2683267891 -0.1474995017 0.5078322887 4293650934
-0.2683902085 -0.1469699889 0.5079522729 4293585141
-0.2689061165 -0.1466870457 0.5089287162 4293453553
-0.2689692080 -0.1461558938 0.5090481639 4293256174
-0.2685792148 -0.1453792006 0.5083100200 4293190381
-0.2686418295 -0.1448481828 0.5084285140 4293190381
-0.2691573799 -0.1445601732 0.5094042420 4293321967
-0.2692196667 -0.1440275162 0.5095221400 4293453553
-0.2697351277 -0.1437360793 0.5104976892 4293519346
-0.2697971463 -0.1432017982 0.5106150508 4293585139
-0.2698589563 -0.1426671445 0.5107320547 4293650932
-0.2699205577 -0.1421321332 0.5108486414 4293585139
-0.2699819803 -0.1415967494 0.5109648705 4293650932
-0.2695893347 -0.1408239156 0.5102217197 4293585139
-0.2701041698 -0.1405248791 0.5111961365 4293585139
-0.2697108984 -0.1397531331 0.5104518533 4293519346
-0.2697713971 -0.1392171979 0.5105662942 4293453807
-0.2698316574 -0.1386809051 0.5106803775 4293519600
-0.2698917389 -0.1381442398 0.5107941031 4293585393
-0.2699516118 -0.1376072317 0.5109074116 4293585393
-0.2700112760 -0.1370698661 0.5110203028 4293585393
-0.2705253959 -0.1367619932 0.5119933486 4293585393
-0.2705847323 -0.1362230033 0.5121056437 4293520111
-0.2706438601 -0.1356836706 0.5122175813 4293520111
-0.2711577713 -0.1353711188 0.5131901503 4293454318
-0.2712165713 -0.1348301619 0.5133014917 4293388525
-0.2712751925 -0.1342888623 0.5134123564 4293650671
-0.2713335752 -0.1337472051 0.5135229230 4293650671
-0.2713917792 -0.1332052052 0.5136330128 4293187810
-0.2714497447 -0.1326628476 0.5137427449 4291477192
-0.2715075016 -0.1321201622 0.5138520598 4289698213
-0.2715650499 -0.1315771192 0.5139609575 4287527044
-0.2716223896 -0.1310337186 0.5140694976 4288831085
-0.2716795206 -0.1304899901 0.5141776204 4288436327
-0.2717364132 -0.1299459189 0.5142853260 4288828514
-0.2717930973 -0.1294015050 0.5143926144 4289157479
-0.2718496025 -0.1288567483 0.5144994855 4289943909
-0.2714496255 -0.1280963719 0.5137425661 4290009702
-0.2715055943 -0.1275518537 0.5138484836 4290469478
-0.2715613246 -0.1270069927 0.5139539242 4290732650
-0.2716168463 -0.1264618039 0.5140590072 4291193714
-0.2716721594 -0.1259162873 0.5141637325 4291259507
-0.2717272639 -0.1253704280 0.5142679811 4291260283
-0.2717821300 -0.1248242483 0.5143718123 4291523455
-0.2718367875 -0.1242777333 0.5144752860 4291197062
-0.2718912363 -0.1237308830 0.5145782828 4291328648
-0.2719454467 -0.1231837124 0.5146809220 4291002254
-0.2719994485 -0.1226362139 0.5147831440 4291068047
-0.2725104690 -0.1222935766 0.5157502294 4290216334
-0.2725641131 -0.1217445061 0.5158517957 4290282127
-0.2726175487 -0.1211951077 0.5159529448 4290216848
-0.2726707458 -0.1206453964 0.5160536170 4290282641
-0.2727237344 -0.1200953573 0.5161539316 4290021525
-0.2727765143 -0.1195449978 0.5162537694 4290153111
-0.2728290558 -0.1189943179 0.5163532495 4289696923
-0.2733392417 -0.1186420545 0.5173187852 4289960095
-0.2733914256 -0.1180898175 0.5174175501 4289504166
-0.2734433711 -0.1175372675 0.5175158978 4290030510
-0.2734951377 -0.1169843972 0.5176138282 4290033847
-0.2735466361 -0.1164312214 0.5177113414 4290494398
-0.2731396556 -0.1156836301 0.5169410110 4291021257
-0.2731906176 -0.1151307523 0.5170375109 4291679187
-0.2736998200 -0.1147698164 0.5180012584 4292533983
-0.2737504542 -0.1142153963 0.5180970430 4293191913
-0.2738008201 -0.1136606708 0.5181924105 4293519857
-0.2738509774 -0.1131056398 0.5182873011 4293585650
-0.2739009261 -0.1125503033 0.5183818340 4293585650
-0.2739506364 -0.1119946614 0.5184758902 4293519857
-0.2740001082 -0.1114387214 0.5185695291 4293651443
-0.2740493417 -0.1108824760 0.5186627507 4293651443
-0.2740983665 -0.1103259325 0.5187554955 4293585650
-0.2741471529 -0.1097690985 0.5188478231 4293717236
-0.2741957009 -0.1092119589 0.5189397335 4293454834
-0.2742440403 -0.1086545289 0.5190312266 4293520627
-0.2742921412 -0.1080968007 0.5191222429 4293520627
-0.2743400037 -0.1075387821 0.5192128420 4293454834
-0.2743876576 -0.1069804728 0.5193029642 4293454834
-0.2748947442 -0.1066001356 0.5202627182 4293454834
-0.2749419808 -0.1060403138 0.5203521252 4293454834
-0.2754488587 -0.1056565866 0.5213114619 4293520627
-0.2754957080 -0.1050952524 0.5214001536 4293520627
-0.2755423486 -0.1045336276 0.5214883685 4293520627
-0.2755887508 -0.1039717197 0.5215761662 4293454834
-0.2760950625 -0.1035821661 0.5225344300 4293454834
-0.2761410773 -0.1030187532 0.5226215124 4293586420
-0.2761868536 -0.1024550647 0.5227081180 4293520627
-0.2762323618 -0.1018910930 0.5227943063 4293454834
-0.2762776613 -0.1013268456 0.5228800178 4293520627
-0.2763227224 -0.1007623151 0.5229653120 4293454834
-0.2763675451 -0.1001975164 0.5230501294 4293454834
-0.2764121294 -0.0996324420 0.5231345296 4293323248
-0.2764564753 -0.0990670919 0.5232184529 4293454834
-0.2765005827 -0.0985014662 0.5233018994 4293520627
-0.2765444517 -0.0979355797 0.5233849287 4293454834
-0.2765880823 -0.0973694175 0.5234674811 4293389041
-0.2766314745 -0.0968029946 0.5235496163 4293257455
-0.2766746283 -0.0962363034 0.5236312747 4293454834
-0.2767175138 -0.0956693441 0.5237125158 4293454834
-0.2767601907 -0.0951021239 0.5237932801 4293389041
-0.2768026292 -0.0945346430 0.5238735676 4293454834
-0.2768447995 -0.0939669013 0.5239533782 4293783029
-0.2778097093 -0.0937102288 0.5257795453 4293651443
-0.2773900032 -0.0929853618 0.5249852538 4293454318
-0.2774315476 -0.0924158990 0.5250638723 4293651697
-0.2774728239 -0.0918461829 0.5251420140 4293914869
-0.2775138915 -0.0912762135 0.5252196789 4293717490
-0.2775546908 -0.0907059908 0.5252968669 4293520111
-0.2775952518 -0.0901355222 0.5253736377 4293520111
-0.2776355445 -0.0895647928 0.5254499316 4293585904
-0.2776756287 -0.0889938250 0.5255258083 4293454318
-0.2777154446 -0.0884226114 0.5256011486 4293388525
-0.2777550220 -0.0878511444 0.5256760716 4293520111
-0.2777943611 -0.0872794390 0.5257505178 4293323246
-0.2778334618 -0.0867074952 0.5258244872 4293060074
-0.2778722942 -0.0861353055 0.5258979797 4293125867
-0.2779108882 -0.0855628774 0.5259710550 4293323246
-0.2779492438 -0.0849902108 0.5260435939 4293257453
-0.2784498632 -0.0845577717 0.5269911289 4293191660
-0.2784878016 -0.0839836821 0.5270628929 4293191915
-0.2785254717 -0.0834093615 0.5271341801 4293060329
-0.2790256143 -0.0829723999 0.5280807614 4293060329
-0.2790628374 -0.0823966563 0.5281512141 4293060329
-0.2790998220 -0.0818206891 0.5282212496 4293060329
-0.2791365683 -0.0812444910 0.5282907486 4292994536
-0.2791730464 -0.0806680620 0.5283597708 4293125352
-0.2792092860 -0.0800914094 0.5284283757 4293125352
-0.2797083557 -0.0796464011 0.5293729305 4293125352
-0.2797441483 -0.0790683404 0.5294406414 4293059559
-0.2793164849 -0.0783601180 0.5286312699 4292994536
-0.2793517113 -0.0777825788 0.5286979079 4292928743
-0.2793866992 -0.0772048235 0.5287641287 4292928741
-0.2798847854 -0.0767539293 0.5297068357 4292928741
-0.2803827822 -0.0763008967 0.5306493044 4292862948
-0.2804171145 -0.0757205784 0.5307142735 4292797155
-0.2804511786 -0.0751400515 0.5307787657 4292797155
-0.2804850042 -0.0745593086 0.5308427811 4292731362
-0.2805185914 -0.0739783570 0.5309063196 4292731362
-0.2805518806 -0.0733971968 0.5309693813 4292797155
-0.2810487449 -0.0729361922 0.5319097042 4292797155
-0.2810815871 -0.0723536611 0.5319718719 4292797155
-0.2811141908 -0.0717709288 0.5320335627 4292797155
-0.2806825936 -0.0710705146 0.5312167406 4292731362
-0.2807146311 -0.0704883412 0.5312774181 4292731362
-0.2807464302 -0.0699059665 0.5313375592 4292665569
-0.2807779610 -0.0693233982 0.5313972235 4292599776
-0.2808092237 -0.0687406287 0.5314564109 4292599776
-0.2813044190 -0.0682703331 0.5323936343 4292599776
-0.2813352346 -0.0676862150 0.5324519277 4292599776
-0.2813657820 -0.0671019033 0.5325097442 4292599776
-0.2813960612 -0.0665174127 0.5325670838 4292665569
-0.2818905115 -0.0660415217 0.5335028172 4292665569
-0.2823847830 -0.0655635223 0.5344382524 4292665569
-0.2824143767 -0.0649765357 0.5344942808 4292665569
-0.2824437320 -0.0643893629 0.5345498323 4292665569
-0.2820082307 -0.0636970773 0.5337256193 4292600287
-0.2820370197 -0.0631105080 0.5337800980 4292600287
-0.2825302184 -0.0626267642 0.5347135067 4292534494
-0.2825585306 -0.0620388761 0.5347670913 4292534494
-0.2830513418 -0.0615518801 0.5356998444 4292534494
-0.2830791771 -0.0609626733 0.5357524753 4292468701
-0.2831067443 -0.0603732951 0.5358046889 4292599776
-0.2831340432 -0.0597837418 0.5358563662 4292533983
-0.2831610739 -0.0591940209 0.5359075069 4292599776
-0.2831878662 -0.0586041287 0.5359581709 4292599776
-0.2832143903 -0.0580140725 0.5360083580 4292533983
-0.2832406461 -0.0574238524 0.5360580683 4292533983
-0.2841968834 -0.0570201129 0.5378678441 4292534496
-0.2842226923 -0.0564276278 0.5379167199 4292468703
-0.2842482328 -0.0558349788 0.5379650593 4292468703
-0.2842735052 -0.0552421734 0.5380128622 4292468703
-0.2842985392 -0.0546492115 0.5380602479 4292468703
-0.2843232751 -0.0540560931 0.5381070375 4292402910
-0.2843477726 -0.0534628220 0.5381534100 4292402910
-0.2848373950 -0.0529559255 0.5390800834 4292402910
-0.2843959332 -0.0522758216 0.5382445455 4292337117
-0.2844195962 -0.0516820960 0.5382893682 4292337117
-0.2844430208 -0.0510882214 0.5383337140 4292402908
-0.2849317491 -0.0505768470 0.5392586589 4292402908
-0.2854202688 -0.0500633791 0.5401832461 4292337115
-0.2849773169 -0.0493864343 0.5393449068 4292337115
-0.2854653895 -0.0488707386 0.5402686000 4292402395
-0.2854875326 -0.0482742079 0.5403105021 4292402395
-0.2855094075 -0.0476775393 0.5403519273 4292402397
-0.2850652337 -0.0470039286 0.5395113230 4292336604
-0.2850865424 -0.0464079604 0.5395516157 4292336604
-0.2851075828 -0.0458118618 0.5395914316 4292336604
-0.2855942547 -0.0452895127 0.5405125022 4292336604
-0.2856147885 -0.0446921773 0.5405513644 4292270811
-0.2861010432 -0.0441666506 0.5414716005 4292270811
-0.2861210704 -0.0435680859 0.5415095091 4292270811
-0.2861408293 -0.0429693982 0.5415469408 4292270811
-0.2861603200 -0.0423705839 0.5415837765 4292336604
-0.2866456211 -0.0418396853 0.5425022840 4292336604
-0.2871307135 -0.0413067117 0.5434203744 4292205018
-0.2871494591 -0.0407055877 0.5434558392 4292270811
-0.2871679068 -0.0401043482 0.5434907675 4292336604
-0.2871861160 -0.0395029932 0.5435252190 4292336604
-0.2872040272 -0.0389015265 0.5435591340 4292270811
-0.2872216702 -0.0382999443 0.5435925126 4292270811
-0.2877053320 -0.0377594531 0.5445079207 4292270811
-0.2872561514 -0.0370964557 0.5436577797 4292336604
-0.2882056832 -0.0366130397 0.5454548597 4292205018
-0.2886886597 -0.0360673442 0.5463689566 4292270811
-0.2887050211 -0.0354622975 0.5463998914 4292336604
-0.2887210846 -0.0348571502 0.5464303493 4292270811
-0.2882704437 -0.0341965668 0.5455774665 4292336604
-0.2887524366 -0.0336465538 0.5464896560 4292336604
-0.2887676954 -0.0330411121 0.5465185046 4292270811
-0.2887826860 -0.0324355736 0.5465468764 4292271574
-0.2892639339 -0.0318813622 0.5474576950 4292271574
-0.2892783880 -0.0312746614 0.5474850535 4292009172
-0.2897591889 -0.0307173338 0.5483949780 4292009172
-0.2893064916 -0.0300609898 0.5475382209 4291944151
-0.2893201113 -0.0294540226 0.5475640297 4291812565
-0.2893334627 -0.0288469698 0.5475892425 4291943386
-0.2893465161 -0.0282398351 0.5476139784 4291943386
-0.2893593311 -0.0276326183 0.5476382375 4292468192
-0.2898385823 -0.0270689111 0.5485452414 4292533985
-0.2898508310 -0.0264605582 0.5485684276 4292467420
-0.2898628116 -0.0258521289 0.5485911369 4292533213
-0.2898745239 -0.0252436232 0.5486132503 4292271324
-0.2898859382 -0.0246350467 0.5486348867 4292205531
-0.2903639078 -0.0240650866 0.5495395064 4292271840
-0.2903748155 -0.0234553888 0.5495601296 4291942875
-0.2908522785 -0.0228823517 0.5504637361 4291681246
-0.2908626199 -0.0222715400 0.5504833460 4291352281
-0.2904058099 -0.0216258951 0.5496187806 4289844693
-0.2908824682 -0.0210497249 0.5505209565 4289252556
-0.2908919752 -0.0204387251 0.5505389571 4287090123
-0.2909012139 -0.0198276658 0.5505564213 4286432193
-0.2909101546 -0.0192165487 0.5505733490 4284335556
-0.2913857996 -0.0186352413 0.5514734983 4284006591
-0.2913942039 -0.0180230346 0.5514894128 4282301627
-0.2914023399 -0.0174107756 0.5515047908 4281841076
-0.2914101779 -0.0167984664 0.5515196323 4280856752
-0.2918847501 -0.0162120480 0.5524178147 4280527787
-0.2918920517 -0.0155986622 0.5524316430 4280003499
-0.2933001816 -0.0150571605 0.5550966263 4280003499
-0.2937740088 -0.0144637367 0.5559933782 4279675562
-0.2951816618 -0.0139123332 0.5586575270 4279478183
-0.2965891063 -0.0133550009 0.5613212585 4279610024
-0.2979963422 -0.0127917388 0.5639845133 4279873196
-0.3003374934 -0.0122606847 0.5684154034 4280463538
-0.3022113740 -0.0117016910 0.5719618797 4280463538
-0.3045521080 -0.0111519126 0.5763919353 4280000669
-0.3073597550 -0.0106084049 0.5817056298 4280987564
-0.3101671934 -0.0100530824 0.5870189667 4288072655
-0.3125072718 -0.0094717881 0.5914477706 4290112238
-0.3148471415 -0.0088806460 0.5958761573 4292337380
-0.3176538944 -0.0082918508 0.6011881828 4292271587
-0.3195261061 -0.0076688216 0.6047315598 4292338146
-0.3213980794 -0.0070379134 0.6082744002 4292206560
-0.3232697546 -0.0063991272 0.6118167043 4292272351
-0.3246740103 -0.0057441993 0.6144744158 4292469730
-0.3256108165 -0.0050760787 0.6162473559 4292272605
-0.3265472949 -0.0044040140 0.6180198193 4292141019
-0.3274835050 -0.0037280070 0.6197916269 4292272094
-0.3284193873 -0.0030480602 0.6215628982 4292140508
-0.3284206390 -0.0023574682 0.6215652227 4292272094
-0.2696144283 -0.2479440123 0.5113441348 4287861653
-0.2697103620 -0.2474638969 0.5115261078 4287927192
-0.2693772316 -0.2465905994 0.5108942986 4287927192
-0.2694728076 -0.2461102307 0.5110754967 4288058778
-0.2695682347 -0.2456293404 0.5112565160 4288190364
-0.2688047290 -0.2443672121 0.5098084807 4288453790
-0.2684700787 -0.2434972525 0.5091737509 4288322204
-0.2685646713 -0.2430171371 0.5093532205 4288124825
-0.2686591744 -0.2425365150 0.5095323920 4288124825
-0.2683235407 -0.2416681051 0.5088958740 4287927705
-0.2684176564 -0.2411872298 0.5090743303 4288059291
-0.2680813074 -0.2403201163 0.5084365010 4288322463
-0.2681750357 -0.2398390174 0.5086141825 4288519842
-0.2678380013 -0.2389732003 0.5079749823 4288585633
-0.2675005496 -0.2381084412 0.5073350072 4288519840
-0.2671626806 -0.2372447252 0.5066941977 4288716701
-0.2676865160 -0.2371458113 0.5076876879 4288848287
-0.2673481107 -0.2362826467 0.5070458651 4288848287
-0.2674406171 -0.2358008474 0.5072213411 4288848287
-0.2675330043 -0.2353185564 0.5073965788 4288848287
-0.2671936154 -0.2344570011 0.5067529082 4288914080
-0.2672856152 -0.2339744866 0.5069273710 4289045666
-0.2673774660 -0.2334914804 0.5071015954 4289177252
-0.2674692273 -0.2330079675 0.5072755814 4289177252
-0.2671285868 -0.2321483195 0.5066295266 4289177252
-0.2672199309 -0.2316645980 0.5068027377 4289243045
-0.2673111260 -0.2311803848 0.5069757104 4289308838
-0.2674022019 -0.2306956798 0.5071484447 4289506217
-0.2666274905 -0.2294654548 0.5056791306 4289572010
-0.2667180002 -0.2289813161 0.5058508515 4289637803
-0.2668083906 -0.2284967005 0.5060222745 4289703596
-0.2668986619 -0.2280115783 0.5061934590 4289900975
-0.2665553689 -0.2271566242 0.5055423975 4290032561
-0.2666452229 -0.2266713083 0.5057128072 4290032818
-0.2667349577 -0.2261855155 0.5058829784 4290032818
-0.2659568191 -0.2249652445 0.5044071674 4290032820
-0.2660459876 -0.2244800478 0.5045763254 4290098613
-0.2661350071 -0.2239943594 0.5047451854 4290361785
-0.2662239075 -0.2235081941 0.5049137473 4290690750
-0.2658782601 -0.2226577103 0.5042581558 4290953922
-0.2655321360 -0.2218083292 0.5036017895 4291217094
-0.2656203508 -0.2213222980 0.5037690401 4291480266
-0.2657084167 -0.2208357751 0.5039361119 4291743438
-0.2653613389 -0.2199881226 0.5032778382 4291940817
-0.2654490173 -0.2195014358 0.5034440756 4292072403
-0.2651012242 -0.2186552137 0.5027844906 4292269782
-0.2651884556 -0.2181683630 0.5029499531 4292532954
-0.2652755678 -0.2176810205 0.5031151175 4292993503
-0.2649267912 -0.2168365717 0.5024536848 4293190882
-0.2650134861 -0.2163490653 0.5026180744 4293388261
-0.2651000321 -0.2158610970 0.5027822256 4293585640
-0.2647502720 -0.2150184214 0.5021188855 4293848814
-0.2644000947 -0.2141768634 0.5014547706 4293914607
-0.2644859254 -0.2136890739 0.5016175508 4293914607
-0.2645716369 -0.2132007927 0.5017800927 4293980400
-0.2646571994 -0.2127120495 0.5019423962 4294046193
-0.2647426128 -0.2122228295 0.5021044016 4294243572
-0.2643908858 -0.2113837451 0.5014373064 4294375158
-0.2644758821 -0.2108943909 0.5015984774 4294440951
-0.2645607591 -0.2104045600 0.5017594099 4294440951
-0.2646454573 -0.2099142671 0.5019201040 4294375158
-0.2642924488 -0.2090773433 0.5012506247 4294309365
-0.2643767297 -0.2085869163 0.5014104247 4294243572
-0.2644608915 -0.2080960274 0.5015700459 4294375156
-0.2645448744 -0.2076046616 0.5017293096 4294243570
-0.2641905844 -0.2067699283 0.5010573864 4294111986
-0.2642741501 -0.2062784433 0.5012158751 4293848814
-0.2643575668 -0.2057864815 0.5013741255 4293519849
-0.2644408345 -0.2052940726 0.5015320182 4293388263
-0.2645239830 -0.2048011869 0.5016896725 4293322470
-0.2641681433 -0.2039690167 0.5010148287 4293190884
-0.2642508149 -0.2034760267 0.5011716485 4292664540
-0.2643333673 -0.2029825747 0.5013281703 4292532954
-0.2644157410 -0.2024886608 0.5014844537 4292467163
-0.2644979954 -0.2019942850 0.5016404390 4292335577
-0.2645801008 -0.2014994472 0.5017961264 4292138198
-0.2646620274 -0.2010041475 0.5019515157 4292006612
-0.2647438347 -0.2005083859 0.5021066666 4291941076
-0.2648254633 -0.2000121772 0.5022614598 4291875283
-0.2649069428 -0.1995154917 0.5024160147 4291743440
-0.2641079128 -0.1983571798 0.5009006262 4291611854
-0.2641888261 -0.1978612393 0.5010541081 4291611854
-0.2642695904 -0.1973648369 0.5012072325 4291611854
-0.2639096081 -0.1965398788 0.5005245209 4291611854
-0.2639899254 -0.1960434020 0.5006768703 4291611854
-0.2640700936 -0.1955464780 0.5008288622 4291612111
-0.2637091279 -0.1947234720 0.5001442432 4291612111
-0.2637888193 -0.1942264736 0.5002954602 4291612111
-0.2638683915 -0.1937290281 0.5004463196 4291480525
-0.2639478147 -0.1932311207 0.5005969405 4291348939
-0.2640270591 -0.1927327663 0.5007472634 4291283146
-0.2636644840 -0.1919125170 0.5000596046 4291217353
-0.2633015215 -0.1910934746 0.4993712008 4291151560
-0.2633800209 -0.1905954480 0.4995200932 4291151560
-0.2634583712 -0.1900969893 0.4996687174 4291217353
-0.2635365725 -0.1895980686 0.4998170137 4291217870
-0.2636145949 -0.1890987158 0.4999650121 4291349456
-0.2636924982 -0.1885989159 0.5001127124 4291547090
-0.2637701929 -0.1880986840 0.5002601147 4291744469
-0.2638477683 -0.1875979900 0.5004071593 4291876055
-0.2639251351 -0.1870968789 0.5005539656 4292007641
-0.2635594308 -0.1862822324 0.4998603463 4292401629
-0.2636363506 -0.1857810616 0.5000062585 4292599008
-0.2637131512 -0.1852794588 0.5001518726 4292730594
-0.2637897432 -0.1847774237 0.5002971888 4292927973
-0.2634227276 -0.1839652508 0.4996010959 4293059559
-0.2634988725 -0.1834631711 0.4997455478 4293059559
-0.2635748684 -0.1829606742 0.4998896718 4293125352
-0.2640945613 -0.1827649027 0.5008752942 4293191145
-0.2637263834 -0.1819543689 0.5001769662 4293191145
-0.2638018727 -0.1814505607 0.5003201365 4293256938
-0.2643214464 -0.1812509596 0.5013055801 4293388525
-0.2639523745 -0.1804416627 0.5006055832 4293388525
-0.2635828555 -0.1796336472 0.4999048114 4293322731
-0.2636575699 -0.1791289598 0.5000464916 4293322731
-0.2637321055 -0.1786238551 0.5001878738 4293388525
-0.2638064623 -0.1781183332 0.5003288984 4293454318
-0.2638806701 -0.1776123643 0.5004696250 4293323246
-0.2639546990 -0.1771059781 0.5006099939 4293454832
-0.2635833025 -0.1763013601 0.4999056458 4293257455
-0.2636568844 -0.1757949740 0.5000451803 4293191662
-0.2637302577 -0.1752881706 0.5001843572 4293257453
-0.2638034821 -0.1747809350 0.5003232360 4293257453
-0.2638765275 -0.1742732972 0.5004617572 4293257966
-0.2639494240 -0.1737652123 0.5005999804 4293257966
-0.2640221119 -0.1732567251 0.5007379055 4293257968
-0.2640946507 -0.1727478057 0.5008754730 4293257968
-0.2641670108 -0.1722384840 0.5010126829 4293389041
-0.2642391920 -0.1717287302 0.5011495948 4293389041
-0.2647576630 -0.1715077907 0.5021328926 4293323248
-0.2648296058 -0.1709963381 0.5022693872 4293389041
-0.2649013996 -0.1704844832 0.5024055243 4293389041
-0.2649730146 -0.1699721962 0.5025413036 4293323248
-0.2650444210 -0.1694595069 0.5026767850 4293323248
-0.2655627429 -0.1692312956 0.5036597848 4293323248
-0.2656339407 -0.1687169075 0.5037947893 4293389039
-0.2657049298 -0.1682021171 0.5039294958 4293323246
-0.2653283477 -0.1674045920 0.5032152534 4293323246
-0.2653988600 -0.1668898463 0.5033490062 4293389039
-0.2659168839 -0.1666552424 0.5043314695 4293389039
-0.2659871876 -0.1661387980 0.5044648051 4293389039
-0.2660572827 -0.1656219363 0.5045977235 4293389039
-0.2661272287 -0.1651046872 0.5047303438 4293389039
-0.2661969662 -0.1645870060 0.5048626661 4293389041
-0.2658182681 -0.1637927294 0.5041444302 4293389041
-0.2663359046 -0.1635504514 0.5051261783 4293389039
-0.2664051056 -0.1630315632 0.5052573681 4293323246
-0.2664740980 -0.1625122726 0.5053882599 4293323246
-0.2665429413 -0.1619925797 0.5055187941 4293323246
-0.2666115761 -0.1614724845 0.5056489706 4293323248
-0.2666800320 -0.1609519869 0.5057788491 4293323248
-0.2667483091 -0.1604311019 0.5059083104 4293454064
-0.2672655582 -0.1601790041 0.5068893433 4293454064
-0.2673335671 -0.1596564353 0.5070183277 4293454318
-0.2674013972 -0.1591334641 0.5071469545 4293454318
-0.2670195103 -0.1583435237 0.5064226389 4293454318
-0.2670868337 -0.1578206271 0.5065503716 4293454318
-0.2671539783 -0.1572973579 0.5066776872 4293454064
-0.2667710781 -0.1565097421 0.5059514642 4293454064
-0.2663877308 -0.1557235122 0.5052244663 4293125099
-0.2664541006 -0.1552008241 0.5053502917 4292927720
-0.2665202320 -0.1546777338 0.5054757595 4292730341
-0.2665862143 -0.1541542560 0.5056008697 4292796134
-0.2666519880 -0.1536304057 0.5057256222 4292993513
-0.2671681046 -0.1533647776 0.5067045093 4292927720
-0.2672336102 -0.1528392583 0.5068287253 4292927722
-0.2672989368 -0.1523133516 0.5069525838 4293256687
-0.2669131756 -0.1515310854 0.5062209964 4293519859
-0.2669779956 -0.1510052979 0.5063439012 4293454066
-0.2670426071 -0.1504791230 0.5064664483 4293519857
-0.2671070397 -0.1499525756 0.5065886378 4293519857
-0.2671712637 -0.1494256407 0.5067104697 4293454066
-0.2672352791 -0.1488983333 0.5068318844 4293454066
-0.2672991157 -0.1483706385 0.5069530010 4293454066
-0.2669111490 -0.1475928277 0.5062171221 4293388273
-0.2669744790 -0.1470652819 0.5063372850 4293519346
-0.2670376301 -0.1465373486 0.5064570308 4293387760
-0.2675525248 -0.1462561041 0.5074335337 4293256174
-0.2676153779 -0.1457265317 0.5075527430 4293190381
-0.2672258615 -0.1449513286 0.5068140030 4293256174
-0.2677404583 -0.1446662843 0.5077900290 4293387760
-0.2678027153 -0.1441355944 0.5079081059 4293585139
-0.2683172524 -0.1438471079 0.5088839531 4293650932
-0.2683792114 -0.1433147937 0.5090014338 4293650932
-0.2684409618 -0.1427821070 0.5091185570 4293716725
-0.2685025334 -0.1422490478 0.5092353225 4293716725
-0.2681109905 -0.1414766461 0.5084927082 4293650932
-0.2686250210 -0.1411818415 0.5094676614 4293650932
-0.2686859667 -0.1406476796 0.5095832348 4293519346
-0.2687467039 -0.1401131749 0.5096984506 4293453553
-0.2683539689 -0.1393429190 0.5089535117 4293453553
-0.2679607868 -0.1385741085 0.5082078576 4293715696
-0.2684742212 -0.1382738948 0.5091816187 4293715696
-0.2685340345 -0.1377388388 0.5092951059 4293519346
-0.2685936689 -0.1372034252 0.5094081759 4293585139
-0.2686530650 -0.1366676688 0.5095208287 4293454066
-0.2687122822 -0.1361315399 0.5096331239 4293454066
-0.2687712610 -0.1355950683 0.5097450018 4293519857
-0.2692841589 -0.1352863759 0.5107177496 4293519857
-0.2693428397 -0.1347482949 0.5108290315 4293651697
-0.2698556185 -0.1344361752 0.5118016005 4293191146
-0.2699140012 -0.1338964850 0.5119122863 4293322219
-0.2695176601 -0.1331319362 0.5111605525 4293585391
-0.2700300813 -0.1328160465 0.5121324658 4293058020
-0.2700878084 -0.1322752982 0.5122419596 4292005332
-0.2701453567 -0.1317342222 0.5123510361 4291675083
-0.2702026665 -0.1311927885 0.5124597549 4291543497
-0.2702597380 -0.1306510121 0.5125679970 4291805122
-0.2703166306 -0.1301088929 0.5126759410 4291936708
-0.2699181437 -0.1293483078 0.5119201541 4292002501
-0.2699744999 -0.1288064122 0.5120270252 4291870915
-0.2704860270 -0.1284804791 0.5129971504 4292001729
-0.2705420554 -0.1279370040 0.5131034255 4292264901
-0.2705978751 -0.1273931861 0.5132092834 4292724681
-0.2706534564 -0.1268490404 0.5133147240 4292922060
-0.2707088590 -0.1263045520 0.5134198070 4293185486
-0.2703081965 -0.1255480051 0.5126599073 4293317072
-0.2703630626 -0.1250037700 0.5127639771 4293383124
-0.2704176903 -0.1244592071 0.5128675699 4293514710
-0.2704721391 -0.1239143163 0.5129708052 4293515738
-0.2705263495 -0.1233690903 0.5130736232 4293647324
-0.2705803514 -0.1228235364 0.5131760240 4293582044
-0.2706341147 -0.1222776622 0.5132780671 4293647837
-0.2711441517 -0.1219367385 0.5142453313 4293189855
-0.2711975873 -0.1213892922 0.5143466592 4293255648
-0.2712507844 -0.1208415180 0.5144476295 4293517026
-0.2713037729 -0.1202934235 0.5145481229 4293385440
-0.2713565528 -0.1197450086 0.5146481991 4293581279
-0.2714090943 -0.1191962808 0.5147478580 4293515486
-0.2714614272 -0.1186472252 0.5148470998 4293187804
-0.2715135217 -0.1180978641 0.5149459243 4293187804
-0.2720226049 -0.1177460700 0.5159114003 4292663513
-0.2720743418 -0.1171951443 0.5160095692 4292795099
-0.2721258700 -0.1166439056 0.5161072612 4292533213
-0.2721771598 -0.1160923615 0.5162045360 4292401627
-0.2722282410 -0.1155404970 0.5163014531 4292270811
