VERSION 0.7
FIELDS x y z rgba
SIZE 4 4 4 4
TYPE F F F U
COUNT 1 1 1 1
WIDTH 920
HEIGHT 1
VIEWPOINT 0.0 0.0 0.0 1.0 0.0 0.0 0.0
POINTS 920
DATA ascii
-0.3324934542 -0.0366626382 0.5954771042 4292335836
-0.3325105906 -0.0360028781 0.5955077410 4292533215
-0.3325274289 -0.0353430137 0.5955379009 4292467423
-0.3330308199 -0.0347338319 0.5964394808 4292335837
-0.3325601220 -0.0340229906 0.5955964923 4292401629
-0.3320890963 -0.0333139859 0.5947529078 4292401629
-0.3325916231 -0.0327025838 0.5956528783 4292401629
-0.3326068819 -0.0320422426 0.5956802368 4292401629
-0.3321348727 -0.0313358642 0.5948348641 4292401630
-0.3321495056 -0.0306763127 0.5948610306 4292204251
-0.3331378996 -0.0301046986 0.5966312289 4291941079
-0.3331519663 -0.0294430405 0.5966564417 4291941079
-0.3331657052 -0.0287813004 0.5966810584 4291875285
-0.3331791461 -0.0281194784 0.5967050791 4291941078
-0.3336793780 -0.0274977200 0.5976009965 4292138457
-0.3341793418 -0.0268739499 0.5984964371 4292204250
-0.3346790373 -0.0262481663 0.5993913412 4292138458
-0.3346912861 -0.0255831368 0.5994132757 4292006872
-0.3347032070 -0.0249180328 0.5994346142 4292270043
-0.3347148299 -0.0242528599 0.5994554162 4292335836
-0.3347261250 -0.0235876180 0.5994756222 4292139227
-0.3347370923 -0.0229223091 0.5994953513 4291941848
-0.3347477615 -0.0222569369 0.5995144248 4291809492
-0.3352454007 -0.0216229297 0.6004056931 4291348941
-0.3352554739 -0.0209564660 0.6004236937 4290954183
-0.3357525170 -0.0203194320 0.6013138890 4290888390
-0.3357619643 -0.0196518824 0.6013307571 4291481297
-0.3357710838 -0.0189842768 0.6013471484 4291678676
-0.3357799053 -0.0183166191 0.6013629436 4291810520
-0.3362757564 -0.0176745225 0.6022509933 4291810520
-0.3362839520 -0.0170057938 0.6022656560 4291875800
-0.3362918198 -0.0163370166 0.6022797823 4292007386
-0.3358120024 -0.0156454854 0.6014204025 4292205020
-0.3353318274 -0.0149558494 0.6005604863 4292139227
-0.3353387415 -0.0142888781 0.6005728245 4292008928
-0.3358327746 -0.0136416657 0.6014575958 4292074721
-0.3353516459 -0.0129548162 0.6005958915 4292335837
-0.3353576064 -0.0122877304 0.6006066203 4292401630
-0.3353632390 -0.0116206091 0.6006167531 4290764513
-0.3353686035 -0.0109534552 0.6006262898 4289185481
-0.3339112401 -0.0102414172 0.5980162024 4283284151
-0.3358657956 -0.0096330382 0.6015167236 4281705119
-0.3363576531 -0.0089778388 0.6023976207 4279479466
-0.3363617361 -0.0083086323 0.6024049520 4279413673
-0.3363655210 -0.0076394030 0.6024117470 4279348398
-0.3363689780 -0.0069701523 0.6024178863 4279414191
-0.3368596137 -0.0063100131 0.6032965779 4279021486
-0.3373499215 -0.0056479168 0.6041747332 4278824107
-0.3373524547 -0.0049766721 0.6041792631 4279150762
-0.3378421366 -0.0043116356 0.6050562859 4279348141
-0.3378440142 -0.0036393951 0.6050596237 4278235310
-0.3373580873 -0.0029628626 0.6041893363 4278234025
-0.3363842964 -0.0022849506 0.6024453640 4278757282
-0.3358976841 -0.0016132536 0.6015738845 4279217833
-0.3354107738 -0.0009434923 0.6007018685 4281706918
-0.2918367088 -0.2324082255 0.5237048268 4293322478
-0.2923860848 -0.2322627753 0.5246907473 4293190892
-0.2929356396 -0.2321152538 0.5256769061 4293256685
-0.2934853435 -0.2319656610 0.5266633630 4293190892
-0.2965953946 -0.2320583612 0.5322443843 4293125099
-0.2971461117 -0.2318967879 0.5332326293 4293059306
-0.2972417772 -0.2313787937 0.5334043503 4292993513
-0.2977926433 -0.2312138379 0.5343928337 4293124840
-0.2983436286 -0.2310467958 0.5353816152 4293124840
-0.2979834974 -0.2301737666 0.5347353220 4293190633
-0.2989902496 -0.2303552777 0.5365419388 4293190633
-0.2995415032 -0.2301827520 0.5375311971 4293125353
-0.3006443977 -0.2298314124 0.5395103693 4293125099
-0.3007397056 -0.2293046415 0.5396813750 4293125099
-0.3003783524 -0.2284302115 0.5390329361 4293125099
-0.3004731834 -0.2279032320 0.5392031074 4293190892
-0.3010246456 -0.2277213186 0.5401927233 4292994283
-0.3011192977 -0.2271925360 0.5403625965 4293060076
-0.3012138009 -0.2266632766 0.5405321717 4293060076
-0.3013081253 -0.2261334956 0.5407014489 4293060076
-0.3014023006 -0.2256032377 0.5408704281 4293060076
-0.3014963269 -0.2250724733 0.5410391688 4293060076
-0.3015901744 -0.2245412022 0.5412075520 4293190892
-0.3016838431 -0.2240094543 0.5413756967 4293190892
-0.3017773628 -0.2234771997 0.5415434837 4293190892
-0.3014126420 -0.2226061523 0.5408890247 4293125099
-0.3019639254 -0.2224112153 0.5418782830 4293125099
-0.3020569384 -0.2218774855 0.5420451760 4293125099
-0.3021498024 -0.2213432491 0.5422118306 4293125099
-0.3022424877 -0.2208085358 0.5423781872 4293125099
-0.3027938008 -0.2206075788 0.5433675051 4293059306
-0.3028862774 -0.2200710624 0.5435334444 4292993513
-0.3029786050 -0.2195340544 0.5436991453 4293059306
-0.3026115596 -0.2186647505 0.5430405140 4293059306
-0.3031627536 -0.2184585631 0.5440295935 4293125099
-0.3032545745 -0.2179200947 0.5441943407 4293256685
-0.3033462167 -0.2173811346 0.5443587899 4293256685
-0.3029779196 -0.2165131271 0.5436979532 4293190892
-0.3030690849 -0.2159740031 0.5438615084 4293190635
-0.3027000427 -0.2151074857 0.5431993008 4293453807
-0.3027907312 -0.2145682126 0.5433620214 4293322221
-0.3028812408 -0.2140284479 0.5435243845 4293059049
-0.3025111258 -0.2131637484 0.5428602099 4292993513
-0.3026011288 -0.2126238495 0.5430217981 4293125099
-0.3026909828 -0.2120834589 0.5431830287 4293256428
-0.3027806580 -0.2115425915 0.5433439016 4293124842
-0.3028701544 -0.2110012472 0.5435044765 4293059560
-0.3034205735 -0.2107797563 0.5444923043 4293191146
-0.3039711118 -0.2105561346 0.5454802513 4292929001
-0.3040603399 -0.2100116909 0.5456403494 4292929001
-0.3036878705 -0.2091489285 0.5449719429 4292864491
-0.3037766218 -0.2086043656 0.5451311469 4292864491
-0.3038651645 -0.2080593109 0.5452901125 4292864750
-0.3044154942 -0.2078291625 0.5462776423 4293127922
-0.3040417433 -0.2069678009 0.5456069708 4293388012
-0.3041297495 -0.2064213306 0.5457649231 4293322219
-0.3042175770 -0.2058743834 0.5459225178 4293388012
-0.3047676980 -0.2056390196 0.5469096899 4293519598
-0.3048553169 -0.2050902992 0.5470669270 4293519598
-0.3049427271 -0.2045411021 0.5472238064 4293519598
-0.3050299585 -0.2039914280 0.5473803282 4293520111
-0.3051170111 -0.2034412920 0.5475365520 4293520111
-0.3052038550 -0.2028906792 0.5476924181 4293519857
-0.3052905500 -0.2023396045 0.5478479266 4293322478
-0.3049136400 -0.2014818490 0.5471715927 4293190892
-0.3045362830 -0.2006253004 0.5464944243 4293190892
-0.3046221435 -0.2000744939 0.5466484427 4293190892
-0.3047077954 -0.1995232254 0.5468022227 4293125099
-0.3052572012 -0.1992743313 0.5477880836 4292994283
-0.3053426147 -0.1987212896 0.5479413867 4292994283
-0.3049636483 -0.1978666186 0.5472613573 4292994794
-0.3050485551 -0.1973135024 0.5474137068 4292863208
-0.3051332831 -0.1967599094 0.5475656986 4292797415
-0.3052178025 -0.1962058544 0.5477173924 4292863208
-0.3053021431 -0.1956513524 0.5478687286 4292928488
-0.3053862751 -0.1950963736 0.5480197072 4292862695
-0.3054702282 -0.1945409477 0.5481703877 4292993767
-0.3055539727 -0.1939850748 0.5483206511 4292993767
-0.3070331514 -0.1943119615 0.5509750843 4293059047
-0.3061862290 -0.1931654960 0.5494552851 4293190633
-0.3058040738 -0.1923146844 0.5487694740 4293190632
-0.3058870435 -0.1917569786 0.5489183664 4293190632
-0.3064355254 -0.1914898306 0.5499026179 4293125352
-0.3065182269 -0.1909303665 0.5500510335 4293191145
-0.3066007495 -0.1903704554 0.5501990914 4293126122
-0.3066830635 -0.1898100823 0.5503468513 4293126122
-0.3062989712 -0.1889616549 0.5496575832 4293191662
-0.3063807487 -0.1884012371 0.5498043299 4293125869
-0.3059958816 -0.1875544786 0.5491136909 4293060076
-0.3060771525 -0.1869940162 0.5492595434 4293125869
-0.3061582148 -0.1864331067 0.5494049788 4293125869
-0.3062390685 -0.1858717650 0.5495501161 4293125869
-0.3063197434 -0.1853099763 0.5496948361 4293060076
-0.3064002097 -0.1847477406 0.5498392582 4293060076
-0.3064804673 -0.1841850579 0.5499832630 4293125869
-0.3065605164 -0.1836219430 0.5501269102 4292994283
-0.3066403568 -0.1830583811 0.5502701998 4292928490
-0.3067200184 -0.1824943721 0.5504131317 4292928490
-0.3067994714 -0.1819299459 0.5505557060 4293190892
-0.3068786860 -0.1813650578 0.5506979227 4293256685
-0.3069577217 -0.1807997525 0.5508397222 4293322478
-0.3070365489 -0.1802340001 0.5509811640 4293454064
-0.3066470027 -0.1793939322 0.5502821207 4293125869
-0.3071935773 -0.1791011840 0.5512629747 4293125869
-0.3072717786 -0.1785341352 0.5514032841 4293060076
-0.3073497713 -0.1779666543 0.5515432954 4293060076
-0.3074275553 -0.1773987263 0.5516828895 4292994283
-0.3079738915 -0.1770999432 0.5526632667 4292994283
-0.3080513775 -0.1765303016 0.5528023243 4292928490
-0.3076596558 -0.1756923944 0.5520993471 4292928490
-0.3077366054 -0.1751227677 0.5522374511 4293125869
-0.3082825840 -0.1748187840 0.5532171726 4293191662
-0.3083592057 -0.1742474288 0.5533546805 4293191662
-0.3084356487 -0.1736756414 0.5534918308 4293191662
-0.3085118532 -0.1731034368 0.5536286235 4293191662
-0.3081181645 -0.1722681969 0.5529221296 4293257455
-0.3077239990 -0.1714342833 0.5522148013 4293323248
-0.3077993393 -0.1708625555 0.5523500443 4293323248
-0.3083445132 -0.1705503911 0.5533283353 4293192175
-0.3084195256 -0.1699769497 0.5534629226 4293192175
-0.3084943295 -0.1694030911 0.5535971522 4293192175
-0.3085689247 -0.1688288152 0.5537310243 4293192175
-0.3086432815 -0.1682541221 0.5538644791 4293323248
-0.3087174296 -0.1676790118 0.5539975762 4293323248
-0.3087913692 -0.1671034992 0.5541302562 4293323248
-0.3088651001 -0.1665275544 0.5542625189 4293257455
-0.3089385927 -0.1659512073 0.5543944240 4293257455
-0.3090118468 -0.1653744578 0.5545259118 4293257455
-0.3090849221 -0.1647972912 0.5546569824 4293257455
-0.3096290231 -0.1644700468 0.5556334257 4293323248
-0.3097017407 -0.1638911813 0.5557639003 4293389041
-0.3097742498 -0.1633119136 0.5558940172 4293323248
-0.3098465204 -0.1627322286 0.5560237169 4293257455
-0.3099185824 -0.1621521562 0.5561529994 4293257455
-0.3095185757 -0.1613257378 0.5554351807 4293192175
-0.3095900714 -0.1607457250 0.5555635095 4293126382
-0.3096613288 -0.1601653248 0.5556914210 4293191662
-0.3092602193 -0.1593412459 0.5549715757 4293257455
-0.3093309402 -0.1587609202 0.5550984740 4293257455
-0.3089290559 -0.1579387039 0.5543773174 4293191662
-0.3089992106 -0.1573584825 0.5545032024 4293060076
-0.3090691268 -0.1567778587 0.5546286702 4292862697
-0.3091388345 -0.1561968476 0.5547537804 4292665318
-0.3096810877 -0.1558533758 0.5557268858 4292599525
-0.3097504377 -0.1552706957 0.5558512807 4292730341
-0.3102925718 -0.1549237818 0.5568241477 4292861927
-0.3103615642 -0.1543394178 0.5569479465 4293059306
-0.3104303479 -0.1537546664 0.5570713878 4293190892
-0.3109721839 -0.1534030139 0.5580437183 4293388271
-0.3110406101 -0.1528165936 0.5581665039 4293519857
-0.3111087680 -0.1522298008 0.5582888126 4293649905
-0.3111767173 -0.1516426057 0.5584107637 4293715698
-0.3112444282 -0.1510550380 0.5585322380 4293323250
-0.3108380735 -0.1502380520 0.5578030348 4293323250
-0.3109051883 -0.1496506035 0.5579234958 4293061616
-0.3114461601 -0.1492900103 0.5588942766 4292995823
-0.3115129173 -0.1487009227 0.5590140820 4293518571
-0.3115794659 -0.1481114477 0.5591334701 4293518571
-0.3116457462 -0.1475215852 0.5592524409 4293783283
-0.3117118180 -0.1469313651 0.5593709946 4293651697
-0.3122521937 -0.1465635002 0.5603407025 4293848562
-0.3123178780 -0.1459716260 0.5604586005 4293453804
-0.3123833239 -0.1453793645 0.5605760217 4292992478
-0.3129233718 -0.1450067908 0.5615451932 4292400341
-0.3129884601 -0.1444128901 0.5616619587 4292854987
-0.3130532801 -0.1438186318 0.5617783070 4291736506
-0.3131178617 -0.1432240009 0.5618941784 4292518312
-0.3131822348 -0.1426289976 0.5620096922 4291531417
-0.3132463396 -0.1420336366 0.5621247292 4291263106
-0.3128347695 -0.1412232816 0.5613861680 4290473590
-0.3128982782 -0.1406280845 0.5615001321 4290862437
-0.3129615784 -0.1400325447 0.5616136789 4290138714
-0.3125488758 -0.1392247230 0.5608731508 4289808203
-0.3126115799 -0.1386293471 0.5609856248 4289479238
-0.3131499588 -0.1382437199 0.5619517565 4288822848
-0.3132122457 -0.1376467347 0.5620635748 4288757055
-0.3132743239 -0.1370493919 0.5621749163 4288560704
-0.3133361340 -0.1364516914 0.5622858405 4288429118
-0.3133977056 -0.1358536482 0.5623963475 4288427835
-0.3139353991 -0.1354607940 0.5633612871 4288296249
-0.3139965832 -0.1348611414 0.5634710193 4288885818
-0.3140574992 -0.1342611313 0.5635803938 4289148990
-0.3141181767 -0.1336607635 0.5636892319 4289346369
-0.3141786158 -0.1330600530 0.5637977123 4289083197
-0.3142387867 -0.1324589998 0.5639056563 4289346370
-0.3142986894 -0.1318576038 0.5640131831 4289741128
-0.3143583834 -0.1312558651 0.5641202927 4288888388
-0.3139407039 -0.1304555237 0.5633707643 4288230458
-0.3139997721 -0.1298540086 0.5634768009 4287970368
-0.3135813177 -0.1290557235 0.5627258420 4288694091
-0.3136398196 -0.1284544468 0.5628308058 4288827736
-0.3136980534 -0.1278528422 0.5629353523 4289880424
-0.3137560487 -0.1272508949 0.5630393624 4289887619
-0.3138137758 -0.1266486198 0.5631430149 4291137686
-0.3138712645 -0.1260460168 0.5632461309 4290883248
-0.3144063056 -0.1256340146 0.5642063022 4291804350
-0.3144633770 -0.1250298321 0.5643087029 4291611854
-0.3145201802 -0.1244253144 0.5644106865 4292203991
-0.3145767450 -0.1238204762 0.5645121336 4292599009
-0.3146330416 -0.1232153103 0.5646131635 4292993767
-0.3146890700 -0.1226098165 0.5647137165 4293322732
-0.3147448599 -0.1220040023 0.5648138523 4293520111
-0.3148004115 -0.1213978678 0.5649135113 4293651697
-0.3153341711 -0.1209749877 0.5658713579 4293585904
-0.3153892756 -0.1203672960 0.5659702420 4293322732
-0.3154441118 -0.1197592840 0.5660686493 4293191146
-0.3154986799 -0.1191509515 0.5661665797 4293322732
-0.3155530095 -0.1185423061 0.5662640929 4293322732
-0.3156070709 -0.1179333478 0.5663611293 4293191660
-0.3156608939 -0.1173240766 0.5664576292 4293191660
-0.3157144189 -0.1167144999 0.5665537119 4293191660
-0.3152885437 -0.1159284189 0.5657894611 4293191660
-0.3153414726 -0.1153191477 0.5658844709 4293125867
-0.3153941631 -0.1147095710 0.5659790039 4293125867
-0.3154465854 -0.1140996888 0.5660730600 4293191911
-0.3159781992 -0.1136619747 0.5670270920 4292797153
-0.3165097237 -0.1132221073 0.5679809451 4292927201
-0.3165615201 -0.1126094609 0.5680738688 4293124580
-0.3170927465 -0.1121662036 0.5690271854 4292994794
-0.3171440959 -0.1115520298 0.5691192746 4293060587
-0.3176750243 -0.1111053899 0.5700720549 4293060076
-0.3182058632 -0.1106565967 0.5710246563 4292928490
-0.3182565570 -0.1100396737 0.5711156130 4293258995
-0.3183069825 -0.1094224602 0.5712060928 4292601065
-0.3183571100 -0.1088049486 0.5712960958 4290963174
-0.3184069991 -0.1081871465 0.5713856220 4288660419
-0.3184566200 -0.1075690538 0.5714746714 4284657075
-0.3185059726 -0.1069506779 0.5715631843 4283538594
-0.3185550570 -0.1063320115 0.5716512799 4280787115
-0.3186038733 -0.1057130620 0.5717388391 4280129185
-0.3181717694 -0.1049353182 0.5709635019 4280786610
-0.3177392781 -0.1041591540 0.5701873302 4281181368
-0.3173063695 -0.1033845842 0.5694105029 4281511095
-0.3173538744 -0.1027673110 0.5694957376 4281116337
-0.3174011111 -0.1021497622 0.5695804954 4280524966
-0.3184100389 -0.1018396169 0.5713910460 4280130208
-0.3179758191 -0.1010667458 0.5706118345 4280720290
-0.3185034394 -0.1005994007 0.5715586543 4281838771
-0.3185497522 -0.0999788940 0.5716417432 4286561222
-0.3190770149 -0.0995081961 0.5725879669 4288535012
-0.3191228509 -0.0988862067 0.5726701617 4291618535
-0.3191683888 -0.0982639492 0.5727518797 4292342258
-0.3196951151 -0.0977886990 0.5736971498 4293063150
-0.3197401762 -0.0971649736 0.5737779737 4292799978
-0.3197849691 -0.0965409875 0.5738583803 4292865518
-0.3198294640 -0.0959167331 0.5739382505 4292865518
-0.3193919659 -0.0951487124 0.5731531382 4292929771
-0.3194358349 -0.0945248902 0.5732318759 4292732392
-0.3194794655 -0.0939007998 0.5733101368 4292666598
-0.3200047314 -0.0934171528 0.5742527246 4292732391
-0.3200478554 -0.0927916169 0.5743301511 4292798184
-0.3205727637 -0.0923046395 0.5752720833 4292798184
-0.3206153810 -0.0916776583 0.5753485560 4292929771
-0.3206577301 -0.0910504311 0.5754245520 4293127150
-0.3206998110 -0.0904229507 0.5755000710 4293061357
-0.3212239146 -0.0899302661 0.5764405727 4292995564
-0.3212654889 -0.0893013477 0.5765151978 4292929771
-0.3217892051 -0.0888053402 0.5774550438 4293061357
-0.3218302727 -0.0881749988 0.5775287151 4292798185
-0.3218710721 -0.0875444114 0.5776019096 4291745497
-0.3214289546 -0.0867832899 0.5768085122 4290758602
-0.3214691281 -0.0861531794 0.5768806338 4290627016
-0.3215090036 -0.0855228305 0.5769521594 4291415762
-0.3225142062 -0.0851471797 0.5787560344 4291086797
-0.3225536346 -0.0845144689 0.5788267851 4291021004
-0.3221098483 -0.0837559626 0.5780304074 4291021004
-0.3226316571 -0.0832483619 0.5789667964 4290757832
-0.3231532574 -0.0827386454 0.5799028277 4290889418
-0.3231916130 -0.0821040720 0.5799716711 4291284176
-0.3227465153 -0.0813474953 0.5791729093 4291284176
-0.3232674599 -0.0808342546 0.5801077485 4291744727
-0.3233049214 -0.0801990107 0.5801749825 4291942106
-0.3228588104 -0.0794446245 0.5793744326 4292205278
-0.3228956759 -0.0788098946 0.5794405937 4292534243
-0.3234156668 -0.0782919750 0.5803737044 4292862695
-0.3229685128 -0.0775397792 0.5795713067 4292928488
-0.3230045140 -0.0769044086 0.5796359181 4292994794
-0.3230402172 -0.0762688220 0.5796999931 4293192173
-0.3230756521 -0.0756330267 0.5797635317 4292994793
-0.3231107891 -0.0749970227 0.5798265934 4292929000
-0.3236293793 -0.0744721293 0.5807572007 4292929000
-0.3236639798 -0.0738347545 0.5808193088 4292863207
-0.3236982822 -0.0731971860 0.5808808804 4292928743
-0.3237323165 -0.0725594088 0.5809419155 4292994536
-0.3237660229 -0.0719214380 0.5810024738 4292994536
-0.3237994909 -0.0712832585 0.5810624957 4292928743
-0.3238326311 -0.0706448928 0.5811219811 4292731109
-0.3243495822 -0.0701109692 0.5820496678 4292796902
-0.3243822157 -0.0694712549 0.5821081996 4292796902
-0.3244145215 -0.0688313469 0.5821661949 4292731109
-0.3244465590 -0.0681912526 0.5822236538 4292730595
-0.3244782984 -0.0675509647 0.5822806358 4292730595
-0.3245097399 -0.0669104978 0.5823370218 4292664802
-0.3245408833 -0.0662698373 0.5823929310 4292664802
-0.3250561655 -0.0657269508 0.5833176374 4292796388
-0.3250867724 -0.0650849715 0.5833725333 4292796388
-0.3260861337 -0.0646348894 0.5851659179 4292599009
-0.3261162639 -0.0639906377 0.5852199793 4292730595
-0.3261460662 -0.0633462071 0.5852734447 4292862181
-0.3261755705 -0.0627015978 0.5853264332 4292796388
-0.3262048066 -0.0620568171 0.5853788257 4292665571
-0.3262337148 -0.0614118613 0.5854307413 4292402399
-0.3267471194 -0.0608570315 0.5863520503 4292073434
-0.3267754912 -0.0602107793 0.5864029527 4291876055
-0.3268035650 -0.0595643595 0.5864533186 4291876055
-0.3273162544 -0.0590051897 0.5873733759 4292073434
-0.3273437619 -0.0583574809 0.5874227285 4292336606
-0.3273709714 -0.0577096082 0.5874715447 4292468192
-0.3273978829 -0.0570615754 0.5875198841 4292402910
-0.3274244964 -0.0564133860 0.5875676274 4292468703
-0.3274508119 -0.0557650365 0.5876148343 4292533985
-0.3274768293 -0.0551165342 0.5876615644 4292468192
-0.3275025487 -0.0544678755 0.5877076983 4292468192
-0.3275279701 -0.0538190678 0.5877532959 4292468192
-0.3275530934 -0.0531701073 0.5877983570 4292402399
-0.3275778890 -0.0525210015 0.5878428817 4292402399
-0.3276024163 -0.0518717468 0.5878868699 4292402144
-0.3276266158 -0.0512223467 0.5879303217 4292336351
-0.3276505172 -0.0505728051 0.5879732370 4292402144
-0.3276741505 -0.0499231219 0.5880156159 4292204765
-0.3276974559 -0.0492732972 0.5880573988 4292007386
-0.3277204335 -0.0486233383 0.5880987048 4292073179
-0.3282286823 -0.0480443127 0.5890107751 4292138972
-0.3277655542 -0.0473230109 0.5881796479 4292204765
-0.3302156925 -0.0470183715 0.5925764441 4292270560
-0.3302376568 -0.0463630557 0.5926158428 4292336353
-0.3288022876 -0.0455059633 0.5900400877 4292270813
-0.3288235366 -0.0448532850 0.5900781751 4292270813
-0.3293302059 -0.0442657694 0.5909874439 4292336606
-0.3298366368 -0.0436762013 0.5918962359 4292402399
-0.3298570514 -0.0430212244 0.5919328332 4292073434
-0.3303629756 -0.0424285196 0.5928407311 4291810262
-0.3303827643 -0.0417723358 0.5928763151 4291612883
-0.3304022849 -0.0411160365 0.5929113030 4291481297
-0.3304214776 -0.0404596180 0.5929457545 4291481297
-0.3304403722 -0.0398030914 0.5929796696 4291678676
-0.3319168687 -0.0393191539 0.5956292152 4292006871
-0.3309632540 -0.0385463014 0.5939179659 4292204250
-0.3309812248 -0.0378884748 0.5939502120 4292335836
-0.3309989274 -0.0372305438 0.5939819813 4292401629
-0.3305302262 -0.0365188047 0.5931409001 4292467422
-0.3305472732 -0.0358616337 0.5931714773 4292467422
-0.3305640221 -0.0352043584 0.5932015181 4292335836
-0.3310666084 -0.0345977917 0.5941034555 4292335836
-0.3305965960 -0.0338895172 0.5932599902 4292401629
-0.3306123912 -0.0332319550 0.5932883620 4292467422
-0.3306279182 -0.0325742960 0.5933161974 4292401629
-0.3306431174 -0.0319165476 0.5933434367 4292335836
-0.3301717341 -0.0312127378 0.5924975872 4292204250
-0.3301863074 -0.0305557791 0.5925236940 4292006871
-0.3306868672 -0.0299427658 0.5934219956 4291941078
-0.3311871588 -0.0293277334 0.5943197608 4292072664
-0.3312008083 -0.0286685862 0.5943442583 4292138457
-0.3317005634 -0.0280504860 0.5952410698 4292204250
-0.3317136168 -0.0273902118 0.5952644944 4292335836
-0.3322128057 -0.0267690513 0.5961602926 4292335836
-0.3322252631 -0.0261076540 0.5961826444 4292335836
-0.3327238560 -0.0254834406 0.5970774293 4292270043
-0.3332221806 -0.0248572193 0.5979716778 4292073434
-0.3332337737 -0.0241936687 0.5979924202 4291810262
-0.3332450092 -0.0235300511 0.5980126262 4291547088
-0.3327694535 -0.0228329860 0.5971592069 4291481295
-0.3327800930 -0.0221702084 0.5971782804 4291875283
-0.3327903748 -0.0215073656 0.5971967578 4292072662
-0.3332869411 -0.0208749380 0.5980878472 4292139225
-0.3332966268 -0.0202110074 0.5981052518 4292270811
-0.3337925971 -0.0195755567 0.5989952683 4291876055
-0.3338016868 -0.0189105440 0.5990115404 4292073434
-0.3338104486 -0.0182454791 0.5990272760 4292007899
-0.3343055248 -0.0176059902 0.5999156833 4291942106
-0.3343136609 -0.0169398524 0.5999303460 4292073692
-0.3338348866 -0.0162499808 0.5990711451 4292007899
-0.3338423967 -0.0155847212 0.5990846157 4291941848
-0.3333629370 -0.0148976687 0.5982242227 4291941848
-0.3333698213 -0.0142332930 0.5982365608 4292138974
-0.3333763778 -0.0135688763 0.5982483625 4292138974
-0.3333826363 -0.0129044214 0.5982595682 4292008930
-0.3329018652 -0.0122220619 0.5973968506 4291482586
-0.3329074681 -0.0115585066 0.5974069238 4287547596
-0.3333995044 -0.0109108463 0.5982898474 4285244841
-0.3338912129 -0.0102612153 0.5991722345 4280199590
-0.3343826234 -0.0096096145 0.6000540853 4280002211
-0.3348737657 -0.0089560458 0.6009353995 4279021745
-0.3348778188 -0.0082884645 0.6009427309 4279021745
-0.3348815739 -0.0076208599 0.6009494662 4279413680
-0.3353717625 -0.0069633396 0.6018291116 4279545266
-0.3358616531 -0.0063038594 0.6027082205 4279218093
-0.3363512456 -0.0056424201 0.6035867929 4279086507
-0.3368405104 -0.0049790242 0.6044647694 4279282605
-0.3368427157 -0.0043074489 0.6044687033 4279282605
-0.3368445933 -0.0036358610 0.6044721007 4279217584
-0.3358725905 -0.0029556958 0.6027278304 4279151791
-0.3358738422 -0.0022860304 0.6027300954 4279085996
-0.3353879750 -0.0016140160 0.6018581986 4279085996
-0.3334414959 -0.0009398222 0.5983651876 4279478183
-0.2886338234 -0.2331998199 0.5189916492 4293190892
-0.2896342278 -0.2334294468 0.5207904577 4293059306
-0.2906350791 -0.2336554378 0.5225901008 4293125099
-0.2911835313 -0.2335146219 0.5235762596 4293190892
-0.2912791073 -0.2330093682 0.5237481594 4293190892
-0.2918277085 -0.2328651994 0.5247345567 4293256685
-0.2928297818 -0.2330797762 0.5265363455 4293190892
-0.2933788300 -0.2329306751 0.5275236368 4293190892
-0.2943816185 -0.2331387401 0.5293267369 4293190892
-0.2949311137 -0.2329847068 0.5303148031 4293190892
-0.2950268686 -0.2324709296 0.5304869413 4293125099
-0.2951224744 -0.2319566607 0.5306588411 4293125099
-0.2961262763 -0.2321540266 0.5324638486 4293059306
-0.2957675457 -0.2312819064 0.5318188071 4293059306
-0.2967717946 -0.2314743102 0.5336245298 4293059306
-0.2964126170 -0.2306019813 0.5329787135 4293125353
-0.2955982387 -0.2293778509 0.5315143466 4293125353
-0.2970576584 -0.2299168706 0.5341385603 4293125353
-0.2976077199 -0.2297480255 0.5351275802 4293125353
-0.2986130714 -0.2299275845 0.5369353294 4293125099
-0.2982528508 -0.2290543467 0.5362875462 4293125099
-0.2969811559 -0.2274844050 0.5340009928 4293190892
-0.2993535697 -0.2287035882 0.5382667780 4293190892
-0.2989925444 -0.2278304398 0.5376176238 4293190892
-0.2990870178 -0.2273049206 0.5377874970 4293190892
-0.2991813421 -0.2267788798 0.5379571319 4293060076
-0.2992755175 -0.2262523621 0.5381264091 4293060076
-0.2993695140 -0.2257253379 0.5382954478 4293060076
-0.2994633317 -0.2251978219 0.5384641886 4293060076
-0.2995570004 -0.2246697992 0.5386325717 4293060076
-0.3001073003 -0.2244829684 0.5396220684 4293060076
-0.2997438908 -0.2236122936 0.5389686227 4293191146
-0.2998370528 -0.2230827957 0.5391361713 4293191146
-0.2999300957 -0.2225527912 0.5393034220 4293060076
-0.3000229597 -0.2220223099 0.5394704342 4293060076
-0.3001156449 -0.2214913368 0.5396370888 4293060076
-0.3006658256 -0.2212966979 0.5406263471 4293060076
-0.3007583320 -0.2207639217 0.5407927036 4292994281
-0.3008506596 -0.2202306539 0.5409587026 4292994281
-0.3009428382 -0.2196969092 0.5411244631 4292928488
-0.3010348380 -0.2191626579 0.5412898660 4292928488
-0.3015850186 -0.2189606875 0.5422791839 4292994283
-0.3012183607 -0.2180927098 0.5416198373 4293060076
-0.3013098538 -0.2175569981 0.5417844057 4293060076
-0.3014011979 -0.2170207947 0.5419486165 4292994283
-0.3014923632 -0.2164841145 0.5421125293 4292862695
-0.3015833497 -0.2159469426 0.5422761440 4292994281
-0.3012149930 -0.2150814086 0.5416138172 4293387762
-0.3013055027 -0.2145440876 0.5417765379 4293387762
-0.3009364009 -0.2136800438 0.5411128402 4292732138
-0.3010264337 -0.2131425738 0.5412747264 4292534759
-0.3011162579 -0.2126046270 0.5414363146 4292468192
-0.3007460833 -0.2117424160 0.5407707095 4291678676
-0.3008354604 -0.2112043202 0.5409314036 4291805122
-0.3009246588 -0.2106657475 0.5410917401 4291410364
-0.3010136783 -0.2101266980 0.5412518382 4291932855
-0.3015629351 -0.2099076509 0.5422394276 4291867062
-0.3016517162 -0.2093668133 0.5423991084 4291604404
-0.3022010326 -0.2091443241 0.5433867574 4291670197
-0.3022896051 -0.2086017132 0.5435460806 4291408570
-0.3023779988 -0.2080586255 0.5437050462 4291276984
-0.3024662435 -0.2075150460 0.5438636541 4291342525
-0.3025542796 -0.2069710046 0.5440219641 4291737283
-0.3021807969 -0.2061118186 0.5433503985 4290952130
-0.3027298152 -0.2058815062 0.5443376303 4291149509
-0.3028173447 -0.2053360492 0.5444949865 4291150792
-0.3029046655 -0.2047901005 0.5446519852 4291282378
-0.3029918075 -0.2042437047 0.5448086858 4291480015
-0.3030787408 -0.2036968172 0.5449650288 4291743187
-0.3036276698 -0.2034591436 0.5459520221 4292138458
-0.3032521009 -0.2026016563 0.5452767611 4292533216
-0.3033385277 -0.2020533681 0.5454320908 4293059047
-0.3034247458 -0.2015046030 0.5455871224 4293059047
-0.3035107553 -0.2009553909 0.5457418561 4292993513
-0.3026710153 -0.1997946948 0.5442318916 4293059306
-0.3027563989 -0.1992462277 0.5443854332 4292994283
-0.3028416336 -0.1986972839 0.5445386767 4292994283
-0.3029266596 -0.1981478781 0.5446915030 4292732138
-0.3034748137 -0.1979001462 0.5456771851 4292732138
-0.3035595715 -0.1973489672 0.5458295941 4293386218
-0.3036441803 -0.1967973411 0.5459817052 4293452011
-0.3032648563 -0.1959456354 0.5452996492 4293190122
-0.3033489287 -0.1953939199 0.5454508662 4293124329
-0.3034328222 -0.1948417574 0.5456016660 4293059049
-0.3035165370 -0.1942891330 0.5457521677 4293124842
-0.3036000431 -0.1937360466 0.5459023118 4293125099
-0.3036833405 -0.1931825131 0.5460521579 4293059306
-0.3037664592 -0.1926285177 0.5462015867 4293256685
-0.3038493991 -0.1920740604 0.5463507175 4293256685
-0.3039321303 -0.1915191710 0.5464994907 4293256939
-0.3044795096 -0.1912558079 0.5474837422 4293191146
-0.3045619726 -0.1906991452 0.5476320386 4293060074
-0.3046442568 -0.1901420355 0.5477799773 4293191660
-0.3047263324 -0.1895844787 0.5479275584 4293191660
-0.3048081994 -0.1890264750 0.5480747819 4293191660
-0.3048898876 -0.1884680092 0.5482216477 4293060076
-0.3045057654 -0.1876222193 0.5475309491 4293060076
-0.3041211963 -0.1867776811 0.5468394756 4293125869
-0.3042020500 -0.1862196028 0.5469847918 4293191662
-0.3042826653 -0.1856610626 0.5471298099 4293257455
-0.3043631315 -0.1851020753 0.5472744703 4293191662
-0.3049095869 -0.1848252565 0.5482570529 4293060076
-0.3049897254 -0.1842645407 0.5484011769 4293060076
-0.3046032190 -0.1834224761 0.5477061868 4293060076
-0.3046828508 -0.1828617305 0.5478493571 4292994283
-0.3052290082 -0.1825797260 0.5488314033 4293256685
-0.3053083420 -0.1820172369 0.5489740968 4293322478
-0.3053874969 -0.1814543158 0.5491163731 4293322478
-0.3049993813 -0.1806143671 0.5484184623 4293322478
-0.3050779998 -0.1800514311 0.5485598445 4293388271
-0.3051564097 -0.1794880629 0.5487008095 4293388271
-0.3052346110 -0.1789242625 0.5488414764 4293257455
-0.3053126037 -0.1783600301 0.5489817262 4293191662
-0.3053903878 -0.1777953506 0.5491215587 4293191662
-0.3054679930 -0.1772302538 0.5492610931 4293125869
-0.3055453598 -0.1766647249 0.5494002104 4293125869
-0.3056225181 -0.1760987639 0.5495389700 4293060076
-0.3056994975 -0.1755323857 0.5496773720 4293060076
-0.3057762384 -0.1749655753 0.5498153567 4293060076
-0.3063211739 -0.1746654063 0.5507951975 4293060076
-0.3063976169 -0.1740968674 0.5509326458 4293125869
-0.3064738512 -0.1735279113 0.5510697365 4293126382
-0.3065498769 -0.1729585230 0.5512064099 4293126382
-0.3056879938 -0.1718615294 0.5496566892 4293126382
-0.3057633638 -0.1712930501 0.5497922301 4293192175
-0.3058384955 -0.1707241386 0.5499273539 4293257968
-0.3063826561 -0.1704157889 0.5509057641 4293192175
-0.3064574897 -0.1698451787 0.5510402918 4293323761
-0.3060626984 -0.1690149158 0.5503304601 4293257968
-0.3066065311 -0.1687026918 0.5513082743 4293257968
-0.3066807091 -0.1681308150 0.5514417291 4293192175
-0.3067547083 -0.1675585359 0.5515747666 4293323248
-0.3068284690 -0.1669858396 0.5517073870 4293323248
-0.3069020212 -0.1664127409 0.5518395901 4293323248
-0.3074454367 -0.1660931855 0.5528167486 4293257455
-0.3070484400 -0.1652652919 0.5521029234 4293191662
-0.3071213365 -0.1646909565 0.5522339940 4293191662
-0.3076644540 -0.1643675268 0.5532105565 4293257455
-0.3077369928 -0.1637914926 0.5533410311 4293323248
-0.3078093529 -0.1632150561 0.5534710884 4293323248
-0.3078814745 -0.1626382023 0.5536007881 4293323248
-0.3079533577 -0.1620609462 0.5537300706 4293323248
-0.3080250323 -0.1614832878 0.5538589358 4293323248
-0.3080964983 -0.1609052271 0.5539874434 4293257968
-0.3081677258 -0.1603267640 0.5541154742 4293323761
-0.3077674210 -0.1595036387 0.5533956885 4293389041
-0.3073666692 -0.1586818844 0.5526751280 4293323248
-0.3074370027 -0.1581040025 0.5528016090 4293257455
-0.3075071275 -0.1575257182 0.5529276729 4293060076
-0.3071052730 -0.1567063183 0.5522050858 4292862697
-0.3071748316 -0.1561281383 0.5523301959 4292731111
-0.3072441518 -0.1555495560 0.5524548292 4292796904
-0.3082574010 -0.1554466933 0.5542767644 4292862697
-0.3078543246 -0.1546283960 0.5535519719 4293190892
-0.3083953559 -0.1542840302 0.5545247793 4293388271
-0.3089363575 -0.1539374888 0.5554975867 4293454064
-0.3090048730 -0.1533542871 0.5556207895 4293454064
-0.3090731502 -0.1527707130 0.5557435751 4293388271
-0.3091412187 -0.1521867365 0.5558658838 4293388271
-0.3096818328 -0.1518341899 0.5568379760 4293911794
-0.3092766106 -0.1510176361 0.5561093688 4293846001
-0.3093439639 -0.1504325122 0.5562304854 4293257455
-0.3094110787 -0.1498470157 0.5563511848 4293323248
-0.3094779849 -0.1492611319 0.5564714670 4293257968
-0.3100179434 -0.1489021927 0.5574423671 4293257968
-0.3100844622 -0.1483146548 0.5575619936 4293519087
-0.3101507723 -0.1477267444 0.5576812029 4293453294
-0.3102168143 -0.1471384466 0.5577999949 4293257965
-0.3102826476 -0.1465497762 0.5579183102 4293192172
-0.3108220398 -0.1461835802 0.5588881969 4293906646
-0.3108874857 -0.1455932558 0.5590058565 4291603891
-0.3109526932 -0.1450025737 0.5591231585 4290805639
-0.3110176623 -0.1444115192 0.5592399836 4289029228
-0.3110823929 -0.1438200921 0.5593563318 4288697690
-0.3111468852 -0.1432282925 0.5594723225 4287973967
-0.3112111390 -0.1426361203 0.5595878363 4288495170
-0.3112751544 -0.1420435905 0.5597029328 4287968826
-0.3108643293 -0.1412350684 0.5589642525 4288164149
-0.3109277487 -0.1406427175 0.5590783358 4288493114
-0.3109909594 -0.1400499940 0.5591919422 4289214783
-0.3110539019 -0.1394569278 0.5593051314 4289346369
-0.3111166060 -0.1388634890 0.5594179034 4289543234
-0.3111791015 -0.1382696927 0.5595301986 4289543234
-0.3112413287 -0.1376755387 0.5596421361 4289806404
-0.3117785752 -0.1372903138 0.5606081486 4289609025
-0.3118404150 -0.1366945356 0.5607193112 4289346623
-0.3114265203 -0.1358909458 0.5599751472 4289478209
-0.3119633496 -0.1355019361 0.5609403849 4289413445
-0.3120244443 -0.1349051148 0.5610502362 4289479238
-0.3120853007 -0.1343079358 0.5611596704 4289545288
-0.3121458888 -0.1337103993 0.5612686276 4289742667
-0.3122062385 -0.1331125200 0.5613771677 4289412162
-0.3122663498 -0.1325143129 0.5614852309 4289214783
-0.3118501306 -0.1317146420 0.5607367754 4288560965
-0.3119096458 -0.1311166584 0.5608438253 4289218895
-0.3119689226 -0.1305183172 0.5609503984 4288700261
-0.3120279312 -0.1299196333 0.5610565543 4289687156
-0.3116102517 -0.1291231811 0.5603054762 4290021776
-0.3116686940 -0.1285247356 0.5604105592 4291271843
-0.3122035265 -0.1281215698 0.5613722801 4292260794
-0.3122615516 -0.1275215447 0.5614765882 4293116103
-0.3123193383 -0.1269211769 0.5615804791 4293514459
-0.3123768568 -0.1263204813 0.5616839528 4294238182
-0.3124341369 -0.1257194579 0.5617868900 4293782510
-0.3124911487 -0.1251181066 0.5618894100 4293848303
-0.3130250871 -0.1247065216 0.5628495216 4293717489
-0.3130816817 -0.1241035908 0.5629512668 4293717489
-0.3131380379 -0.1235003397 0.5630525947 4293323246
-0.3131941259 -0.1228967533 0.5631534457 4293389039
-0.3132499754 -0.1222928539 0.5632538795 4293454832
-0.3133055568 -0.1216886267 0.5633537769 4293454832
-0.3133608699 -0.1210840791 0.5634533167 4293257453
-0.3134159446 -0.1204792112 0.5635523200 4293191660
-0.3134707510 -0.1198740229 0.5636508465 4293191660
-0.3135253191 -0.1192685217 0.5637489557 4293125867
-0.3135796189 -0.1186627001 0.5638465881 4293191660
-0.3136336505 -0.1180565730 0.5639437437 4293125867
-0.3136874437 -0.1174501255 0.5640404820 4293125867
-0.3137409687 -0.1168433726 0.5641367435 4293191660
-0.3137942255 -0.1162363067 0.5642324686 4293191660
-0.3138472438 -0.1156289279 0.5643277764 4293191660
-0.3138999641 -0.1150212437 0.5644226670 4293060074
-0.3139524758 -0.1144132614 0.5645170212 4292994281
-0.3140046895 -0.1138049662 0.5646108985 4292928739
-0.3145353794 -0.1133689284 0.5655651689 4292862946
-0.3150660098 -0.1129307374 0.5665192604 4293256168
-0.3151175976 -0.1123196781 0.5666120052 4293387754
-0.3156479001 -0.1118780971 0.5675655603 4293125869
-0.3156990409 -0.1112655178 0.5676575303 4293323248
-0.3157499433 -0.1106526405 0.5677490234 4292995310
-0.3162797689 -0.1102064475 0.5687017441 4292534759
-0.3168094754 -0.1097581014 0.5696542263 4290701291
-0.3168597221 -0.1091424748 0.5697445273 4288924880
-0.3164302409 -0.1083623767 0.5689722896 4284660673
-0.3164798617 -0.1077471077 0.5690615773 4283015848
-0.3165292442 -0.1071315408 0.5691503286 4281179303
-0.3165783286 -0.1065156981 0.5692386031 4280389787
-0.3166271448 -0.1058995649 0.5693264008 4280129955
-0.3161959052 -0.1051236242 0.5685509443 4280787885
-0.3162441254 -0.1045078561 0.5686376095 4280326825
-0.3158121109 -0.1037341580 0.5678608418 4280063653
-0.3153796792 -0.1029620469 0.5670832992 4280129446
-0.3154269457 -0.1023473144 0.5671682954 4280326825
-0.3154739439 -0.1017323062 0.5672528148 4281311406
-0.3160009086 -0.1012709290 0.5682003498 4282100922
-0.3165277541 -0.1008074060 0.5691476464 4284007622
-0.3170544803 -0.1003417373 0.5700947046 4286244584
-0.3171005845 -0.0997228250 0.5701776743 4290699749
-0.3176269829 -0.0992538035 0.5711241364 4291752437
-0.3176726103 -0.0986334160 0.5712062120 4293323499
-0.3177179992 -0.0980127677 0.5712878108 4293191913
-0.3177630901 -0.0973918438 0.5713689327 4292734442
-0.3178079426 -0.0967706665 0.5714495182 4292668649
-0.3178524971 -0.0961492211 0.5715296268 4293388014
-0.3178967535 -0.0955275148 0.5716092587 4293256428
-0.3179407716 -0.0949055552 0.5716883540 4292601318
-0.3175034225 -0.0941406935 0.5709019899 4292601318
-0.3180279434 -0.0936608538 0.5718451142 4292667111
-0.3180711269 -0.0930381268 0.5719227791 4292798697
-0.3185952902 -0.0925549492 0.5728652477 4292864490
-0.3186379671 -0.0919307694 0.5729420185 4292864490
-0.3186804056 -0.0913063437 0.5730183125 4292929770
-0.3187225163 -0.0906816646 0.5730940700 4292995563
-0.3192459047 -0.0901927799 0.5740351081 4293061356
-0.3192875385 -0.0895666704 0.5741099715 4293061356
-0.3198105395 -0.0890744552 0.5750504136 4293061357
-0.3198516667 -0.0884469151 0.5751243830 4293127150
-0.3198925257 -0.0878191292 0.5751978755 4292666599
-0.3199331164 -0.0871910974 0.5752708316 4291548118
-0.3199734092 -0.0865628347 0.5753432512 4291219152
-0.3200134337 -0.0859343335 0.5754152536 4291942875
-0.3200531602 -0.0853055939 0.5754866600 4293257966
-0.3200926185 -0.0846766233 0.5755576491 4293455345
-0.3206139207 -0.0841739997 0.5764949918 4293455345
-0.3201707006 -0.0834179968 0.5756979585 4293192173
-0.3206915259 -0.0829130113 0.5766345263 4292929001
-0.3212122023 -0.0824059099 0.5775707364 4292797415
-0.3212503791 -0.0817738995 0.5776393414 4292402657
-0.3212882280 -0.0811416656 0.5777074695 4291942106
-0.3213258088 -0.0805092081 0.5777750015 4291744727
-0.3213631213 -0.0798765272 0.5778421164 4291415762
-0.3214001358 -0.0792436302 0.5779086351 4290955211
-0.3209542334 -0.0784924775 0.5771068335 4290823625
-0.3214733005 -0.0779771805 0.5780401826 4290823625
-0.3215094507 -0.0773436353 0.5781052113 4290757832
-0.3215453029 -0.0767098740 0.5781697035 4291086797
-0.3210980296 -0.0759616792 0.5773654580 4291876313
-0.3211332858 -0.0753284469 0.5774288177 4293191915
-0.3216511905 -0.0748073384 0.5783600807 4293126122
-0.3216859102 -0.0741727427 0.5784224868 4292994536
-0.3217203319 -0.0735379383 0.5784844160 4292994536
-0.3217544556 -0.0729029402 0.5785458088 4292928488
-0.3217883110 -0.0722677335 0.5786066651 4292862695
-0.3218218684 -0.0716323331 0.5786669850 4292862950
-0.3223384023 -0.0711033344 0.5795958042 4292862950
-0.3223714530 -0.0704665780 0.5796551704 4292927974
-0.3228875399 -0.0699343234 0.5805831552 4292927974
-0.3229200542 -0.0692962259 0.5806416273 4292796388
-0.3229522407 -0.0686579421 0.5806995034 4292664802
-0.3229841590 -0.0680194646 0.5807569027 4292599009
-0.3230157793 -0.0673807934 0.5808137655 4292664802
-0.3230471313 -0.0667419434 0.5808700919 4292730595
-0.3230781555 -0.0661029071 0.5809258819 4292730595
-0.3231089115 -0.0654636845 0.5809811950 4292862181
-0.3236230910 -0.0649213269 0.5819057822 4292862181
-0.3241370916 -0.0643768683 0.5828299522 4292730595
-0.3241670430 -0.0637351945 0.5828838348 4292796388
-0.3241966963 -0.0630933419 0.5829371810 4292796388
-0.3242260814 -0.0624513105 0.5829899311 4292664802
-0.3242551386 -0.0618091077 0.5830422044 4292336606
-0.3247679174 -0.0612580292 0.5839642286 4291941848
-0.3247964382 -0.0606145263 0.5840155482 4291283918
-0.3253087699 -0.0600602292 0.5849367380 4291020746
-0.3253367245 -0.0594154298 0.5849870443 4290823367
-0.3248802125 -0.0586830117 0.5841661692 4290954953
-0.3253917694 -0.0581253394 0.5850859880 4291415502
-0.3254188597 -0.0574800484 0.5851346850 4291941846
-0.3254456222 -0.0568345971 0.5851828456 4292205531
-0.3254721165 -0.0561889894 0.5852304697 4292337117
-0.3254982829 -0.0555432253 0.5852775574 4292336606
-0.3255241811 -0.0548973046 0.5853241086 4292270813
-0.3255497813 -0.0542512313 0.5853701234 4292270813
-0.3250905573 -0.0535252392 0.5845444202 4292402399
-0.3256000578 -0.0529586338 0.5854604840 4292533985
-0.3256247342 -0.0523121133 0.5855048895 4292533985
-0.3256491125 -0.0516654439 0.5855487585 4292468192
-0.3261578381 -0.0510945506 0.5864634514 4292402399
-0.3261816800 -0.0504466332 0.5865063071 4292139227
-0.3262051940 -0.0497985743 0.5865486264 4292007641
-0.3257436752 -0.0490773432 0.5857187510 4292007386
-0.3257665634 -0.0484299697 0.5857599378 4292138972
-0.3262739480 -0.0478535667 0.5866722465 4292336351
-0.3262962699 -0.0472049601 0.5867124200 4292336351
-0.3268031776 -0.0466253981 0.5876238346 4292270558
-0.3268249035 -0.0459755659 0.5876629353 4292138972
-0.3268463612 -0.0453256071 0.5877014995 4292205020
-0.3268674910 -0.0446755178 0.5877395272 4292336606
-0.3273733258 -0.0440906212 0.5886490345 4292270813
-0.3273939192 -0.0434393212 0.5886860490 4292073434
-0.3278992176 -0.0428512841 0.5895946622 4291678676
-0.3284043074 -0.0422612019 0.5905028582 4291152332
-0.3284240365 -0.0416076072 0.5905382633 4290889160
-0.3284434378 -0.0409538969 0.5905731916 4291020746
-0.3279773593 -0.0402405448 0.5897351503 4291547090
-0.3284813464 -0.0396461338 0.5906413198 4291810262
-0.3289850652 -0.0390496776 0.5915470719 4292139227
-0.3290032744 -0.0383945554 0.5915798545 4292205020
-0.3290211856 -0.0377393216 0.5916120410 4292205020
-0.3290387988 -0.0370839797 0.5916436911 4292205020
-0.3290560842 -0.0364285372 0.5916748047 4292401629
-0.3290730715 -0.0357729904 0.5917053223 4292335836
-0.3290897608 -0.0351173431 0.5917353630 4292270044
-0.3286207318 -0.0344107710 0.5908919573 4292335837
-0.3291221857 -0.0338057578 0.5917936563 4292335837
-0.3286525011 -0.0331009254 0.5909491181 4292335837
-0.3286679387 -0.0324458629 0.5909768939 4292270044
-0.3286830485 -0.0317907073 0.5910040736 4292138458
-0.3282123506 -0.0310894717 0.5901576877 4292006872
-0.3287123740 -0.0304801315 0.5910567641 4292072665
-0.3287265897 -0.0298247132 0.5910823345 4292270044
-0.3292260766 -0.0292122960 0.5919804573 4292270044
-0.3297252655 -0.0285978615 0.5928780437 4292270044
-0.3297385871 -0.0279402602 0.5929020047 4292270044
-0.3302372396 -0.0273227617 0.5937986374 4292204251
-0.3302499652 -0.0266640354 0.5938215256 4292270044
-0.3307480514 -0.0260434765 0.5947171450 4292270044
-0.3312458694 -0.0254209079 0.5956122279 4292204251
-0.3317434192 -0.0247963294 0.5965068936 4292007898
-0.3312692046 -0.0240990706 0.5956541896 4291744726
-0.3312804103 -0.0234380476 0.5956743360 4291547088
-0.3308055401 -0.0227435622 0.5948204994 4291218123
-0.3308161199 -0.0220833812 0.5948395133 4291151560
-0.3313121498 -0.0214545932 0.5957314372 4291283146
-0.3318079412 -0.0208238065 0.5966228843 4291547090
-0.3318175972 -0.0201615039 0.5966402292 4291810262
-0.3318269551 -0.0194991436 0.5966570973 4291876313
-0.3318359852 -0.0188367274 0.5966733098 4291942106
-0.3318447173 -0.0181742590 0.5966890454 4291942106
-0.3318531215 -0.0175117385 0.5967041254 4292007899
-0.3318612278 -0.0168491695 0.5967187285 4292139485
-0.3318690360 -0.0161865521 0.5967327356 4292073692
-0.3318764865 -0.0155238891 0.5967461467 4292007641
-0.3318836689 -0.0148611823 0.5967590809 4292139227
-0.3314045966 -0.0141776446 0.5958976150 4292205278
-0.3309251964 -0.0134960087 0.5950356126 4292139485
-0.3314173520 -0.0128539698 0.5959205627 4289583062
-0.3309372962 -0.0121741993 0.5950573683 4287675065
-0.3309428692 -0.0115132425 0.5950674415 4283083947
-0.3314341307 -0.0108681889 0.5959507823 4281965466
-0.3319250941 -0.0102211628 0.5968335271 4279216551
-0.3324157298 -0.0095721669 0.5977157950 4279282344
-0.3329060972 -0.0089212023 0.5985974669 4279085998
-0.3329101503 -0.0082562184 0.5986047983 4279151791
-0.3333998919 -0.0076022930 0.5994853973 4279805867
-0.3334033191 -0.0069362936 0.5994915366 4279871660
-0.3338924646 -0.0062794145 0.6003710628 4279545259
-0.3348672986 -0.0056287451 0.6021239161 4279545259
-0.3353558183 -0.0049669780 0.6030023098 4279545005
-0.3353579938 -0.0042970274 0.6030062437 4279479212
-0.3358458877 -0.0036323210 0.6038835645 4280003246
-0.3353614211 -0.0029570912 0.6030123830 4279937453
-0.3353626728 -0.0022871096 0.6030146480 4279872173
-0.3339054883 -0.0016100907 0.6003944874 4279740587
-0.3329340219 -0.0009402659 0.5986477137 4279936942
-0.2825676203 -0.2298868001 0.5091007352 4293454064
-0.2849189937 -0.2312294394 0.5133371949 4293454064
-0.2868200541 -0.2321981043 0.5167623162 4293190892
-0.2882703245 -0.2327951193 0.5193752646 4293059306
-0.2879134119 -0.2319305390 0.5187321901 4293190892
-0.2902688384 -0.2332469076 0.5229759812 4293190892
-0.2917210460 -0.2338298708 0.5255924463 4293190892
-0.2922691703 -0.2336841375 0.5265799761 4293322478
-0.2919122577 -0.2328144312 0.5259369612 4293454064
-0.2933658361 -0.2333864570 0.5285558105 4293125099
-0.2930086255 -0.2325157523 0.5279122591 4293190892
-0.2944630980 -0.2330804616 0.5305327177 4293125099
-0.2941055894 -0.2322087437 0.5298886895 4293059306
-0.2946543097 -0.2320521325 0.5308772326 4293190635
-0.2952031493 -0.2318934202 0.5318660736 4293190635
-0.2948449254 -0.2310217917 0.5312206745 4293190635
-0.2958475053 -0.2312151343 0.5330270529 4293256428
-0.2954888344 -0.2303432971 0.5323808193 4293190892
-0.2960377932 -0.2301786244 0.5333698988 4293125099
-0.2965869009 -0.2300118506 0.5343592167 4293125099
-0.2966817915 -0.2294915617 0.5345302224 4293125099
-0.2967765629 -0.2289707661 0.5347009301 4293125099
-0.2977803946 -0.2291491628 0.5365095735 4293190892
-0.2974203527 -0.2282767147 0.5358608365 4293190892
-0.2966049612 -0.2270571291 0.5343917608 4293256685
-0.2976090610 -0.2272300422 0.5362008214 4293125869
-0.2977031767 -0.2267059535 0.5363703966 4293060076
-0.2977971435 -0.2261813730 0.5365396738 4293125869
-0.2978909314 -0.2256562859 0.5367087126 4293125869
-0.2979845703 -0.2251307070 0.5368773937 4293060076
-0.2980780602 -0.2246046364 0.5370458364 4293125869
-0.2981713712 -0.2240780741 0.5372139812 4293125869
-0.2982645333 -0.2235510200 0.5373818278 4293060076
-0.2983575463 -0.2230234593 0.5375493765 4293060074
-0.2984503806 -0.2224954069 0.5377166271 4292994281
-0.2985430360 -0.2219668776 0.5378835797 4293060076
-0.2986355424 -0.2214378417 0.5380502343 4293060076
-0.2987278998 -0.2209083140 0.5382166505 4293060076
-0.2992770076 -0.2207152694 0.5392059684 4293060076
-0.2993691564 -0.2201839536 0.5393719673 4293060074
-0.2994611561 -0.2196521610 0.5395377278 4292994281
-0.2995529771 -0.2191198617 0.5397031903 4293060074
-0.2996446192 -0.2185870707 0.5398682952 4293060074
-0.2997361124 -0.2180538028 0.5400331616 4293060076
-0.2993696928 -0.2171879411 0.5393729806 4292994283
-0.2994607091 -0.2166545093 0.5395369530 4293125099
-0.2995515466 -0.2161206007 0.5397006273 4293125099
-0.2996422350 -0.2155861855 0.5398640037 4293256939
-0.2997327447 -0.2150512934 0.5400270820 4293388525
-0.2993646264 -0.2141879201 0.5393638611 4293190120
-0.2994546592 -0.2136528790 0.5395260453 4292729569
-0.2990857959 -0.2127909958 0.5388614535 4291282376
-0.2991753519 -0.2122558057 0.5390228033 4288848035
-0.2988057137 -0.2113954276 0.5383568406 4287527547
-0.2988947928 -0.2108601034 0.5385173559 4286211687
-0.2989836931 -0.2103243023 0.5386775136 4286992982
-0.2990724146 -0.2097880244 0.5388373137 4286664017
-0.2996204793 -0.2095727026 0.5398248434 4287119946
-0.2997089922 -0.2090346515 0.5399842858 4287119946
-0.2997973263 -0.2084961236 0.5401434302 4286859087
-0.3003454208 -0.2082760632 0.5411309600 4287253845
-0.3004335463 -0.2077357620 0.5412896872 4287257445
-0.3005214930 -0.2071949840 0.5414481163 4287586410
-0.3006092310 -0.2066537142 0.5416062474 4287719285
-0.3006968200 -0.2061119825 0.5417640209 4288311422
-0.3007842302 -0.2055697888 0.5419214964 4287793296
