VERSION 0.7
FIELDS x y z rgba
SIZE 4 4 4 4
TYPE F F F U
COUNT 1 1 1 1
WIDTH 920
HEIGHT 1
VIEWPOINT 0.0 0.0 0.0 1.0 0.0 0.0 0.0
POINTS 920
DATA ascii
-0.2606691718 -0.1706533730 0.5659019351 4291481305
-0.2603324652 -0.1698050052 0.5651710033 4288652206
-0.2599953711 -0.1689579934 0.5644391775 4285757314
-0.2600617111 -0.1683738083 0.5645831823 4282665043
-0.2601278424 -0.1677891761 0.5647267699 4281809475
-0.2597897351 -0.1669444591 0.5639927387 4282796370
-0.2590471208 -0.1658423990 0.5623805523 4283585116
-0.2574954331 -0.1642279029 0.5590118766 4283453530
-0.2579644024 -0.1639047563 0.5600299835 4283519323
-0.2572200596 -0.1628113985 0.5584141016 4283519323
-0.2564751208 -0.1617212296 0.5567968488 4283519062
-0.2557295859 -0.1606342942 0.5551783442 4283255890
-0.2553882003 -0.1598038375 0.5544372201 4283255890
-0.2550463974 -0.1589747667 0.5536952019 4283519062
-0.2547042072 -0.1581471115 0.5529522896 4283650648
-0.2551717162 -0.1578218788 0.5539671779 4283650648
-0.2548289299 -0.1569951922 0.5532230139 4283782234
-0.2557014525 -0.1569159627 0.5551172495 4283979613
-0.2553581595 -0.1560893655 0.5543720126 4284111199
-0.2550145090 -0.1552641690 0.5536258817 4284176992
-0.2571035922 -0.1559159458 0.5581612587 4284242784
-0.2575709522 -0.1555780917 0.5591758490 4284374370
-0.2576325834 -0.1549938917 0.5593097210 4284440163
-0.2580998540 -0.1546524316 0.5603240728 4284374370
-0.2585670948 -0.1543087214 0.5613384843 4284440163
-0.2582223117 -0.1534800977 0.5605899692 4284637542
-0.2590954602 -0.1533741057 0.5624855161 4284177505
-0.2599687576 -0.1532640010 0.5643814206 4284309091
-0.2596233487 -0.1524341404 0.5636315942 4284374884
-0.2609031200 -0.1525562108 0.5664098859 4283914333
-0.2613702714 -0.1521989256 0.5674240589 4284243298
-0.2618374228 -0.1518393606 0.5684381723 4284440677
-0.2623045444 -0.1514775455 0.5694522858 4284441193
-0.2627716064 -0.1511134505 0.5704662800 4289638840
-0.2628318369 -0.1505140960 0.5705969930 4291547350
-0.2632987797 -0.1501463950 0.5716107488 4292402659
-0.2637656927 -0.1497764289 0.5726243854 4292270819
-0.2638254464 -0.1491739899 0.5727540851 4292599784
-0.2642922103 -0.1488004178 0.5737674236 4292732140
-0.2639442980 -0.1479678750 0.5730121136 4292995312
-0.2640033960 -0.1473642141 0.5731404424 4293258484
-0.2575380206 -0.1852013767 0.5604557395 4292468715
-0.2572095096 -0.1843432337 0.5597408414 4291416027
-0.2576808631 -0.1840580106 0.5607666373 4290297546
-0.2573517859 -0.1832007021 0.5600504875 4289310651
-0.2574226558 -0.1826287210 0.5602046847 4288586928
-0.2574933469 -0.1820562631 0.5603585243 4288850100
-0.2571632862 -0.1812011003 0.5596402287 4289836995
-0.2576341629 -0.1809099615 0.5606650114 4290560718
-0.2577042878 -0.1803360879 0.5608175993 4290758352
-0.2577742338 -0.1797617674 0.5609698296 4290955731
-0.2578440011 -0.1791869700 0.5611216426 4291613661
-0.2583146989 -0.1788894832 0.5621459484 4292534763
-0.2590687871 -0.1725212187 0.5637869835 4292468715
-0.2591362000 -0.1719395369 0.5639337301 4291744992
-0.2588009238 -0.1710913330 0.5632041097 4290692304
-0.2584652603 -0.1702444702 0.5624735951 4287928998
-0.2585318685 -0.1696632355 0.5626185536 4285033591
-0.2585982978 -0.1690815687 0.5627631545 4282467664
-0.2582616210 -0.1682369858 0.5620304942 4282861909
-0.2583275735 -0.1676553190 0.5621739626 4283059288
-0.2583933175 -0.1670732051 0.5623170137 4282927186
-0.2576524317 -0.1659711897 0.5607047081 4282532428
-0.2577175796 -0.1653900146 0.5608465075 4283190356
-0.2569756806 -0.1642925590 0.5592319965 4283256149
-0.2566367388 -0.1634553224 0.5584943295 4283124563
-0.2558937371 -0.1623633802 0.5568774939 4283256149
-0.2555538714 -0.1615298241 0.5561378598 4283453269
-0.2548097968 -0.1604434103 0.5545185804 4283255890
-0.2552768886 -0.1601202637 0.5555350780 4283124304
-0.2549359500 -0.1592899859 0.5547930598 4283255890
-0.2545945942 -0.1584611237 0.5540502667 4283387476
-0.2542528510 -0.1576336473 0.5533065200 4283453269
-0.2547193468 -0.1573069841 0.5543217063 4283519062
-0.2547814250 -0.1567292809 0.5544568300 4283716441
-0.2552478015 -0.1563990116 0.5554717779 4283913819
-0.2557142079 -0.1560664922 0.5564867258 4283979612
-0.2557758689 -0.1554856896 0.5566209555 4284176991
-0.2566469610 -0.1553946733 0.5585166216 4284242784
-0.2575182319 -0.1552995443 0.5604127049 4284308577
-0.2567697167 -0.1542272866 0.5587837100 4284308577
-0.2576409578 -0.1541276425 0.5606797934 4284440163
-0.2581072152 -0.1537824869 0.5616944432 4284571749
-0.2585734427 -0.1534350663 0.5627090335 4284243298
-0.2586342692 -0.1528457999 0.5628414154 4284111712
-0.2582894266 -0.1520174891 0.5620909929 4284440677
-0.2595664859 -0.1521414816 0.5648700595 4284506470
-0.2600325346 -0.1517859250 0.5658843517 4284440677
-0.2604986131 -0.1514281034 0.5668985844 4284703849
-0.2609646320 -0.1510680169 0.5679127574 4285428088
-0.2614306509 -0.1507056653 0.5689269304 4289704633
-0.2618966401 -0.1503410488 0.5699409842 4291152592
-0.2619564533 -0.1497420073 0.5700711608 4292994796
-0.2624222934 -0.1493737698 0.5710849166 4293126382
-0.2624817789 -0.1487729847 0.5712144375 4293521140
-0.2568291128 -0.1832715869 0.5602672100 4292337129
-0.2565003633 -0.1824152917 0.5595500469 4291283927
-0.2565708458 -0.1818435490 0.5597037673 4290033860
-0.2566411495 -0.1812713295 0.5598571301 4289179065
-0.2567112446 -0.1806986481 0.5600101352 4289179065
-0.2567811906 -0.1801254898 0.5601626635 4289902788
-0.2568509579 -0.1795518696 0.5603148341 4290692304
-0.2569205165 -0.1789777875 0.5604665875 4290824145
-0.2569898963 -0.1784032285 0.5606179237 4290692559
-0.2574594915 -0.1781052053 0.5616423488 4290363594
-0.2575286031 -0.1775288284 0.5617931485 4290495180
-0.2575975358 -0.1769519746 0.5619435310 4290758352
-0.2576662898 -0.1763746738 0.5620934367 4291153110
-0.2577348351 -0.1757969111 0.5622429848 4291482075
-0.2578032017 -0.1752186865 0.5623921752 4291876833
-0.2574703097 -0.1743683964 0.5616660118 4291942626
-0.2575381994 -0.1737901419 0.5618140697 4291482075
-0.2576058805 -0.1732114404 0.5619617701 4289836995
-0.2572720349 -0.1723633856 0.5612334609 4287336861
-0.2573392391 -0.1717846841 0.5613800287 4286415759
-0.2574062347 -0.1712055206 0.5615262389 4288126377
-0.2570714056 -0.1703597158 0.5607957244 4287731619
-0.2567361295 -0.1695152670 0.5600643754 4283520867
-0.2564004958 -0.1686721891 0.5593321919 4281809734
-0.2564664185 -0.1680939496 0.5594760180 4282730836
-0.2565321624 -0.1675152630 0.5596194267 4283454300
-0.2565976977 -0.1669361293 0.5597624183 4283191128
-0.2566630542 -0.1663565487 0.5599049926 4283519323
-0.2563258111 -0.1655166894 0.5591692924 4283321944
-0.2559881806 -0.1646782160 0.5584327579 4282927186
-0.2556501627 -0.1638411134 0.5576953292 4282729807
-0.2561171353 -0.1635196060 0.5587140322 4283124306
-0.2553756833 -0.1624272764 0.5570966005 4283124306
-0.2550365627 -0.1615934223 0.5563568473 4283716443
-0.2546970546 -0.1607609689 0.5556161404 4283650650
-0.2543571293 -0.1599299163 0.5548746586 4283519062
-0.2544200122 -0.1593527943 0.5550118089 4283321683
-0.2544827163 -0.1587752551 0.5551486015 4283255890
-0.2541418076 -0.1579465717 0.5544049144 4283321683
-0.2542040050 -0.1573691070 0.5545406342 4283387476
-0.2546696067 -0.1570400745 0.5555562973 4283519062
-0.2547315061 -0.1564608365 0.5556913614 4283650648
-0.2556008101 -0.1563752443 0.5575876832 4283650648
-0.2556625009 -0.1557933241 0.5577222705 4283848026
-0.2557239830 -0.1552109867 0.5578564405 4284111198
-0.2565934658 -0.1551167667 0.5597531199 4284242784
-0.2570589185 -0.1547751129 0.5607685447 4284242784
-0.2571201026 -0.1541887373 0.5609019995 4284374370
-0.2571810782 -0.1536019593 0.5610350370 4284505956
-0.2576463223 -0.1532553434 0.5620499849 4284374373
-0.2577069998 -0.1526668072 0.5621823072 4284769131
-0.2581721246 -0.1523166001 0.5631969571 4284572009
-0.2586372197 -0.1519641131 0.5642115474 4284769388
-0.2591023147 -0.1516093761 0.5652261376 4285032560
-0.2595673800 -0.1512523741 0.5662406683 4284835181
-0.2608425021 -0.1513631642 0.5690222979 4285428086
-0.2604974508 -0.1505315453 0.5682696104 4288849322
-0.2601520121 -0.1497013867 0.5675160289 4291481042
-0.2556493580 -0.1816305220 0.5590481162 4292863728
-0.2557194531 -0.1810590029 0.5592014194 4291679199
-0.2557893693 -0.1804870367 0.5593543053 4290560718
-0.2558591068 -0.1799145937 0.5595067739 4289705409
-0.2559286654 -0.1793416739 0.5596588850 4289310651
-0.2559980452 -0.1787683070 0.5598105788 4289574078
-0.2560672164 -0.1781944484 0.5599619150 4290429387
-0.2561362088 -0.1776201427 0.5601127744 4290824145
-0.2562050223 -0.1770453751 0.5602632761 4290495180
-0.2566734552 -0.1767454445 0.5612875819 4289705664
-0.2567420006 -0.1761688441 0.5614374876 4288652976
-0.2572103739 -0.1758652925 0.5624617338 4287863460
-0.2568785548 -0.1750142723 0.5617360473 4287666081
-0.2565462887 -0.1741645932 0.5610095263 4287139737
-0.2566139996 -0.1735870540 0.5611575246 4286021256
-0.2562810481 -0.1727391630 0.5604295135 4284441969
-0.2563482523 -0.1721616238 0.5605764389 4283323488
-0.2560146153 -0.1713155210 0.5598468781 4284113004
-0.2552798390 -0.1702035815 0.5582400560 4286876310
-0.2557470202 -0.1698936820 0.5592616796 4287862691
-0.2550113201 -0.1687853783 0.5576528907 4284967799
-0.2550771534 -0.1682091951 0.5577968359 4282861909
-0.2551428080 -0.1676325798 0.5579403639 4282401358
-0.2552082539 -0.1670555025 0.5580835342 4282598991
-0.2552735209 -0.1664779931 0.5582262278 4282401612
-0.2553385794 -0.1659000367 0.5583685040 4282795600
-0.2554034591 -0.1653216481 0.5585103631 4283058772
-0.2550664544 -0.1644837856 0.5577734113 4283387737
-0.2551308274 -0.1639054120 0.5579141974 4282927186
-0.2547931373 -0.1630694121 0.5571757555 4282861134
-0.2548570335 -0.1624910831 0.5573154688 4283190099
-0.2549207211 -0.1619123220 0.5574547648 4283650650
-0.2545820475 -0.1610786617 0.5567141771 4283913822
-0.2542429566 -0.1602464020 0.5559726954 4283979615
-0.2543058693 -0.1596681625 0.5561102629 4283782236
-0.2543686032 -0.1590895057 0.5562473536 4283650650
-0.2540285289 -0.1582596153 0.5555037260 4283519064
-0.2544934452 -0.1579309255 0.5565203428 4283453271
-0.2545555532 -0.1573509872 0.5566562414 4283321685
-0.2550203502 -0.1570186764 0.5576726198 4283387476
-0.2554851472 -0.1566841155 0.5586889982 4283321683
-0.2551437914 -0.1558548659 0.5579425693 4283584855
-0.2552052140 -0.1552723199 0.5580768585 4283848027
-0.2560729682 -0.1551780999 0.5599744320 4284045406
-0.2557308078 -0.1543494165 0.5592262745 4284111199
-0.2565986514 -0.1542497575 0.5611240268 4284308578
-0.2566595376 -0.1536627710 0.5612571836 4284440164
-0.2571238875 -0.1533160657 0.5622726083 4284571752
-0.2571844757 -0.1527273208 0.5624051094 4284703338
-0.2576487064 -0.1523769945 0.5634202361 4284637802
-0.2577089965 -0.1517864913 0.5635520816 4284703595
-0.2581730783 -0.1514325589 0.5645669699 4284703595
-0.2586371601 -0.1510763615 0.5655817986 4286480006
-0.2591012120 -0.1507178992 0.5665965676 4288717736
-0.2579480112 -0.1494203657 0.5640748143 4290099389
-0.2596248686 -0.1497609019 0.5677416921 4292731109
-0.2549380362 -0.1797033846 0.5588499904 4292468970
-0.2550074160 -0.1791311800 0.5590019822 4291416282
-0.2550765872 -0.1785585135 0.5591536164 4290626766
-0.2551455796 -0.1779853702 0.5593048930 4289903043
-0.2552143633 -0.1774117798 0.5594556928 4289705664
-0.2552829981 -0.1768377125 0.5596061349 4290297801
-0.2553514242 -0.1762631983 0.5597561598 4290955476
-0.2558187544 -0.1759627163 0.5607805848 4290823890
-0.2558869421 -0.1753863692 0.5609300137 4290033860
-0.2559549212 -0.1748095751 0.5610790253 4288981172
-0.2560226917 -0.1742323041 0.5612276793 4287731104
-0.2548917532 -0.1728418469 0.5587484837 4286349451
-0.2553584874 -0.1725363880 0.5597715974 4285230971
-0.2550257742 -0.1716904491 0.5590422750 4285494143
-0.2546926439 -0.1708458662 0.5583120584 4285692036
-0.2543591559 -0.1700026393 0.5575809479 4286349966
-0.2540252507 -0.1691607684 0.5568490028 4286546831
-0.2540910840 -0.1685857475 0.5569933057 4284375662
-0.2537564933 -0.1677457094 0.5562598705 4283256667
-0.2538218498 -0.1671707034 0.5564031005 4283717218
-0.2538869977 -0.1665952653 0.5565459728 4283519325
-0.2539519668 -0.1660193652 0.5566883683 4282466637
-0.2540167570 -0.1654430479 0.5568304062 4281874500
-0.2540813386 -0.1648662686 0.5569719672 4281808707
-0.2541457415 -0.1642890722 0.5571131110 4282335051
-0.2542099357 -0.1637114137 0.5572538972 4282137672
-0.2538728714 -0.1628760248 0.5565150380 4282334536
-0.2539365888 -0.1622984260 0.5566546917 4283321431
-0.2540000975 -0.1617203802 0.5567939281 4283255638
-0.2540634274 -0.1611419022 0.5569327474 4283584603
-0.2537250817 -0.1603093445 0.5561910272 4283847775
-0.2537879348 -0.1597309113 0.5563287735 4283979361
-0.2538505495 -0.1591520607 0.5564661026 4284045154
-0.2535112500 -0.1583218873 0.5557222366 4283979361
-0.2535733879 -0.1577430964 0.5558584929 4283781982
-0.2540372908 -0.1574129462 0.5568754077 4283650396
-0.2540991306 -0.1568323970 0.5570110083 4283650650
-0.2541607916 -0.1562514156 0.5571461320 4283453271
-0.2546244860 -0.1559163183 0.5581625700 4283584857
-0.2542834878 -0.1550881863 0.5574150681 4283848029
-0.2555518448 -0.1552393585 0.5601955056 4283913822
-0.2544053793 -0.1539232731 0.5576822758 4283913822
-0.2556739151 -0.1540680826 0.5604630709 4284176994
-0.2557346523 -0.1534818113 0.5605962276 4284440166
-0.2561980188 -0.1531359106 0.5616119504 4284177253
-0.2562584281 -0.1525478959 0.5617443919 4284177253
-0.2567216754 -0.1521983743 0.5627598166 4283716700
-0.2567817867 -0.1516086012 0.5628916025 4284835181
-0.2572448850 -0.1512554884 0.5639067888 4287795866
-0.2577079535 -0.1509001106 0.5649219155 4290493379
-0.2581710219 -0.1505424529 0.5659369826 4291744214
-0.2582305968 -0.1499482393 0.5660675764 4292862695
-0.2541561425 -0.1783484221 0.5584957600 4293061107
-0.2542249560 -0.1777759939 0.5586469173 4292271591
-0.2542935610 -0.1772031039 0.5587976575 4291153110
-0.2543619871 -0.1766297668 0.5589480400 4290166215
-0.2544302046 -0.1760559529 0.5590980053 4289968067
-0.2544982731 -0.1754816771 0.5592475533 4290691790
-0.2545661330 -0.1749069393 0.5593966842 4291218134
-0.2546338141 -0.1743317544 0.5595453978 4291349720
-0.2547013164 -0.1737560928 0.5596936941 4290889168
-0.2539712191 -0.1726379544 0.5580893755 4290033859
-0.2540381253 -0.1720632017 0.5582364202 4288454828
-0.2537059486 -0.1712187678 0.5575064421 4287270554
-0.2533733547 -0.1703757048 0.5567755699 4286612370
-0.2534394860 -0.1698013991 0.5569209456 4286414991
-0.2531062067 -0.1689601392 0.5561885834 4285559936
-0.2527725399 -0.1681202501 0.5554553270 4283520353
-0.2528378963 -0.1675464064 0.5555989742 4283585633
-0.2529030740 -0.1669721156 0.5557421446 4285230458
-0.2525684237 -0.1661345214 0.5550067425 4286480010
-0.2530328333 -0.1658222228 0.5560272932 4286480010
-0.2526975870 -0.1649855524 0.5552906394 4285624446
-0.2531618476 -0.1646705568 0.5563107729 4283453277
-0.2528260052 -0.1638348401 0.5555728078 4282400589
-0.2528899312 -0.1632588208 0.5557132959 4282005831
-0.2525534034 -0.1624249518 0.5549737811 4281742401
-0.2526168525 -0.1618489772 0.5551131964 4282005573
-0.2530805171 -0.1615281552 0.5561320782 4283058261
-0.2527431250 -0.1606957316 0.5553906560 4283124054
-0.2532066107 -0.1603722125 0.5564091802 4283255640
-0.2528686225 -0.1595407575 0.5556664467 4283584605
-0.2529310882 -0.1589626223 0.5558037162 4284045154
-0.2529933453 -0.1583840549 0.5559405088 4284242533
-0.2530553937 -0.1578050703 0.5560768843 4284374119
-0.2535184026 -0.1574748307 0.5570943356 4284505705
-0.2531789541 -0.1566458195 0.5563483834 4284045154
-0.2536417544 -0.1563128978 0.5573653579 4283847775
-0.2537031174 -0.1557312906 0.5575002432 4283847775
-0.2537642717 -0.1551492661 0.5576346517 4283979361
-0.2542268932 -0.1548113972 0.5586511493 4283848029
-0.2546894550 -0.1544712633 0.5596676469 4283782236
-0.2551520467 -0.1541288495 0.5606841445 4284111201
-0.2548107803 -0.1533005834 0.5599342585 4284505959
-0.2552731633 -0.1529555023 0.5609502792 4284835183
-0.2553333938 -0.1523682028 0.5610827208 4284308839
-0.2557956278 -0.1520195007 0.5620984435 4285690492
-0.2558555901 -0.1514304429 0.5622301698 4288980142
-0.2563177049 -0.1510781497 0.5632456541 4291283665
-0.2563773096 -0.1504873335 0.5633766651 4292007388
-0.2572418749 -0.1503667533 0.5652764440 4292534243
-0.2533053458 -0.1775663048 0.5579879880 4292666094
-0.2533737719 -0.1769941449 0.5581387281 4292271336
-0.2534419894 -0.1764215082 0.5582889915 4291613406
-0.2535100281 -0.1758484095 0.5584388971 4290757583
-0.2535778880 -0.1752748489 0.5585883856 4289968067
-0.2536455691 -0.1747008264 0.5587374568 4290033860
-0.2537130713 -0.1741263419 0.5588861108 4290691790
-0.2533825934 -0.1732793897 0.5581581593 4291152341
-0.2534495890 -0.1727048904 0.5583057404 4291152341
-0.2531184256 -0.1718597263 0.5575762391 4290954961
-0.2531849742 -0.1712852269 0.5577228069 4290099652
-0.2524549365 -0.1701734513 0.5561146736 4288783792
-0.2525208592 -0.1695998609 0.5562599301 4287204760
-0.2521882355 -0.1687592119 0.5555271506 4285559935
-0.2522536814 -0.1681856364 0.5556713939 4284112489
-0.2519203424 -0.1673468202 0.5549370646 4283849317
-0.2519853413 -0.1667732447 0.5550802350 4284507247
-0.2516513169 -0.1659362614 0.5543444753 4285098871
-0.2521147430 -0.1656247824 0.5553652644 4285296250
-0.2521791458 -0.1650498956 0.5555071831 4284835699
-0.2518442571 -0.1642143130 0.5547694564 4283190874
-0.2519081831 -0.1636394560 0.5549102426 4283454046
-0.2519719005 -0.1630641520 0.5550506711 4282730323
-0.2516360283 -0.1622309089 0.5543107986 4281611842
-0.2516992688 -0.1616556495 0.5544500947 4281809221
-0.2521619499 -0.1613356471 0.5554693341 4281808194
-0.2522249222 -0.1607586145 0.5556080341 4281150264
-0.2518878579 -0.1599272937 0.5548655391 4281741888
-0.2519503534 -0.1593503058 0.5550031662 4282597197
-0.2520126104 -0.1587729007 0.5551403165 4283189334
-0.2520747185 -0.1581950635 0.5552771091 4283649885
-0.2521365881 -0.1576167941 0.5554134250 4283716191
-0.2525986135 -0.1572873741 0.5564311743 4283781984
-0.2526601851 -0.1567073315 0.5565668344 4283782495
-0.2519205809 -0.1556320190 0.5549375415 4283979874
-0.2523821890 -0.1552994847 0.5559543967 4284045667
-0.2532444894 -0.1552102864 0.5578539371 4284111460
-0.2537061870 -0.1548722982 0.5588709712 4283387737
-0.2533660829 -0.1540445834 0.5581217408 4283519323
-0.2538275719 -0.1537039131 0.5591383576 4283059542
-0.2542890310 -0.1533609927 0.5601548553 4283191128
-0.2543493211 -0.1527748257 0.5602876544 4284112228
-0.2544094026 -0.1521882415 0.5604200363 4287138706
-0.2548706532 -0.1518403590 0.5614360571 4290362565
-0.2549304068 -0.1512520313 0.5615677238 4291415253
-0.2553915381 -0.1509005427 0.5625835061 4290889420
-0.2554509938 -0.1503104568 0.5627144575 4291284178
-0.2555102408 -0.1497199535 0.5628449917 4292929001
-0.2520429492 -0.1802066565 0.5565688610 4292929521
-0.2521120906 -0.1796375215 0.5567215085 4292797935
-0.2521810234 -0.1790679246 0.5568737984 4292600556
-0.2522498071 -0.1784978509 0.5570256114 4292140005
-0.2523183823 -0.1779273152 0.5571770668 4291613661
-0.2523867786 -0.1773563176 0.5573281050 4291153110
-0.2524549961 -0.1767848581 0.5574787855 4290625997
-0.2525230348 -0.1762129366 0.5576289892 4289836481
-0.2525908947 -0.1756405532 0.5577788353 4288915379
-0.2526585758 -0.1750677079 0.5579282641 4288454828
-0.2527260482 -0.1744944006 0.5580772758 4288454828
-0.2527933419 -0.1739206463 0.5582258701 4288981172
-0.2524634898 -0.1730742902 0.5574975014 4289902274
-0.2521332502 -0.1722292900 0.5567682385 4290691790
-0.2521997690 -0.1716559529 0.5569151640 4291415512
-0.2518688440 -0.1708127558 0.5561844110 4291547098
-0.2519348860 -0.1702394187 0.5563302636 4291481305
-0.2516032755 -0.1693980247 0.5555979609 4291020754
-0.2516688406 -0.1688247025 0.5557427406 4290165445
-0.2513365448 -0.1679851413 0.5550089478 4288849585
-0.2514016330 -0.1674118191 0.5551526546 4287533725
-0.2514665425 -0.1668380648 0.5552960038 4286744209
-0.2511332631 -0.1660007983 0.5545600057 4285427836
-0.2511976659 -0.1654270589 0.5547022820 4284375148
-0.2512618899 -0.1648528874 0.5548440814 4283651425
-0.2513259351 -0.1642782688 0.5549855232 4283454046
-0.2513897717 -0.1637032181 0.5551264882 4284769906
-0.2510549426 -0.1628692001 0.5543870926 4285822594
-0.2511183023 -0.1622941941 0.5545269847 4286480524
-0.2511814535 -0.1617187411 0.5546665192 4286019973
-0.2512444258 -0.1611428559 0.5548055768 4283913570
-0.2513072193 -0.1605665386 0.5549442172 4281873987
-0.2513698041 -0.1599898040 0.5550823808 4281676608
-0.2514322102 -0.1594126225 0.5552201867 4281873987
-0.2510952055 -0.1585828960 0.5544760227 4282005573
-0.2511571050 -0.1580057740 0.5546127558 4282597710
-0.2512188256 -0.1574282348 0.5547490120 4282927188
-0.2516798377 -0.1570996344 0.5557669997 4283519325
-0.2517412603 -0.1565203220 0.5559026003 4283782497
-0.2522021532 -0.1561881155 0.5569204092 4284374634
-0.2522632778 -0.1556070298 0.5570553541 4284703597
-0.2515244186 -0.1545341760 0.5554238558 4284966769
-0.2527848780 -0.1546883732 0.5582072139 4283979874
-0.2528454959 -0.1541051120 0.5583410859 4283519323
-0.2533060908 -0.1537643373 0.5593581796 4283717472
-0.2533664107 -0.1531793177 0.5594913363 4285362297
-0.2534265220 -0.1525938809 0.5596240759 4288520359
-0.2538868785 -0.1522481591 0.5606406331 4291152079
-0.2539466619 -0.1516609639 0.5607727170 4291612632
-0.2544068992 -0.1513116360 0.5617890358 4290099393
-0.2544664145 -0.1507226825 0.5619204044 4290099391
-0.2537240386 -0.1496604532 0.5602810383 4291415251
-0.2545847595 -0.1495435387 0.5621817708 4292863208
-0.2504544854 -0.1819752008 0.5544209480 4293126900
-0.2505240142 -0.1814095527 0.5545748472 4292863728
-0.2509880066 -0.1811282188 0.5556020141 4292468200
-0.2510572970 -0.1805607378 0.5557553768 4292007649
-0.2511264086 -0.1799927950 0.5559083819 4291810270
-0.2511953413 -0.1794243753 0.5560609698 4291678684
-0.2512640953 -0.1788554937 0.5562131405 4291283926
-0.2513326705 -0.1782861352 0.5563649535 4290691789
-0.2514010668 -0.1777163148 0.5565163493 4290099652
-0.2514692545 -0.1771460325 0.5566673279 4289704894
-0.2511417866 -0.1762976497 0.5559424162 4289310137
-0.2512095273 -0.1757273376 0.5560923219 4289112758
-0.2512770593 -0.1751565784 0.5562418699 4289375930
-0.2513444424 -0.1745853424 0.5563910007 4290231239
-0.2514116168 -0.1740136445 0.5565397143 4291020755
-0.2514786124 -0.1734414995 0.5566880107 4291415513
-0.2515454292 -0.1728688926 0.5568358898 4291744478
-0.2512158155 -0.1720245034 0.5561062694 4292073443
-0.2512821555 -0.1714518964 0.5562531352 4292007649
-0.2513483167 -0.1708788276 0.5563995242 4291547098
-0.2510177195 -0.1700366884 0.5556677580 4290954961
-0.2510833740 -0.1694636345 0.5558131337 4290823375
-0.2503553629 -0.1683564931 0.5542014837 4291020754
-0.2508172989 -0.1680502594 0.5552241206 4291218133
-0.2504853308 -0.1672117561 0.5544892550 4290823375
-0.2505500615 -0.1666387171 0.5546324849 4290165445
-0.2506145835 -0.1660652459 0.5547753572 4288520107
-0.2502816319 -0.1652290523 0.5540383458 4286743696
-0.2503456771 -0.1646555960 0.5541800857 4285164665
-0.2504095435 -0.1640817076 0.5543214679 4284375149
-0.2504732013 -0.1635073721 0.5544623733 4284375149
-0.2505366802 -0.1629326046 0.5546028614 4285164665
-0.2502021790 -0.1620996892 0.5538623929 4286875283
-0.2502651513 -0.1615249515 0.5540018678 4286612111
-0.2503279448 -0.1609497964 0.5541408658 4284966771
-0.2499924749 -0.1601192355 0.5533981919 4283190360
-0.2504529655 -0.1597981751 0.5544175506 4283519325
-0.2505151927 -0.1592217237 0.5545552969 4282861395
-0.2505772114 -0.1586448401 0.5546926260 4281874500
-0.2502405643 -0.1578162313 0.5539473891 4282071879
-0.2503021061 -0.1572394073 0.5540835857 4281611842
-0.2507621050 -0.1569116265 0.5551018715 4281743428
-0.2508233488 -0.1563330293 0.5552374721 4282730323
-0.2509452403 -0.1551745981 0.5555073023 4285164664
-0.2518039942 -0.1550862938 0.5574082732 4286941075
-0.2518646419 -0.1545041800 0.5575425029 4288585900
-0.2519250810 -0.1539216340 0.5576763153 4289572795
-0.2523846626 -0.1535816789 0.5586937070 4289638588
-0.2524448037 -0.1529973894 0.5588268042 4290099139
-0.2525047362 -0.1524126679 0.5589594841 4290823114
-0.2525644898 -0.1518275291 0.5590917468 4290559942
-0.2530237436 -0.1514813006 0.5601083636 4290296772
-0.2530831695 -0.1508944035 0.5602399111 4290296772
-0.2531423867 -0.1503071040 0.5603710413 4291217872
-0.2528014183 -0.1494828612 0.5596162081 4292665318
-0.2491912693 -0.1845756471 0.5529842377 4293126900
-0.2492614985 -0.1840130836 0.5531400442 4292929521
-0.2493315339 -0.1834500432 0.5532954931 4292666349
-0.2494014055 -0.1828865111 0.5534505248 4292533993
-0.2494710982 -0.1823225319 0.5536051393 4292205028
-0.2491470128 -0.1814713776 0.5528859496 4291876063
-0.2496099472 -0.1811931282 0.5539132953 4291612891
-0.2496791035 -0.1806277186 0.5540667772 4291218133
-0.2497480810 -0.1800618470 0.5542198420 4291086547
-0.2498168796 -0.1794955134 0.5543724895 4290954961
-0.2498855144 -0.1789287031 0.5545247793 4290691789
-0.2499539554 -0.1783614159 0.5546767116 4290494410
-0.2500222325 -0.1777936816 0.5548281670 4290494410
-0.2500903010 -0.1772254705 0.5549792647 4290494410
-0.2501581907 -0.1766567975 0.5551299453 4290428617
-0.2502259314 -0.1760876626 0.5552802086 4291020754
-0.2498986721 -0.1752412319 0.5545540452 4291283926
-0.2499659210 -0.1746720821 0.5547032356 4291481306
-0.2500329912 -0.1741024554 0.5548520684 4291678685
-0.2500998676 -0.1735323817 0.5550004840 4291810271
-0.2501665652 -0.1729618609 0.5551485419 4291876064
-0.2502330840 -0.1723908782 0.5552961230 4291612892
-0.2502994239 -0.1718194336 0.5554433465 4291349720
-0.2499700487 -0.1709769964 0.5547124147 4290560201
-0.2500359118 -0.1704055667 0.5548585057 4289836478
-0.2501015663 -0.1698336601 0.5550042391 4289244343
-0.2501670420 -0.1692613214 0.5551495552 4289507515
-0.2498364151 -0.1684216112 0.5544158220 4290362824
-0.2499014139 -0.1678492874 0.5545601249 4291020754
-0.2491739541 -0.1667463034 0.5529457331 4291152340
-0.2492383718 -0.1661749035 0.5530887246 4290954961
-0.2493026108 -0.1656030416 0.5532312989 4290757582
-0.2493666559 -0.1650307477 0.5533733964 4290362824
-0.2494305223 -0.1644580215 0.5535151362 4289572796
-0.2494941801 -0.1638848484 0.5536563993 4288454315
-0.2495576590 -0.1633112431 0.5537972450 4286941076
-0.2492240965 -0.1624784619 0.5530570745 4285098872
-0.2492870986 -0.1619048864 0.5531968474 4284309356
-0.2493499070 -0.1613308936 0.5533362031 4283256668
-0.2494125217 -0.1607564539 0.5534751415 4282335565
-0.2494749427 -0.1601815820 0.5536136627 4282335565
-0.2491398156 -0.1593521237 0.5528700352 4284243562
-0.2495992035 -0.1590305418 0.5538894534 4284111976
-0.2496610433 -0.1584543884 0.5540266633 4282203979
-0.2497226894 -0.1578778028 0.5541635156 4281546049
-0.2497841567 -0.1573007852 0.5542998910 4282138186
-0.2498454154 -0.1567233354 0.5544357896 4283454046
-0.2499064803 -0.1561454833 0.5545713305 4285822594
-0.2499673367 -0.1555671841 0.5547063947 4288651693
-0.2496298850 -0.1547416896 0.5539575219 4290559691
-0.2508849502 -0.1549011022 0.5567426682 4291743965
-0.2509454191 -0.1543197036 0.5568768382 4292072930
-0.2514041066 -0.1539819241 0.5578947663 4291743965
-0.2514642775 -0.1533987671 0.5580282807 4290822863
-0.2515242398 -0.1528151780 0.5581613183 4290428105
-0.2519827187 -0.1524724513 0.5591787696 4290428869
-0.2520423830 -0.1518871188 0.5593111515 4290560455
-0.2521018386 -0.1513013691 0.5594430566 4291218385
-0.2521610856 -0.1507152021 0.5595746040 4292271073
-0.2510229051 -0.1494159847 0.5570487976 4293323761
-0.2475351095 -0.1868610978 0.5506662130 4293126645
-0.2476058900 -0.1863025129 0.5508236289 4292863473
-0.2476764768 -0.1857434511 0.5509806871 4292666349
-0.2477468997 -0.1851839125 0.5511373878 4292534763
-0.2478171438 -0.1846238971 0.5512936115 4292403177
-0.2478872240 -0.1840634048 0.5514495373 4292074212
-0.2483494729 -0.1837927848 0.5524778366 4291810270
-0.2484192997 -0.1832304597 0.5526331663 4291547098
-0.2484889627 -0.1826676577 0.5527881980 4291481303
-0.2485584617 -0.1821043789 0.5529427528 4291481303
-0.2486277670 -0.1815406233 0.5530969501 4291415510
-0.2483040243 -0.1806904972 0.5523767471 4291415510
-0.2487658709 -0.1804117113 0.5534041524 4291744477
-0.2488346547 -0.1798465550 0.5535571575 4291810270
-0.2489032447 -0.1792809218 0.5537098050 4291678684
-0.2489716709 -0.1787148267 0.5538619757 4291415512
-0.2490399182 -0.1781482697 0.5540137887 4291218133
-0.2491079867 -0.1775812507 0.5541652441 4291086547
-0.2491758764 -0.1770137548 0.5543162823 4291086547
-0.2492435873 -0.1764457971 0.5544669032 4291152340
-0.2493111044 -0.1758773774 0.5546171069 4290823375
-0.2489844859 -0.1750315577 0.5538904667 4291086547
-0.2490515411 -0.1744631231 0.5540396571 4291218133
-0.2491184175 -0.1738942116 0.5541884303 4291218133
-0.2491851002 -0.1733248681 0.5543367863 4291349719
-0.2492516041 -0.1727550477 0.5544847250 4291415512
-0.2493179291 -0.1721847802 0.5546323061 4290889169
-0.2493840754 -0.1716140658 0.5547794104 4290165446
-0.2490553260 -0.1707722396 0.5540480614 4290100420
-0.2491209954 -0.1702015251 0.5541941524 4290100420
-0.2491864711 -0.1696303487 0.5543398261 4290428617
-0.2492517680 -0.1690587252 0.5544850826 4291020754
-0.2489217520 -0.1682196259 0.5537509322 4291744477
-0.2493817955 -0.1679141223 0.5547743440 4291941856
-0.2490511984 -0.1670759618 0.5540389419 4291678684
-0.2491156459 -0.1665034592 0.5541822910 4291218133
-0.2491798997 -0.1659305096 0.5543252230 4290823375
-0.2492439598 -0.1653571129 0.5544677377 4290691789
-0.2489121109 -0.1645217240 0.5537294745 4290757070
-0.2489757091 -0.1639483571 0.5538709760 4290888656
-0.2486431748 -0.1631148160 0.5531312227 4291217621
-0.2483102530 -0.1622826755 0.5523905754 4290691277
-0.2483730614 -0.1617098153 0.5525303483 4289704382
-0.2484356910 -0.1611365378 0.5526696444 4289046452
-0.2484981120 -0.1605628282 0.5528085232 4288059557
-0.2485603541 -0.1599886715 0.5529469848 4287533213
-0.2486224174 -0.1594140977 0.5530850291 4287862178
-0.2486842722 -0.1588390917 0.5532226562 4287730592
-0.2487459332 -0.1582636535 0.5533598065 4286941076
-0.2488074005 -0.1576877832 0.5534965396 4287204248
-0.2488686740 -0.1571114957 0.5536328554 4288651694
-0.2493267804 -0.1567844450 0.5546519756 4290033347
-0.2493877709 -0.1562063843 0.5547876358 4290888656
-0.2494485527 -0.1556278914 0.5549228787 4291678172
-0.2495091408 -0.1550489962 0.5550576448 4291809758
-0.2499669492 -0.1547156423 0.5560760498 4291875551
-0.2500272393 -0.1541349739 0.5562102199 4291480793
-0.2500873506 -0.1535538733 0.5563439131 4291020242
-0.2501472235 -0.1529723704 0.5564771295 4291086035
-0.2506047189 -0.1526327133 0.5574948788 4291743965
-0.2506643236 -0.1520494521 0.5576274395 4292073694
-0.2507237196 -0.1514657736 0.5577595830 4293257968
-0.2463760674 -0.1852258742 0.5494453907 4291613661
-0.2464461625 -0.1846679300 0.5496017337 4291547868
-0.2465161085 -0.1841095090 0.5497576594 4291678684
-0.2465858608 -0.1835506111 0.5499132276 4291612891
-0.2466554493 -0.1829912513 0.5500684381 4291612891
-0.2471164912 -0.1827209890 0.5510966182 4291744477
-0.2471858412 -0.1821597815 0.5512512922 4292073440
-0.2472550273 -0.1815981120 0.5514055490 4292205026
-0.2473240197 -0.1810359657 0.5515594482 4292205026
-0.2473928481 -0.1804733574 0.5517129302 4292205026
-0.2474614978 -0.1799102724 0.5518659949 4291547868
-0.2475299686 -0.1793467253 0.5520187020 4291153110
-0.2475982755 -0.1787827015 0.5521710515 4290758352
-0.2476663888 -0.1782182157 0.5523229241 4290560973
-0.2477343231 -0.1776532680 0.5524744391 4290560203
-0.2481947988 -0.1773685068 0.5535013676 4290297031
-0.2482624948 -0.1768017262 0.5536522865 4290297031
-0.2479370683 -0.1759556383 0.5529266000 4290560203
-0.2480043024 -0.1753888428 0.5530765057 4291152340
-0.2480713427 -0.1748215854 0.5532259941 4291415512
-0.2481382042 -0.1742538512 0.5533751249 4291744477
-0.2482048720 -0.1736856848 0.5535238385 4291744477
-0.2482713759 -0.1731170416 0.5536721349 4291481305
-0.2483376861 -0.1725479513 0.5538200140 4291218133
-0.2480101585 -0.1717058420 0.5530895591 4291152340
-0.2480759919 -0.1711367518 0.5532364249 4291086547
-0.2481416464 -0.1705671996 0.5533828139 4291021524
-0.2482071221 -0.1699971855 0.5535288453 4291416282
-0.2482724190 -0.1694267392 0.5536744595 4291679454
-0.2483375221 -0.1688558310 0.5538196564 4291547868
-0.2484024465 -0.1682844758 0.5539643764 4291547098
-0.2480727732 -0.1674464643 0.5532292128 4291152340
-0.2481372207 -0.1668751240 0.5533729196 4290362824
-0.2482014745 -0.1663033366 0.5535162091 4289573308
-0.2482655495 -0.1657311171 0.5536591411 4288915378
-0.2483294308 -0.1651584506 0.5538015962 4289112757
-0.2479982078 -0.1643236727 0.5530629158 4290033860
-0.2480616122 -0.1637510359 0.5532043576 4290560204
-0.2477297187 -0.1629181206 0.5524641871 4291151828
-0.2477926463 -0.1623455137 0.5526044965 4291546586
-0.2474600822 -0.1615144610 0.5518628359 4291349207
-0.2475225180 -0.1609419137 0.5520020723 4291283414
-0.2475847751 -0.1603689194 0.5521408916 4291283413
-0.2476468384 -0.1597954929 0.5522792935 4291283413
-0.2477087080 -0.1592216343 0.5524172783 4291151827
-0.2477703840 -0.1586473584 0.5525548458 4291414999
-0.2478318661 -0.1580726504 0.5526919365 4291480792
-0.2478931546 -0.1574975103 0.5528286695 4291349206
-0.2479542494 -0.1569219381 0.5529649258 4291546585
-0.2484113574 -0.1565957069 0.5539842844 4291414999
-0.2484721541 -0.1560183764 0.5541198850 4291086034
-0.2485327721 -0.1554406136 0.5542550683 4290888655
-0.2481967062 -0.1546154469 0.5535055995 4290889168
-0.2490499914 -0.1545298994 0.5554085374 4291678684
-0.2491101027 -0.1539499611 0.5555425882 4292468200
-0.2491700351 -0.1533695906 0.5556762218 4293060337
-0.2452578694 -0.1866706908 0.5483098030 4291679454
-0.2453282773 -0.1861148924 0.5484672189 4291810270
-0.2453985214 -0.1855586171 0.5486242175 4291876063
-0.2454686016 -0.1850018650 0.5487809181 4291941856
-0.2455385029 -0.1844446361 0.5489372015 4292007649
-0.2459542900 -0.1810913235 0.5498667359 4291810270
-0.2460229844 -0.1805307865 0.5500202775 4291020754
-0.2460914999 -0.1799697876 0.5501734614 4290494410
-0.2465511858 -0.1796935350 0.5512011647 4289968836
-0.2462279946 -0.1788463742 0.5504786372 4289771457
-0.2462959886 -0.1782839596 0.5506306291 4289770687
-0.2463638037 -0.1777210981 0.5507822633 4290099652
-0.2464314401 -0.1771577597 0.5509334803 4290625996
-0.2464988828 -0.1765939593 0.5510842800 4291218133
-0.2465661615 -0.1760296971 0.5512346625 4291810270
-0.2466332614 -0.1754649729 0.5513846874 4292402407
-0.2467001826 -0.1748997867 0.5515342951 4292665579
-0.2467669249 -0.1743341386 0.5516834855 4292336614
-0.2468334883 -0.1737680435 0.5518323183 4291941856
-0.2468998730 -0.1732014716 0.5519807339 4291678684
-0.2469660640 -0.1726344675 0.5521287322 4291349719
-0.2470320761 -0.1720669866 0.5522763133 4291020754
-0.2470979095 -0.1714990586 0.5524234772 4291086034
-0.2467706203 -0.1706589311 0.5516917706 4291217620
-0.2472290248 -0.1703618467 0.5527166128 4291153110
-0.2469011545 -0.1695226282 0.5519835949 4291284696
-0.2469661534 -0.1689537913 0.5521289110 4291284696
-0.2470309734 -0.1683845222 0.5522738099 4290889938
-0.2470955998 -0.1678147912 0.5524182916 4290625996
-0.2471600324 -0.1672446281 0.5525623560 4290428617
-0.2472242862 -0.1666740030 0.5527060032 4290165445
-0.2472883612 -0.1661029458 0.5528492332 4289836480
-0.2473522425 -0.1655314416 0.5529920459 4291218133
-0.2474159300 -0.1649594903 0.5531344414 4291349719
-0.2474794388 -0.1643871069 0.5532764196 4291941856
-0.2471485734 -0.1635534316 0.5525367260 4292270821
-0.2476058900 -0.1632410139 0.5535591245 4292336101
-0.2468800694 -0.1621492505 0.5519364476 4292007136
-0.2465481460 -0.1613188237 0.5511943698 4290822862
-0.2466104031 -0.1607469916 0.5513335466 4289704381
-0.2466724813 -0.1601747274 0.5514723659 4289507002
-0.2467343509 -0.1596020311 0.5516107082 4289572795
-0.2467960417 -0.1590289026 0.5517485738 4289507515
-0.2468575388 -0.1584553421 0.5518860817 4289968066
-0.2469188422 -0.1578813642 0.5520231724 4290165445
-0.2469799668 -0.1573069543 0.5521597862 4289968066
-0.2470408827 -0.1567321122 0.5522959828 4290362822
-0.2474969774 -0.1564067006 0.5533156395 4290954959
-0.2475576103 -0.1558300853 0.5534511805 4291744475
-0.2476180494 -0.1552530676 0.5535863042 4292270819
-0.2476782799 -0.1546756029 0.5537209511 4293061105
-0.2447707653 -0.1831065863 0.5485829711 4292073442
-0.2448399365 -0.1825486571 0.5487380028 4291547098
-0.2449089438 -0.1819902509 0.5488926768 4290889168
-0.2449777871 -0.1814313680 0.5490469337 4290297031
-0.2450464517 -0.1808720231 0.5492008328 4289968066
-0.2447246313 -0.1800250858 0.5484795570 4289836480
-0.2447928339 -0.1794656813 0.5486324430 4289770687
-0.2452513874 -0.1791911572 0.5496601462 4290297031
-0.2449287176 -0.1783454865 0.5489369631 4290954961
-0.2449963987 -0.1777846962 0.5490886569 4291744477
-0.2450639158 -0.1772234440 0.5492399335 4292205028
-0.2451312393 -0.1766617149 0.5493908525 4292533993
-0.2451983839 -0.1760995239 0.5495413542 4292665579
-0.2452653646 -0.1755368859 0.5496914387 4292336614
-0.2453321666 -0.1749737710 0.5498411655 4291941856
-0.2453987747 -0.1744102091 0.5499904752 4291414999
-0.2454652190 -0.1738461852 0.5501393676 4291217620
-0.2455314696 -0.1732816994 0.5502879024 4290888655
-0.2455975562 -0.1727167666 0.5504359603 4290757069
-0.2456634492 -0.1721513718 0.5505836606 4290822862
-0.2457291782 -0.1715855151 0.5507309437 4291086034
-0.2457947135 -0.1710192263 0.5508778095 4291414999
-0.2458600700 -0.1704524606 0.5510243177 4291612378
-0.2459252328 -0.1698852628 0.5511703491 4291876833
-0.2459902167 -0.1693176031 0.5513160229 4291482075
-0.2460550368 -0.1687494963 0.5514612794 4291284696
-0.2461196482 -0.1681809425 0.5516061187 4291284696
-0.2461840957 -0.1676119417 0.5517505407 4291218133
-0.2462483346 -0.1670424938 0.5518945456 4291283926
-0.2463124096 -0.1664725989 0.5520381331 4291612891
-0.2463762909 -0.1659022570 0.5521813035 4291941856
-0.2464399785 -0.1653314680 0.5523240566 4292073442
-0.2465034872 -0.1647602469 0.5524663925 4292468200
-0.2465668172 -0.1641885936 0.5526083112 4292073442
-0.2462365925 -0.1633555293 0.5518682003 4291547098
-0.2459059954 -0.1625238657 0.5511272550 4290888655
-0.2459685504 -0.1619527042 0.5512674451 4289901760
-0.2456372678 -0.1611229181 0.5505249500 4288717486
-0.2456993461 -0.1605518013 0.5506641269 4287796384
-0.2457612306 -0.1599802673 0.5508028269 4287665052
-0.2458229363 -0.1594082862 0.5509411097 4288322982
-0.2458844483 -0.1588358879 0.5510789156 4288915376
-0.2459457666 -0.1582630575 0.5512163639 4289573306
-0.2460068911 -0.1576898098 0.5513533950 4290494408
-0.2460678220 -0.1571161151 0.5514899492 4291415510
-0.2461285591 -0.1565420032 0.5516260862 4292402659
-0.2461891174 -0.1559674740 0.5517618060 4293323761
-0.2432682365 -0.1842585653 0.5465760231 4292007649
-0.2433376014 -0.1837036610 0.5467318892 4291547098
-0.2434068173 -0.1831482798 0.5468873978 4290626766
-0.2434758544 -0.1825924218 0.5470424891 4290232008
-0.2435447276 -0.1820360869 0.5471972227 4289968836
-0.2436134219 -0.1814792901 0.5473515987 4289968836
-0.2436819375 -0.1809220165 0.5475055575 4289969349
-0.2437502891 -0.1803642809 0.5476590991 4290364107
-0.2438184768 -0.1798060685 0.5478122830 4291087317
-0.2438864857 -0.1792473942 0.5479651093 4291613661
-0.2439543158 -0.1786882430 0.5481175184 4292205028
-0.2444117814 -0.1784131974 0.5491453409 4292599786
-0.2444793731 -0.1778522134 0.5492972136 4292665580
-0.2445467860 -0.1772907823 0.5494486690 4292270822
-0.2442238927 -0.1764470190 0.5487232208 4291810271
-0.2442908436 -0.1758855581 0.5488736033 4291349720
-0.2443576157 -0.1753236353 0.5490236878 4290954448
-0.2444242239 -0.1747612506 0.5491732955 4290691276
-0.2444906384 -0.1741984040 0.5493225455 4290362311
-0.2445568889 -0.1736350954 0.5494713783 4290757069
-0.2446229458 -0.1730713397 0.5496197939 4291283414
-0.2446888238 -0.1725071222 0.5497678518 4291743965
-0.2447545379 -0.1719424427 0.5499154329 4292204515
-0.2448200583 -0.1713773161 0.5500626564 4292467687
-0.2448853999 -0.1708117425 0.5502095222 4292401894
-0.2449505627 -0.1702457070 0.5503559113 4292007136
-0.2450155467 -0.1696792245 0.5505018830 4291546586
-0.2450803518 -0.1691122800 0.5506474972 4291151828
-0.2451449633 -0.1685449034 0.5507926941 4291020242
-0.2448176891 -0.1677087396 0.5500573516 4291086035
-0.2448818237 -0.1671413630 0.5502014756 4290954962
-0.2449457943 -0.1665735543 0.5503451824 4291020755
-0.2450095713 -0.1660052836 0.5504884720 4291152341
-0.2450731546 -0.1654365808 0.5506313443 4291218134
-0.2451365739 -0.1648674309 0.5507737994 4291086548
-0.2451997846 -0.1642978489 0.5509158373 4290560204
-0.2452628165 -0.1637278199 0.5510574579 4289836481
-0.2453256696 -0.1631573588 0.5511986613 4289310137
-0.2449957132 -0.1623263061 0.5504573584 4288718769
-0.2450580746 -0.1617558897 0.5505974889 4288587183
-0.2447274476 -0.1609267145 0.5498545766 4288850355
-0.2447893471 -0.1603563279 0.5499936342 4289310906
-0.2448510528 -0.1597855240 0.5501323342 4290166213
-0.2449125648 -0.1592142731 0.5502704978 4290758350
-0.2449738979 -0.1586426049 0.5504083037 4291547866
-0.2450350374 -0.1580704898 0.5505456924 4292337382
-0.2447025627 -0.1572451591 0.5497987270 4293192689
-0.2418383509 -0.1848442405 0.5447226763 4291416282
-0.2419077456 -0.1842918843 0.5448790193 4291021524
-0.2419769764 -0.1837390512 0.5450349450 4290823375
-0.2420460433 -0.1831857562 0.5451905131 4290560203
-0.2421149462 -0.1826319695 0.5453456640 4290560203
-0.2421836555 -0.1820777208 0.5455004573 4290691789
-0.2422522157 -0.1815229952 0.5456548929 4290889938
-0.2423205972 -0.1809678078 0.5458089113 4291350489
-0.2423888147 -0.1804121435 0.5459625721 4291679454
-0.2424568534 -0.1798560172 0.5461158156 4292008419
-0.2425247133 -0.1792994142 0.5462687016 4292205798
-0.2425924093 -0.1787423491 0.5464211702 4292205798
-0.2426599413 -0.1781848222 0.5465732813 4291941856
-0.2431162745 -0.1779114753 0.5476011038 4291415512
-0.2431835532 -0.1773521304 0.5477526784 4290889169
-0.2432506680 -0.1767923087 0.5479038358 4290625997
-0.2429282814 -0.1759500504 0.5471776724 4290560204
-0.2429949343 -0.1753901988 0.5473278165 4290625997
-0.2430614084 -0.1748299003 0.5474775434 4290954961
-0.2431277037 -0.1742691249 0.5476268530 4291283926
-0.2431938201 -0.1737079024 0.5477758050 4292007649
-0.2432597727 -0.1731462181 0.5479243398 4292270821
-0.2433255315 -0.1725840867 0.5480724573 4292599786
-0.2433911115 -0.1720214933 0.5482201576 4292599786
-0.2434565276 -0.1714584380 0.5483675003 4292336614
-0.2435217500 -0.1708949357 0.5485144258 4291810270
-0.2435867935 -0.1703309864 0.5486609340 4291218133
-0.2436516583 -0.1697665900 0.5488070250 4290954961
-0.2437163442 -0.1692017317 0.5489527583 4290493898
-0.2437808514 -0.1686364263 0.5490980148 4290691277
-0.2438451797 -0.1680706739 0.5492429137 4290823375
-0.2439093143 -0.1675044745 0.5493873954 4290954961
-0.2439732701 -0.1669378281 0.5495314598 4291020754
-0.2440370470 -0.1663707346 0.5496751070 4291020754
-0.2441006303 -0.1658031940 0.5498183370 4290954961
-0.2441640347 -0.1652352214 0.5499611497 4290823375
-0.2442272604 -0.1646668017 0.5501035452 4290428617
-0.2442902923 -0.1640979350 0.5502455235 4290099652
-0.2439615577 -0.1632665694 0.5495050550 4289837250
-0.2440241128 -0.1626977324 0.5496459603 4290166215
-0.2436946929 -0.1618682295 0.5489039421 4290692559
-0.2437567860 -0.1612994522 0.5490438342 4291284696
-0.2438186854 -0.1607302278 0.5491832495 4291942626
-0.2438804060 -0.1601605713 0.5493222475 4292337384
-0.2439419329 -0.1595904976 0.5494608283 4292798185
-0.2440032661 -0.1590199769 0.5495989919 4293192943
-0.2411848158 -0.1860172600 0.5446131229 4291613406
-0.2412544638 -0.1854656935 0.5447703600 4291416027
-0.2409371883 -0.1846173108 0.5440539718 4291218134
-0.2406195402 -0.1837702245 0.5433366895 4291020755
-0.2406884581 -0.1832190007 0.5434923172 4291020755
-0.2407571971 -0.1826673001 0.5436475277 4291086548
-0.2408257723 -0.1821151227 0.5438023806 4291415513
-0.2408941835 -0.1815624833 0.5439568758 4291612892
-0.2409624308 -0.1810093671 0.5441109538 4291876064
-0.2410304993 -0.1804557890 0.5442646742 4291876064
-0.2410984039 -0.1799017340 0.5444179773 4291876064
-0.2411661297 -0.1793472171 0.5445709229 4291810271
-0.2412336767 -0.1787922382 0.5447234511 4291547099
-0.2413010746 -0.1782367826 0.5448756218 4291152341
-0.2417563349 -0.1779665202 0.5459036231 4290954961
-0.2418234795 -0.1774092466 0.5460552573 4290691789
-0.2418904603 -0.1768515110 0.5462065339 4290823376
-0.2419572622 -0.1762932986 0.5463573337 4291283927
-0.2420238853 -0.1757346392 0.5465077758 4291810271
-0.2420903444 -0.1751755178 0.5466578603 4292270822
-0.2421566099 -0.1746159345 0.5468075275 4292665579
-0.2422227114 -0.1740558892 0.5469567776 4292862958
-0.2418997288 -0.1732168943 0.5462274551 4292468200
-0.2419653684 -0.1726568490 0.5463756919 4292139235
-0.2420308441 -0.1720963269 0.5465235114 4291612891
-0.2420961261 -0.1715353578 0.5466709137 4291152340
-0.2421612293 -0.1709739417 0.5468179584 4290691789
-0.2422261685 -0.1704120636 0.5469645262 4290231238
-0.2422909141 -0.1698497385 0.5471107364 4290231238
-0.2423554808 -0.1692869663 0.5472565889 4290428617
-0.2424198687 -0.1687237322 0.5474019647 4290757582
-0.2424840778 -0.1681600660 0.5475469232 4291218133
-0.2425481081 -0.1675959378 0.5476915240 4291547098
-0.2426119596 -0.1670313776 0.5478357077 4291612891
-0.2426756173 -0.1664663553 0.5479794741 4291678684
-0.2427391112 -0.1659009010 0.5481228232 4291744477
-0.2428024113 -0.1653349996 0.5482657552 4291612891
-0.2428655177 -0.1647686660 0.5484082699 4291415512
-0.2429284453 -0.1642018706 0.5485503674 4291481303
-0.2429911941 -0.1636346579 0.5486920476 4291612889
-0.2426629961 -0.1628048271 0.5479509830 4291679452
-0.2427252829 -0.1622376442 0.5480915904 4292008417
-0.2427873611 -0.1616700143 0.5482317805 4292403175
-0.2428492755 -0.1611019522 0.5483715534 4292863726
-0.2429109961 -0.1605334580 0.5485109687 4293258484
-0.2396896929 -0.1871375144 0.5425978303 4291678685
-0.2397595048 -0.1865889877 0.5427558422 4291481306
-0.2398291528 -0.1860399693 0.5429135561 4291415513
-0.2402843237 -0.1857886910 0.5439439416 4291349720
-0.2395821512 -0.1846431792 0.5423544049 4291349720
-0.2396511883 -0.1840936244 0.5425106883 4291283927
-0.2397200763 -0.1835435927 0.5426666141 4291283927
-0.2397887707 -0.1829930842 0.5428221226 4291480793
-0.2394710779 -0.1821483225 0.5421029329 4291612379
-0.2395393401 -0.1815977544 0.5422574878 4291678172
-0.2399939001 -0.1813387275 0.5432865024 4291743965
-0.2400619388 -0.1807863414 0.5434405208 4291743965
-0.2401297987 -0.1802334785 0.5435941219 4291612379
-0.2401974946 -0.1796801388 0.5437473655 4291480793
-0.2402650267 -0.1791263372 0.5439002514 4291480793
-0.2403323799 -0.1785720736 0.5440527201 4291546586
-0.2403995693 -0.1780173481 0.5442048311 4291480793
-0.2404665798 -0.1774621457 0.5443565249 4291547098
-0.2409207523 -0.1771913618 0.5453846455 4291876063
-0.2409875244 -0.1766343415 0.5455358028 4292336614
-0.2410541326 -0.1760768741 0.5456866026 4292533993
-0.2411205620 -0.1755189300 0.5458369851 4292533993
-0.2411868125 -0.1749605238 0.5459869504 4292402407
-0.2412528843 -0.1744016558 0.5461364985 4291941856
-0.2413187921 -0.1738423407 0.5462856889 4291481305
-0.2409964502 -0.1730039716 0.5455560088 4290757582
-0.2410618961 -0.1724446416 0.5457041264 4290625996
-0.2407388687 -0.1716080606 0.5449728966 4290363594
-0.2408038527 -0.1710487157 0.5451200008 4290429387
-0.2408686727 -0.1704889238 0.5452667475 4290824145
-0.2409332991 -0.1699286848 0.5454130173 4291284696
-0.2409977466 -0.1693679839 0.5455589294 4291811040
-0.2410620302 -0.1688068360 0.5457044840 4292205798
-0.2411261201 -0.1682452410 0.5458495617 4292599786
-0.2411900312 -0.1676831990 0.5459942222 4292665579
-0.2416428924 -0.1673902571 0.5470193624 4292599786
-0.2417065501 -0.1668264270 0.5471634865 4292336614
-0.2413807064 -0.1659944057 0.5464258790 4292270821
-0.2418333143 -0.1656974107 0.5474504828 4292270821
-0.2418964356 -0.1651322246 0.5475933552 4292336612
