VERSION 0.7
FIELDS x y z rgba
SIZE 4 4 4 4
TYPE F F F U
COUNT 1 1 1 1
WIDTH 920
HEIGHT 1
VIEWPOINT 0.0 0.0 0.0 1.0 0.0 0.0 0.0
POINTS 920
DATA ascii
-0.2871330678 -0.1720895469 0.5111367702 4284640340
-0.2862679660 -0.1710053682 0.5095967054 4283916104
-0.2858723402 -0.1702041477 0.5088924766 4283060795
-0.2854762971 -0.1694042385 0.5081874728 4281744167
-0.2855502367 -0.1688838601 0.5083190799 4282270511
-0.2860945463 -0.1686404645 0.5092880130 4282467377
-0.2861682475 -0.1681184173 0.5094192028 4281941033
-0.2862417400 -0.1675959826 0.5095500350 4283717446
-0.2874034047 -0.1665723771 0.5116179585 4284046166
-0.2820352018 -0.1760696322 0.5030552745 4282993230
-0.2811756730 -0.1749763340 0.5015221834 4286743431
-0.2840592563 -0.1762083620 0.5066655278 4287072396
-0.2836674750 -0.1754036844 0.5059667230 4286875787
-0.2856163681 -0.1760432720 0.5094428658 4286415236
-0.2852243483 -0.1752369106 0.5087436438 4286413425
-0.2862372994 -0.1752925366 0.5105504394 4285031772
-0.2863133848 -0.1747722328 0.5106860995 4284243275
-0.2863892615 -0.1742515266 0.5108214617 4283782724
-0.2869338095 -0.1740147471 0.5117927790 4283520575
-0.2870094478 -0.1734923571 0.5119277239 4285165400
-0.2857525349 -0.1716010273 0.5096857548 4284574033
-0.2862965763 -0.1713608801 0.5106561780 4283916106
-0.2859017551 -0.1705584973 0.5099519491 4283192383
-0.2855065167 -0.1697574258 0.5092469454 4282138412
-0.2851108313 -0.1689576507 0.5085411668 4282533170
-0.2851845324 -0.1684366912 0.5086726546 4282532659
-0.2852580547 -0.1679153144 0.5088037848 4281743143
-0.2858014405 -0.1676693112 0.5097730160 4283322175
-0.2844777703 -0.1773822308 0.5084180832 4287203723
-0.2850217223 -0.1771559566 0.5093902349 4286480000
-0.2860330939 -0.1772171408 0.5111977458 4286677636
-0.2865773141 -0.1769857854 0.5121703744 4286743429
-0.2871215641 -0.1767522991 0.5131430626 4286676337
-0.2871981561 -0.1762296855 0.5132799745 4285426270
-0.2877424359 -0.1759928167 0.5142526627 4284505673
-0.2864147723 -0.1746125668 0.5118799210 4284176708
-0.2864905596 -0.1740904152 0.5120153427 4283454262
-0.2875026464 -0.1741350591 0.5138241053 4283980606
-0.2871099114 -0.1733276099 0.5131222606 4284901967
-0.2862482667 -0.1722395569 0.5115823150 4284638795
-0.2849173248 -0.1708734632 0.5092036724 4283849541
-0.2845229506 -0.1700724959 0.5084987879 4283191611
-0.2845969796 -0.1695521474 0.5086311102 4282335789
-0.2842018604 -0.1687529236 0.5079249740 4282598961
-0.2842753828 -0.1682326198 0.5080564022 4282597934
-0.2848179638 -0.1679886729 0.5090260506 4281808418
-0.2848912477 -0.1674667001 0.5091570020 4283058485
-0.2866795659 -0.1802499890 0.5133709908 4284308829
-0.2867573202 -0.1797288656 0.5135102272 4285493103
-0.2873013020 -0.1794987172 0.5144843459 4287269514
-0.2878453434 -0.1792664379 0.5154586434 4286414205
-0.2883894742 -0.1790320426 0.5164330006 4286545791
-0.2884668708 -0.1785066724 0.5165715814 4287072135
-0.2880772054 -0.1776928902 0.5158737898 4287004786
-0.2872200608 -0.1765932590 0.5143388510 4285886305
-0.2886979580 -0.1769280583 0.5169854164 4284570948
-0.2873727977 -0.1755446941 0.5146124363 4284176190
-0.2860467136 -0.1741660237 0.5122377276 4283519025
-0.2861222625 -0.1736432612 0.5123729706 4283255853
-0.2871328890 -0.1736858487 0.5141828060 4283783225
-0.2848694623 -0.1717504412 0.5101295710 4284243776
-0.2844761908 -0.1709478498 0.5094252825 4284046660
-0.2840824723 -0.1701465547 0.5087202787 4283257144
-0.2836883366 -0.1693465710 0.5080144405 4282598703
-0.2837620080 -0.1688264906 0.5081464052 4282598703
-0.2838355005 -0.1683059931 0.5082779527 4282269222
-0.2843773067 -0.1680619866 0.5092481971 4281808671
-0.2844505310 -0.1675398201 0.5093793273 4282926639
-0.2854035199 -0.1567545980 0.5110859275 4284638053
-0.2854725420 -0.1562250406 0.5112094879 4283980123
-0.2850701511 -0.1554381698 0.5104889274 4283256400
-0.2846673727 -0.1546526849 0.5097676516 4282795849
-0.2842641175 -0.1538685560 0.5090455413 4282795849
-0.2838604748 -0.1530857980 0.5083227158 4282861642
-0.2806265354 -0.1507839113 0.5025315285 4282861642
-0.2834409773 -0.1785684824 0.5085818768 4285881432
-0.2849145532 -0.1789293587 0.5112259388 4286934120
-0.2854574025 -0.1787016988 0.5121999383 4288047713
-0.2869318724 -0.1790532470 0.5148456097 4287850334
-0.2865432501 -0.1782400012 0.5141482949 4287980881
-0.2889504731 -0.1791618615 0.5184676051 4288046674
-0.2880955338 -0.1780579388 0.5169335604 4288765491
-0.2881725132 -0.1775315553 0.5170717239 4288436526
-0.2873164415 -0.1764319092 0.5155357122 4286534955
-0.2878593504 -0.1761919409 0.5165098310 4286271783
-0.2870022953 -0.1750957221 0.5149720311 4283325249
-0.2861445844 -0.1740024984 0.5134329796 4282930491
-0.2852861583 -0.1729122847 0.5118927360 4283390522
-0.2858282030 -0.1726714969 0.5128653049 4283785280
-0.2845016420 -0.1713034511 0.5104849935 4283523646
-0.2841087282 -0.1705009937 0.5097799897 4282668337
-0.2837153673 -0.1696998477 0.5090742111 4282730798
-0.2833215892 -0.1688999981 0.5083676577 4282533419
-0.2833950222 -0.1683793217 0.5084994435 4281810981
-0.2834682763 -0.1678582430 0.5086308718 4281153051
-0.2840092182 -0.1676128954 0.5096014738 4282663717
-0.2840822041 -0.1670901477 0.5097324848 4284703300
-0.2841550112 -0.1665669978 0.5098630786 4287717457
-0.2851641178 -0.1665905416 0.5116737485 4287849043
-0.2837445736 -0.1584142745 0.5091266632 4284705127
-0.2833442390 -0.1576264054 0.5084082484 4283323474
-0.2848234773 -0.1578820199 0.5110625029 4283057982
-0.2834824622 -0.1565740556 0.5086563230 4283255361
-0.2835513055 -0.1560472995 0.5087798238 4283190086
-0.2831495702 -0.1552622467 0.5080590248 4282861121
-0.2827474177 -0.1544785649 0.5073374510 4282861381
-0.2832860053 -0.1542085856 0.5083038211 4283519311
-0.2819418609 -0.1529153287 0.5058919787 4283652437
-0.2815384269 -0.1521357596 0.5051681399 4283849816
-0.2806636691 -0.1511040479 0.5035985112 4284113242
-0.2797882557 -0.1500754803 0.5020277500 4284771172
-0.2855527997 -0.1819674075 0.5133931041 4288311645
-0.2842376828 -0.1805620939 0.5110286474 4288768334
-0.2871027291 -0.1818091273 0.5161796808 4287978818
-0.2867162526 -0.1809921861 0.5154848695 4287911220
-0.2878017724 -0.1805286855 0.5174365044 4288172844
-0.2883446217 -0.1802937388 0.5184125304 4287975465
-0.2884223759 -0.1797667295 0.5185523033 4288171553
-0.2884999216 -0.1792393029 0.5186917186 4287974174
-0.2890427113 -0.1789996773 0.5196676254 4288367386
-0.2895855904 -0.1787579358 0.5206436515 4288498972
-0.2887314260 -0.1776544452 0.5191079378 4287124516
-0.2878765762 -0.1765539348 0.5175710320 4287321895
-0.2856232226 -0.1746019274 0.5135197639 4284244804
-0.2870970070 -0.1749298722 0.5161694288 4283850046
-0.2857741714 -0.1735535413 0.5137910843 4283719227
-0.2839840949 -0.1718996614 0.5105727315 4284048192
-0.2835921645 -0.1710964441 0.5098680854 4283589181
-0.2831998169 -0.1702945232 0.5091626644 4282733872
-0.2828070223 -0.1694939286 0.5084564686 4282665257
-0.2828806043 -0.1689734608 0.5085887909 4282599464
-0.2829539776 -0.1684526056 0.5087206960 4281876256
-0.2834942341 -0.1682084501 0.5096920133 4281349912
-0.2840345204 -0.1679621637 0.5106633902 4282597405
-0.2836402953 -0.1671629697 0.5099546313 4284308023
-0.2846478522 -0.1671886891 0.5117660761 4286925873
-0.2856556773 -0.1672105640 0.5135781169 4286925873
-0.2866638005 -0.1672285646 0.5153905749 4286730297
-0.2858011723 -0.1661549509 0.5138396621 4286861883
-0.2882130444 -0.1669819206 0.5181759000 4286404420
-0.2896898687 -0.1672594249 0.5208311081 4286799178
-0.2911672294 -0.1675313115 0.5234872699 4286802264
-0.2869858742 -0.1611162126 0.5159696341 4284307024
-0.2865874469 -0.1603205800 0.5152533054 4283255879
-0.2861885726 -0.1595262885 0.5145361423 4283255879
-0.2857892811 -0.1587333530 0.5138182640 4282729787
-0.2858589292 -0.1582015455 0.5139434934 4283256131
-0.2854588926 -0.1574104577 0.5132243037 4283848016
-0.2855280340 -0.1568787545 0.5133485794 4284505946
-0.2864177823 -0.1834561527 0.5159774423 4289287463
-0.2869600654 -0.1832296699 0.5169543624 4289221670
-0.2875024378 -0.1830010563 0.5179314017 4290007836
-0.2880448997 -0.1827703118 0.5189086199 4289876250
-0.2881234288 -0.1822439879 0.5190501213 4289811222
-0.2886658907 -0.1820098460 0.5200273395 4289482257
-0.2892084122 -0.1817735732 0.5210046768 4289153549
-0.2897509933 -0.1815351844 0.5219821334 4289153549
-0.2898291647 -0.1810045838 0.5221229792 4289612300
-0.2894425690 -0.1801843345 0.5214264989 4289349128
-0.2904496789 -0.1802304685 0.5232408047 4289021456
-0.2891328931 -0.1788351983 0.5208686590 4289087249
-0.2882801294 -0.1777312607 0.5193324089 4287844637
-0.2860314250 -0.1757728904 0.5152813792 4288173602
-0.2861073613 -0.1752474308 0.5154181719 4284507201
-0.2871137857 -0.1752897352 0.5172312856 4284244029
-0.2848622799 -0.1733455062 0.5131752491 4283653432
-0.2840061486 -0.1722565740 0.5116328597 4283785018
-0.2826835811 -0.1708891243 0.5092503428 4283523386
-0.2827576101 -0.1703684330 0.5093836784 4282733870
-0.2823655009 -0.1695675254 0.5086773038 4282599719
-0.2824390233 -0.1690468788 0.5088097453 4282599719
-0.2825123668 -0.1685258299 0.5089418292 4281744667
-0.2830518186 -0.1682815999 0.5099136829 4281481495
-0.2835913301 -0.1680352539 0.5108855963 4282466073
-0.2836643457 -0.1675112695 0.5110171437 4283847726
-0.2842038274 -0.1672615260 0.5119889975 4286858273
-0.2861437500 -0.1678310037 0.5154837370 4286792480
-0.2848160565 -0.1664827168 0.5130919218 4287119902
-0.2886247635 -0.1681318432 0.5199533105 4287119902
-0.2868294120 -0.1665124297 0.5167189837 4286989599
-0.2878365219 -0.1665214747 0.5185332298 4287384357
-0.2902460396 -0.1673350483 0.5228739977 4286994487
-0.2903190553 -0.1667965800 0.5230054855 4287191866
-0.2889890075 -0.1654545218 0.5206094384 4286012740
-0.2899967134 -0.1654515564 0.5224248171 4286407498
-0.2891332805 -0.1643807739 0.5208693743 4285818710
-0.2882692218 -0.1633130461 0.5193127394 4284700229
-0.2883406281 -0.1627769023 0.5194413662 4283385660
-0.2879436612 -0.1619769931 0.5187262297 4283188281
-0.2880145609 -0.1614409238 0.5188539624 4283057725
-0.2880852520 -0.1609044671 0.5189813375 4283518276
-0.2867501080 -0.1595853418 0.5165761113 4283190597
-0.2877573967 -0.1595704854 0.5183907151 4284506457
-0.2803846896 -0.1465110034 0.5051088333 4283124814
-0.2787183225 -0.1811159104 0.5031124353 4288177482
-0.2811074853 -0.1821051836 0.5074251294 4287716931
-0.2797979712 -0.1806962192 0.5050613284 4288697895
-0.2845013738 -0.1831636578 0.5135514140 4288566309
-0.2859680355 -0.1835348904 0.5161988139 4289415950
-0.2855838239 -0.1827160716 0.5155053139 4289284364
-0.2851991653 -0.1818985194 0.5148109794 4289941519
-0.2871296704 -0.1825544387 0.5182957053 4289546761
-0.2867447734 -0.1817351729 0.5176009536 4289613583
-0.2882129252 -0.1820881665 0.5202510953 4289350411
-0.2878276706 -0.1812680513 0.5195556879 4289415951
-0.2883692384 -0.1810312867 0.5205332637 4289284365
-0.2889108360 -0.1807924062 0.5215108991 4289611533
-0.2889886498 -0.1802620441 0.5216513872 4289545740
-0.2899942696 -0.1803082377 0.5234665871 4289153038
-0.2896078527 -0.1794876754 0.5227690339 4289021452
-0.2882924974 -0.1780948192 0.5203947425 4288040731
-0.2874405980 -0.1769925952 0.5188569427 4288632868
-0.2861235142 -0.1756082773 0.5164794922 4284507712
-0.2848055065 -0.1742286831 0.5141003728 4284441919
-0.2839513123 -0.1731371582 0.5125584602 4283719477
-0.2840261459 -0.1726136804 0.5126935244 4283653684
-0.2831708193 -0.1715264767 0.5111496449 4283391543
-0.2823148370 -0.1704422981 0.5096045136 4282865199
-0.2823886275 -0.1699210107 0.5097376704 4282534183
-0.2824622095 -0.1693993211 0.5098705292 4282534183
-0.2820701599 -0.1685990095 0.5091628432 4281482012
-0.2826088369 -0.1683547050 0.5101352334 4281416219
-0.2826818824 -0.1678317934 0.5102670193 4282203417
-0.2832205296 -0.1675841063 0.5112393498 4283453484
-0.2832933068 -0.1670595258 0.5113707185 4286857760
-0.2842980027 -0.1670823544 0.5131843090 4286791967
-0.2848367989 -0.1668282747 0.5141568780 4287184664
-0.2863082588 -0.1671164036 0.5168129802 4287184664
-0.2873138189 -0.1671276391 0.5186281204 4287250970
-0.2906523347 -0.1684872359 0.5246544480 4287448349
-0.2897923887 -0.1674080789 0.5231021643 4286598699
-0.2903321087 -0.1671381295 0.5240764618 4286664492
-0.2908718884 -0.1668660194 0.5250507593 4285223476
-0.2900106609 -0.1657908559 0.5234961510 4284960304
-0.2877473831 -0.1639204472 0.5194107294 4283910963
-0.2873517275 -0.1631192714 0.5186965466 4282989861
-0.2864882648 -0.1620550752 0.5171379447 4282530860
-0.2870265543 -0.1617844403 0.5181096196 4283451962
-0.2861621380 -0.1607238054 0.5165492296 4283913291
-0.2876355350 -0.1609750092 0.5192088485 4284571221
-0.2808874547 -0.1470676512 0.5070279241 4283848537
-0.2804825604 -0.1462936401 0.5062970519 4282598470
-0.2805083692 -0.1832080781 0.5073596835 4288174390
-0.2824325562 -0.1838977486 0.5108399391 4288762920
-0.2825110853 -0.1833816767 0.5109820366 4288894506
-0.2844364643 -0.1840603799 0.5144644380 4289549340
-0.2849770188 -0.1838380247 0.5154421926 4289483547
-0.2859796882 -0.1839106679 0.5172557235 4289417491
-0.2865205407 -0.1836832166 0.5182339549 4289614870
-0.2865992188 -0.1831582338 0.5183762908 4289615129
-0.2871400714 -0.1829273850 0.5193545222 4289088785
-0.2872185111 -0.1824006885 0.5194963813 4289351450
-0.2877593935 -0.1821664274 0.5204747319 4289219864
-0.2883003354 -0.1819300503 0.5214531422 4289416473
-0.2888413668 -0.1816915274 0.5224316716 4289219094
-0.2889194191 -0.1811605543 0.5225728750 4289153301
-0.2889972925 -0.1806291640 0.5227137208 4288955922
-0.2890749872 -0.1800973266 0.5228542686 4288890895
-0.2891525030 -0.1795650721 0.5229944587 4288627723
-0.2887663245 -0.1787454784 0.5222959518 4288040216
-0.2851342559 -0.1759247631 0.5157266259 4289027111
-0.2842825949 -0.1748285145 0.5141861439 4284508478
-0.2862134874 -0.1754413545 0.5176786184 4284574271
-0.2844331861 -0.1737789959 0.5144585967 4283785782
-0.2826517224 -0.1721230894 0.5112363696 4283588403
-0.2817975879 -0.1710371673 0.5096914768 4283390512
-0.2818714976 -0.1705161035 0.5098251700 4283061547
-0.2814807296 -0.1697145700 0.5091184378 4282665769
-0.2815541625 -0.1691935509 0.5092512369 4282534183
-0.2820921242 -0.1689504683 0.5102242231 4281612830
-0.2821652889 -0.1684277654 0.5103566051 4281547037
-0.2831682265 -0.1684578955 0.5121705532 4282137373
-0.2827761471 -0.1676569134 0.5114614367 4283255854
-0.2847097218 -0.1682316810 0.5149587393 4286726176
-0.2838520408 -0.1671549976 0.5134074688 4286660383
-0.2843900919 -0.1669008434 0.5143805742 4286725659
-0.2877215743 -0.1682783365 0.5204063058 4286659866
-0.2863976359 -0.1669290066 0.5180116892 4286332956
-0.2878676355 -0.1672078371 0.5206704736 4286332956
-0.2888722122 -0.1672113687 0.5224875212 4285482020
-0.2894110382 -0.1669421941 0.5234620571 4285416227
-0.2894837558 -0.1664029211 0.5235935450 4284630826
-0.2886236906 -0.1653290540 0.5220379829 4284038689
-0.2877629697 -0.1642582715 0.5204812288 4283843113
-0.2878346145 -0.1637212634 0.5206107497 4283843113
-0.2879060507 -0.1631838530 0.5207399726 4283582000
-0.2879773080 -0.1626460403 0.5208688378 4284042551
-0.2880483270 -0.1621078253 0.5209973454 4284701772
-0.2805136442 -0.1466034353 0.5073692203 4282795849
-0.2806709111 -0.1859414130 0.5086743832 4287786844
-0.2817496955 -0.1855224520 0.5106295347 4287847996
-0.2822892368 -0.1853098124 0.5116073489 4288698919
-0.2832894623 -0.1853964925 0.5134201050 4288238368
-0.2842900455 -0.1854793876 0.5152335167 4288958233
-0.2852909565 -0.1855584681 0.5170475245 4289221405
-0.2853701711 -0.1850358844 0.5171910524 4289876763
-0.2859103382 -0.1848109365 0.5181700587 4289679384
-0.2864505947 -0.1845838726 0.5191491842 4289219860
-0.2865295112 -0.1840582937 0.5192921758 4289219860
-0.2866082489 -0.1835322827 0.5194349289 4289155098
-0.2871484458 -0.1833005250 0.5204139352 4289023512
-0.2867651582 -0.1824789494 0.5197193027 4289482266
-0.2868433595 -0.1819516420 0.5198610425 4289284887
-0.2869213820 -0.1814239025 0.5200024247 4289219092
-0.2869991958 -0.1808957309 0.5201434493 4289219092
-0.2875391245 -0.1806575656 0.5211219788 4289022992
-0.2876166999 -0.1801276803 0.5212625861 4288759820
-0.2872315347 -0.1793086380 0.5205645561 4288760592
-0.2873086333 -0.1787787527 0.5207042694 4288431627
-0.2869227529 -0.1779613942 0.5200048685 4288170773
-0.2846848071 -0.1760006249 0.5159489512 4289289254
-0.2833715081 -0.1746186167 0.5135688186 4283982902
-0.2829836011 -0.1738102585 0.5128657818 4283982902
-0.2839850485 -0.1738540530 0.5146807432 4283522862
-0.2822064459 -0.1721974611 0.5114572644 4283457069
-0.2813537121 -0.1711111069 0.5099118352 4283455790
-0.2814275622 -0.1705898643 0.5100457072 4283061032
-0.2810374796 -0.1697880179 0.5093387365 4282534437
-0.2811108530 -0.1692668200 0.5094717145 4282271265
-0.2811840475 -0.1687452048 0.5096043348 4281612571
-0.2817211449 -0.1685007662 0.5105777979 4281480985
-0.2822583318 -0.1682542115 0.5115513206 4282267932
-0.2823311687 -0.1677296609 0.5116833448 4283254827
-0.2819393575 -0.1669296771 0.5109732747 4286332958
-0.2847993076 -0.1680500358 0.5161564946 4286332958
-0.2848722041 -0.1675199419 0.5162885785 4285874206
-0.2840152085 -0.1664445996 0.5147354007 4285742620
-0.2854823172 -0.1667300612 0.5173943639 4285284639
-0.2864848971 -0.1667392403 0.5192113519 4285087260
-0.2874877453 -0.1667445451 0.5210288763 4284496924
-0.2875602245 -0.1662080884 0.5211602449 4284496924
-0.2876325250 -0.1656712145 0.5212912560 4283970839
-0.2872390747 -0.1648667455 0.5205782056 4283905046
-0.2868452072 -0.1640636027 0.5198643804 4284300831
-0.2869166732 -0.1635272652 0.5199939013 4284629796
-0.2883856297 -0.1637843102 0.5226561427 4284695849
-0.2879910171 -0.1629808396 0.5219410062 4285024814
-0.2885282636 -0.1627044082 0.5229146481 4285486396
-0.2890655100 -0.1624258310 0.5238883495 4286539084
-0.2810758650 -0.1466271579 0.5094082952 4281611575
-0.2769317627 -0.1843921244 0.5029088855 4288375636
-0.2756319046 -0.1829710156 0.5005483627 4287915085
-0.2793858051 -0.1848997325 0.5073654056 4288633141
-0.2785451114 -0.1837818623 0.5058387518 4288435762
-0.2800026238 -0.1841790825 0.5084856153 4288697379
-0.2837602496 -0.1860787421 0.5153094530 4288631586
-0.2833794653 -0.1852577925 0.5146179199 4289024542
-0.2848388851 -0.1856376827 0.5172682405 4289024542
-0.2844577432 -0.1848158687 0.5165761113 4289417241
-0.2859178483 -0.1851881444 0.5192276239 4289351448
-0.2855363488 -0.1843654513 0.5185348392 4289482264
-0.2856150866 -0.1838405281 0.5186778307 4289613850
-0.2861544490 -0.1836108565 0.5196572542 4289416471
-0.2862329483 -0.1830842197 0.5197998285 4289613850
-0.2863112390 -0.1825571656 0.5199420452 4289548309
-0.2873117328 -0.1826159060 0.5217589140 4289416723
-0.2869286239 -0.1817940176 0.5210632086 4289153549
-0.2874679565 -0.1815562248 0.5220426321 4289285135
-0.2875457704 -0.1810257286 0.5221839547 4289219597
-0.2876234353 -0.1804948151 0.5223249793 4288956425
-0.2877008915 -0.1799634695 0.5224656463 4288891147
-0.2859304547 -0.1782796383 0.5192505717 4288562182
-0.2873931825 -0.1786123216 0.5219068527 4288300817
-0.2865456343 -0.1775079370 0.5203676820 4289748263
-0.2847727835 -0.1758356541 0.5171481967 4283982130
-0.2839236259 -0.1747389734 0.5156061053 4283982130
-0.2821486890 -0.1730778366 0.5123828650 4283391792
-0.2822232544 -0.1725546569 0.5125182271 4283391792
-0.2813720405 -0.1714670211 0.5109724402 4283324718
-0.2809830606 -0.1706635654 0.5102660656 4282600995
-0.2805936635 -0.1698614210 0.5095589161 4282074654
-0.2806669772 -0.1693400294 0.5096920729 4281811482
-0.2807401121 -0.1688182205 0.5098248720 4281546518
-0.2808130682 -0.1682960093 0.5099573135 4281414932
-0.2808858156 -0.1677733958 0.5100894570 4282398486
-0.2814220190 -0.1675263494 0.5110631585 4283122209
-0.2819582522 -0.1672771871 0.5120369792 4285284638
-0.2829584181 -0.1673001498 0.5138533115 4285153052
-0.2834948599 -0.1670458615 0.5148274899 4284366876
-0.2863518894 -0.1681520790 0.5200158358 4284235290
-0.2854963541 -0.1670741737 0.5184621811 4283973662
-0.2874262035 -0.1676241308 0.5219668150 4283776283
-0.2874989510 -0.1670870036 0.5220988989 4283906327
-0.2875715196 -0.1665494740 0.5222306848 4283840534
-0.2867144942 -0.1654751599 0.5206743479 4283970580
-0.2872512341 -0.1652058810 0.5216490626 4284299545
-0.2868581712 -0.1644015610 0.5209352374 4284562717
-0.2869296968 -0.1638641506 0.5210651755 4284496924
-0.2870010436 -0.1633263379 0.5211946964 4284956192
-0.2875374258 -0.1630519778 0.5221688151 4285482536
-0.2885392606 -0.1630384177 0.5239881277 4286007338
-0.2881448567 -0.1622346938 0.5232718587 4286204717
-0.2891468406 -0.1622159779 0.5250914693 4286271551
-0.2896833718 -0.1619330198 0.5260658264 4286995274
-0.2811021805 -0.1469363272 0.5104823709 4283256143
-0.2806990445 -0.1461597532 0.5097503066 4282598213
-0.2801594436 -0.1869178265 0.5097974539 4287782472
-0.2788627744 -0.1854894310 0.5074378848 4287716679
-0.2821529806 -0.1871080399 0.5134250522 4288632373
-0.2813146412 -0.1859838516 0.5118994713 4288500787
-0.2841479182 -0.1872830689 0.5170551538 4288958250
-0.2833091915 -0.1861580014 0.5155289769 4288892457
-0.2852256000 -0.1868411005 0.5190161467 4288696096
-0.2848456800 -0.1860168725 0.5183248520 4288498717
-0.2853844762 -0.1857922673 0.5193052292 4288695575
-0.2859233022 -0.1855655313 0.5202857852 4288892954
-0.2860024273 -0.1850391775 0.5204297304 4289350678
-0.2861601114 -0.1839851737 0.5207166672 4289416210
-0.2857784927 -0.1831625551 0.5200222135 4289613589
-0.2858567536 -0.1826353073 0.5201646686 4289154831
-0.2859348357 -0.1821076274 0.5203067064 4289418003
-0.2860127091 -0.1815795302 0.5204484463 4289154831
-0.2856297493 -0.1807594299 0.5197515488 4289023245
-0.2857071459 -0.1802313179 0.5198923945 4289086988
-0.2857843637 -0.1797027588 0.5200328827 4289021195
-0.2854003012 -0.1788848042 0.5193340778 4288824326
-0.2850158513 -0.1780681163 0.5186344981 4288758533
-0.2850922644 -0.1775399894 0.5187734962 4288759570
-0.2837841511 -0.1761521697 0.5163932443 4290601774
-0.2820135951 -0.1744834781 0.5131713748 4284574269
-0.2830119431 -0.1745295078 0.5149880648 4284311097
-0.2821633816 -0.1734362692 0.5134439468 4283326258
-0.2808522284 -0.1720630527 0.5110580325 4283260465
-0.2800021768 -0.1709766984 0.5095112920 4283127853
-0.2800758183 -0.1704559326 0.5096452832 4282206751
-0.2796869874 -0.1696543396 0.5089377165 4281615130
-0.2797601223 -0.1691336185 0.5090708137 4281351958
-0.2802956104 -0.1688911915 0.5100452304 4281546516
-0.2803685069 -0.1683687866 0.5101778507 4281414930
-0.2804411948 -0.1678459793 0.5103101730 4282398226
-0.2809766233 -0.1675988734 0.5112844110 4282858777
-0.2819750905 -0.1676248908 0.5131012797 4284303136
-0.2834369838 -0.1679214090 0.5157614350 4283974171
-0.2825831175 -0.1668447703 0.5142077208 4283056156
-0.2831187248 -0.1665891260 0.5151823759 4282924570
-0.2841178477 -0.1666031182 0.5170004368 4282924571
-0.2846536636 -0.1663423330 0.5179753900 4282924571
-0.2856532037 -0.1663494557 0.5197942853 4283578904
-0.2857253850 -0.1658143401 0.5199255943 4283578904
-0.2857973278 -0.1652788073 0.5200565457 4283905557
-0.2858690917 -0.1647428870 0.5201871395 4283971350
-0.2859406769 -0.1642065495 0.5203173757 4283971352
-0.2860120237 -0.1636698246 0.5204471946 4284168731
-0.2870120406 -0.1636623442 0.5222669244 4284955424
-0.2875477970 -0.1633870155 0.5232417583 4285218596
-0.2880835533 -0.1631095409 0.5242167115 4286005282
-0.2886193395 -0.1628299057 0.5251916647 4286334247
-0.2896200418 -0.1628094763 0.5270126462 4286794554
-0.2901560068 -0.1625246704 0.5279878974 4286794554
-0.2911571264 -0.1624972969 0.5298095345 4286010951
-0.2916932404 -0.1622073203 0.5307851434 4286932053
-0.2807241082 -0.1464678943 0.5108249784 4282203455
-0.2786384523 -0.1874070168 0.5080553293 4286997078
-0.2800907493 -0.1878169030 0.5107034445 4286733906
-0.2825392783 -0.1883150637 0.5151679516 4287845694
-0.2846114933 -0.1879680753 0.5189463496 4288234775
-0.2859267294 -0.1859431267 0.5213444829 4287775249
-0.2853234708 -0.1832408309 0.5202444792 4288826646
-0.2846378386 -0.1810722053 0.5189943910 4288826387
-0.2840256691 -0.1783833057 0.5178781748 4288890897
-0.2831811905 -0.1772797555 0.5163383484 4288627725
-0.2823359966 -0.1761792153 0.5147973299 4288044074
-0.2819508612 -0.1753682047 0.5140950084 4288833590
-0.2806436121 -0.1739871055 0.5117114782 4285425207
-0.2811792493 -0.1737500727 0.5126881599 4284964656
-0.2803317308 -0.1726589799 0.5111428499 4283392305
-0.2804059386 -0.1721371412 0.5112780929 4283063340
-0.2795573175 -0.1710503548 0.5097308159 4282600998
-0.2791694701 -0.1702480018 0.5090236068 4282008861
-0.2792427540 -0.1697275043 0.5091571808 4281481238
-0.2793158293 -0.1692066044 0.5092904568 4281349652
-0.2798505425 -0.1689641029 0.5102654099 4281546518
-0.2799233794 -0.1684415191 0.5103982091 4281480725
-0.2804580629 -0.1681956202 0.5113731623 4282069775
-0.2809928060 -0.1679475754 0.5123481750 4282267154
-0.2806030512 -0.1671466827 0.5116375089 4281678877
-0.2811376452 -0.1668961048 0.5126122236 4281744670
-0.2816722691 -0.1666433811 0.5135871172 4282137885
-0.2822069824 -0.1663885415 0.5145620108 4282137885
-0.2854160070 -0.1648144871 0.5204132199 4283511565
-0.2821461856 -0.1475076377 0.5144512057 4283847767
-0.2715639770 -0.1846713424 0.4961597621 4285424738
-0.2730115354 -0.1851020306 0.4988045096 4285358421
-0.2749163806 -0.1858359724 0.5022847652 4285161042
-0.2791061103 -0.1881020665 0.5099396110 4286338627
-0.2782717645 -0.1869753897 0.5084152222 4286338627
-0.2801791131 -0.1876887381 0.5119000077 4287189045
-0.2802585363 -0.1871735603 0.5120451450 4287057459
-0.2812524438 -0.1872669309 0.5138610601 4287252777
-0.2831615806 -0.1879638284 0.5173491240 4287055398
-0.2827836871 -0.1871394664 0.5166587234 4287644957
-0.2837784886 -0.1872222722 0.5184762478 4287447578
-0.2847736180 -0.1873012483 0.5202943683 4286923285
-0.2843951881 -0.1864755750 0.5196029544 4286791699
-0.2853905857 -0.1865494549 0.5214216113 4286660367
-0.2850116789 -0.1857237369 0.5207293034 4286660367
-0.2855490148 -0.1854947656 0.5217110515 4286660883
-0.2856279612 -0.1849667728 0.5218552947 4286726676
-0.2852481306 -0.1841422766 0.5211613178 4286598172
-0.2853265703 -0.1836142540 0.5213046670 4286663965
-0.2849459946 -0.1827914417 0.5206093192 4286337055
-0.2850239575 -0.1822634041 0.5207517743 4286600227
-0.2846426368 -0.1814422756 0.5200550556 4286929196
-0.2842608690 -0.1806224138 0.5193575621 4287192368
-0.2838786840 -0.1798038334 0.5186592937 4286996276
-0.2834960520 -0.1789865345 0.5179602504 4286996276
-0.2835726142 -0.1784597486 0.5181000829 4286277169
-0.2827295065 -0.1773557663 0.5165597200 4286277169
-0.2823455930 -0.1765423119 0.5158582926 4285623099
-0.2810413241 -0.1751568019 0.5134752989 4285491513
-0.2797361016 -0.1737760007 0.5110906363 4283851575
-0.2807310522 -0.1738247275 0.5129083991 4283456817
-0.2798849344 -0.1727332026 0.5113625526 4282471209
-0.2794986367 -0.1719279289 0.5106567144 4282405416
-0.2791118920 -0.1711239666 0.5099501610 4282205472
-0.2791854143 -0.1706028283 0.5100845098 4281481749
-0.2787979245 -0.1698006243 0.5093765259 4281020172
-0.2788709700 -0.1692795306 0.5095099807 4281217551
-0.2789438367 -0.1687580198 0.5096430779 4281612560
-0.2794776559 -0.1685141921 0.5106184483 4281744146
-0.2800115645 -0.1682682186 0.5115938783 4281939978
-0.2800841033 -0.1677437723 0.5117264390 4281545220
-0.2806179821 -0.1674943864 0.5127018690 4280361989
-0.2820752263 -0.1677921116 0.5153642893 4281085712
-0.2812241018 -0.1667154729 0.5138092637 4282202649
-0.2831436992 -0.1672791988 0.5173164606 4282531614
-0.2827539742 -0.1664755046 0.5166044235 4283056157
-0.2837502062 -0.1664865762 0.5184245706 4283121950
-0.2842844725 -0.1662234962 0.5194007158 4283382550
-0.2843564153 -0.1656888574 0.5195321441 4283119378
-0.2835031748 -0.1646167189 0.5179732442 4283247879
-0.2844997048 -0.1646183580 0.5197939277 4283708430
-0.2845710516 -0.1640824974 0.5199242830 4284691989
-0.2864935398 -0.1646099687 0.5234367251 4285284126
-0.2856390476 -0.1635397077 0.5218755603 4286268967
-0.2875622809 -0.1640576273 0.5253894329 4286597932
-0.2890230715 -0.1643048525 0.5280582905 4287122480
-0.2886311710 -0.1634966880 0.5273422599 4287517238
-0.2910192609 -0.1642592251 0.5317054391 4287321141
-0.2901636660 -0.1631878167 0.5301422477 4287386934
-0.2916255593 -0.1634185463 0.5328131914 4287257668
-0.2930879295 -0.1636436135 0.5354850292 4287520840
-0.2926953435 -0.1628307998 0.5347677469 4286077773
-0.2932302654 -0.1625336856 0.5357450843 4285748808
-0.2803668976 -0.1463059038 0.5122430921 4283256143
-0.2680059671 -0.1853451878 0.4906536043 4284638305
-0.2721802294 -0.1876788586 0.4982956648 4284309340
-0.2732487321 -0.1873050481 0.5002518892 4285288527
-0.2746942341 -0.1877376586 0.5028982162 4286008128
-0.2756846845 -0.1878543198 0.5047115088 4286402886
-0.2771312892 -0.1882768720 0.5073599219 4287190593
-0.2785785198 -0.1886939406 0.5100094080 4287256386
-0.2795702815 -0.1887975633 0.5118250847 4288042557
-0.2805624008 -0.1888974011 0.5136414170 4288042557
-0.2806422114 -0.1883808076 0.5137875080 4288238645
-0.2825476825 -0.1890856475 0.5172759891 4288172852
-0.2817144692 -0.1879555434 0.5157505870 4288500015
-0.2836208940 -0.1886510998 0.5192407370 4288434222
-0.2832439244 -0.1878247410 0.5185506344 4288694047
-0.2837804556 -0.1876038313 0.5195329189 4288496668
-0.2843171060 -0.1873808056 0.5205153227 4288038166
-0.2843965590 -0.1868552268 0.5206608176 4287906580
-0.2849332094 -0.1866287738 0.5216433406 4287643663
-0.2850124538 -0.1861014664 0.5217884183 4287512077
-0.2850915194 -0.1855737269 0.5219331384 4286856465
-0.2856281400 -0.1853425652 0.5229155421 4286527500
-0.2852491140 -0.1845169216 0.5222216249 4285545746
-0.2848696411 -0.1836925447 0.5215269327 4285743125
-0.2849478424 -0.1831638962 0.5216701031 4285483041
-0.2850258946 -0.1826348156 0.5218129754 4286075178
-0.2841869891 -0.1815197617 0.5202771425 4286471223
-0.2838059068 -0.1806996018 0.5195795298 4286668602
-0.2834244072 -0.1798807085 0.5188810229 4286079038
-0.2835012078 -0.1793533117 0.5190216303 4286079038
-0.2826600969 -0.1782467663 0.5174817443 4285294397
-0.2818183005 -0.1771432012 0.5159406066 4285360190
-0.2814349234 -0.1763302982 0.5152387619 4284769595
-0.2810511291 -0.1755186766 0.5145361423 4284111665
-0.2797482014 -0.1741364747 0.5121508241 4283913519
-0.2789038122 -0.1730440706 0.5106049180 4283781933
-0.2785183787 -0.1722389162 0.5098992586 4283057699
-0.2785921991 -0.1717184186 0.5100345016 4283123492
-0.2782060206 -0.1709150076 0.5093274713 4282137626
-0.2782793939 -0.1703945547 0.5094617605 4281216524
-0.2783525586 -0.1698736846 0.5095956922 4280757002
-0.2784255445 -0.1693523973 0.5097293258 4281546518
-0.2789586484 -0.1691097766 0.5107053518 4282203930
-0.2790313959 -0.1685868055 0.5108385086 4282006551
-0.2795644999 -0.1683407724 0.5118144751 4281481228
-0.2796369791 -0.1678161323 0.5119471550 4280954884
-0.2801700532 -0.1675666869 0.5129231215 4280362757
-0.2802422643 -0.1670403630 0.5130553246 4281218066
-0.2807753384 -0.1667875051 0.5140312314 4282137626
-0.2822307646 -0.1670785099 0.5166957974 4282137626
-0.2823028862 -0.1665475070 0.5168278217 4282596119
-0.2828361988 -0.1662873626 0.5178042054 4282596119
-0.2833695710 -0.1660250574 0.5187806487 4282725133
-0.2834413350 -0.1654911041 0.5189120173 4282264582
-0.2839746475 -0.1652253866 0.5198884010 4283774737
-0.2840461433 -0.1646897346 0.5200192928 4284695839
-0.2841174304 -0.1641536802 0.5201498270 4285942568
-0.2837264538 -0.1633511931 0.5194340348 4286271533
-0.2847216427 -0.1633455455 0.5212559700 4286862131
-0.2857171297 -0.1633360088 0.5230784416 4286927924
-0.2867128551 -0.1633225828 0.5249013901 4287124276
-0.2877088487 -0.1633052379 0.5267248154 4287321655
-0.2882423997 -0.1630223393 0.5277016759 4287781692
-0.2892387807 -0.1629980654 0.5295257568 4287781692
-0.2897725403 -0.1627099663 0.5305029154 4287519034
-0.2903062999 -0.1624197066 0.5314800739 4287584827
-0.2913031876 -0.1623854637 0.5333051682 4287257668
-0.2918370962 -0.1620900035 0.5342826247 4287323461
-0.2905176282 -0.1607667804 0.5318670273 4286800724
-0.2924415171 -0.1612371057 0.5353891850 4286998103
-0.2827115059 -0.1478290409 0.5175758600 4283124044
-0.2773554027 -0.1905069798 0.5088035464 4287586908
-0.2783451378 -0.1906199902 0.5106192231 4288697664
-0.2805663347 -0.1892844886 0.5146939754 4289154604
-0.2815574110 -0.1893797666 0.5165120959 4288760871
-0.2830847204 -0.1892541349 0.5193138719 4288693018
-0.2836206853 -0.1890348941 0.5202971101 4288495639
-0.2841567397 -0.1888135374 0.5212805271 4288563225
-0.2842366397 -0.1882878244 0.5214270949 4288629018
-0.2843163610 -0.1877616644 0.5215733647 4288563989
-0.2848524153 -0.1875356138 0.5225567222 4288629782
-0.2844752669 -0.1867080331 0.5218648314 4288694807
-0.2850112021 -0.1864793897 0.5228480101 4288694807
-0.2847122848 -0.1851242632 0.5222996473 4287973143
-0.2847909331 -0.1845954657 0.5224438906 4286726935
-0.2844121158 -0.1837707609 0.5217490196 4286595349
-0.2849476635 -0.1835365444 0.5227314234 4285874198
-0.2841107547 -0.1824189276 0.5211961269 4285874198
-0.2832731605 -0.1813042909 0.5196595788 4285614627
-0.2824348509 -0.1801926196 0.5181217790 4286009385
-0.2815959156 -0.1790839434 0.5165827274 4285224756
-0.2821302712 -0.1788492650 0.5175629854 4285224756
-0.2812903225 -0.1777439862 0.5160221457 4284832567
-0.2786916494 -0.1749668866 0.5112549067 4284898873
-0.2783079147 -0.1741592437 0.5105509162 4284175150
-0.2779237628 -0.1733528972 0.5098462105 4284305194
-0.2779979110 -0.1728330404 0.5099822283 4284370987
-0.2776130140 -0.1720284373 0.5092761517 4283581730
-0.2776866853 -0.1715086251 0.5094113350 4283910695
-0.2777601779 -0.1709883958 0.5095461011 4282337056
-0.2778334618 -0.1704677492 0.5096805692 4281547540
-0.2779065967 -0.1699466854 0.5098147392 4281088020
-0.2779795229 -0.1694252193 0.5099484921 4281811743
-0.2785118520 -0.1691825241 0.5109250546 4282533413
-0.2785845399 -0.1686593741 0.5110583901 4282204448
-0.2791168392 -0.1684132665 0.5120348930 4282073884
-0.2807140946 -0.1676621288 0.5149650574 4283324470
-0.2812466025 -0.1674074680 0.5159419179 4283915579
-0.2813187540 -0.1668775380 0.5160742402 4283783993
-0.2818512321 -0.1666194499 0.5170511007 4284044592
-0.2819230855 -0.1660878360 0.5171829462 4283978799
-0.2829163373 -0.1660968661 0.5190050006 4284369958
-0.2829880416 -0.1655627042 0.5191365480 4283975200
-0.2835920155 -0.1647610664 0.5202445388 4285682220
-0.2841956615 -0.1639543325 0.5213519335 4286731825
-0.2847280800 -0.1636816859 0.5223286748 4287322424
-0.2857221365 -0.1636713147 0.5241522193 4287256631
-0.2867164612 -0.1636570245 0.5259763002 4287255862
-0.2872492075 -0.1633761823 0.5269536376 4287321655
-0.2877820134 -0.1630931795 0.5279309750 4287387448
-0.2883148193 -0.1628080308 0.5289084315 4287650620
-0.2888476551 -0.1625207216 0.5298858881 4287650106
-0.2893804908 -0.1622312516 0.5308634043 4287650106
-0.2903757393 -0.1621979028 0.5326891541 4287781693
-0.2885963023 -0.1606162488 0.5294247866 4287913279
-0.2909791768 -0.1613498926 0.5337961316 4287520841
-0.2915121019 -0.1610517800 0.5347738266 4287389255
-0.2722889781 -0.1879640222 0.5005279779 4288639072
-0.2755455077 -0.1896497905 0.5065141916 4287981142
-0.2756251693 -0.1891421974 0.5066606402 4289222457
-0.2770672739 -0.1895664781 0.5093115568 4289090871
-0.2798730433 -0.1909150481 0.5144691467 4289286184
-0.2790444195 -0.1897804290 0.5129460096 4289088805
-0.2813973129 -0.1908064634 0.5172711611 4288824861
-0.2810229659 -0.1899791956 0.5165830255 4288561689
-0.2824676037 -0.1903794408 0.5192385912 4288430871
-0.2820928991 -0.1895512789 0.5185497999 4288628250
-0.2835382521 -0.1899439096 0.5212066770 4289086744
-0.2831631899 -0.1891148537 0.5205172300 4289086744
-0.2836984694 -0.1888934523 0.5215011239 4288366624
-0.2846893072 -0.1889722794 0.5233225226 4288498210
-0.2843135893 -0.1881427318 0.5226318836 4288498206
-0.2843931913 -0.1876151115 0.5227782130 4288498206
-0.2844726145 -0.1870870441 0.5229242444 4288760351
-0.2845518887 -0.1865585297 0.5230699182 4288891937
-0.2846309543 -0.1860295832 0.5232152939 4288957478
-0.2851660848 -0.1857974678 0.5241990089 4289089064
-0.2847885489 -0.1849703640 0.5235049725 4288828202
-0.2844105363 -0.1841445118 0.5228101611 4288762409
-0.2840321362 -0.1833199263 0.5221145153 4288303913
-0.2845667899 -0.1830843538 0.5230973363 4287974948
-0.2837308645 -0.1819675863 0.5215607285 4286599210
-0.2833512723 -0.1811459512 0.5208629370 4286336038
-0.2825140953 -0.1800342798 0.5193240047 4284107562
-0.2807617188 -0.1783446521 0.5161027312 4283383839
-0.2799229324 -0.1772406697 0.5145608783 4283387442
-0.2795409858 -0.1764284223 0.5138587952 4283782200
-0.2791586220 -0.1756174713 0.5131558776 4283782451
-0.2778602839 -0.1742337197 0.5107693076 4283124521
-0.2770189345 -0.1731408834 0.5092226863 4283846186
-0.2766349018 -0.1723363996 0.5085167885 4283517221
-0.2767085731 -0.1718176603 0.5086522102 4282597146
-0.2767820656 -0.1712985188 0.5087872744 4283781420
-0.2768553793 -0.1707789600 0.5089220405 4283588150
-0.2769285142 -0.1702589989 0.5090564489 4283390771
-0.2770014405 -0.1697386205 0.5091905594 4282864427
-0.2775329351 -0.1694979966 0.5101675391 4282798634
-0.2776056230 -0.1689759344 0.5103011727 4283518507
-0.2781370878 -0.1687318981 0.5112780929 4283321128
-0.2795867920 -0.1690408587 0.5139430165 4283847726
-0.2792001963 -0.1682374030 0.5132323503 4284900414
-0.2797318101 -0.1679869592 0.5142095685 4284838738
-0.2798040509 -0.1674593836 0.5143423676 4285101910
-0.2803356349 -0.1672055125 0.5153195262 4285561432
-0.2813269794 -0.1672227383 0.5171418190 4285495639
-0.2813989818 -0.1666913480 0.5172742009 4285887055
-0.2819307148 -0.1664310545 0.5182516575 4285755469
-0.2824625075 -0.1661686003 0.5192291737 4286409543
-0.2825341523 -0.1656342447 0.5193608999 4286277957
-0.2830658853 -0.1653683782 0.5203383565 4286471482
-0.2831372917 -0.1648323387 0.5204696059 4286208310
-0.2827479541 -0.1640287489 0.5197539330 4286534705
-0.2832794487 -0.1637590528 0.5207309723 4286666291
-0.2838110030 -0.1634871960 0.5217080116 4286994487
-0.2848033905 -0.1634777188 0.5235322714 4286928694
-0.2853351235 -0.1632006913 0.5245096684 4286993719
-0.2858668566 -0.1629215181 0.5254871249 4287125305
-0.2859374285 -0.1623782814 0.5256168842 4287452991
-0.2864691019 -0.1620956659 0.5265942216 4287387198
-0.2870008051 -0.1618109047 0.5275715590 4287387196
-0.2870709896 -0.1612647027 0.5277006030 4287584575
-0.2871409655 -0.1607181132 0.5278292894 4287715646
-0.2876725197 -0.1604286283 0.5288063884 4287584060
-0.2886659503 -0.1603936106 0.5306324959 4287584573
-0.2891976237 -0.1600989252 0.5316098928 4287518780
-0.2892672420 -0.1595472246 0.5317378640 4286928703
-0.2893366814 -0.1589951068 0.5318654180 4287520840
-0.2898681760 -0.1586957127 0.5328424573 4287064150
-0.2850547433 -0.1496622562 0.5239942670 4284570720
-0.2759254873 -0.1908635795 0.5082491636 4288504655
-0.2773651481 -0.1912923008 0.5109009743 4288109897
-0.2778987288 -0.1910921037 0.5118838549 4289024303
-0.2779789567 -0.1905788779 0.5120316148 4288761131
-0.2794198096 -0.1909953952 0.5146856308 4288562718
-0.2804075480 -0.1910972148 0.5165050626 4288562718
-0.2809417546 -0.1908868402 0.5174890757 4288693275
-0.2814760804 -0.1906743497 0.5184732676 4288693275
-0.2820104659 -0.1904597282 0.5194575787 4288759068
-0.2825449407 -0.1902429909 0.5204420686 4288824861
-0.2835338712 -0.1903291196 0.5222637057 4289152026
-0.2836141288 -0.1898031086 0.5224115252 4289152026
-0.2836942077 -0.1892766356 0.5225590467 4288956197
-0.2842288911 -0.1890522093 0.5235438943 4289021990
-0.2843087614 -0.1885239929 0.5236909986 4288956451
-0.2843884230 -0.1879953444 0.5238377452 4288824865
-0.2840127647 -0.1871663034 0.5231457949 4289020963
-0.2840919495 -0.1866376251 0.5232916474 4288955170
-0.2841709554 -0.1861084849 0.5234372020 4289020450
-0.2847053111 -0.1858763099 0.5244214535 4289152036
-0.2843284309 -0.1850489080 0.5237272382 4288889627
-0.2844069004 -0.1845184565 0.5238717794 4289152799
-0.2840292752 -0.1836927086 0.5231761932 4289089314
-0.2841072679 -0.1831622273 0.5233198404 4289089314
-0.2837288976 -0.1823381633 0.5226228833 4287124267
-0.2833501101 -0.1815153807 0.5219251513 4286532130
-0.2825144827 -0.1804024130 0.5203859806 4283451944
-0.2816781700 -0.1792924404 0.5188454986 4282530842
-0.2803845108 -0.1778957248 0.5164626241 4283190063
-0.2790899575 -0.1765037030 0.5140780807 4283847993
-0.2782513499 -0.1754044294 0.5125333667 4283978547
-0.2769550681 -0.1740209907 0.5101456642 4283123238
-0.2756578624 -0.1726422757 0.5077562332 4284043311
-0.2757315338 -0.1721246392 0.5078919530 4283122209
-0.2758050263 -0.1716065854 0.5080273151 4281609999
-0.2758783400 -0.1710881293 0.5081623793 4283649582
-0.2764091194 -0.1708521098 0.5091400146 4283850297
-0.2764821947 -0.1703319550 0.5092746019 4284508227
-0.2770129442 -0.1700925380 0.5102522373 4284114237
-0.2770857513 -0.1695706993 0.5103864074 4283522100
-0.2776165009 -0.1693278700 0.5113639832 4283717683
-0.2781473100 -0.1690829098 0.5123417377 4283651890
-0.2795948684 -0.1693911850 0.5150080919 4284112443
-0.2787505984 -0.1683097333 0.5134529471 4285033545
-0.2797400057 -0.1683351696 0.5152754784 4286148174
-0.2798123062 -0.1678065360 0.5154086351 4285687623
-0.2803432345 -0.1675517261 0.5163865685 4285423422
-0.2804152668 -0.1670214236 0.5165192485 4285160250
-0.2809461653 -0.1667631865 0.5174971223 4285551927
-0.2814770937 -0.1665028185 0.5184751153 4285749306
-0.2820080817 -0.1662402898 0.5194531679 4286733116
-0.2820796967 -0.1657057405 0.5195850730 4287062081
-0.2826106250 -0.1654397994 0.5205630660 4286928694
-0.2826819718 -0.1649035662 0.5206944942 4286599729
-0.2827531099 -0.1643669158 0.5208255053 4286664239
-0.2832839191 -0.1640962660 0.5218032598 4286795825
-0.2833547890 -0.1635579467 0.5219337940 4286795827
-0.2843456566 -0.1635484993 0.5237589478 4286532655
-0.2844163477 -0.1630076319 0.5238891840 4286532657
-0.2854075134 -0.1629921198 0.5257148743 4286861622
-0.2850175798 -0.1621866822 0.5249966383 4287059260
-0.2850877941 -0.1616437137 0.5251259804 4287190846
-0.2856184542 -0.1613606066 0.5261034369 4287124540
-0.2856883705 -0.1608159691 0.5262322426 4286992954
-0.2857581079 -0.1602709293 0.5263606310 4287059001
-0.2858276069 -0.1597254872 0.5264887214 4287322173
-0.2863580287 -0.1594364047 0.5274657607 4287650107
-0.2864272594 -0.1588892788 0.5275932550 4287321142
-0.2869576216 -0.1585967541 0.5285701156 4287190069
-0.2874879837 -0.1583020687 0.5295470953 4287387448
-0.2875568271 -0.1577520072 0.5296738744 4286600251
-0.2880870998 -0.1574538648 0.5306506157 4286731837
-0.2787243724 -0.1926233619 0.5144559741 4288762168
-0.2806155086 -0.1933553666 0.5179465413 4289021733
-0.2797911167 -0.1922140718 0.5164248943 4288758561
-0.2807774842 -0.1923164129 0.5182455182 4288496927
-0.2813112140 -0.1921056211 0.5192306042 4288562720
-0.2818450332 -0.1918926984 0.5202158689 4288824350
-0.2823789120 -0.1916776299 0.5212013125 4288758557
-0.2829128802 -0.1914604455 0.5221869349 4288955420
-0.2834469676 -0.1912411302 0.5231726766 4288889627
-0.2835274637 -0.1907145381 0.5233212709 4289020443
-0.2836077809 -0.1901874989 0.5234695077 4289086236
-0.2845957279 -0.1902669221 0.5252930522 4288627486
-0.2842219174 -0.1894346774 0.5246030688 4288693279
-0.2843018472 -0.1889054477 0.5247505903 4288562459
-0.2839273214 -0.1880748570 0.5240592957 4288562459
-0.2844611406 -0.1878456622 0.5250446200 4288824604
-0.2845405340 -0.1873150915 0.5251911283 4288824604
-0.2846197486 -0.1867840886 0.5253373384 4288758557
-0.2842439711 -0.1859551072 0.5246437788 4288758557
-0.2843226790 -0.1854240596 0.5247890353 4288758039
-0.2848562598 -0.1851883978 0.5257738829 4288823832
-0.2849347293 -0.1846556365 0.5259187222 4288628505
-0.2831918299 -0.1829459071 0.5227017999 4288562712
-0.2828140259 -0.1821223944 0.5220044851 4286466594
-0.2819802463 -0.1810077280 0.5204654932 4285808664
-0.2811457813 -0.1798960418 0.5189253092 4282861606
-0.2803106606 -0.1787873507 0.5173838139 4282664227
-0.2771952748 -0.1762323678 0.5116335750 4283453232
-0.2759765387 -0.1743266582 0.5093840957 4284043313
-0.2746818960 -0.1729460955 0.5069945455 4283253797
-0.2742991745 -0.1721431166 0.5062881708 4283911727
-0.2743725777 -0.1716270149 0.5064235926 4282464281
-0.2749024034 -0.1713952124 0.5074015856 4280425728
-0.2754323184 -0.1711612791 0.5083796382 4282136345
-0.2759622931 -0.1709252000 0.5093578100 4283583530
-0.2764922976 -0.1706869900 0.5103361011 4283978288
-0.2765652537 -0.1701653898 0.5104707479 4283583265
-0.2770952582 -0.1699237674 0.5114490390 4282925335
-0.2776253521 -0.1696799994 0.5124274492 4282925333
-0.2781554759 -0.1694341004 0.5134059191 4283122712
-0.2800584733 -0.1700194925 0.5169183612 4283714597
-0.2797461450 -0.1686835587 0.5163419247 4285945128
-0.2802764773 -0.1684290916 0.5173207521 4285747749
-0.2803487480 -0.1678981334 0.5174541473 4285812514
-0.2808790505 -0.1676402390 0.5184329152 4285746721
-0.2814093828 -0.1673801988 0.5194118023 4286074144
-0.2819397449 -0.1671179980 0.5203907490 4286074144
-0.2820116282 -0.1665827930 0.5205234289 4286335778
-0.2825419605 -0.1663171798 0.5215023160 4286335778
-0.2826135457 -0.1657802761 0.5216343999 4286072864
-0.2826849520 -0.1652429849 0.5217661858 4286204450
-0.2832151651 -0.1649726480 0.5227448344 4286008615
-0.2832863033 -0.1644336581 0.5228761435 4286008615
-0.2838164568 -0.1641598940 0.5238546729 4285746473
-0.2838872969 -0.1636192352 0.5239854455 4285417508
-0.2844174206 -0.1633420289 0.5249639153 4285286951
-0.2840283811 -0.1625366658 0.5242458582 4285747502
-0.2840986252 -0.1619947851 0.5243754983 4286731063
-0.2841686606 -0.1614525020 0.5245047808 4286862649
-0.2842385173 -0.1609098166 0.5246337056 4286664754
-0.2843081355 -0.1603667289 0.5247622132 4286467375
-0.2843775749 -0.1598232538 0.5248903632 4286795825
-0.2844468355 -0.1592793763 0.5250181556 4287124790
-0.2845158577 -0.1587350965 0.5251455903 4287322169
-0.2850451767 -0.1584463865 0.5261225700 4287190583
-0.2851139307 -0.1579004377 0.5262494683 4287124792
-0.2856431603 -0.1576083004 0.5272263288 4287058999
-0.2857116163 -0.1570606828 0.5273526311 4286861879
-0.2871626318 -0.1572699845 0.5300309062 4286993465
-0.2863089144 -0.1562158167 0.5284551382 4287060549
-0.2877603173 -0.1564181447 0.5311340690 4287257928
-0.2887508869 -0.1563649774 0.5329623818 4287654487
-0.2748678327 -0.1920408905 0.5083787441 4287653454
-0.2781083882 -0.1937339753 0.5143722892 4287061317
-0.2763829529 -0.1919645816 0.5111810565 4289154346
-0.2778184712 -0.1923912615 0.5138360858 4288891174
-0.2783508599 -0.1921884716 0.5148207545 4288954907
-0.2793353498 -0.1922947019 0.5166415572 4288954907
-0.2821286917 -0.1936384290 0.5218079686 4288497695
-0.2813053429 -0.1924957931 0.5202851892 4288497695
-0.2827432752 -0.1928992569 0.5229446888 4288759070
-0.2828242183 -0.1923738420 0.5230944157 4288693277
-0.2833576798 -0.1921549290 0.5240810513 4288758811
-0.2834384143 -0.1916277558 0.5242303610 4288627225
-0.2839718759 -0.1914054155 0.5252170563 4288561432
-0.2845054269 -0.1911809444 0.5262038708 4288627225
-0.2841327488 -0.1903471500 0.5255145431 4288561693
-0.2842129171 -0.1898173541 0.5256628394 4288495900
-0.2842928767 -0.1892870963 0.5258107781 4288496150
-0.2839191556 -0.1884553432 0.5251194835 4288496150
-0.2839986384 -0.1879250556 0.5252665281 4288692248
-0.2840779722 -0.1873943061 0.5254132748 4288626455
-0.2841570973 -0.1868631244 0.5255596042 4288626203
-0.2842360735 -0.1863314807 0.5257056355 4288626203
-0.2847690284 -0.1860962212 0.5266913772 4288494358
-0.2843934298 -0.1852668971 0.5259967446 4288428565
-0.2840174139 -0.1844388396 0.5253012776 4288494358
-0.2831864357 -0.1833177805 0.5237643123 4288691737
-0.2832641006 -0.1827865094 0.5239079595 4286595878
-0.2819771767 -0.1813771576 0.5215277672 4285806362
-0.2811442614 -0.1802641898 0.5199872255 4283056683
-0.2798556089 -0.1788633764 0.5176038146 4283451441
-0.2781108618 -0.1771772802 0.5143768787 4283518776
-0.2768202424 -0.1757867336 0.5119898319 4283189811
-0.2768949866 -0.1752656996 0.5121279955 4284107574
