VERSION 0.7
FIELDS x y z rgba
SIZE 4 4 4 4
TYPE F F F U
COUNT 1 1 1 1
WIDTH 920
HEIGHT 1
VIEWPOINT 0.0 0.0 0.0 1.0 0.0 0.0 0.0
POINTS 920
DATA ascii
-0.2582091987 -0.1644568890 0.5563334823 4286066197
-0.2586808801 -0.1641386300 0.5573497415 4286131990
-0.2595593631 -0.1640752703 0.5592425466 4285739800
-0.2600311637 -0.1637515873 0.5602590442 4285739800
-0.2605029643 -0.1634256542 0.5612755418 4284888359
-0.2609747350 -0.1630974710 0.5622920990 4285085738
-0.2618537843 -0.1630205512 0.5641860366 4284890423
-0.2623256743 -0.1626869440 0.5652027726 4287522143
-0.2632050216 -0.1626027822 0.5670973659 4289894555
-0.2594615817 -0.2123032063 0.5603713393 4288842894
-0.2595418692 -0.2117466629 0.5605447292 4287982444
-0.2596219778 -0.2111895978 0.5607177615 4288245616
-0.2593042254 -0.2103094608 0.5600314736 4289227108
-0.2585882545 -0.2091088146 0.5584850907 4288898143
-0.2582695484 -0.2082319260 0.5577968359 4288961364
-0.2583485246 -0.2076762319 0.5579674244 4288500813
-0.2576309741 -0.2064817697 0.5564176440 4288631111
-0.2573110461 -0.2056084871 0.5557267070 4288302146
-0.2569907308 -0.2047364265 0.5550349355 4288169017
-0.2562714815 -0.2035490125 0.5534814596 4288037431
-0.2563489079 -0.2029959410 0.5536487103 4288233522
-0.2552297711 -0.2014978528 0.5512316823 4288036143
-0.2549076080 -0.2006323934 0.5505358577 4288298284
-0.2541860044 -0.1994550377 0.5489773750 4288627249
-0.2538628876 -0.1985929012 0.5482795835 4288955695
-0.2535394132 -0.1977319866 0.5475808978 4288692523
-0.2536149025 -0.1971828490 0.5477439165 4288429351
-0.2532907128 -0.1963235438 0.5470437407 4288166179
-0.2529661059 -0.1954655051 0.5463427305 4288166179
-0.2538403571 -0.1955324709 0.5482308865 4288166179
-0.2527155876 -0.1940601915 0.5458016992 4288166179
-0.2527898848 -0.1935112178 0.5459621549 4288166179
-0.2524639368 -0.1926564276 0.5452581644 4288034593
-0.2525377870 -0.1921073496 0.5454176664 4288034593
-0.2518108189 -0.1909506321 0.5438475609 4287968800
-0.2518841028 -0.1904023439 0.5440058112 4287903007
-0.2515566349 -0.1895517260 0.5432986021 4287837214
-0.2516294718 -0.1890033484 0.5434558988 4287705628
-0.2513013482 -0.1881544143 0.5427472591 4287574042
-0.2509728074 -0.1873067468 0.5420376658 4287574042
-0.2510448992 -0.1867586821 0.5421933532 4287377946
-0.2511168122 -0.1862101555 0.5423486829 4287377946
-0.2511885762 -0.1856611669 0.5425036550 4287377692
-0.2508587539 -0.1848159879 0.5417913795 4287311899
-0.2509300709 -0.1842669398 0.5419453979 4287246360
-0.2510011792 -0.1837174147 0.5420989990 4287246360
-0.2506704330 -0.1828743517 0.5413846374 4287246360
-0.2507410944 -0.1823247820 0.5415372252 4287246360
-0.2508115768 -0.1817747355 0.5416894555 4287049495
-0.2508819103 -0.1812242270 0.5418413281 4287049495
-0.2509520352 -0.1806732714 0.5419928432 4287049495
-0.2506197393 -0.1798331738 0.5412751436 4287049495
-0.2506894171 -0.1792821735 0.5414256454 4286983702
-0.2507589161 -0.1787307113 0.5415757298 4286917909
-0.2508282363 -0.1781787872 0.5417255163 4286852629
-0.2508974075 -0.1776264161 0.5418748260 4286852629
-0.2509663701 -0.1770735830 0.5420238376 4286982934
-0.2510351837 -0.1765202880 0.5421724319 4286982934
-0.2515068650 -0.1762489974 0.5431911349 4286982934
-0.2515754104 -0.1756938994 0.5433391929 4286982934
-0.2520470619 -0.1754190326 0.5443578362 4286852118
-0.2521153688 -0.1748621464 0.5445053577 4286852118
-0.2521834970 -0.1743048131 0.5446524620 4286917911
-0.2522514462 -0.1737470180 0.5447992086 4286917911
-0.2527229190 -0.1734658778 0.5458174944 4286918424
-0.2531944215 -0.1731825024 0.5468358397 4286852631
-0.2532620430 -0.1726215780 0.5469818115 4286852631
-0.2533294559 -0.1720602065 0.5471274853 4286852631
-0.2533967197 -0.1714983881 0.5472726822 4286787351
-0.2538680136 -0.1712087393 0.5482906103 4286787351
-0.2539350092 -0.1706451327 0.5484352708 4286787097
-0.2540017962 -0.1700810641 0.5485795736 4286787097
-0.2540684044 -0.1695165634 0.5487233996 4286721558
-0.2545394897 -0.1692206562 0.5497408509 4286787351
-0.2546058595 -0.1686543524 0.5498841405 4286656533
-0.2550768852 -0.1683548540 0.5509014726 4286722326
-0.2551429570 -0.1677867770 0.5510441661 4286656533
-0.2552088499 -0.1672182679 0.5511864424 4286656533
-0.2552745342 -0.1666493118 0.5513283014 4286787351
-0.2557453215 -0.1663435400 0.5523451567 4286721558
-0.2562161386 -0.1660355181 0.5533620119 4286655511
-0.2566869855 -0.1657252461 0.5543788671 4286589718
-0.2571578324 -0.1654127240 0.5553957820 4286327574
-0.2576286793 -0.1650979668 0.5564126968 4286261781
-0.2580995560 -0.1647809446 0.5574296713 4285738778
-0.2585704327 -0.1644616723 0.5584466457 4285804571
-0.2594473660 -0.1643974185 0.5603405833 4285477405
-0.2599183619 -0.1640727371 0.5613577962 4285608991
-0.2603893578 -0.1637457907 0.5623750687 4284561193
-0.2608603537 -0.1634165943 0.5633922815 4284890158
-0.2617377937 -0.1633387655 0.5652873516 4286208340
-0.2622089088 -0.1630041450 0.5663048029 4289037439
-0.2630866468 -0.1629190743 0.5682004690 4289566617
-0.2635578513 -0.1625790149 0.5692181587 4289763996
-0.2653140724 -0.1623902321 0.5730112195 4289502878
-0.2657854557 -0.1620415598 0.5740292668 4289043867
-0.2662568390 -0.1616906226 0.5750473142 4289175453
-0.2586212754 -0.2115023732 0.5598980188 4288971395
-0.2587011755 -0.2109459937 0.5600709915 4287523949
-0.2583839893 -0.2100664377 0.5593842864 4288834408
-0.2580664158 -0.2091880590 0.5586967468 4288571236
-0.2577484250 -0.2083108872 0.5580083728 4288632916
-0.2578273118 -0.2077550441 0.5581791401 4288764502
-0.2575086355 -0.2068794221 0.5574892163 4288828751
-0.2571895719 -0.2060050070 0.5567983985 4288565579
-0.2568700612 -0.2051317990 0.5561067462 4288367937
-0.2561524212 -0.2039431185 0.5545530915 4288104765
-0.2550362647 -0.2024415582 0.5521366596 4288235064
-0.2551132143 -0.2018895447 0.5523032546 4288103478
-0.2547918558 -0.2010229379 0.5516075492 4288495922
-0.2544701099 -0.2001575530 0.5509110093 4288627508
-0.2545463145 -0.1996057779 0.5510759354 4288693295
-0.2538253963 -0.1984304786 0.5495152473 4288561709
-0.2535024583 -0.1975688040 0.5488160849 4288364330
-0.2535777986 -0.1970181316 0.5489791632 4288166951
-0.2532541454 -0.1961580664 0.5482785106 4288035365
-0.2533290684 -0.1956072897 0.5484406948 4288101158
-0.2530047297 -0.1947488487 0.5477385521 4288101158
-0.2522808313 -0.1935853511 0.5461713076 4288101158
-0.2519555688 -0.1927302778 0.5454671383 4288100388
-0.2516299188 -0.1918764710 0.5447621346 4288100388
-0.2513038516 -0.1910239160 0.5440562963 4288034595
-0.2513770461 -0.1904754490 0.5442147255 4287903009
-0.2514500916 -0.1899265051 0.5443728566 4287837214
-0.2511230707 -0.1890760064 0.5436648726 4287771421
-0.2507956326 -0.1882267892 0.5429559946 4287639835
-0.2508679330 -0.1876781583 0.5431125164 4287639835
-0.2509400547 -0.1871290654 0.5432686210 4287443226
-0.2506116629 -0.1862819195 0.5425577164 4287443226
-0.2506833076 -0.1857327521 0.5427128077 4287377946
-0.2507548034 -0.1851831079 0.5428676009 4287312153
-0.2508261204 -0.1846330017 0.5430220366 4287312153
-0.2504964769 -0.1837883592 0.5423083305 4287246360
-0.2505673468 -0.1832382083 0.5424617529 4287246360
-0.2510390580 -0.1829798669 0.5434829593 4287246360
-0.2507085502 -0.1821364760 0.5427674651 4287049495
-0.2507789135 -0.1815849096 0.5429197550 4287049495
-0.2508490682 -0.1810328960 0.5430716872 4287049497
-0.2509190738 -0.1804804057 0.5432232022 4286983704
-0.2505873144 -0.1796395779 0.5425049663 4286983704
-0.2506568432 -0.1790870428 0.5426554680 4286917911
-0.2507261932 -0.1785340607 0.5428056717 4286852629
-0.2507953644 -0.1779806167 0.5429553986 4286852629
-0.2508643866 -0.1774267256 0.5431048274 4286982934
-0.2509332001 -0.1768723577 0.5432537794 4286982934
-0.2510018349 -0.1763175577 0.5434024334 4286852118
-0.2514726818 -0.1760439575 0.5444217324 4286852118
-0.2515410781 -0.1754873395 0.5445697904 4286917911
-0.2520118654 -0.1752101630 0.5455890298 4286917911
-0.2520800233 -0.1746517569 0.5457366109 4286917913
-0.2521479726 -0.1740928888 0.5458837152 4286983706
-0.2522157729 -0.1735335737 0.5460305214 4286918170
-0.2526863813 -0.1732501239 0.5470493436 4286918170
-0.2531570196 -0.1729644388 0.5480682850 4286852631
-0.2532244921 -0.1724019945 0.5482143164 4286852631
-0.2532917559 -0.1718390882 0.5483599305 4286787351
-0.2533588409 -0.1712757349 0.5485051870 4286787351
-0.2538293004 -0.1709837765 0.5495236516 4286787097
-0.2538961172 -0.1704186350 0.5496683121 4286787097
-0.2539627552 -0.1698530465 0.5498125553 4286590488
-0.2544330657 -0.1695561409 0.5508307815 4286656281
-0.2544994354 -0.1689887643 0.5509744287 4286656279
-0.2545655966 -0.1684209406 0.5511177182 4286656279
-0.2550357580 -0.1681191176 0.5521355867 4286590740
-0.2555059493 -0.1678150296 0.5531535149 4286524947
-0.2555717826 -0.1672440916 0.5532960296 4286458900
-0.2560418844 -0.1669364125 0.5543137789 4286458900
-0.2561074495 -0.1663636714 0.5544556975 4286393110
-0.2565774918 -0.1660524160 0.5554733276 4286393110
-0.2570475340 -0.1657388955 0.5564909577 4286000153
-0.2575176060 -0.1654231399 0.5575086474 4286000153
-0.2579877079 -0.1651051193 0.5585263371 4285607711
-0.2584577799 -0.1647848487 0.5595440269 4285673504
-0.2589278817 -0.1644623131 0.5605617762 4285281317
-0.2598032951 -0.1643940061 0.5624569654 4285412903
-0.2602735162 -0.1640660465 0.5634749532 4284628276
-0.2607437372 -0.1637358516 0.5644929409 4285549378
-0.2616195381 -0.1636571139 0.5663890243 4287459694
-0.2620898783 -0.1633214802 0.5674072504 4288907140
-0.2629660070 -0.1632354856 0.5693039894 4288646028
-0.2634364069 -0.1628944129 0.5703224540 4289106579
-0.2643128335 -0.1628011465 0.5722197890 4288581262
-0.2651894391 -0.1627037972 0.5741176009 4288844434
-0.2652538121 -0.1621058434 0.5742570162 4288188044
-0.2657243013 -0.1617547870 0.5752755404 4288319630
-0.2661947906 -0.1614014804 0.5762941241 4288255380
-0.2662587464 -0.1608003974 0.5764325857 4288321173
-0.2667290866 -0.1604434550 0.5774508715 4288452248
-0.2667927146 -0.1598405838 0.5775886178 4288452248
-0.2668561637 -0.1592372805 0.5777259469 4288845466
-0.2669193745 -0.1586335599 0.5778627992 4288911259
-0.2669823766 -0.1580294073 0.5779992342 4288781726
-0.2670451701 -0.1574248224 0.5781351924 4288847519
-0.2671077847 -0.1568198055 0.5782706738 4288913312
-0.2663556039 -0.1557381153 0.5766422749 4289044898
-0.2573854029 -0.2103783935 0.5585639477 4288512900
-0.2574647963 -0.2098230571 0.5587362051 4288572777
-0.2571477890 -0.2089452595 0.5580483079 4288638570
-0.2568303943 -0.2080686688 0.5573594570 4289356898
-0.2569090426 -0.2075134963 0.5575301647 4288764761
-0.2565909624 -0.2066384554 0.5568398833 4288895059
-0.2566691637 -0.2060831338 0.5570095778 4288697680
-0.2563503683 -0.2052096426 0.5563178062 4288368966
-0.2560311854 -0.2043373734 0.5556251407 4288105794
-0.2557116151 -0.2034663111 0.5549315810 4288301884
-0.2553915977 -0.2025964707 0.5542371273 4288236091
-0.2546738982 -0.2014136314 0.5526795983 4288497205
-0.2547504306 -0.2008604556 0.5528456569 4288299826
-0.2544292212 -0.1999942958 0.5521485806 4288627248
-0.2541075945 -0.1991293579 0.5514506698 4288561455
-0.2537856102 -0.1982656717 0.5507518649 4288364076
-0.2534631789 -0.1974032074 0.5500521660 4288166697
-0.2531403601 -0.1965419948 0.5493516326 4288100904
-0.2524190247 -0.1953738481 0.5477861762 4288166697
-0.2524935305 -0.1948232800 0.5479478836 4288166951
-0.2517711520 -0.1936593950 0.5463802218 4288101158
-0.2518450916 -0.1931095868 0.5465406775 4287903779
-0.2519188821 -0.1925593019 0.5467008352 4287969572
-0.2511950731 -0.1914009154 0.5451300144 4287969572
-0.2512682974 -0.1908514053 0.5452889204 4287837986
-0.2521392405 -0.1909055561 0.5471789837 4287772193
-0.2510151565 -0.1894497722 0.5447395444 4287640607
-0.2510877550 -0.1888997108 0.5448970795 4287509021
-0.2507608533 -0.1880497187 0.5441877246 4287443228
-0.2508330047 -0.1874995679 0.5443443060 4287640089
-0.2505054474 -0.1866512597 0.5436334610 4287574296
-0.2505771518 -0.1861010492 0.5437890291 4287443226
-0.2502489090 -0.1852544248 0.5430766940 4287377433
-0.2503201365 -0.1847041547 0.5432312489 4287377433
-0.2503911853 -0.1841534078 0.5433855057 4287311640
-0.2504620850 -0.1836021841 0.5435392857 4287311640
-0.2509329915 -0.1833429188 0.5445612669 4287245847
-0.2506033182 -0.1824983507 0.5438458323 4287114774
-0.2502732575 -0.1816550940 0.5431295633 4287114774
-0.2503433526 -0.1811028868 0.5432816744 4287048727
-0.2504132390 -0.1805502325 0.5434333682 4287048727
-0.2504829764 -0.1799971014 0.5435847044 4287048727
-0.2505525351 -0.1794435233 0.5437356234 4287048727
-0.2506219149 -0.1788894683 0.5438861847 4286917909
-0.2502900362 -0.1780496240 0.5431659222 4286917909
-0.2507601678 -0.1777800024 0.5441861749 4286786327
-0.2508290112 -0.1772245765 0.5443356037 4286852120
-0.2508976758 -0.1766687036 0.5444846153 4286917911
-0.2509661615 -0.1761123687 0.5446332693 4286917911
-0.2514361441 -0.1758364588 0.5456531644 4286917911
-0.2515043914 -0.1752783209 0.5458012819 4286983704
-0.2519743145 -0.1749988347 0.5468211174 4286918170
-0.2520423234 -0.1744389087 0.5469686985 4286918170
-0.2521101236 -0.1738785207 0.5471158624 4286918170
-0.2521777749 -0.1733176708 0.5472626090 4286918170
-0.2526475191 -0.1730319113 0.5482820272 4286853144
-0.2527148724 -0.1724692732 0.5484282374 4286787351
-0.2527820766 -0.1719061881 0.5485740304 4286787097
-0.2532517016 -0.1716154814 0.5495932102 4286721304
-0.2533186376 -0.1710506082 0.5497384667 4286721304
-0.2537882030 -0.1707563251 0.5507575274 4286787097
-0.2538548708 -0.1701896489 0.5509021878 4286590746
-0.2543243766 -0.1698917598 0.5519210696 4286590746
-0.2543907762 -0.1693232954 0.5520651937 4286590999
-0.2544569671 -0.1687543839 0.5522088408 4286525206
-0.2549263537 -0.1684515774 0.5532274842 4286458900
-0.2553957403 -0.1681465060 0.5542461276 4286393107
-0.2554616034 -0.1675744653 0.5543889999 4286327316
-0.2559309304 -0.1672658026 0.5554075241 4286261523
-0.2564002573 -0.1669548899 0.5564260483 4286261783
-0.2568696439 -0.1666417271 0.5574446321 4286261783
-0.2569350004 -0.1660652012 0.5575865507 4285803292
-0.2570002079 -0.1654882282 0.5577279925 4285803292
-0.2578735948 -0.1654294133 0.5596233606 4285345570
-0.2583428919 -0.1651081443 0.5606418252 4285477156
-0.2588121891 -0.1647846103 0.5616602898 4285150763
-0.2596859932 -0.1647153944 0.5635566115 4285413935
-0.2601554096 -0.1643864363 0.5645753145 4285353029
-0.2606248558 -0.1640552133 0.5655940175 4286734682
-0.2614990771 -0.1639755666 0.5674911737 4287592309
-0.2619685829 -0.1636389196 0.5685101151 4288052860
-0.2624381185 -0.1633000076 0.5695290565 4287725184
-0.2633127272 -0.1632099152 0.5714271069 4288185735
-0.2637823522 -0.1628655642 0.5724462271 4287857539
-0.2646572292 -0.1627682000 0.5743448734 4287923332
-0.2651269436 -0.1624183953 0.5753642321 4287398271
-0.2651911378 -0.1618188918 0.5755035281 4287661443
-0.2652551234 -0.1612189561 0.5756424069 4287597452
-0.2653189003 -0.1606185734 0.5757808089 4287663245
-0.2653824985 -0.1600177735 0.5759187937 4287860113
-0.2658517361 -0.1596602947 0.5769371390 4287860113
-0.2659150064 -0.1590577066 0.5770744085 4288384145
-0.2655719519 -0.1582127661 0.5763300061 4288515731
-0.2656347156 -0.1576102376 0.5764661431 4288254867
-0.2656972408 -0.1570072919 0.5766018629 4288254867
-0.2657595575 -0.1564039141 0.5767371058 4288386453
-0.2662281096 -0.1560383439 0.5777539611 4288452246
-0.2666966617 -0.1556705087 0.5787707567 4288583832
-0.2667585313 -0.1550640166 0.5789050460 4288649625
-0.2668201923 -0.1544570923 0.5790388584 4288781213
-0.2660679817 -0.1533807069 0.5774064064 4288781213
-0.2669428885 -0.1532420069 0.5793051124 4288847519
-0.2670038939 -0.1526338309 0.5794374943 4288847519
-0.2666575909 -0.1517935097 0.5786859989 4288847519
-0.2667180896 -0.1511854380 0.5788172483 4288979105
-0.2565465868 -0.2095793337 0.5580872297 4289298818
-0.2562301755 -0.2087021172 0.5573989153 4287917165
-0.2563088834 -0.2081473023 0.5575701594 4288439650
-0.2559917867 -0.2072716206 0.5568802953 4288439650
-0.2560700476 -0.2067166567 0.5570505857 4288765528
-0.2557522655 -0.2058425248 0.5563592911 4288304977
-0.2558300793 -0.2052873969 0.5565285683 4288762958
-0.2555116117 -0.2044148296 0.5558357835 4288565579
-0.2551927269 -0.2035434842 0.5551420450 4288564289
-0.2548734546 -0.2026733607 0.5544474721 4288169531
-0.2549502552 -0.2021187991 0.5546146035 4288300857
-0.2546302974 -0.2012502700 0.5539185405 4288037685
-0.2543099225 -0.2003829479 0.5532215834 4288497202
-0.2531954348 -0.1988933831 0.5507971644 4288431409
-0.2532709837 -0.1983411461 0.5509614944 4288233518
-0.2529492676 -0.1974783987 0.5502616763 4288101932
-0.2526271939 -0.1966169029 0.5495610237 4288364077
-0.2523046732 -0.1957566440 0.5488594174 4288298284
-0.2519817650 -0.1948976368 0.5481569767 4288231976
-0.2516584694 -0.1940398812 0.5474537015 4288231976
-0.2521301210 -0.1937947124 0.5484797359 4288297256
-0.2518062592 -0.1929377168 0.5477752090 4288165670
-0.2518799007 -0.1923859119 0.5479353666 4288034597
-0.2515553236 -0.1915305704 0.5472293496 4287968804
-0.2516285181 -0.1909786612 0.5473885536 4287771939
-0.2509050369 -0.1898236722 0.5458146334 4287771939
-0.2505792677 -0.1889721304 0.5451059937 4287575071
-0.2506515980 -0.1884214133 0.5452633500 4287377692
-0.2507237792 -0.1878702193 0.5454203486 4287246358
-0.2503970563 -0.1870207489 0.5447096229 4287312151
-0.2500699162 -0.1861725599 0.5439980030 4287312151
-0.2501413524 -0.1856217086 0.5441533923 4287246358
-0.2502126098 -0.1850703806 0.5443083644 4287180567
-0.2502836883 -0.1845185757 0.5444630384 4287246360
-0.2503545880 -0.1839663088 0.5446172953 4287246108
-0.2504253387 -0.1834135652 0.5447711349 4287180315
-0.2500963807 -0.1825687289 0.5440555811 4287114522
-0.2501666546 -0.1820159256 0.5442084670 4287114522
-0.2502367795 -0.1814626753 0.5443609357 4286983702
-0.2503066957 -0.1809089631 0.5445131063 4286983702
-0.2503764629 -0.1803547740 0.5446648598 4286918163
-0.2500459850 -0.1795129031 0.5439459085 4286918163
-0.2501152754 -0.1789586842 0.5440966487 4286852370
-0.2501843870 -0.1784040034 0.5442469716 4286852370
-0.2506537437 -0.1781334132 0.5452679992 4286983702
-0.2507226169 -0.1775769293 0.5454178452 4286983702
-0.2507913113 -0.1770199835 0.5455672741 4286983702
-0.2508598268 -0.1764625758 0.5457163453 4286983702
-0.2513290048 -0.1761857122 0.5467369556 4287114774
-0.2513972819 -0.1756265014 0.5468854904 4287114774
-0.2518664300 -0.1753460616 0.5479061007 4286983704
-0.2519344389 -0.1747850478 0.5480540395 4286983704
-0.2520022690 -0.1742235720 0.5482016206 4286918424
-0.2520699203 -0.1736616641 0.5483487844 4286918424
-0.2525388896 -0.1733749211 0.5493689775 4286918170
-0.2526062727 -0.1728112102 0.5495155454 4286918170
-0.2526735067 -0.1722470373 0.5496617556 4286852377
-0.2531423271 -0.1719553769 0.5506816506 4286852377
-0.2532092929 -0.1713894010 0.5508273244 4286917658
-0.2536780834 -0.1710941344 0.5518471003 4286917658
-0.2541468740 -0.1707966328 0.5528669357 4286656279
-0.2538112402 -0.1699581742 0.5521368384 4286458900
-0.2542799115 -0.1696579605 0.5531563163 4286524695
-0.2547485828 -0.1693555117 0.5541758537 4286656281
-0.2552172542 -0.1690507978 0.5551954508 4286721304
-0.2552833259 -0.1684781015 0.5553391576 4286655511
-0.2557519376 -0.1681697965 0.5563585758 4286393110
-0.2562205791 -0.1678592414 0.5573780537 4286129938
-0.2566892505 -0.1675464362 0.5583975315 4285605141
-0.2571579218 -0.1672313660 0.5594170690 4285736727
-0.2572234273 -0.1666528285 0.5595595837 4284950812
-0.2572887242 -0.1660738587 0.5597016811 4285082398
-0.2577572465 -0.1657538414 0.5607208610 4284888105
-0.2586292326 -0.1656900495 0.5626177788 4284888105
-0.2586942613 -0.1651070267 0.5627592206 4284955440
-0.2595664561 -0.1650369018 0.5646566153 4285942335
-0.2600350678 -0.1647069305 0.5656760335 4286538340
-0.2605037093 -0.1643747091 0.5666955113 4287327856
-0.2609723508 -0.1640402228 0.5677149296 4287526518
-0.2618450522 -0.1639564931 0.5696133971 4287526518
-0.2623137832 -0.1636165529 0.5706330538 4287396474
-0.2627825141 -0.1632743627 0.5716527104 4287396474
-0.2632512152 -0.1629299074 0.5726723671 4287200122
-0.2641244233 -0.1628325284 0.5745719075 4287134329
-0.2641886473 -0.1622341722 0.5747116208 4287266430
-0.2646573186 -0.1618829072 0.5757312179 4287266430
-0.2643164694 -0.1610361487 0.5749896765 4287398529
-0.2643800676 -0.1604364961 0.5751280785 4287530115
-0.2644434869 -0.1598363966 0.5752660036 4287530628
-0.2645066679 -0.1592358649 0.5754034519 4287596421
-0.2645696700 -0.1586349159 0.5755404830 4287531398
-0.2646324337 -0.1580335349 0.5756770372 4287531398
-0.2642896473 -0.1571906209 0.5749313831 4287596937
-0.2643519342 -0.1565893143 0.5750668049 4287662730
-0.2644139826 -0.1559875757 0.5752018094 4287794316
-0.2644758224 -0.1553854048 0.5753363371 4287925902
-0.2649431825 -0.1550202221 0.5763530731 4288123281
-0.2654105425 -0.1546527594 0.5773696899 4288189074
-0.2654719353 -0.1540474892 0.5775032640 4288058001
-0.2655331194 -0.1534417868 0.5776363611 4288123794
-0.2655940950 -0.1528356820 0.5777690411 4288255380
-0.2652486563 -0.1519963741 0.5770175457 4288386966
-0.2653090954 -0.1513903588 0.5771490335 4288452761
-0.2653693557 -0.1507839262 0.5772801042 4288584347
-0.2654293776 -0.1501770914 0.5774106979 4288650140
-0.2650825977 -0.1493407786 0.5766563416 4288781726
-0.2643287778 -0.1482778043 0.5750164986 4288716447
-0.2652013898 -0.1481269002 0.5769147873 4288848033
-0.2652604580 -0.1475193501 0.5770432353 4288848033
-0.2653779685 -0.1463030428 0.5772988200 4288913828
-0.2553135753 -0.2084586173 0.5567485690 4289235596
-0.2553920746 -0.2079045027 0.5569197536 4288836208
-0.2554703951 -0.2073498815 0.5570905805 4287980899
-0.2551535964 -0.2064751238 0.5563997626 4288832348
-0.2552314997 -0.2059203386 0.5565695763 4288569176
-0.2553092241 -0.2053650469 0.5567390919 4289027155
-0.2549914420 -0.2044921964 0.5560461283 4288698190
-0.2550687194 -0.2039367557 0.5562146306 4288565575
-0.2547502518 -0.2030654848 0.5555202365 4288236610
-0.2544313967 -0.2021954358 0.5548248887 4288302657
-0.2545079589 -0.2016402185 0.5549918413 4288039485
-0.2537924647 -0.2004590183 0.5534316301 4288366900
-0.2534724176 -0.1995926648 0.5527336597 4288301107
-0.2531519532 -0.1987275332 0.5520348549 4288300083
-0.2528310716 -0.1978636384 0.5513351560 4288168497
-0.2529062033 -0.1973102540 0.5514989495 4288233518
-0.2525846660 -0.1964479685 0.5507977605 4288167725
-0.2522626817 -0.1955869347 0.5500956774 4288232490
-0.2519403398 -0.1947271526 0.5493927598 4288166697
-0.2520144582 -0.1941744089 0.5495543480 4288297769
-0.2516914010 -0.1933162659 0.5488499403 4288231976
-0.2513679564 -0.1924593747 0.5481446385 4287969318
-0.2514413595 -0.1919069290 0.5483046174 4287837732
-0.2503225505 -0.1904470921 0.5458649397 4287706659
-0.2503952384 -0.1898962855 0.5460234880 4287706659
-0.2500702143 -0.1890444607 0.5453146696 4287575071
-0.2501424551 -0.1884935796 0.5454722047 4287443485
-0.2502145171 -0.1879422218 0.5456293821 4287312153
-0.2502864301 -0.1873903871 0.5457862020 4287312153
-0.2499601394 -0.1865410358 0.5450746417 4287312153
-0.2496334463 -0.1856929660 0.5443622470 4287246360
-0.2497046143 -0.1851414591 0.5445174575 4287246358
-0.2497756183 -0.1845894903 0.5446722507 4287246358
-0.2498464286 -0.1840370446 0.5448266864 4287246360
-0.2499170899 -0.1834841371 0.5449807644 4287180567
-0.2499875575 -0.1829307675 0.5451344252 4286983702
-0.2496590465 -0.1820860356 0.5444180965 4286983702
-0.2497290671 -0.1815326065 0.5445707440 4286983956
-0.2497989088 -0.1809787154 0.5447230339 4286983956
-0.2498685718 -0.1804243624 0.5448749661 4286917909
-0.2499380708 -0.1798695326 0.5450265408 4286917909
-0.2500073910 -0.1793142557 0.5451776981 4286917909
-0.2500765324 -0.1787585020 0.5453284383 4286917909
-0.2501454949 -0.1782023013 0.5454788208 4286852629
-0.2502142787 -0.1776456237 0.5456288457 4286852629
-0.2502828836 -0.1770884991 0.5457784534 4286983702
-0.2507512569 -0.1768129170 0.5467997789 4286983702
-0.2508196235 -0.1762539893 0.5469488502 4286983704
-0.2512879372 -0.1759748161 0.5479701161 4286983704
-0.2513560653 -0.1754140854 0.5481186509 4286983704
-0.2518243492 -0.1751313210 0.5491397977 4286983704
-0.2518922091 -0.1745687723 0.5492877960 4286852631
-0.2519598603 -0.1740057766 0.5494353771 4286852631
-0.2520273626 -0.1734423339 0.5495825410 4286852377
-0.2524954677 -0.1731532812 0.5506032705 4286852377
-0.2525627017 -0.1725880355 0.5507498980 4286852377
-0.2530307472 -0.1722953767 0.5517705679 4286852377
-0.2530977130 -0.1717283279 0.5519165993 4286786584
-0.2531645000 -0.1711608320 0.5520622134 4286720791
-0.2536324263 -0.1708632410 0.5530825853 4286656279
-0.2536989450 -0.1702939421 0.5532276630 4286590486
-0.2541667819 -0.1699927598 0.5542478561 4286458902
-0.2550362945 -0.1699569672 0.5561439395 4286458902
-0.2542991042 -0.1688501239 0.5545364022 4286393109
-0.2551686466 -0.1688098311 0.5564325452 4286393109
-0.2556364834 -0.1685005277 0.5574527383 4286065172
-0.2561043203 -0.1681889743 0.5584729314 4285933586
-0.2565721869 -0.1678751707 0.5594931841 4285540631
-0.2570400834 -0.1675591171 0.5605134368 4285409045
-0.2575079501 -0.1672407985 0.5615337491 4284688669
-0.2579758465 -0.1669202149 0.5625540614 4285083427
-0.2588463128 -0.1668568701 0.5644522905 4284823084
-0.2585090101 -0.1660136878 0.5637167096 4285020463
-0.2597823739 -0.1662026048 0.5664934516 4285614401
-0.2602503896 -0.1658720672 0.5675140619 4286930261
-0.2607184350 -0.1655392796 0.5685346723 4286738031
-0.2607834041 -0.1649492681 0.5686763525 4287066996
-0.2612513304 -0.1646128595 0.5696967244 4287066996
-0.2617192566 -0.1642741710 0.5707170963 4287001203
-0.2621871829 -0.1639332324 0.5717375278 4287001716
-0.2626551092 -0.1635900140 0.5727578998 4287133302
-0.2635265887 -0.1634949148 0.5746582747 4287264888
-0.2631872892 -0.1626473218 0.5739184022 4287067509
-0.2636550963 -0.1622982174 0.5749384761 4287002231
-0.2633151710 -0.1614515930 0.5741972923 4287068024
-0.2633788288 -0.1608530879 0.5743360519 4287002744
-0.2634422481 -0.1602541357 0.5744743347 4287068537
-0.2635054886 -0.1596547514 0.5746122599 4287069051
-0.2635684907 -0.1590549350 0.5747496486 4287200637
-0.2632269561 -0.1582116634 0.5740048885 4287266430
-0.2632894814 -0.1576119065 0.5741412044 4287332223
-0.2629472315 -0.1567705572 0.5733949542 4287332225
-0.2630092502 -0.1561708748 0.5735301375 4287398018
-0.2630710304 -0.1555707604 0.5736648440 4287463811
-0.2631326020 -0.1549702436 0.5737991333 4287529604
-0.2635988891 -0.1546067894 0.5748159289 4287661703
-0.2636601329 -0.1540044993 0.5749495029 4287727496
-0.2637211978 -0.1534017771 0.5750826001 4287531144
-0.2637820244 -0.1527986526 0.5752152801 4287662730
-0.2638426423 -0.1521951109 0.5753474832 4287729036
-0.2639030516 -0.1515911520 0.5754792094 4287794829
-0.2639632523 -0.1509867758 0.5756104589 4287860622
-0.2636176646 -0.1501509845 0.5748568773 4287992208
-0.2636773288 -0.1495467126 0.5749869943 4288124310
-0.2637367845 -0.1489420384 0.5751166344 4288255896
-0.2637960315 -0.1483369470 0.5752458572 4288190616
-0.2634491324 -0.1475041807 0.5744894147 4288322202
-0.2639138997 -0.1471255571 0.5755028725 4288453275
-0.2639724910 -0.1465192437 0.5756306648 4288519068
-0.2640308738 -0.1459125429 0.5757579803 4288453277
-0.2640890479 -0.1453054249 0.5758848190 4288584863
-0.2641470134 -0.1446979195 0.5760111809 4288782755
-0.2540823519 -0.2073399127 0.5554073453 4289760396
-0.2541603446 -0.2067868412 0.5555778146 4288049778
-0.2542381585 -0.2062332630 0.5557479858 4288702820
-0.2543158233 -0.2056791633 0.5559177399 4288439648
-0.2543933392 -0.2051245719 0.5560871959 4289094490
-0.2544706762 -0.2045694739 0.5562562346 4288765525
-0.2541532218 -0.2036975622 0.5555622578 4288501581
-0.2542301118 -0.2031423151 0.5557304025 4288106823
-0.2543068528 -0.2025865614 0.5558981299 4288041030
-0.2539884150 -0.2017165869 0.5552020669 4287777858
-0.2540647089 -0.2011606842 0.5553687811 4288367675
-0.2533503473 -0.1999803334 0.5538072586 4288301882
-0.2530307174 -0.1991140544 0.5531085134 4288235575
-0.2527106702 -0.1982490122 0.5524089336 4288103989
-0.2527858019 -0.1976945847 0.5525732636 4288299826
-0.2524650991 -0.1968311667 0.5518721342 4288168240
-0.2521439791 -0.1959689707 0.5511701703 4288101932
-0.2518224418 -0.1951080412 0.5504673719 4288036139
-0.2515005171 -0.1942483634 0.5497636199 4288101417
-0.2511781752 -0.1933899224 0.5490590334 4288035624
-0.2512517571 -0.1928369105 0.5492199063 4287904038
-0.2509287596 -0.1919801235 0.5485138297 4287772452
-0.2506053448 -0.1911246032 0.5478068590 4287772450
-0.2502815425 -0.1902703494 0.5470990539 4287706657
-0.2503540814 -0.1897180229 0.5472576022 4287444253
-0.2500295937 -0.1888654381 0.5465483069 4287378460
-0.2501016855 -0.1883130372 0.5467059016 4287377692
-0.2501736283 -0.1877601445 0.5468631387 4287377692
-0.2498481572 -0.1869096309 0.5461516976 4287312153
-0.2503169477 -0.1866529584 0.5471764803 4287312153
-0.2495934963 -0.1855078489 0.5455950499 4287312151
-0.2496645004 -0.1849548221 0.5457502604 4287246358
-0.2497353554 -0.1844013333 0.5459051132 4287246358
-0.2498060316 -0.1838473678 0.5460596085 4287180565
-0.2498765290 -0.1832929403 0.5462136865 4287115542
-0.2499468476 -0.1827380359 0.5463674664 4287049749
-0.2496188879 -0.1818925589 0.5456505418 4286983956
-0.2496887594 -0.1813376099 0.5458032489 4286983956
-0.2497584522 -0.1807821840 0.5459555984 4286983702
-0.2498279661 -0.1802262962 0.5461075902 4286917909
-0.2498973012 -0.1796699464 0.5462591648 4286917911
-0.2499664724 -0.1791131347 0.5464103222 4286983704
-0.2500354648 -0.1785558760 0.5465611219 4286983702
-0.2501042783 -0.1779981405 0.5467115641 4286983702
-0.2501729131 -0.1774399430 0.5468615890 4286918424
-0.2502413690 -0.1768812835 0.5470111966 4286918424
-0.2507088482 -0.1766033918 0.5480331182 4286918424
-0.2507770658 -0.1760429293 0.5481822491 4286918424
-0.2512445152 -0.1757614464 0.5492040515 4286918424
-0.2513124645 -0.1751991808 0.5493525863 4286918424
-0.2513802350 -0.1746364534 0.5495007634 4286918424
-0.2518475950 -0.1743500233 0.5505223274 4286918424
-0.2519151270 -0.1737855077 0.5506699085 4286918170
-0.2519824505 -0.1732205302 0.5508171320 4286918170
-0.2520495951 -0.1726550907 0.5509638786 4286918170
-0.2525167465 -0.1723623574 0.5519850850 4286852377
-0.2529839277 -0.1720673889 0.5530062914 4286655511
-0.2530507445 -0.1714988053 0.5531523228 4286589718
-0.2531173527 -0.1709297746 0.5532979369 4286459415
-0.2535843849 -0.1706298441 0.5543188453 4286393622
-0.2536507547 -0.1700590104 0.5544639230 4286327574
-0.2541177273 -0.1697554886 0.5554847121 4286195988
-0.2541837990 -0.1691828668 0.5556291342 4286065174
-0.2546507120 -0.1688757390 0.5566498041 4286065174
-0.2551176548 -0.1685663462 0.5576704741 4285737495
-0.2555845976 -0.1682547033 0.5586912036 4285671702
-0.2564529181 -0.1682040393 0.5605892539 4285082139
-0.2569199800 -0.1678869873 0.5616102815 4285016346
-0.2573870718 -0.1675676703 0.5626313090 4284558626
-0.2578541934 -0.1672460884 0.5636523366 4284690212
-0.2583212852 -0.1669222564 0.5646734238 4284561458
-0.2587884068 -0.1665961444 0.5656945109 4285745732
-0.2596574724 -0.1665255576 0.5675942302 4286799964
-0.2605267465 -0.1664508879 0.5694944263 4287457894
-0.2601898015 -0.1656042635 0.5687578321 4286673778
-0.2606569231 -0.1652691066 0.5697789788 4286739571
-0.2611240745 -0.1649316847 0.5708001256 4286739058
-0.2611887455 -0.1643387675 0.5709415078 4286673265
-0.2616557777 -0.1639977247 0.5719624162 4286869617
-0.2621228099 -0.1636544019 0.5729833245 4287001203
-0.2625898421 -0.1633088142 0.5740041733 4287132790
-0.2626540065 -0.1627113968 0.5741444826 4286935411
-0.2627179921 -0.1621135473 0.5742843151 4287001204
-0.2623787224 -0.1612675339 0.5735426545 4287001204
-0.2624421716 -0.1606697291 0.5736814141 4286935668
-0.2625054419 -0.1600714922 0.5738196969 4287001461
-0.2625684738 -0.1594728231 0.5739575028 4287133047
-0.2622278929 -0.1586296856 0.5732129812 4287198840
-0.2618869245 -0.1577879488 0.5724676251 4287068024
-0.2619491518 -0.1571898311 0.5726037025 4287133817
-0.2620112002 -0.1565912962 0.5727393031 4287396221
-0.2620730102 -0.1559923291 0.5728744268 4287462014
-0.2621346414 -0.1553929448 0.5730091333 4287331198
-0.2621960342 -0.1547931284 0.5731433630 4287331198
-0.2626613379 -0.1544304937 0.5741604567 4287331455
-0.2623182237 -0.1535922438 0.5734104514 4287397248
-0.2623790205 -0.1529911757 0.5735433102 4287266945
-0.2624395788 -0.1523896903 0.5736757517 4287398531
-0.2624999285 -0.1517877877 0.5738076568 4287267972
-0.2625600994 -0.1511854827 0.5739391446 4287399558
-0.2626200318 -0.1505827457 0.5740701556 4287334278
-0.2626797557 -0.1499796063 0.5742007494 4287465864
-0.2627392709 -0.1493760496 0.5743308067 4287597966
-0.2627985477 -0.1487720907 0.5744604468 4287729552
-0.2624526322 -0.1479394138 0.5737042427 4287730065
-0.2625114024 -0.1473355740 0.5738327503 4287795858
-0.2625699639 -0.1467313170 0.5739607215 4287861651
-0.2630335987 -0.1463521719 0.5749742389 4287861651
-0.2630918324 -0.1457461715 0.5751014948 4287927444
-0.2631498277 -0.1451397836 0.5752283335 4288059030
-0.2632076442 -0.1445329934 0.5753546357 4288322204
-0.2632651925 -0.1439258009 0.5754805207 4288585376
-0.2633225620 -0.1433182061 0.5756058693 4288716962
-0.2532461286 -0.2065439373 0.5549252033 4289499027
-0.2533237636 -0.2059910446 0.5550952554 4289363322
-0.2534011900 -0.2054376602 0.5552650094 4288771185
-0.2534784973 -0.2048837692 0.5554343462 4289228133
-0.2535555959 -0.2043293566 0.5556033254 4288899168
-0.2536325753 -0.2037744522 0.5557720065 4288832088
-0.2537093759 -0.2032190412 0.5559402704 4288239951
-0.2537859976 -0.2026631087 0.5561081767 4288173388
-0.2538624704 -0.2021066993 0.5562757850 4287844423
-0.2535444796 -0.2012367994 0.5555789471 4288434240
-0.2532260716 -0.2003681362 0.5548812151 4288302654
-0.2533017993 -0.1998119503 0.5550472140 4288105018
-0.2525880337 -0.1986345202 0.5534831285 4287973432
-0.2526632249 -0.1980790645 0.5536478758 4288169269
-0.2523433268 -0.1972144842 0.5529469252 4288103476
-0.2520230412 -0.1963511556 0.5522450805 4288102447
-0.2517023385 -0.1954890639 0.5515423417 4287970861
-0.2513812482 -0.1946282238 0.5508387685 4287904808
-0.2514551282 -0.1940737814 0.5510006547 4287839015
-0.2511333227 -0.1932145804 0.5502955317 4287707427
-0.2512067556 -0.1926600486 0.5504564047 4287641634
-0.2508842945 -0.1918024868 0.5497498512 4287641632
-0.2509572804 -0.1912478507 0.5499097109 4287575839
-0.2506341338 -0.1903919578 0.5492016077 4287510046
-0.2507066429 -0.1898372322 0.5493605137 4287378460
-0.2503828108 -0.1889830083 0.5486509800 4287443485
-0.2500585914 -0.1881300509 0.5479404926 4287377692
-0.2501303554 -0.1875756383 0.5480977893 4287377692
-0.2505984902 -0.1873171479 0.5491235852 4287377692
-0.2498767823 -0.1861698776 0.5475420952 4287312153
-0.2495511919 -0.1853203028 0.5468286872 4287246360
-0.2492251992 -0.1844720095 0.5461143255 4287246360
-0.2492957860 -0.1839178652 0.5462689996 4287246360
-0.2493661940 -0.1833632588 0.5464233160 4287246360
-0.2494364381 -0.1828081906 0.5465772152 4287180567
-0.2495065033 -0.1822526306 0.5467306972 4286983702
-0.2495763898 -0.1816966236 0.5468838811 4287049495
-0.2496460974 -0.1811401397 0.5470366478 4287049497
-0.2497156411 -0.1805831939 0.5471889973 4286983704
-0.2497850060 -0.1800257862 0.5473409891 4286917911
-0.2498541921 -0.1794679165 0.5474926233 4286983704
-0.2499231994 -0.1789095700 0.5476438403 4286983704
-0.2499920279 -0.1783507764 0.5477946401 4286983704
-0.2504588664 -0.1780746132 0.5488176346 4286918424
-0.2505274713 -0.1775140017 0.5489678979 4286918424
-0.2505958676 -0.1769529283 0.5491178036 4286787351
-0.2506640851 -0.1763914078 0.5492672920 4286787351
-0.2511307597 -0.1761089563 0.5502899289 4286787351
-0.2511987388 -0.1755456030 0.5504388809 4286787351
-0.2512665391 -0.1749818027 0.5505874157 4286918424
-0.2513341606 -0.1744175553 0.5507355928 4286918424
-0.2518006265 -0.1741288006 0.5517577529 4286984217
-0.2518679798 -0.1735627502 0.5519053340 4286918424
-0.2519351542 -0.1729962230 0.5520524979 4286787097
-0.2524015009 -0.1727025211 0.5530744195 4286655511
-0.2524684072 -0.1721342057 0.5532210469 4286458902
-0.2529347241 -0.1718368977 0.5542428493 4286393109
-0.2530013621 -0.1712667793 0.5543888211 4285999892
-0.2534676194 -0.1709658802 0.5554105043 4285999892
-0.2535339892 -0.1703939587 0.5555559397 4285933845
-0.2540001869 -0.1700894386 0.5565775037 4285868052
-0.2540662885 -0.1695157140 0.5567223430 4285671702
-0.2545323968 -0.1692076027 0.5577437282 4285737495
-0.2549985349 -0.1688972265 0.5587651134 4285410587
-0.2554646730 -0.1685846001 0.5597866178 4285344794
-0.2559308410 -0.1682697088 0.5608080626 4284623389
-0.2563970387 -0.1679525524 0.5618296266 4284689182
-0.2568632364 -0.1676331460 0.5628511310 4284363051
-0.2573294342 -0.1673114747 0.5638726950 4284757809
-0.2577956319 -0.1669875383 0.5648943186 4285155141
-0.2582618594 -0.1666613519 0.5659158826 4286602587
-0.2591292262 -0.1665907651 0.5678164959 4287262317
-0.2595955431 -0.1662591249 0.5688383579 4287196524
-0.2600618899 -0.1659252346 0.5698602200 4286410094
-0.2605282068 -0.1655890644 0.5708820224 4286607473
-0.2605930269 -0.1649963856 0.5710240602 4286869875
-0.2610592544 -0.1646565944 0.5720456839 4286869875
-0.2611237466 -0.1640621275 0.5721870065 4286935411
-0.2615898848 -0.1637187004 0.5732084513 4286935411
-0.2616540790 -0.1631224453 0.5733491182 4287001204
-0.2621200979 -0.1627753973 0.5743702650 4286869618
-0.2617818713 -0.1619286090 0.5736291409 4287001204
-0.2614432573 -0.1610832065 0.5728871226 4287066997
-0.2611042261 -0.1602392197 0.5721442103 4287001461
-0.2611671984 -0.1596426070 0.5722821951 4287067254
-0.2612299621 -0.1590455770 0.5724197626 4287133047
-0.2612925470 -0.1584481150 0.5725569129 4287198840
-0.2617576122 -0.1580934376 0.5735759735 4287198840
-0.2614170909 -0.1572518945 0.5728297830 4287198840
-0.2610761523 -0.1564117819 0.5720826983 4287265405
-0.2607347965 -0.1555730700 0.5713347197 4287265405
-0.2607961595 -0.1549753249 0.5714691877 4287199612
-0.2608573139 -0.1543771476 0.5716031790 4287199612
-0.2609182298 -0.1537785679 0.5717366934 4287134076
-0.2613823414 -0.1534163058 0.5727536082 4287199869
-0.2610394955 -0.1525801271 0.5720023513 4287134846
-0.2610997856 -0.1519802809 0.5721344948 4287200639
-0.2611598969 -0.1513800323 0.5722662210 4287135616
-0.2612197697 -0.1507793516 0.5723974109 4287201409
-0.2612794638 -0.1501782686 0.5725281835 4287136386
-0.2613389194 -0.1495767832 0.5726584792 4287202179
-0.2613981664 -0.1489748806 0.5727883577 4287334278
-0.2614572048 -0.1483725607 0.5729176998 4287400071
-0.2615160346 -0.1477698386 0.5730466247 4287465864
-0.2615746558 -0.1471667141 0.5731750727 4287531657
-0.2616330683 -0.1465631723 0.5733030438 4287335307
-0.2616912425 -0.1459592432 0.5734305382 4287466893
-0.2617492378 -0.1453549117 0.5735575557 4287532686
-0.2618069947 -0.1447501630 0.5736841559 4287598479
-0.2618645132 -0.1441450268 0.5738102198 4287993239
-0.2619218528 -0.1435394883 0.5739358664 4288256411
-0.2619789541 -0.1429335624 0.5740609765 4288387997
-0.2620358467 -0.1423272192 0.5741856694 4288585376
-0.2620925307 -0.1417205036 0.5743098259 4288716708
-0.2524103820 -0.2057484984 0.5544416904 4290418839
-0.2524875998 -0.2051958144 0.5546113253 4289168772
-0.2529574633 -0.2049608678 0.5556433797 4288836976
-0.2530344725 -0.2044063061 0.5558125973 4288442218
-0.2531113327 -0.2038512379 0.5559813976 4288833890
-0.2531880438 -0.2032956630 0.5561499000 4288307546
-0.2532645762 -0.2027395815 0.5563179851 4288240209
-0.2533409595 -0.2021829933 0.5564857721 4288042830
-0.2530236542 -0.2013128102 0.5557888150 4288435270
-0.2530995905 -0.2007560879 0.5559555888 4288237891
-0.2527815998 -0.1998875141 0.5552570820 4288040254
-0.2524632215 -0.1990201771 0.5545577407 4287842875
-0.2521444261 -0.1981540620 0.5538575053 4287972919
-0.2522193491 -0.1975979507 0.5540220737 4287907126
-0.2518998981 -0.1967334598 0.5533203483 4287971890
-0.2515800297 -0.1958702207 0.5526177287 4287840304
-0.2512597442 -0.1950082332 0.5519142151 4287905066
-0.2513336539 -0.1944527477 0.5520765781 4287773480
-0.2510127127 -0.1935923994 0.5513715744 4287773220
-0.2510861456 -0.1930368096 0.5515329242 4287707427
-0.2507645190 -0.1921781003 0.5508264303 4287641632
-0.2508375049 -0.1916224211 0.5509867668 4287575839
-0.2505151927 -0.1907653660 0.5502787828 4287444766
-0.2505877316 -0.1902095973 0.5504381061 4287313180
-0.2506601214 -0.1896533370 0.5505970716 4287509532
-0.2499413490 -0.1885000914 0.5490182638 4287443739
-0.2500131428 -0.1879446208 0.5491759777 4287377692
-0.2496890724 -0.1870921850 0.5484641194 4287377692
-0.2497604191 -0.1865366548 0.5486208200 4287377694
-0.2494356632 -0.1856859028 0.5479074717 4287311901
-0.2495065629 -0.1851302981 0.5480631590 4287246108
-0.2491811216 -0.1842812598 0.5473483205 4287246108
-0.2492515445 -0.1837255955 0.5475030541 4287115292
-0.2493218035 -0.1831694543 0.5476573706 4287049499
-0.2493918985 -0.1826128513 0.5478113294 4287049499
-0.2494617999 -0.1820557714 0.5479648709 4287049499
-0.2495315373 -0.1814982295 0.5481180549 4287049497
-0.2496010959 -0.1809402257 0.5482708216 4286983704
-0.2496704906 -0.1803817600 0.5484232903 4286983702
-0.2497396916 -0.1798228174 0.5485752821 4286917909
-0.2498087287 -0.1792634130 0.5487269163 4286983704
-0.2498775870 -0.1787035465 0.5488781929 4286983704
-0.2503436208 -0.1784264296 0.5499019027 4286918424
-0.2504122257 -0.1778647453 0.5500525832 4286918424
-0.2508782446 -0.1775840372 0.5510762334 4286787351
-0.2509466112 -0.1770205349 0.5512263775 4286787351
-0.2514126003 -0.1767362207 0.5522499681 4286787351
-0.2510827780 -0.1758921593 0.5515255332 4286787351
-0.2511506081 -0.1753272861 0.5516744852 4286655765
-0.2512182295 -0.1747619510 0.5518230200 4286721558
-0.2516839206 -0.1744722277 0.5528459549 4286721304
-0.2517513037 -0.1739050895 0.5529939532 4286721304
-0.2518184781 -0.1733374894 0.5531415343 4286458902
-0.2522840500 -0.1730428189 0.5541641712 4286393109
-0.2523509860 -0.1724734157 0.5543112159 4286196243
-0.2528164983 -0.1721751243 0.5553337336 4286130450
-0.2528831363 -0.1716039181 0.5554801822 4285868567
-0.2533485889 -0.1713020355 0.5565025806 4285802774
-0.2538140714 -0.1709978878 0.5575250387 4285605909
-0.2538803816 -0.1704235226 0.5576706529 4285540116
-0.2539465129 -0.1698487103 0.5578159094 4285212693
-0.2544118166 -0.1695396006 0.5588380098 4285278486
-0.2548771501 -0.1692282259 0.5598601699 4284951580
-0.2553425133 -0.1689146012 0.5608823895 4284951580
-0.2558078766 -0.1685987115 0.5619046092 4284624933
-0.2562732697 -0.1682805717 0.5629268885 4284559140
-0.2567386627 -0.1679601669 0.5639491677 4284825143
-0.2572040558 -0.1676374972 0.5649714470 4286009417
-0.2576694787 -0.1673125625 0.5659937859 4286340443
-0.2581349015 -0.1669853628 0.5670161247 4286800994
-0.2586003244 -0.1666558832 0.5680384636 4286999661
-0.2590657473 -0.1663241535 0.5690608025 4287065454
-0.2595311999 -0.1659901589 0.5700832009 4286474860
-0.2599966228 -0.1656538844 0.5711055398 4286738032
-0.2600613534 -0.1650610119 0.5712476969 4286803825
-0.2605266869 -0.1647211164 0.5722698569 4286869618
-0.2601901889 -0.1638739407 0.5715307593 4286869618
-0.2606553435 -0.1635313332 0.5725524426 4286869618
-0.2607193589 -0.1629357934 0.5726930499 4286804852
-0.2607831657 -0.1623398066 0.5728332400 4286804852
-0.2608467937 -0.1617433876 0.5729729533 4286739572
-0.2605087757 -0.1608985960 0.5722305775 4286739572
-0.2601704001 -0.1600552350 0.5714872479 4286805365
-0.2602332234 -0.1594593376 0.5716252327 4286871158
-0.2602958083 -0.1588630229 0.5717627406 4286871158
-0.2603582144 -0.1582662761 0.5718998313 4286871158
-0.2600185275 -0.1574257761 0.5711536407 4287002231
-0.2596784532 -0.1565867066 0.5704066157 4287002231
-0.2597400248 -0.1559905112 0.5705419183 4286937467
-0.2598014176 -0.1553938985 0.5706767440 4286871674
-0.2598626018 -0.1547968686 0.5708111525 4286806394
-0.2599235773 -0.1541994214 0.5709450841 4286872187
-0.2599843442 -0.1536015570 0.5710785389 4286872187
-0.2600449026 -0.1530032605 0.5712115765 4286937980
-0.2597025931 -0.1521686316 0.5704597235 4286937980
-0.2597626448 -0.1515704393 0.5705915689 4286937980
-0.2598224878 -0.1509718150 0.5707230568 4287069566
-0.2598821223 -0.1503728032 0.5708540082 4287003773
-0.2599415481 -0.1497733593 0.5709845424 4287135359
-0.2600007355 -0.1491735131 0.5711145997 4287201152
-0.2600597441 -0.1485732645 0.5712441802 4287201152
-0.2601185143 -0.1479725987 0.5713732839 4287266945
-0.2601771057 -0.1473715305 0.5715019703 4287332738
-0.2602354586 -0.1467700452 0.5716301799 4287332738
-0.2602936029 -0.1461681724 0.5717579126 4287071622
-0.2603515387 -0.1455658823 0.5718851686 4287334794
-0.2604092658 -0.1449632049 0.5720119476 4287400587
-0.2604667842 -0.1443601251 0.5721383095 4287400587
-0.2605240643 -0.1437566429 0.5722641349 4287729552
-0.2605811656 -0.1431527585 0.5723894835 4287992724
-0.2606380284 -0.1425484717 0.5725144148 4288124825
-0.2606946528 -0.1419438124 0.5726388693 4288387997
-0.2607510984 -0.1413387358 0.5727627873 4288585122
-0.2604029477 -0.1405150890 0.5719980597 4288716708
-0.2520438433 -0.2047194988 0.5549890399 4289563530
-0.2525127530 -0.2044831514 0.5560215116 4288708221
-0.2525895238 -0.2039279193 0.5561905503 4288967792
-0.2526661158 -0.2033721805 0.5563592315 4288309862
-0.2527425587 -0.2028159350 0.5565275550 4288373853
-0.2528188229 -0.2022591829 0.5566954613 4288110681
-0.2525022328 -0.2013887316 0.5559983850 4288370508
-0.2525780797 -0.2008318454 0.5561653376 4288173129
-0.2526537180 -0.2002744526 0.5563319325 4288041028
-0.2523361742 -0.1994059533 0.5556327105 4287712063
-0.2520182431 -0.1985387057 0.5549325943 4287842106
-0.2516998649 -0.1976726800 0.5542315841 4287710520
-0.2517745197 -0.1971159130 0.5543959737 4287906356
-0.2514554858 -0.1962515116 0.5536934733 4287840563
-0.2515296936 -0.1956946105 0.5538568497 4287971118
-0.2512099743 -0.1948318481 0.5531528592 4287773739
-0.2508898675 -0.1939703375 0.5524479747 4287707686
-0.2509633303 -0.1934137195 0.5526097417 4287707686
-0.2506425381 -0.1925538480 0.5519033670 4287576354
-0.2507155538 -0.1919971257 0.5520641208 4287510561
-0.2503940761 -0.1911389083 0.5513562560 4287378973
-0.2504666150 -0.1905820817 0.5515160561 4287247387
-0.2501444519 -0.1897255331 0.5508066416 4287378460
-0.2498219013 -0.1888702512 0.5500963926 4287312667
-0.2498937249 -0.1883137524 0.5502545238 4287312669
-0.2495704889 -0.1874601394 0.5495427847 4287312669
-0.2492468506 -0.1866078228 0.5488301516 4287246878
-0.2493179291 -0.1860516518 0.5489866734 4287181085
-0.2489936054 -0.1852010190 0.5482725501 4287115037
-0.2490642369 -0.1846447736 0.5484280586 4287115037
-0.2491346896 -0.1840880513 0.5485831499 4287115037
-0.2488093972 -0.1832395345 0.5478669405 4287115037
-0.2488793880 -0.1826827675 0.5480210185 4287049756
-0.2489492148 -0.1821255088 0.5481747985 4286983963
-0.2490188628 -0.1815678030 0.5483281612 4286984217
-0.2490883321 -0.1810096204 0.5484811068 4286918424
-0.2491576225 -0.1804509610 0.5486336946 4286852629
-0.2492267489 -0.1798918545 0.5487858653 4286852629
-0.2496920228 -0.1796173751 0.5498104095 4286917911
-0.2501573563 -0.1793406606 0.5508350134 4286917911
-0.2502261698 -0.1787783653 0.5509865284 4286852631
-0.2506914437 -0.1784980446 0.5520110726 4286852631
-0.2507600188 -0.1779339463 0.5521620512 4286787097
-0.2508283854 -0.1773693711 0.5523126125 4286787097
-0.2508965731 -0.1768043339 0.5524628162 4286656281
-0.2509646118 -0.1762388498 0.5526125431 4286656281
-0.2510324419 -0.1756728888 0.5527619123 4286393622
-0.2514973879 -0.1753835529 0.5537857413 4286327829
-0.2515649796 -0.1748157889 0.5539345741 4286196758
-0.2516323626 -0.1742475629 0.5540829897 4286196758
-0.2516995966 -0.1736788899 0.5542309880 4286131478
-0.2521643639 -0.1733832359 0.5552543402 4286065685
-0.2522312999 -0.1728127450 0.5554017425 4285868563
-0.2526960075 -0.1725134701 0.5564250350 4285736977
-0.2527627051 -0.1719411761 0.5565719008 4285540631
-0.2532273531 -0.1716383100 0.5575950146 4285540631
-0.2536920309 -0.1713331789 0.5586181879 4285344022
