VERSION 0.7
FIELDS x y z rgba
SIZE 4 4 4 4
TYPE F F F U
COUNT 1 1 1 1
WIDTH 920
HEIGHT 1
VIEWPOINT 0.0 0.0 0.0 1.0 0.0 0.0 0.0
POINTS 920
DATA ascii
-0.2778373361 -0.1451666951 0.5487777591 4286131737
-0.2787781656 -0.1450470388 0.5506360531 4286526495
-0.2797191739 -0.1449233443 0.5524947047 4286330917
-0.2806603312 -0.1447956115 0.5543536544 4287186226
-0.2820416689 -0.1448898762 0.5570820570 4286865755
-0.2834233642 -0.1449782550 0.5598111153 4290879128
-0.3166080415 -0.2367482930 0.6267300844 4290410350
-0.3154207170 -0.2351673543 0.6243797541 4289160283
-0.3133773804 -0.2329553217 0.6203349233 4290006065
-0.3160367608 -0.2342377901 0.6255992651 4289479721
-0.3148474693 -0.2326644808 0.6232450008 4289019924
-0.3119455576 -0.2298345864 0.6175006032 4288756752
-0.3137500882 -0.2304746956 0.6210727096 4289543447
-0.3112737834 -0.2279717028 0.6161708832 4289280275
-0.3045129180 -0.2223510295 0.6027876139 4289148179
-0.2758986950 -0.2008510828 0.5461453795 4289016593
-0.2695515156 -0.1956381053 0.5335810184 4289016840
-0.2679157257 -0.1938621551 0.5303429365 4288951047
-0.2684226930 -0.1936391890 0.5313464999 4289408528
-0.2667851746 -0.1918716729 0.5281050205 4289540114
-0.2655755579 -0.1904181391 0.5257105231 4289213455
-0.2647941411 -0.1892760396 0.5241637230 4289016076
-0.2640120983 -0.1881368905 0.5226156712 4289015563
-0.2636587918 -0.1873057634 0.5219162703 4289015563
-0.2633050680 -0.1864759028 0.5212160349 4288883977
-0.2633805573 -0.1859506518 0.5213655233 4288686598
-0.2630261481 -0.1851224601 0.5206639171 4288423686
-0.2626712918 -0.1842955202 0.5199614763 4288423686
-0.2627460361 -0.1837706268 0.5201094747 4288227077
-0.2623904645 -0.1829453856 0.5194056630 4288161284
-0.2624647617 -0.1824204624 0.5195527077 4288226307
-0.2625389099 -0.1818950921 0.5196994543 4288160514
-0.2621823251 -0.1810719371 0.5189936161 4288029698
-0.2622559965 -0.1805465519 0.5191394091 4288029698
-0.2623294592 -0.1800207049 0.5192849040 4288029444
-0.2628336549 -0.1797891557 0.5202829242 4288095237
-0.2629069090 -0.1792615801 0.5204279423 4287964162
-0.2629799843 -0.1787335426 0.5205726027 4288029955
-0.2630529106 -0.1782050878 0.5207169056 4288029955
-0.2631256282 -0.1776761711 0.5208609104 4287964162
-0.2631981969 -0.1771468371 0.5210044980 4287963905
-0.2632705569 -0.1766170561 0.5211477876 4287898112
-0.2629110515 -0.1757981628 0.5204361677 4287898112
-0.2625511289 -0.1749805808 0.5197236538 4287963905
-0.2626227438 -0.1744512320 0.5198654532 4288029698
-0.2618300617 -0.1733493507 0.5182963014 4288029698
-0.2614688873 -0.1725357026 0.5175813437 4287963905
-0.2606750131 -0.1714390516 0.5160098672 4287898112
-0.2603129148 -0.1706289053 0.5152930617 4287963905
-0.2595178783 -0.1695375293 0.5137192607 4287963905
-0.2591548264 -0.1687308997 0.5130006671 4287963905
-0.2579258680 -0.1673639864 0.5105678439 4288029698
-0.2588604093 -0.1674015969 0.5124177933 4288029957
-0.2571972609 -0.1657609195 0.5091255903 4287964164
-0.2559661567 -0.1644050330 0.5066885948 4287964164
-0.2551673651 -0.1633313000 0.5051074028 4287898371
-0.2539346516 -0.1619842499 0.5026671886 4287766785
-0.2540013790 -0.1614686996 0.5027993321 4287832578
-0.2536343932 -0.1606780738 0.5020728707 4287832578
-0.2532669902 -0.1598888189 0.5013455749 4287766785
-0.2537667751 -0.1596467197 0.5023348927 4287570176
-0.2542665899 -0.1594024450 0.5033243299 4287635969
-0.2543324530 -0.1588848680 0.5034546852 4287569922
-0.2548322380 -0.1586371511 0.5044440031 4287569922
-0.2557663321 -0.1586566269 0.5062930584 4287635715
-0.2567006648 -0.1586721539 0.5081425905 4287635715
-0.2572008371 -0.1584161520 0.5091326237 4287570176
-0.2581355870 -0.1584246755 0.5109829903 4287635969
-0.2590706050 -0.1584292501 0.5128338933 4287636226
-0.2595710754 -0.1581649482 0.5138245821 4287636226
-0.2600715756 -0.1578984559 0.5148153305 4287570946
-0.2605721354 -0.1576297730 0.5158061981 4287636739
-0.2606375813 -0.1570966691 0.5159357190 4287702534
-0.2611380517 -0.1568245143 0.5169264674 4287702534
-0.2616385818 -0.1565501988 0.5179172754 4287702534
-0.2617036700 -0.1560140848 0.5180461407 4287636741
-0.2622041404 -0.1557362825 0.5190367699 4287702534
-0.2622689605 -0.1551984996 0.5191650987 4287702534
-0.2623336017 -0.1546602994 0.5192930698 4287636487
-0.2628339231 -0.1543777287 0.5202834606 4287636487
-0.2628982663 -0.1538378447 0.5204108357 4287439878
-0.2625263333 -0.1530433446 0.5196745992 4287374085
-0.2630263865 -0.1527568996 0.5206644535 4287374085
-0.2630901635 -0.1522158384 0.5207906365 4287374085
-0.2635901272 -0.1519259065 0.5217803717 4287308290
-0.2640901208 -0.1516337991 0.5227701068 4287242497
-0.2645901442 -0.1513394862 0.5237599015 4287308290
-0.2646534145 -0.1507941633 0.5238851905 4287308290
-0.2651533484 -0.1504963785 0.5248748064 4287177219
-0.2660902143 -0.1504434198 0.5267293453 4287111426
-0.2670272887 -0.1503864825 0.5285843015 4287111426
-0.2666531801 -0.1495898515 0.5278437138 4287111426
-0.2662786245 -0.1487946361 0.5271022916 4287046403
-0.2676530778 -0.1489745378 0.5298230052 4286980610
-0.2685904503 -0.1489060968 0.5316786170 4287046403
-0.2690905035 -0.1485920548 0.5326684713 4287046403
-0.2695905566 -0.1482757926 0.5336583257 4287046661
-0.2705283761 -0.1481971443 0.5355147123 4287046661
-0.2710285187 -0.1478755772 0.5365047455 4287046661
-0.2715286613 -0.1475518197 0.5374947786 4286980868
-0.2720287740 -0.1472258568 0.5384848118 4286784779
-0.2725289166 -0.1468976885 0.5394747853 4286718986
-0.2730290294 -0.1465673149 0.5404647589 4286916357
-0.2744058073 -0.1467034519 0.5431901813 4287047943
-0.2753445506 -0.1466002762 0.5450484157 4286984207
-0.2762834430 -0.1464930922 0.5469069481 4286918414
-0.2767838836 -0.1461502463 0.5478975773 4286460440
-0.2764068246 -0.1453437954 0.5471512079 4286394647
-0.2777847052 -0.1454579383 0.5498787761 4286065942
-0.2782850862 -0.1451084614 0.5508692861 4286526493
-0.2792244852 -0.1449847519 0.5527287722 4286462501
-0.2806031704 -0.1450840384 0.5554578900 4287515189
-0.2815429866 -0.1449513137 0.5573182702 4287523685
-0.2829222679 -0.1450397670 0.5600486398 4290813335
-0.3151863217 -0.2362039089 0.6252889633 4290738024
-0.3148542345 -0.2352616489 0.6246300936 4289685336
-0.3145216703 -0.2343205363 0.6239703298 4289745462
-0.3133348823 -0.2327463478 0.6216159463 4289219118
-0.3142822385 -0.2327579260 0.6234953403 4289282082
-0.3122398853 -0.2305577695 0.6194435954 4288953117
-0.3106233478 -0.2286800742 0.6162366271 4289281562
-0.2996029556 -0.2199071050 0.5943735838 4288952597
-0.2761777341 -0.2021049112 0.5479009748 4289344786
-0.2758313417 -0.2012439966 0.5472137928 4289476372
-0.2720623910 -0.1978950649 0.5397366285 4289345037
-0.2695746720 -0.1954918653 0.5348013043 4289213451
-0.2679413259 -0.1937173307 0.5315609574 4289212687
-0.2667349577 -0.1922577471 0.5291676521 4289081101
-0.2655276656 -0.1908028275 0.5267725587 4289213455
-0.2647478580 -0.1896594465 0.5252255201 4289147662
-0.2639673948 -0.1885190308 0.5236771703 4289081869
-0.2636148930 -0.1876867563 0.5229778886 4289016076
-0.2632619739 -0.1868557483 0.5222777724 4288884490
-0.2629086673 -0.1860259920 0.5215768218 4288687111
-0.2625549138 -0.1851975024 0.5208750367 4288555270
-0.2626298964 -0.1846720427 0.5210237503 4288489477
-0.2622754574 -0.1838452220 0.5203205943 4288423684
-0.2623499632 -0.1833197176 0.5204684138 4288357891
-0.2624242902 -0.1827937514 0.5206159353 4288095489
-0.2624984682 -0.1822673529 0.5207630396 4288029696
-0.2625724673 -0.1817405075 0.5209098458 4287963904
-0.2622164488 -0.1809166223 0.5202035308 4287963904
-0.2622899711 -0.1803897470 0.5203493834 4288095491
-0.2623633146 -0.1798624247 0.5204949379 4288161284
-0.2628667355 -0.1796286553 0.5214936733 4288029444
-0.2629398704 -0.1790995896 0.5216387510 4288029444
-0.2630128264 -0.1785700768 0.5217834711 4288094721
-0.2630856037 -0.1780401319 0.5219278336 4288028928
-0.2631582022 -0.1775097400 0.5220718980 4288094721
-0.2627997994 -0.1766892672 0.5213608742 4288094721
-0.2624410093 -0.1758700758 0.5206490755 4287963651
-0.2625128329 -0.1753401160 0.5207915902 4288029444
-0.2617221475 -0.1742356420 0.5192229152 4287963651
-0.2609308064 -0.1731342077 0.5176530480 4287963651
-0.2614330649 -0.1728917360 0.5186493993 4287963905
-0.2606407702 -0.1717938036 0.5170776248 4287963905
-0.2607111335 -0.1712660491 0.5172172189 4287897858
-0.2603495717 -0.1704551876 0.5164998770 4287897858
-0.2595556974 -0.1693638414 0.5149250031 4287897858
-0.2591931820 -0.1685565114 0.5142058134 4287897858
-0.2583981454 -0.1674704552 0.5126285553 4288028674
-0.2576024830 -0.1663874835 0.5110500455 4288028674
-0.2550768554 -0.1641944200 0.5060395002 4288028674
-0.2542794645 -0.1631211638 0.5044575930 4287962881
-0.2539139688 -0.1623275429 0.5037325025 4287832065
-0.2535480857 -0.1615352780 0.5030066967 4287832065
-0.2531818151 -0.1607443690 0.5022799969 4287832065
-0.2536809444 -0.1605026126 0.5032702088 4287766272
-0.2537470758 -0.1599856615 0.5034014583 4287766785
-0.2542461753 -0.1597404480 0.5043915510 4287700992
-0.2547453344 -0.1594930589 0.5053818226 4287570176
-0.2552445233 -0.1592435092 0.5063721538 4287570176
-0.2561772168 -0.1592612416 0.5082224607 4287570176
-0.2571101785 -0.1592750549 0.5100733638 4287570176
-0.2576096952 -0.1590171903 0.5110643506 4287635969
-0.2589768469 -0.1592908055 0.5137766004 4287701762
-0.2586088777 -0.1584949642 0.5130465627 4287701508
-0.2586745024 -0.1579655260 0.5131767988 4287767301
-0.2596081793 -0.1579640061 0.5150290728 4287702021
-0.2601078749 -0.1576952487 0.5160204172 4287702021
-0.2606076300 -0.1574243307 0.5170118213 4287767814
-0.2606729269 -0.1568897218 0.5171414018 4287702021
-0.2611726224 -0.1566153169 0.5181326866 4287636228
-0.2616723180 -0.1563387215 0.5191240907 4287636228
-0.2617372572 -0.1558011323 0.5192529559 4287702280
-0.2618020475 -0.1552631557 0.5193814039 4287702280
-0.2623015940 -0.1549817920 0.5203724504 4287505669
-0.2623660862 -0.1544421166 0.5205004215 4287439876
-0.2628655732 -0.1541572660 0.5214913487 4287439876
-0.2629297674 -0.1536158919 0.5216187239 4287374083
-0.2625583708 -0.1528206915 0.5208818913 4287308292
-0.2626220882 -0.1522794366 0.5210082531 4287308292
-0.2631212175 -0.1519894153 0.5219985247 4287241984
-0.2631846368 -0.1514464766 0.5221243501 4287307776
-0.2636837065 -0.1511529833 0.5231143832 4287110912
-0.2641827762 -0.1508572847 0.5241045356 4287045120
-0.2642458081 -0.1503113657 0.5242295861 4287045633
-0.2647448182 -0.1500121951 0.5252195001 4287045633
-0.2652437985 -0.1497108340 0.5262094736 4287045633
-0.2666155398 -0.1498979330 0.5289307833 4287177219
-0.2671147585 -0.1495903730 0.5299211740 4286914817
-0.2680505216 -0.1495241374 0.5317776203 4286914817
-0.2685498595 -0.1492112726 0.5327681899 4286915074
-0.2690491676 -0.1488962024 0.5337588191 4286915074
-0.2695485055 -0.1485789418 0.5347493887 4286915588
-0.2704847753 -0.1484993845 0.5366068482 4286981381
-0.2714212537 -0.1484158039 0.5384647250 4287112454
-0.2710464299 -0.1476139426 0.5377210975 4287112454
-0.2719829977 -0.1475250423 0.5395790935 4286916106
-0.2720450163 -0.1469595879 0.5397021174 4286850313
-0.2725442648 -0.1466291100 0.5406926274 4286981381
-0.2734811008 -0.1465308666 0.5425511599 4287112967
-0.2739804685 -0.1461950690 0.5435418487 4286917644
-0.2749175429 -0.1460896879 0.5454009175 4287049230
-0.2762926817 -0.1462119818 0.5481290221 4286394899
-0.2772302330 -0.1460976154 0.5499889851 4286460692
-0.2781679630 -0.1459792107 0.5518493056 4286066965
-0.2791058719 -0.1458567530 0.5537099838 4286461723
-0.2800439298 -0.1457302719 0.5555709600 4286791725
-0.2822971940 -0.1462811679 0.5600411892 4287844413
-0.2814821005 -0.1452389210 0.5584241152 4287719783
-0.2841747105 -0.1460024565 0.5637659431 4291075226
-0.3133412898 -0.2353391647 0.6229997873 4290870381
-0.3134353161 -0.2347180247 0.6231867671 4289883486
-0.3135291636 -0.2340963483 0.6233733892 4290140222
-0.3131967187 -0.2331568748 0.6227123737 4289548085
-0.3120113313 -0.2315858006 0.6203554869 4289413926
-0.3112513423 -0.2303347737 0.6188445091 4289084961
-0.3100641668 -0.2287719101 0.6164841056 4289150748
-0.3063162863 -0.2253305912 0.6090323925 4288953369
-0.2953112125 -0.2165833265 0.5871515274 4289411349
-0.2757618725 -0.2016370893 0.5482826829 4289477142
-0.2715728581 -0.1979747266 0.5399538875 4289476623
-0.2690896988 -0.1955706179 0.5350167155 4289279244
-0.2661775947 -0.1928666681 0.5292267203 4289212687
-0.2654004693 -0.1917178333 0.5276815891 4289146894
-0.2641951442 -0.1902640611 0.5252851844 4289081869
-0.2638441920 -0.1894290000 0.5245873332 4289016076
-0.2630650699 -0.1882890165 0.5230382681 4289016076
-0.2627131343 -0.1874573231 0.5223385692 4288950283
-0.2627888024 -0.1869313121 0.5224889517 4288818697
-0.2628642917 -0.1864048690 0.5226390362 4288687111
-0.2625113726 -0.1855752319 0.5219373703 4288621063
-0.2621580362 -0.1847468466 0.5212348700 4288555270
-0.2622327507 -0.1842207611 0.5213834643 4288423686
-0.2618787289 -0.1833940595 0.5206795335 4288423686
-0.2619529963 -0.1828679293 0.5208271742 4288357893
-0.2620270848 -0.1823413521 0.5209745169 4288292100
-0.2621010244 -0.1818143427 0.5211215019 4288226307
-0.2617456615 -0.1809901595 0.5204150081 4288160514
-0.2618191242 -0.1804631203 0.5205610394 4288160260
-0.2618924379 -0.1799356192 0.5207067728 4288160260
-0.2623949945 -0.1797018051 0.5217059851 4288029444
-0.2624680400 -0.1791725606 0.5218512416 4288029444
-0.2625409365 -0.1786428690 0.5219961405 4288094721
-0.2626136541 -0.1781127453 0.5221407413 4288028928
-0.2626861632 -0.1775821894 0.5222849250 4288094721
-0.2627585232 -0.1770511717 0.5224288106 4288094721
-0.2624005377 -0.1762308329 0.5217170119 4287963651
-0.2620421350 -0.1754117906 0.5210044384 4287963651
-0.2616833150 -0.1745940596 0.5202910304 4287897858
-0.2613241076 -0.1737776250 0.5195767879 4287963651
-0.2613950968 -0.1732479334 0.5197179317 4287963651
-0.2610351741 -0.1724332571 0.5190023184 4287963651
-0.2598131001 -0.1710525751 0.5165725350 4287897858
-0.2594521046 -0.1702422947 0.5158547759 4287897858
-0.2590906918 -0.1694333255 0.5151362419 4287766787
-0.2591601014 -0.1689067483 0.5152742267 4287766787
-0.2575040162 -0.1672590673 0.5119815469 4287832065
-0.2567097247 -0.1661765724 0.5104022622 4287897858
-0.2559147775 -0.1650971621 0.5088217258 4287897858
-0.2551192045 -0.1640208662 0.5072399378 4287832065
-0.2551865578 -0.1635009646 0.5073738694 4287766785
-0.2548218668 -0.1627048999 0.5066487193 4287766785
-0.2544567287 -0.1619101614 0.5059227943 4287766785
-0.2540912032 -0.1611167938 0.5051960349 4287700992
-0.2541575134 -0.1605979055 0.5053278804 4287700992
-0.2542236447 -0.1600786150 0.5054593682 4287700992
-0.2547220886 -0.1598302722 0.5064503551 4287569922
-0.2552205324 -0.1595797688 0.5074414015 4287569922
-0.2557190359 -0.1593270749 0.5084325671 4287569922
-0.2562175691 -0.1590722203 0.5094237924 4287569922
-0.2567161620 -0.1588151753 0.5104150772 4287635715
-0.2576478124 -0.1588228941 0.5122674108 4287635715
-0.2585797012 -0.1588266492 0.5141202807 4287701508
-0.2590786219 -0.1585612893 0.5151122212 4287701508
-0.2595775425 -0.1582937539 0.5161042213 4287636228
-0.2600765228 -0.1580240428 0.5170963407 4287702021
-0.2605755329 -0.1577521414 0.5180884600 4287702021
-0.2606408894 -0.1572164595 0.5182183981 4287702021
-0.2611398399 -0.1569410861 0.5192104578 4287702023
-0.2612049282 -0.1564037055 0.5193398595 4287767816
-0.2617038190 -0.1561248451 0.5203317404 4287702280
-0.2617686391 -0.1555857658 0.5204606056 4287702280
-0.2622674704 -0.1553034186 0.5214524269 4287505671
-0.2618976533 -0.1545064300 0.5207172036 4287439878
-0.2623963356 -0.1542214900 0.5217086077 4287374085
-0.2624604702 -0.1536799371 0.5218361616 4287308292
-0.2625244260 -0.1531379819 0.5219632983 4287242499
-0.2625881732 -0.1525956243 0.5220900774 4287242499
-0.2626517117 -0.1520528793 0.5222164392 4287110913
-0.2627150714 -0.1515097320 0.5223423839 4287110913
-0.2632133067 -0.1512161493 0.5233330131 4287045633
-0.2637115419 -0.1509203613 0.5243236423 4287045633
-0.2637745142 -0.1503742337 0.5244488120 4287045633
-0.2642726898 -0.1500749737 0.5254393220 4286979840
-0.2647708356 -0.1497735083 0.5264297724 4286979840
-0.2652690113 -0.1494698524 0.5274202228 4286979840
-0.2662028670 -0.1494085193 0.5292769670 4286914562
-0.2667011321 -0.1490995735 0.5302676558 4286914562
-0.2671994269 -0.1487884074 0.5312584043 4286915075
-0.2676976919 -0.1484750658 0.5322490931 4286980868
-0.2686320841 -0.1484004110 0.5341068506 4286915588
-0.2691304386 -0.1480817497 0.5350977182 4286981381
-0.2696288228 -0.1477608830 0.5360886455 4286981381
-0.2705635726 -0.1476760060 0.5379471779 4287047174
-0.2710620463 -0.1473498195 0.5389382243 4286850313
-0.2715604901 -0.1470214427 0.5399292707 4286850313
-0.2724956274 -0.1469262987 0.5417885184 4286981127
-0.2729941308 -0.1465925872 0.5427796841 4287112713
-0.2734926343 -0.1462566704 0.5437708497 4286654988
-0.2744281292 -0.1461512744 0.5456308126 4286786574
-0.2749266922 -0.1458100230 0.5466220975 4286329365
-0.2758624554 -0.1456974596 0.5484825969 4286460951
-0.2767983675 -0.1455808580 0.5503434539 4286133017
-0.2777344286 -0.1454602182 0.5522046089 4286659361
-0.2786706984 -0.1453355253 0.5540660620 4287121205
-0.2796071172 -0.1452067941 0.5559279323 4288108100
-0.2809813619 -0.1453003436 0.5586602688 4287655275
-0.2823559642 -0.1453880072 0.5613933206 4290879132
-0.3115001619 -0.2344735563 0.6207082868 4290936433
-0.3115937114 -0.2338547707 0.6208947301 4289949538
-0.3087105453 -0.2310080677 0.6151496172 4290272323
-0.3083775043 -0.2300767452 0.6144859791 4289614393
-0.3076185286 -0.2288300544 0.6129736304 4289348903
-0.3077100515 -0.2282175124 0.6131560206 4289151524
-0.3039698601 -0.2247711718 0.6057031155 4289282334
-0.3066149950 -0.2260489315 0.6109738946 4289150748
-0.2913703024 -0.2141654342 0.5805966854 4289477401
-0.2714292109 -0.1989077926 0.5408612490 4289543194
-0.2689516246 -0.1964972764 0.5359243155 4289477652
-0.2673250735 -0.1947176158 0.5326831937 4289214480
-0.2661238313 -0.1932539940 0.5302895308 4289213200
-0.2666281164 -0.1930304319 0.5312943459 4289147407
-0.2649987936 -0.1912647188 0.5280477405 4289212942
-0.2642220557 -0.1901196539 0.5264999866 4289212942
-0.2634446323 -0.1889775395 0.5249508619 4289147149
-0.2626665533 -0.1878384054 0.5234004259 4289147149
-0.2623150349 -0.1870068163 0.5227000117 4289015308
-0.2623904645 -0.1864801943 0.5228502750 4288949515
-0.2620382309 -0.1856502593 0.5221483707 4288817931
-0.2616855800 -0.1848215908 0.5214456916 4288817931
-0.2617602646 -0.1842953265 0.5215944648 4288621065
-0.2618347406 -0.1837686151 0.5217429399 4288555272
-0.2619090676 -0.1832414567 0.5218909979 4288489479
-0.2619832158 -0.1827138513 0.5220387578 4288423686
-0.2616289854 -0.1818881035 0.5213329196 4288357639
-0.2612743378 -0.1810636371 0.5206262469 4288291846
-0.2613477409 -0.1805364043 0.5207724571 4288226053
-0.2618494928 -0.1803038418 0.5217723250 4288160260
-0.2619226575 -0.1797748655 0.5219181180 4288095237
-0.2619956434 -0.1792454422 0.5220635533 4288095237
-0.2620684505 -0.1787155867 0.5222086310 4288029444
-0.2621411085 -0.1781852841 0.5223533511 4287963651
-0.2622135580 -0.1776545495 0.5224977732 4288029444
-0.2622858286 -0.1771233678 0.5226417780 4287963651
-0.2619285583 -0.1763027310 0.5219298601 4287963653
-0.2620003819 -0.1757715344 0.5220729709 4287963653
-0.2616423666 -0.1749526411 0.5213596225 4288029446
-0.2612839639 -0.1741350442 0.5206454396 4287963653
-0.2609251738 -0.1733187735 0.5199304223 4287897858
-0.2605659366 -0.1725037992 0.5192146301 4287897858
-0.2602062821 -0.1716901511 0.5184980035 4287832067
-0.2598462403 -0.1708778292 0.5177805424 4287832067
-0.2594857812 -0.1700668186 0.5170623064 4287766787
-0.2582640350 -0.1686948240 0.5146277547 4287832580
-0.2579025328 -0.1678882390 0.5139074326 4287766785
-0.2575406134 -0.1670829803 0.5131862164 4287766785
-0.2567474842 -0.1660005301 0.5116058588 4287766785
-0.2563846409 -0.1651988328 0.5108827949 4287766785
-0.2560213804 -0.1643984765 0.5101589561 4287766785
-0.2556577325 -0.1635994613 0.5094343424 4287700992
-0.2548624277 -0.1625268012 0.5078495741 4287635715
-0.2549291849 -0.1620054841 0.5079826117 4287635715
-0.2549957633 -0.1614837795 0.5081152916 4287569922
-0.2550621629 -0.1609616578 0.5082476139 4287569922
-0.2555601001 -0.1607105881 0.5092397928 4287504129
-0.2551944554 -0.1599161774 0.5085111856 4287504129
-0.2561241388 -0.1599322408 0.5103636980 4287504129
-0.2561900318 -0.1594067216 0.5104950070 4287569922
-0.2566878796 -0.1591487229 0.5114870667 4287504642
-0.2571857572 -0.1588885486 0.5124791861 4287570435
-0.2576836944 -0.1586261839 0.5134713650 4287635715
-0.2586141229 -0.1586269140 0.5153253675 4287635715
-0.2586796582 -0.1580949277 0.5154559612 4287636228
-0.2591776848 -0.1578260213 0.5164483190 4287767814
-0.2596757412 -0.1575549245 0.5174407959 4287702021
-0.2601738274 -0.1572816521 0.5184332728 4287767814
-0.2602389157 -0.1567453742 0.5185630322 4287767816
-0.2607369423 -0.1564686298 0.5195553899 4287702023
-0.2608017623 -0.1559306532 0.5196845531 4287702280
-0.2612997591 -0.1556504071 0.5206768513 4287570694
-0.2617977262 -0.1553679854 0.5216692090 4287570694
-0.2618622184 -0.1548270285 0.5217976570 4287570694
-0.2619264722 -0.1542856693 0.5219256878 4287308292
-0.2619905472 -0.1537439078 0.5220534205 4287242499
-0.2620544434 -0.1532017589 0.5221806765 4287242500
-0.2621181309 -0.1526592076 0.5223076344 4287176707
-0.2621816397 -0.1521162689 0.5224341154 4287111426
-0.2626791000 -0.1518238783 0.5234254599 4287045633
-0.2627423108 -0.1512792408 0.5235514045 4286979840
-0.2632397115 -0.1509833634 0.5245425105 4286979840
-0.2637371421 -0.1506852955 0.5255336761 4286782976
-0.2642345428 -0.1503850371 0.5265249014 4286782976
-0.2656013668 -0.1505754590 0.5292484760 4286848769
-0.2647946179 -0.1495323777 0.5276408792 4286848769
-0.2648570240 -0.1489817798 0.5277652740 4286980355
-0.2662242949 -0.1491619945 0.5304896832 4286980355
-0.2667217255 -0.1488507390 0.5314809084 4286915075
-0.2672191560 -0.1485372782 0.5324721336 4286980868
-0.2681519091 -0.1484626383 0.5343307853 4286915334
-0.2686494589 -0.1481438726 0.5353221893 4286981127
-0.2691469789 -0.1478229016 0.5363135934 4286981127
-0.2696445286 -0.1474997252 0.5373049974 4286981127
-0.2705777586 -0.1474117190 0.5391646028 4286850311
-0.2719469965 -0.1475561559 0.5418930054 4286850311
-0.2724447846 -0.1472236365 0.5428849459 4286850311
-0.2733785808 -0.1471235454 0.5447456241 4286916104
-0.2738764286 -0.1467856914 0.5457377434 4286654990
-0.2752467096 -0.1469112635 0.5484681726 4286720783
-0.2748721242 -0.1461033523 0.5477217436 4286395160
-0.2749335468 -0.1455278546 0.5478441119 4286592539
-0.2763042450 -0.1456422359 0.5505754352 4286265374
-0.2772386968 -0.1455215663 0.5524374843 4286989097
-0.2786100209 -0.1456251144 0.5551700592 4287319612
-0.2795449197 -0.1454954296 0.5570329428 4288240714
-0.2809168696 -0.1455881298 0.5597667694 4287787118
-0.2822891474 -0.1456749290 0.5625012517 4290945182
-0.3096629679 -0.2336070836 0.6184145808 4290936948
-0.3097560704 -0.2329906374 0.6186004877 4290015846
-0.3085756302 -0.2314186841 0.6162430644 4290273352
-0.3095171154 -0.2314386070 0.6181232333 4289615422
-0.3079106808 -0.2295548320 0.6149151325 4289546284
-0.3020547330 -0.2245194912 0.6032204628 4289217319
-0.3046942055 -0.2258059829 0.6084916592 4289414177
-0.2894815207 -0.2138902843 0.5781110525 4289216798
-0.2712831497 -0.1998425871 0.5417678356 4289478173
-0.2751911581 -0.2021114081 0.5495724082 4289478173
-0.2688902318 -0.1968876868 0.5369890928 4289412631
-0.2676924169 -0.1954171807 0.5345969796 4289149459
-0.2673450708 -0.1945709735 0.5339033008 4289213200
-0.2661456764 -0.1931080520 0.5315080285 4289147407
-0.2645193636 -0.1913416684 0.5282602310 4289278735
-0.2637440860 -0.1901961863 0.5267119408 4289212942
-0.2629681528 -0.1890536696 0.5251623392 4289212942
-0.2626178563 -0.1882196665 0.5244627595 4289212942
-0.2618407011 -0.1870822310 0.5229107738 4289146894
-0.2614894807 -0.1862515956 0.5222093463 4289081101
-0.2615645230 -0.1857252121 0.5223591924 4288949515
-0.2612125874 -0.1848962456 0.5216563940 4288949515
-0.2612871528 -0.1843698174 0.5218052864 4288817931
-0.2613615692 -0.1838429421 0.5219539404 4288752138
-0.2614358366 -0.1833156049 0.5221021771 4288686347
-0.2615098953 -0.1827878207 0.5222501159 4288620554
-0.2611563802 -0.1819617897 0.5215440989 4288423432
-0.2612299919 -0.1814339757 0.5216910839 4288357639
-0.2613034248 -0.1809057146 0.5218377709 4288291848
-0.2613766789 -0.1803770065 0.5219840407 4288226055
-0.2614497542 -0.1798478663 0.5221300125 4288095237
-0.2615226805 -0.1793182641 0.5222756267 4288095237
-0.2615954280 -0.1787882298 0.5224208832 4288029444
-0.2616679668 -0.1782577634 0.5225658417 4288029444
-0.2617403567 -0.1777268499 0.5227103829 4287963651
-0.2613840699 -0.1769054830 0.5219988823 4287963651
-0.2614560127 -0.1763745546 0.5221424699 4287963653
-0.2610990107 -0.1755549163 0.5214295387 4288029446
-0.2607415915 -0.1747365892 0.5207157731 4287964166
-0.2608127594 -0.1742061079 0.5208578706 4287964166
-0.2604546547 -0.1733895242 0.5201427341 4287963653
-0.2605253160 -0.1728590429 0.5202838778 4287897860
-0.2601664960 -0.1720442325 0.5195673108 4287832580
-0.2598072886 -0.1712307334 0.5188499093 4287832580
-0.2594476342 -0.1704185605 0.5181316733 4287832580
-0.2590875924 -0.1696077138 0.5174126625 4287832580
-0.2587271333 -0.1687981933 0.5166928172 4287766785
-0.2583662570 -0.1679899991 0.5159721375 4287766785
-0.2567149699 -0.1663472354 0.5126743913 4287766785
-0.2563529313 -0.1655443609 0.5119513869 4287766785
-0.2559905052 -0.1647428274 0.5112276077 4287570176
-0.2556276619 -0.1639426500 0.5105029941 4287570176
-0.2552644312 -0.1631438136 0.5097775459 4287635715
-0.2553313673 -0.1626205593 0.5099112391 4287635715
-0.2553980947 -0.1620969027 0.5100445151 4287569922
-0.2554646730 -0.1615728289 0.5101774335 4287569922
-0.2555310428 -0.1610483527 0.5103099942 4287504129
-0.2560282648 -0.1607941538 0.5113030076 4287438336
-0.2560943961 -0.1602679789 0.5114350915 4287504131
-0.2565915883 -0.1600103080 0.5124279857 4287569924
-0.2570888400 -0.1597504616 0.5134209991 4287570437
-0.2580175698 -0.1597555876 0.5152757168 4287504644
-0.2576518357 -0.1589579731 0.5145453215 4287635715
-0.2577173710 -0.1584270895 0.5146762133 4287635715
-0.2586463094 -0.1584247798 0.5165314078 4287636228
-0.2587116957 -0.1578913033 0.5166619420 4287702021
-0.2592089176 -0.1576201320 0.5176549554 4287702021
-0.2597061694 -0.1573467851 0.5186479688 4287636228
-0.2597711980 -0.1568103135 0.5187778473 4287570694
-0.2602683902 -0.1565334797 0.5197707415 4287504901
-0.2603331506 -0.1559953243 0.5199000835 4287636487
-0.2608302832 -0.1557149887 0.5208929181 4287504901
-0.2608947754 -0.1551751345 0.5210216641 4287374085
-0.2613918483 -0.1548913270 0.5220143795 4287374085
-0.2614560425 -0.1543497741 0.5221425891 4287308293
-0.2615200579 -0.1538078189 0.5222704411 4287242500
-0.2615838945 -0.1532654762 0.5223978758 4287176707
-0.2616475224 -0.1527227312 0.5225249529 4287176707
-0.2621442378 -0.1524315476 0.5235169530 4287111426
-0.2622075975 -0.1518871188 0.5236434937 4287045633
-0.2627042532 -0.1515924484 0.5246353149 4286914048
-0.2623336911 -0.1507970691 0.5238952637 4286848256
-0.2628301680 -0.1504998058 0.5248867869 4286782976
-0.2633266449 -0.1502003521 0.5258782506 4286848769
-0.2638231218 -0.1498986930 0.5268697739 4286914562
-0.2651876509 -0.1500861198 0.5295948386 4286914562
-0.2656843662 -0.1497782618 0.5305867195 4286915075
-0.2661810517 -0.1494681984 0.5315787196 4286915075
-0.2666777670 -0.1491559297 0.5325706601 4286915075
-0.2680433095 -0.1493255049 0.5352977514 4286980868
-0.2676711679 -0.1485247910 0.5345545411 4286915334
-0.2686024904 -0.1484461278 0.5364144444 4286915334
-0.2699687481 -0.1486027390 0.5391429067 4286981127
-0.2691612542 -0.1475615650 0.5375303030 4286981127
-0.2705277801 -0.1477110386 0.5402593613 4286850311
-0.2705896199 -0.1471449435 0.5403828621 4286784518
-0.2715215087 -0.1470497847 0.5422438979 4286784518
-0.2720183432 -0.1467158496 0.5432361364 4286916104
-0.2729505002 -0.1466135383 0.5450977087 4286655248
-0.2734474242 -0.1462742686 0.5460900664 4286786834
-0.2752508819 -0.1466288120 0.5496916771 4286329883
-0.2761836946 -0.1465134770 0.5515545011 4286593055
-0.2779880762 -0.1468544453 0.5551580191 4286528294
-0.2771781385 -0.1458121240 0.5535405278 4287317810
-0.2789830863 -0.1461431682 0.5571450591 4287517507
-0.2816605866 -0.1469213665 0.5624921918 4288438609
-0.2804140747 -0.1456495225 0.5600028038 4287985268
-0.2830925584 -0.1464131922 0.5653519034 4291143332
-0.3082531691 -0.2330598980 0.6169660091 4291003257
-0.3079223633 -0.2321256548 0.6163039207 4290147948
-0.3080147803 -0.2315109968 0.6164888740 4290536526
-0.3068355918 -0.2299429923 0.6141287684 4289812803
-0.3069272637 -0.2293297797 0.6143122315 4289875249
-0.3061706126 -0.2280841917 0.6127977967 4289480491
-0.3054132760 -0.2268414497 0.6112819910 4289743144
-0.2999878228 -0.2221452743 0.6004229784 4289414179
-0.2877679467 -0.2124569267 0.5759649873 4289544225
-0.2755405903 -0.2028173953 0.5514920354 4289478432
-0.2713748515 -0.1991481930 0.5431543589 4289412631
-0.2689056993 -0.1967387646 0.5382124186 4289215252
-0.2672847509 -0.1949589998 0.5349680781 4289213972
-0.2639623880 -0.1919492036 0.5283184052 4289082386
-0.2631889880 -0.1908020675 0.5267704725 4289278735
-0.2624149323 -0.1896578819 0.5252211690 4289278735
-0.2620656490 -0.1888231784 0.5245220661 4289278735
-0.2612903714 -0.1876840740 0.5229703784 4289212942
-0.2617914975 -0.1874623895 0.5239733458 4289146894
-0.2614410818 -0.1866306067 0.5232719779 4289081101
-0.2610902488 -0.1858000904 0.5225698352 4289015308
-0.2611650527 -0.1852730811 0.5227195024 4288949515
-0.2612396777 -0.1847456247 0.5228689313 4288818444
-0.2613141239 -0.1842177063 0.5230179429 4288818444
-0.2609620094 -0.1833896786 0.5223131776 4288752397
-0.2610360086 -0.1828617305 0.5224612951 4288620811
-0.2611098289 -0.1823333353 0.5226090550 4288555018
-0.2611835003 -0.1818044782 0.5227564573 4288423432
-0.2612569630 -0.1812751889 0.5229035020 4288357639
-0.2613302767 -0.1807454377 0.5230502486 4288357639
-0.2614034116 -0.1802152544 0.5231966376 4288226823
-0.2610491216 -0.1793910116 0.5224875212 4288161030
-0.2611217797 -0.1788608134 0.5226329565 4288161030
-0.2611942887 -0.1783301532 0.5227780342 4288029444
-0.2608389854 -0.1775080711 0.5220669508 4287898371
-0.2609110177 -0.1769774109 0.5222111344 4287832578
-0.2609828711 -0.1764463037 0.5223549008 4287963651
-0.2610545456 -0.1759147644 0.5224983692 4288029444
-0.2606979609 -0.1750952750 0.5217846632 4287898373
-0.2603409588 -0.1742770970 0.5210701227 4287964166
-0.2604118586 -0.1737459898 0.5212120414 4287964166
-0.2600541711 -0.1729295552 0.5204961300 4287964166
-0.2596960366 -0.1721144468 0.5197793841 4287898373
-0.2593375146 -0.1713006496 0.5190618038 4287832580
-0.2594073713 -0.1707704514 0.5192015767 4287832580
-0.2590481341 -0.1699584275 0.5184825659 4287766787
-0.2586885095 -0.1691477448 0.5177627802 4287766785
-0.2583284676 -0.1683383882 0.5170421600 4287766785
-0.2579680085 -0.1675303578 0.5163207054 4287635969
-0.2567484677 -0.1661679298 0.5138797760 4287635969
-0.2563869655 -0.1653643399 0.5131562948 4287635715
-0.2564546466 -0.1648382097 0.5132917166 4287635715
-0.2560924590 -0.1640364379 0.5125668049 4287635715
-0.2557298541 -0.1632360220 0.5118410587 4287569922
-0.2553668320 -0.1624369472 0.5111144781 4287569922
-0.2554334402 -0.1619118154 0.5112478137 4287569922
-0.2559300065 -0.1616579592 0.5122416615 4287504131
-0.2559963763 -0.1611311138 0.5123745203 4287504131
-0.2560625672 -0.1606038660 0.5125069618 4287438851
-0.2565590143 -0.1603452414 0.5135006309 4287504644
-0.2570555210 -0.1600844413 0.5144943595 4287570437
-0.2575520575 -0.1598214507 0.5154881477 4287504644
-0.2576178312 -0.1592898965 0.5156198144 4287636226
-0.2581143081 -0.1590234339 0.5166135430 4287636226
-0.2586108446 -0.1587547809 0.5176073313 4287636228
-0.2586762905 -0.1582202315 0.5177382827 4287636228
-0.2591727674 -0.1579480916 0.5187320113 4287570948
-0.2592379153 -0.1574118435 0.5188624263 4287570948
-0.2597343624 -0.1571362168 0.5198560357 4287505155
-0.2597992420 -0.1565982699 0.5199859142 4287505155
-0.2602955997 -0.1563191563 0.5209794044 4287374085
-0.2603602409 -0.1557795107 0.5211086869 4287308292
-0.2608565390 -0.1554969102 0.5221020579 4287308292
-0.2609208822 -0.1549555659 0.5222308636 4287308292
-0.2609850466 -0.1544138193 0.5223592520 4287242757
-0.2614811957 -0.1541264355 0.5233523250 4287176964
-0.2615450621 -0.1535829902 0.5234801173 4287111171
-0.2616087198 -0.1530391574 0.5236075521 4287176964
-0.2616721988 -0.1524949223 0.5237346292 4287111426
-0.2617354989 -0.1519502997 0.5238612890 4287045633
-0.2622312903 -0.1516555250 0.5248536468 4286979840
-0.2622942924 -0.1511092037 0.5249797106 4286914048
-0.2627900243 -0.1508109570 0.5259719491 4286913792
-0.2632857561 -0.1505104899 0.5269641280 4286979585
-0.2633483708 -0.1499611884 0.5270894170 4286848769
-0.2638440132 -0.1496572345 0.5280814767 4286914562
-0.2647730112 -0.1495959312 0.5299408436 4286914562
-0.2652687728 -0.1492866725 0.5309330821 4286914562
-0.2661980689 -0.1492182463 0.5327931046 4286915075
-0.2666939497 -0.1489036679 0.5337855816 4286915075
-0.2671898007 -0.1485868990 0.5347780585 4286980870
-0.2676856518 -0.1482679248 0.5357704759 4286980870
-0.2686154544 -0.1481861323 0.5376314521 4287046663
-0.2691113949 -0.1478618383 0.5386241078 4287046663
-0.2696073353 -0.1475353241 0.5396167040 4286850309
-0.2701032758 -0.1472066194 0.5406093001 4286784516
-0.2710335255 -0.1471114457 0.5424712300 4286785031
-0.2715295553 -0.1467773914 0.5434640050 4286982410
-0.2724600732 -0.1466750652 0.5453264713 4286655250
-0.2729561627 -0.1463356912 0.5463193059 4286786836
-0.2738869488 -0.1462261975 0.5481823087 4286395679
-0.2748179138 -0.1461126655 0.5500456095 4286724644
-0.2757490575 -0.1459950805 0.5519093275 4286725932
-0.2766803801 -0.1458734572 0.5537733436 4287515448
-0.2776118517 -0.1457477808 0.5556377172 4287846474
-0.2785435021 -0.1456180364 0.5575023890 4288833369
-0.2799106538 -0.1457108706 0.5602386594 4288248697
-0.3064231277 -0.2321918309 0.6146680713 4290937977
-0.3056698442 -0.2309404016 0.6131569743 4290148461
-0.3057616651 -0.2303289324 0.6133411527 4290536785
-0.3020460010 -0.2268573791 0.6058877110 4289813062
-0.3013798296 -0.2250148952 0.6045514941 4289678383
-0.3027397692 -0.2253561169 0.6072794199 4289809707
-0.2981707156 -0.2212910354 0.5981141329 4289546535
-0.2863964140 -0.2119148970 0.5744955540 4289610277
-0.2754625380 -0.2032111585 0.5525627732 4289478691
-0.2708806694 -0.1992278993 0.5433717966 4289347096
-0.2688401043 -0.1971284896 0.5392785668 4289149717
-0.2655256391 -0.1941069067 0.5326299071 4289279765
-0.2643304765 -0.1926446110 0.5302324295 4289279765
-0.2622855604 -0.1905702502 0.5261304975 4289345041
-0.2632109821 -0.1906565428 0.5279868245 4289345041
-0.2615887821 -0.1888990253 0.5247327685 4289344786
-0.2608149648 -0.1877595037 0.5231806040 4289278993
-0.2608903348 -0.1872328371 0.5233317614 4289213200
-0.2609655261 -0.1867057085 0.5234825611 4289147407
-0.2606153786 -0.1858748943 0.5227801800 4289081614
-0.2606901228 -0.1853477210 0.5229300857 4289015821
-0.2603392601 -0.1845185906 0.5222263336 4289015823
-0.2604135275 -0.1839913577 0.5223752856 4288950030
-0.2604876459 -0.1834636927 0.5225239396 4288883983
-0.2605615556 -0.1829355657 0.5226722360 4288686604
-0.2606353164 -0.1824069917 0.5228201747 4288489995
-0.2607088983 -0.1818779707 0.5229677558 4288424202
-0.2603561878 -0.1810521781 0.5222602487 4288358409
-0.2608555257 -0.1808185875 0.5232619047 4288358409
-0.2609286010 -0.1802882254 0.5234084725 4288358409
-0.2605749965 -0.1794636995 0.5226991773 4288292616
-0.2602210045 -0.1786404550 0.5219891071 4288161543
-0.2602933049 -0.1781104952 0.5221341252 4288095750
-0.2603654265 -0.1775801033 0.5222787857 4287964166
-0.2604373693 -0.1770492643 0.5224231482 4287898373
-0.2605091631 -0.1765179783 0.5225670934 4287964164
-0.2605807483 -0.1759862602 0.5227107406 4287964164
-0.2602248788 -0.1751664877 0.5219968557 4287898371
-0.2598685920 -0.1743480116 0.5212821364 4287898371
-0.2599394023 -0.1738167256 0.5214242339 4287964166
-0.2595824301 -0.1730000079 0.5207081437 4287964166
-0.2592250109 -0.1721846014 0.5199912190 4287898373
-0.2588672042 -0.1713705063 0.5192734599 4287832580
-0.2589369714 -0.1708401293 0.5194134116 4287832580
-0.2585784495 -0.1700278223 0.5186942220 4287766787
-0.2582195401 -0.1692168266 0.5179742575 4287766787
-0.2574318647 -0.1681274325 0.5163942575 4287766787
-0.2579289079 -0.1678777337 0.5173912644 4287635715
-0.2571403086 -0.1667918861 0.5158094168 4287635715
-0.2567797601 -0.1659862399 0.5150861144 4287635715
-0.2564187944 -0.1651819497 0.5143620372 4287635715
-0.2560574114 -0.1643790007 0.5136371851 4287635715
-0.2556956410 -0.1635773927 0.5129114389 4287635715
-0.2553334534 -0.1627771556 0.5121849775 4287569924
-0.2554001212 -0.1622509509 0.5123186707 4287569924
-0.2554665804 -0.1617243439 0.5124520063 4287504644
-0.2559623420 -0.1614682376 0.5134464502 4287438851
-0.2560285628 -0.1609399170 0.5135793090 4287438851
-0.2565242946 -0.1606803387 0.5145736933 4287504644
-0.2565902770 -0.1601503044 0.5147060752 4287570437
-0.2566560507 -0.1596198678 0.5148379803 4287570437
-0.2571516633 -0.1593555063 0.5158321857 4287505155
-0.2576473057 -0.1590889692 0.5168264508 4287570948
-0.2577127516 -0.1585555375 0.5169577003 4287570948
-0.2582083642 -0.1582854986 0.5179518461 4287570948
-0.2582735419 -0.1577503681 0.5180826187 4287636741
-0.2587690949 -0.1574768424 0.5190766454 4287570948
-0.2588340044 -0.1569399983 0.5192068815 4287374083
-0.2593295276 -0.1566630006 0.5202008486 4287374083
-0.2593941689 -0.1561244577 0.5203304887 4287308292
-0.2598896027 -0.1558439732 0.5213243365 4287308292
-0.2599539757 -0.1553037316 0.5214534402 4287243012
-0.2604493499 -0.1550197452 0.5224471688 4287177219
-0.2609447539 -0.1547335684 0.5234408975 4287242757
-0.2610087395 -0.1541903317 0.5235692859 4287176964
-0.2610725462 -0.1536466926 0.5236972570 4286980610
-0.2611361742 -0.1531026661 0.5238248706 4287046403
-0.2611995637 -0.1525582373 0.5239520669 4287111426
-0.2616946399 -0.1522646695 0.5249451399 4287111426
-0.2617577612 -0.1517185569 0.5250717402 4287045633
-0.2622527480 -0.1514215022 0.5260646343 4286914048
-0.2627477348 -0.1511222422 0.5270575881 4286913792
-0.2628104687 -0.1505731344 0.5271834731 4286913792
-0.2641700804 -0.1507638842 0.5299107432 4286848769
-0.2638002932 -0.1499654353 0.5291689634 4286914562
-0.2638626397 -0.1494133323 0.5292940140 4286783489
-0.2647901177 -0.1493489146 0.5311545134 4286849282
-0.2657178044 -0.1492804885 0.5330153704 4286849282
-0.2662128210 -0.1489658207 0.5340083241 4286915075
-0.2667078376 -0.1486489475 0.5350013375 4286915077
-0.2672028542 -0.1483298689 0.5359942913 4286980870
-0.2681310177 -0.1482480764 0.5378561616 4286915334
-0.2686261237 -0.1479236633 0.5388492942 4286915334
-0.2691212296 -0.1475970447 0.5398424268 4286719236
-0.2704832554 -0.1477417499 0.5425745845 4286719236
-0.2709785104 -0.1474089026 0.5435680747 4286719754
-0.2719074488 -0.1473087668 0.5454314351 4286917133
-0.2711015046 -0.1462684870 0.5438147783 4286655765
-0.2724642456 -0.1463970393 0.5465483665 4286721558
-0.2733934224 -0.1462875307 0.5484122634 4286461731
-0.2743227780 -0.1461739689 0.5502764583 4286922282
-0.2752522826 -0.1460563689 0.5521410108 4287120692
-0.2761819661 -0.1459347159 0.5540059209 4287844415
-0.2771118283 -0.1458090246 0.5558711886 4288109905
-0.2780418396 -0.1456792653 0.5577367544 4289031007
-0.2794065773 -0.1457721591 0.5604742765 4288577662
-0.3037533164 -0.2306821346 0.6106715202 4290806906
-0.3030008376 -0.2294344753 0.6091586947 4290017390
-0.3026697934 -0.2285083532 0.6084931493 4290603091
-0.3044495881 -0.2291726470 0.6120713353 4289813575
-0.3041183054 -0.2282445878 0.6114053130 4290270779
-0.3029415607 -0.2266853601 0.6090395451 4289678642
-0.2962695658 -0.2210316658 0.5956259966 4289875502
-0.2853657007 -0.2122600228 0.5737047195 4289612330
-0.2748780549 -0.2038456798 0.5526201129 4289545255
-0.2681910694 -0.1982882172 0.5391765237 4289347876
-0.2712321579 -0.1999313533 0.5452903509 4289216541
-0.2666560709 -0.1959631145 0.5360904932 4289019162
-0.2658875585 -0.1948049814 0.5345454216 4289280024
-0.2655418813 -0.1939591318 0.5338504910 4289345817
-0.2643485367 -0.1924975365 0.5314513445 4289345556
-0.2627305090 -0.1907329708 0.5281984806 4289411349
-0.2619590759 -0.1895883530 0.5266476274 4289411351
-0.2616110146 -0.1887526214 0.5259478092 4289345558
-0.2612625360 -0.1879181415 0.5252472162 4289279765
-0.2604893744 -0.1867807209 0.5236929059 4289213972
-0.2601399422 -0.1859496236 0.5229904056 4289148179
-0.2602145970 -0.1854222715 0.5231404305 4289082386
-0.2602890730 -0.1848944724 0.5232902169 4289148179
-0.2603634000 -0.1843662262 0.5234395862 4289016593
-0.2604375184 -0.1838375181 0.5235886574 4288884753
-0.2605114877 -0.1833083481 0.5237373710 4288687374
-0.2605853081 -0.1827787459 0.5238857269 4288555790
-0.2602337003 -0.1819513887 0.5231788754 4288555790
-0.2603070438 -0.1814217418 0.5233262777 4288555788
-0.2603802085 -0.1808916479 0.5234733820 4288555788
-0.2600276172 -0.1800664067 0.5227645040 4288489995
-0.2596746087 -0.1792424619 0.5220548511 4288358409
-0.2597469985 -0.1787127703 0.5222004056 4288293131
-0.2598192394 -0.1781826317 0.5223456025 4288161545
-0.2598912716 -0.1776520610 0.5224904418 4288095752
-0.2595369816 -0.1768306792 0.5217781663 4288095752
-0.2596085668 -0.1763001084 0.5219221115 4288095752
-0.2596799731 -0.1757690758 0.5220656395 4288029959
-0.2593246996 -0.1749498695 0.5213513374 4287964166
-0.2593956292 -0.1744188517 0.5214939713 4287964166
-0.2590396404 -0.1736013889 0.5207782984 4287767303
-0.2591100931 -0.1730703712 0.5209199786 4287701510
-0.2587534189 -0.1722546816 0.5202028155 4287701510
-0.2588233948 -0.1717236638 0.5203435421 4287701510
-0.2588932216 -0.1711922288 0.5204839110 4287832580
-0.2585355341 -0.1703787446 0.5197648406 4287832580
-0.2581774294 -0.1695665866 0.5190448761 4287635715
-0.2578189075 -0.1687557697 0.5183241367 4287635715
-0.2578876615 -0.1682252586 0.5184623599 4287635715
-0.2571006715 -0.1671381295 0.5168801546 4287635715
-0.2567409277 -0.1663313061 0.5161569118 4287635717
-0.2563807964 -0.1655258387 0.5154328942 4287635717
-0.2564483881 -0.1649971604 0.5155687928 4287570437
-0.2560875416 -0.1641935110 0.5148433447 4287570437
-0.2557263076 -0.1633912027 0.5141170621 4287570437
-0.2557931244 -0.1628630459 0.5142514110 4287504644
-0.2558597326 -0.1623344868 0.5143853426 4287504644
-0.2559261918 -0.1618055105 0.5145189762 4287504644
-0.2559924722 -0.1612761170 0.5146521926 4287439108
-0.2564874589 -0.1610155702 0.5156473517 4287439108
-0.2565534711 -0.1604844779 0.5157800317 4287504901
-0.2566193044 -0.1599529684 0.5159123540 4287504901
-0.2566849291 -0.1594210565 0.5160443783 4287505155
-0.2571797371 -0.1591544300 0.5170391202 4287570948
-0.2572451234 -0.1586208045 0.5171705484 4287702023
-0.2577398717 -0.1583507061 0.5181652308 4287702023
-0.2578049898 -0.1578153819 0.5182961226 4287636487
-0.2582997084 -0.1575417817 0.5192907453 4287636487
-0.2583645582 -0.1570047587 0.5194211006 4287439878
-0.2588592172 -0.1567276716 0.5204155445 4287374085
-0.2593539059 -0.1564483792 0.5214100480 4287374085
-0.2594183981 -0.1559083611 0.5215397477 4287374085
-0.2599129975 -0.1556255817 0.5225341320 4287374086
-0.2599772215 -0.1550838500 0.5226632357 4287308293
-0.2600412369 -0.1545417309 0.5227919221 4287242757
-0.2605357170 -0.1542541683 0.5237860084 4287242757
-0.2605994642 -0.1537103355 0.5239141583 4287112196
-0.2606630027 -0.1531661153 0.5240419507 4287046403
-0.2607263625 -0.1526214927 0.5241692662 4287111171
-0.2607895136 -0.1520764679 0.5242962837 4287045378
-0.2612836361 -0.1517815143 0.5252896547 4287045378
-0.2617777586 -0.1514843702 0.5262830853 4286979585
-0.2618405521 -0.1509363502 0.5264092684 4286913792
-0.2623346150 -0.1506357044 0.5274025202 4286913792
-0.2628286481 -0.1503328681 0.5283958316 4286914562
-0.2637543976 -0.1502737552 0.5302569270 4286914562
-0.2642485797 -0.1499655992 0.5312504172 4286783491
-0.2647427320 -0.1496552378 0.5322439075 4286783491
-0.2661008835 -0.1498291343 0.5349743366 4286849284
-0.2665952444 -0.1495125443 0.5359682441 4286849284
-0.2662252784 -0.1487109214 0.5352244377 4286849541
-0.2671517134 -0.1486322433 0.5370869637 4286849541
-0.2685107589 -0.1487891376 0.5398191810 4286718725
-0.2681402564 -0.1479854286 0.5390743017 4286718725
-0.2690670788 -0.1478964835 0.5409376621 4286522884
-0.2699941099 -0.1478035003 0.5428013802 4286457091
-0.2713541090 -0.1479424387 0.5455355048 4286654474
-0.2714158297 -0.1473703831 0.5456596017 4286851853
-0.2719103396 -0.1470320821 0.5466537476 4286459415
-0.2728378773 -0.1469247639 0.5485185385 4286591001
-0.2737656236 -0.1468134075 0.5503836870 4286528296
-0.2729604542 -0.1457724571 0.5487649441 4287054640
-0.2747548819 -0.1461176127 0.5523725152 4287384122
-0.2756829560 -0.1459959298 0.5542383194 4287976259
-0.2766111791 -0.1458702087 0.5561044216 4288373078
-0.2779732347 -0.1459681392 0.5588427186 4289228387
-0.2789018750 -0.1458333731 0.5607097149 4288709761
-0.3036171794 -0.2310941815 0.6117622852 4290807165
-0.3032875061 -0.2301649153 0.6110980511 4290149235
-0.3029574156 -0.2292367816 0.6104328632 4290801241
-0.3022053540 -0.2279918194 0.6089175940 4289945932
-0.3018742502 -0.2270668298 0.6082504392 4290402365
-0.2994340062 -0.2245615870 0.6033335328 4289612849
-0.2948827446 -0.2204888016 0.5941631794 4289809966
-0.2844206989 -0.2120300084 0.5730830431 4289612587
-0.2747964263 -0.2042406797 0.5536909699 4289479721
-0.2710775733 -0.2008703649 0.5461978316 4289282342
-0.2682010531 -0.1981389672 0.5404018164 4289282080
-0.2665900588 -0.1963525563 0.5371558666 4289084701
-0.2654005289 -0.1948828250 0.5347590446 4289148954
-0.2642100751 -0.1934177428 0.5323604345 4289214747
-0.2630187273 -0.1919573247 0.5299599171 4289345556
-0.2618264556 -0.1905015707 0.5275576115 4289345556
-0.2610563934 -0.1893573850 0.5260060430 4289411351
-0.2611321509 -0.1888282597 0.5261586308 4289345558
-0.2607843578 -0.1879934967 0.5254578590 4289280024
-0.2604361475 -0.1871599853 0.5247562528 4289214231
-0.2600875497 -0.1863277406 0.5240538716 4289148436
-0.2601622343 -0.1857993603 0.5242043734 4289082643
-0.2602367699 -0.1852705330 0.5243545175 4289148438
-0.2603111267 -0.1847412437 0.5245043039 4289082645
-0.2603853047 -0.1842115074 0.5246537924 4288951061
-0.2600351274 -0.1833821535 0.5239481926 4288819475
-0.2601088285 -0.1828523725 0.5240967274 4288687889
-0.2601823807 -0.1823221445 0.5242449641 4288622096
-0.2598311901 -0.1814949065 0.5235373378 4288556301
-0.2599042952 -0.1809646487 0.5236846209 4288490508
-0.2599771917 -0.1804339439 0.5238314867 4288489997
-0.2600499392 -0.1799027771 0.5239780545 4288358411
-0.2592724264 -0.1787849963 0.5224114656 4288292877
-0.2593445778 -0.1782546937 0.5225568414 4288292877
-0.2594165504 -0.1777239442 0.5227018595 4288227084
-0.2594883740 -0.1771927625 0.5228465796 4288227084
-0.2591344714 -0.1763715148 0.5221335292 4288227338
-0.2587801814 -0.1755515933 0.5214196444 4288161545
-0.2588512301 -0.1750208288 0.5215628147 4287964166
-0.2589221001 -0.1744896173 0.5217055678 4287898373
-0.2589927912 -0.1739579886 0.5218480229 4287767303
-0.2586372197 -0.1731406748 0.5211315751 4287767303
-0.2582812309 -0.1723246872 0.5204142928 4287767303
-0.2583511472 -0.1717935055 0.5205551386 4287701510
-0.2584208846 -0.1712618917 0.5206956863 4287832580
-0.2584904730 -0.1707298458 0.5208358765 4287832580
-0.2581331730 -0.1699165106 0.5201159716 4287635717
-0.2577755153 -0.1691045165 0.5193952918 4287635717
-0.2569905221 -0.1680147499 0.5178136230 4287635717
-0.2566319108 -0.1672063023 0.5170910358 4287701510
-0.2562728822 -0.1663991958 0.5163676143 4287635717
-0.2563406825 -0.1658698916 0.5165042281 4287635717
-0.2559809685 -0.1650645882 0.5157794356 4287570437
-0.2556208372 -0.1642606407 0.5150538087 4287636230
