VERSION 0.7
FIELDS x y z rgba
SIZE 4 4 4 4
TYPE F F F U
COUNT 1 1 1 1
WIDTH 920
HEIGHT 1
VIEWPOINT 0.0 0.0 0.0 1.0 0.0 0.0 0.0
POINTS 920
DATA ascii
-0.2812590003 -0.1061783284 0.5920435190 4291679460
-0.2817270756 -0.1056961343 0.5930288434 4291811046
-0.2817713022 -0.1050537303 0.5931219459 4291876841
-0.2818152905 -0.1044110283 0.5932145119 4291876841
-0.2818590105 -0.1037680209 0.5933066010 4291876841
-0.2819024920 -0.1031247154 0.5933980942 4291942634
-0.2819457054 -0.1024811193 0.5934890509 4291942634
-0.2819886506 -0.1018372253 0.5935794711 4291942634
-0.2824554443 -0.1013452038 0.5945620537 4291942635
-0.2824979722 -0.1006997526 0.5946515203 4291745256
-0.2829644382 -0.1002042443 0.5956334472 4291547877
-0.2830064893 -0.0995572433 0.5957219601 4291416291
-0.2834726274 -0.0990582481 0.5967032313 4291416801
-0.2835142314 -0.0984097049 0.5967907906 4291416801
-0.2839800417 -0.0979072228 0.5977712870 4291416288
-0.2844457030 -0.0974025205 0.5987515450 4291547874
-0.2853358686 -0.0970399901 0.6006252766 4292008427
-0.2853766382 -0.0963864252 0.6007111073 4292468978
-0.2858418822 -0.0958750471 0.6016904712 4292732150
-0.2863070071 -0.0953614414 0.6026694775 4292995322
-0.2867719531 -0.0948456079 0.6036481857 4292797941
-0.2872367799 -0.0943275541 0.6046265960 4292797941
-0.2877014279 -0.0938072801 0.6056047082 4292863473
-0.2881659269 -0.0932847783 0.6065825224 4292929266
-0.2886303067 -0.0927600563 0.6075599790 4293061105
-0.2886693776 -0.0920974761 0.6076422334 4293324277
-0.2891333699 -0.0915692896 0.6086189151 4293587447
-0.2895971835 -0.0910388902 0.6095952392 4293719033
-0.2904861867 -0.0906389728 0.6114665866 4293851126
-0.2905243933 -0.0899714157 0.6115469933 4294114298
-0.2678769529 -0.2043510675 0.5651960373 4293192699
-0.2675490379 -0.2034737021 0.5645042062 4293126906
-0.2676280439 -0.2029064000 0.5646709204 4293061113
-0.2681143582 -0.2026465833 0.5656969547 4292863734
-0.2681931555 -0.2020774186 0.5658631921 4292666355
-0.2682717443 -0.2015077472 0.5660290718 4292600562
-0.2683501840 -0.2009375840 0.5661945343 4292468976
-0.2684284449 -0.2003669143 0.5663596392 4292271597
-0.2685065269 -0.1997957379 0.5665243864 4292271597
-0.2685844302 -0.1992240846 0.5666887760 4292271597
-0.2674372494 -0.1977462173 0.5642683506 4292337390
-0.2675144374 -0.1971761584 0.5644311905 4292403183
-0.2675914466 -0.1966056228 0.5645936728 4292534769
-0.2672596276 -0.1957353055 0.5638935566 4292666355
-0.2673361897 -0.1951646507 0.5640550852 4292732148
-0.2670036554 -0.1942959726 0.5633534789 4292797941
-0.2670797110 -0.1937252134 0.5635139346 4292863736
-0.2671555877 -0.1931539774 0.5636740327 4292863736
-0.2672312856 -0.1925822347 0.5638337731 4292929529
-0.2673068047 -0.1920100302 0.5639930964 4292929529
-0.2673821449 -0.1914373338 0.5641520619 4292929529
-0.2674573064 -0.1908641458 0.5643106103 4292863736
-0.2675322592 -0.1902904809 0.5644688010 4292863736
-0.2676070631 -0.1897163391 0.5646265745 4292929529
-0.2676816583 -0.1891417056 0.5647839904 4292929529
-0.2681660950 -0.1888553649 0.5658061504 4292929529
-0.2674201429 -0.1877031177 0.5642322302 4292929529
-0.2674940825 -0.1871279329 0.5643882155 4292995322
-0.2675678134 -0.1865522712 0.5645437837 4292995322
-0.2676413655 -0.1859761477 0.5646989942 4292995322
-0.2673041523 -0.1851151735 0.5639874935 4292929529
-0.2673771977 -0.1845389754 0.5641416311 4292929529
-0.2674500942 -0.1839623004 0.5642954111 4292929529
-0.2679337263 -0.1836668551 0.5653158426 4292929529
-0.2680063546 -0.1830883622 0.5654690266 4292929529
-0.2680787742 -0.1825093925 0.5656218529 4292995322
-0.2681510150 -0.1819299608 0.5657742620 4293061115
-0.2682230473 -0.1813500524 0.5659262538 4293061115
-0.2682949007 -0.1807696819 0.5660778880 4293061115
-0.2683665454 -0.1801888347 0.5662291050 4293126908
-0.2684380114 -0.1796075404 0.5663798451 4293258494
-0.2685092986 -0.1790257692 0.5665302277 4293258494
-0.2685803771 -0.1784435362 0.5666802526 4293258494
-0.2690633237 -0.1781336367 0.5676991940 4293192701
-0.2691341043 -0.1775496006 0.5678485632 4293126908
-0.2696169615 -0.1772360951 0.5688673258 4293061115
-0.2696875036 -0.1766502261 0.5690160990 4292995322
-0.2693453431 -0.1757946908 0.5682942271 4292995322
-0.2694153488 -0.1752088070 0.5684419274 4292995322
-0.2698978484 -0.1748898923 0.5694599748 4292863736
-0.2699675858 -0.1743021905 0.5696070790 4292666357
-0.2704500258 -0.1739796698 0.5706250072 4292468978
-0.2705194354 -0.1733901650 0.5707714558 4292337390
-0.2705886662 -0.1728002131 0.5709175467 4292205804
-0.2706577182 -0.1722097993 0.5710632205 4292074218
-0.2707265317 -0.1716189384 0.5712084174 4292008425
-0.2707951665 -0.1710276306 0.5713532567 4291942632
-0.2708635926 -0.1704358757 0.5714976192 4291876839
-0.2713454664 -0.1701029688 0.5725142956 4291811046
-0.2714135945 -0.1695094258 0.5726580620 4291745253
-0.2714815140 -0.1689154208 0.5728013515 4291613667
-0.2719631791 -0.1685775518 0.5738176107 4291416288
-0.2724448442 -0.1682374328 0.5748338699 4291284702
-0.2720981836 -0.1673855036 0.5741024613 4291153116
-0.2725796402 -0.1670426875 0.5751183033 4291087323
-0.2726467550 -0.1664446443 0.5752598643 4291021530
-0.2727136314 -0.1658461690 0.5754010081 4290955737
-0.2727802992 -0.1652472466 0.5755416751 4290889944
-0.2728467882 -0.1646478921 0.5756819248 4290824151
-0.2733277977 -0.1642974168 0.5766968727 4290824151
-0.2733939588 -0.1636962742 0.5768364072 4290890198
-0.2734599113 -0.1630946994 0.5769755840 4291021784
-0.2735256255 -0.1624926776 0.5771142244 4291153370
-0.2735911608 -0.1618902385 0.5772525072 4291219163
-0.2736564577 -0.1612873524 0.5773902535 4291350749
-0.2741369009 -0.1609278768 0.5784040093 4291548128
-0.2746173441 -0.1605661362 0.5794176459 4291942373
-0.2746821940 -0.1599601358 0.5795544982 4292337131
-0.2747468650 -0.1593537033 0.5796909332 4292666096
-0.2752270401 -0.1589870006 0.5807040930 4292863475
-0.2752913535 -0.1583788097 0.5808397532 4293193204
-0.2757713795 -0.1580085009 0.5818526149 4293456376
-0.2758353651 -0.1573985219 0.5819876194 4293850621
-0.2763152719 -0.1570246071 0.5830001235 4293982207
-0.2763788998 -0.1564128697 0.5831344128 4294047999
-0.2768586576 -0.1560353488 0.5841466188 4294113791
-0.2769219279 -0.1554218382 0.5842801332 4294245375
-0.2774015367 -0.1550407112 0.5852920413 4294311167
-0.2774644792 -0.1544254422 0.5854248405 4294376959
-0.2775271833 -0.1538097560 0.5855571628 4294376959
-0.2775896788 -0.1531936526 0.5856890678 4294311167
-0.2780688703 -0.1528062224 0.5867000818 4294311167
-0.2781310081 -0.1521883607 0.5868312120 4294311167
-0.2781929374 -0.1515700817 0.5869618654 4294311167
-0.2786718011 -0.1511777192 0.5879722238 4294245375
-0.2791506350 -0.1507830769 0.5889825225 4294245375
-0.2792120576 -0.1501617134 0.5891121030 4294508543
-0.2792732716 -0.1495399326 0.5892412663 4294376959
-0.2793342471 -0.1489177495 0.5893698931 4294245375
-0.2798126340 -0.1485168338 0.5903792381 4294113791
-0.2802909613 -0.1481136382 0.5913884640 4294047998
-0.2803514302 -0.1474883854 0.5915160775 4294113791
-0.2804116607 -0.1468627155 0.5916431546 4294179583
-0.2804716825 -0.1462366432 0.5917698145 4294179583
-0.2805314660 -0.1456101835 0.5918959379 4294311167
-0.2810091674 -0.1451993734 0.5929038525 4294311167
-0.2810685933 -0.1445711702 0.5930292010 4294311167
-0.2811277509 -0.1439425796 0.5931540728 4294311167
-0.2811866999 -0.1433135867 0.5932784081 4294311679
-0.2812454104 -0.1426841915 0.5934022665 4294245887
-0.2813038826 -0.1420544088 0.5935256481 4294245887
-0.2813621163 -0.1414242238 0.5936484933 4294311679
-0.2814201117 -0.1407936513 0.5937708616 4293916925
-0.2810589969 -0.1399541199 0.5930089951 4293982718
-0.2811164558 -0.1393237263 0.5931302309 4294048511
-0.2807546258 -0.1384862363 0.5923667550 4294048511
-0.2803923786 -0.1376502365 0.5916025043 4293982719
-0.2800297439 -0.1368157566 0.5908373594 4293719550
-0.2800860107 -0.1361866444 0.5909560323 4292995574
-0.2797226310 -0.1353542209 0.5901893377 4292271851
-0.2793588638 -0.1345233023 0.5894218683 4291021530
-0.2789946795 -0.1336939037 0.5886534452 4290626772
-0.2790497243 -0.1330661178 0.5887696147 4290298061
-0.2791045308 -0.1324379593 0.5888852477 4290100682
-0.2787393332 -0.1316112131 0.5881146789 4290166473
-0.2783737183 -0.1307860017 0.5873432755 4290166473
-0.2784276307 -0.1301586330 0.5874570608 4290166473
-0.2784813344 -0.1295309067 0.5875703096 4290034887
-0.2785347700 -0.1289028078 0.5876831412 4290363592
-0.2785879970 -0.1282743514 0.5877953768 4290889936
-0.2786409557 -0.1276455373 0.5879071355 4291416278
-0.2791140676 -0.1272079498 0.5889053345 4291942622
-0.2791666389 -0.1265774667 0.5890162587 4292534759
-0.2792189717 -0.1259466261 0.5891266465 4293126896
-0.2792710364 -0.1253154427 0.5892365575 4293784826
-0.2793228924 -0.1246839017 0.5893459320 4294311167
-0.2793744802 -0.1240520105 0.5894548297 4294376959
-0.2794258595 -0.1234197691 0.5895631909 4294376959
-0.2794769704 -0.1227871776 0.5896710157 4294377215
-0.2791068554 -0.1219702736 0.5888901353 4294311423
-0.2791574001 -0.1213379428 0.5889968276 4294311423
-0.2787865996 -0.1205232143 0.5882143974 4294311423
-0.2788365781 -0.1198911592 0.5883198977 4294311423
-0.2788863182 -0.1192587689 0.5884248018 4294245631
-0.2789358199 -0.1186260357 0.5885292292 4294113791
-0.2789850533 -0.1179929599 0.5886331797 4293982207
-0.2786125541 -0.1171822771 0.5878472328 4293784828
-0.2786612511 -0.1165494993 0.5879499316 4293521656
-0.2791313231 -0.1160917580 0.5889417529 4293258486
-0.2791796029 -0.1154573560 0.5890436172 4292929521
-0.2792276144 -0.1148226336 0.5891448855 4292731887
-0.2792753577 -0.1141875759 0.5892456770 4292534508
-0.2793228924 -0.1135522053 0.5893459320 4292140265
-0.2793701589 -0.1129164994 0.5894456506 4291942886
-0.2794171572 -0.1122804806 0.5895448327 4291745253
-0.2794639468 -0.1116441339 0.5896435380 4291547874
-0.2799326777 -0.1111751571 0.5906325579 4291482081
-0.2799790204 -0.1105372161 0.5907303095 4291416288
-0.2800250947 -0.1098989621 0.5908275247 4291482083
-0.2800709307 -0.1092603877 0.5909242034 4291547876
-0.2801164985 -0.1086215004 0.5910204053 4291876582
-0.2801618278 -0.1079823077 0.5911160111 4291876582
-0.2810521722 -0.1076666117 0.5929945707 4291942375
-0.2810971439 -0.1070248708 0.5930894613 4291942375
-0.2811418474 -0.1063828170 0.5931837559 4291876841
-0.2811862826 -0.1057404652 0.5932775140 4291876841
-0.2816533744 -0.1052558497 0.5942630768 4291811048
-0.2816973627 -0.1046119183 0.5943558812 4291811048
-0.2817411125 -0.1039676890 0.5944482088 4291811048
-0.2817846239 -0.1033231616 0.5945399404 4291679462
-0.2818278372 -0.1026783362 0.5946311951 4291613669
-0.2818708122 -0.1020332128 0.5947218537 4291482083
-0.2823368311 -0.1015400290 0.5957050920 4291284704
-0.2823793590 -0.1008933559 0.5957947969 4291021532
-0.2828450203 -0.1003966779 0.5967773199 4290824153
-0.2828871012 -0.0997484475 0.5968660712 4290626774
-0.2833524346 -0.0992482826 0.5978479385 4290298574
-0.2838176489 -0.0987458900 0.5988295078 4290364367
-0.2842827439 -0.0982412696 0.5998107791 4290561233
-0.2847476900 -0.0977344140 0.6007917523 4290824405
-0.2852124870 -0.0972253382 0.6017724276 4291284702
-0.2856771350 -0.0967140347 0.6027528048 4291613667
-0.2861416340 -0.0962004960 0.6037328839 4291679975
-0.2866060138 -0.0956847370 0.6047126651 4291811561
-0.2870702446 -0.0951667503 0.6056921482 4292140011
-0.2875342965 -0.0946465433 0.6066712737 4292337390
-0.2879982293 -0.0941241086 0.6076501012 4292600301
-0.2884620130 -0.0935994461 0.6086286306 4292797680
-0.2889256179 -0.0930725634 0.6096068025 4292995312
-0.2889647484 -0.0924077630 0.6096894145 4293192691
-0.2890036106 -0.0917426944 0.6097714305 4293456376
-0.2898910940 -0.0913448408 0.6116439104 4293719548
-0.2899295390 -0.0906772837 0.6117250323 4293785079
-0.2903922498 -0.0901412442 0.6127012968 4294048251
-0.2676045299 -0.2090244144 0.5659475327 4293258746
-0.2668740153 -0.2078267336 0.5644025803 4293127160
-0.2669542730 -0.2072619498 0.5645723343 4292995574
-0.2666285336 -0.2063825130 0.5638834238 4292863988
-0.2663023472 -0.2055042982 0.5631936193 4292732402
-0.2663818598 -0.2049397081 0.5633617043 4292600816
-0.2664611638 -0.2043746114 0.5635294914 4292535023
-0.2661339939 -0.2034983337 0.5628375411 4292534769
-0.2662128508 -0.2029330879 0.5630043149 4292534769
-0.2662915587 -0.2023673356 0.5631707311 4292534769
-0.2663700581 -0.2018010914 0.5633367896 4292468976
-0.2664483786 -0.2012343556 0.5635024309 4292468976
-0.2665265501 -0.2006671131 0.5636677146 4292666355
-0.2666045427 -0.2000993639 0.5638326406 4292863734
-0.2666823566 -0.1995311230 0.5639972091 4292797941
-0.2667599618 -0.1989623904 0.5641614199 4292797941
-0.2668374181 -0.1983931512 0.5643252134 4292797941
-0.2665072083 -0.1975214034 0.5636268258 4292863734
-0.2661765814 -0.1966508925 0.5629276037 4292929527
-0.2662532628 -0.1960819215 0.5630897880 4292929529
-0.2655140460 -0.1949136406 0.5615264773 4292929529
-0.2659981251 -0.1946439594 0.5625501871 4292929529
-0.2656660676 -0.1937767267 0.5618479252 4292929529
-0.2657418251 -0.1932075471 0.5620081425 4292929529
-0.2658173740 -0.1926378608 0.5621679425 4292929529
-0.2658927441 -0.1920677125 0.5623273253 4292929529
-0.2659679651 -0.1914970726 0.5624863505 4292929529
-0.2664516270 -0.1912192255 0.5635092854 4292995322
-0.2665265799 -0.1906467378 0.5636678338 4292995322
-0.2666013539 -0.1900737584 0.5638259053 4292995322
-0.2666759491 -0.1895003170 0.5639836788 4292995322
-0.2667503357 -0.1889263839 0.5641410351 4292929529
-0.2668245435 -0.1883519590 0.5642979741 4292929529
-0.2668985724 -0.1877770722 0.5644545555 4292929529
-0.2665629685 -0.1869145781 0.5637447238 4292929529
-0.2666364908 -0.1863396168 0.5639002919 4292929529
-0.2667098641 -0.1857641786 0.5640554428 4292929529
-0.2667830288 -0.1851882637 0.5642101765 4292929529
-0.2668560147 -0.1846118867 0.5643645525 4292929529
-0.2669288218 -0.1840350181 0.5645184517 4292995322
-0.2674115598 -0.1837394983 0.5655394197 4292995322
-0.2674840987 -0.1831608117 0.5656928420 4292995322
-0.2675564289 -0.1825816631 0.5658458471 4293061115
-0.2676285803 -0.1820020229 0.5659984350 4292995322
-0.2681111395 -0.1817001849 0.5670189261 4292995322
-0.2681830227 -0.1811187267 0.5671709180 4293061115
-0.2682546973 -0.1805368066 0.5673225522 4293061115
-0.2683261931 -0.1799544245 0.5674737692 4293061115
-0.2683975101 -0.1793715656 0.5676245689 4292995322
-0.2684686184 -0.1787882596 0.5677749515 4292863736
-0.2689507604 -0.1784773767 0.5687946081 4292732150
-0.2690216005 -0.1778922379 0.5689443946 4292666357
-0.2695036829 -0.1775777489 0.5699639320 4292468978
-0.2695742249 -0.1769907922 0.5701131225 4292337392
-0.2696445584 -0.1764033735 0.5702618957 4292271599
-0.2693029344 -0.1755470783 0.5695394278 4292074220
-0.2697846591 -0.1752271652 0.5705581903 4292008427
-0.2698544264 -0.1746383756 0.5707057118 4291876839
-0.2703360617 -0.1743148565 0.5717243552 4291811046
-0.2704055309 -0.1737242639 0.5718712807 4291745253
-0.2704747915 -0.1731331944 0.5720177293 4291613667
-0.2705438435 -0.1725416929 0.5721637607 4291613667
-0.2706127167 -0.1719497293 0.5723093748 4291547874
-0.2706813514 -0.1713573188 0.5724546313 4291350495
-0.2707498074 -0.1707644463 0.5725993514 4291350495
-0.2712309062 -0.1704305410 0.5736168027 4291284702
-0.2712990344 -0.1698358804 0.5737609267 4291153116
-0.2713669837 -0.1692407727 0.5739046335 4291021530
-0.2718478739 -0.1689018905 0.5749216080 4290889944
-0.2719155252 -0.1683049798 0.5750646591 4290889944
-0.2723962963 -0.1679625064 0.5760814548 4291021530
-0.2724636197 -0.1673637927 0.5762238503 4290955737
-0.2729443014 -0.1670176983 0.5772404075 4290955737
-0.2730113268 -0.1664171815 0.5773821473 4291021530
-0.2730781138 -0.1658162326 0.5775234103 4291218909
-0.2731447220 -0.1652148515 0.5776642561 4291416288
-0.2736250758 -0.1648624390 0.5786801577 4291679460
-0.2736913562 -0.1642592549 0.5788202882 4291942886
-0.2737573981 -0.1636556387 0.5789600015 4292074472
-0.2738232613 -0.1630515903 0.5790992975 4292535023
-0.2743032575 -0.1626928598 0.5801144242 4292798195
-0.2743687928 -0.1620870233 0.5802530050 4293192953
-0.2744341195 -0.1614807546 0.5803911686 4293390332
-0.2749138474 -0.1611170620 0.5814057589 4293587711
-0.2753936052 -0.1607511193 0.5824203491 4293719295
-0.2754584551 -0.1601417214 0.5825574994 4293850879
-0.2755231261 -0.1595318913 0.5826942325 4293916671
-0.2760025859 -0.1591609716 0.5837082863 4293982459
-0.2760668993 -0.1585493684 0.5838443041 4294048252
-0.2765462399 -0.1581748277 0.5848580003 4294048252
-0.2766101956 -0.1575614512 0.5849933028 4294048252
-0.2770893872 -0.1571833044 0.5860067010 4294047998
-0.2771530151 -0.1565681547 0.5861412883 4294047998
-0.2776320577 -0.1561864018 0.5871543884 4294113791
-0.2776953280 -0.1555694789 0.5872882009 4294047998
-0.2781741917 -0.1551841050 0.5883009434 4293982207
-0.2782371342 -0.1545654237 0.5884340405 4294047999
-0.2782998383 -0.1539463252 0.5885666609 4293982207
-0.2783623338 -0.1533267945 0.5886988044 4293982207
-0.2784245908 -0.1527068615 0.5888304710 4294178815
-0.2789029181 -0.1523138434 0.5898420811 4294178815
-0.2789648175 -0.1516921520 0.5899729729 4294047231
-0.2794429362 -0.1512955129 0.5909841657 4294113023
-0.2795045078 -0.1506720632 0.5911143422 4293916414
-0.2791491747 -0.1498245895 0.5903629065 4293916414
-0.2796269059 -0.1494239420 0.5913732052 4293850621
-0.2796877623 -0.1487992555 0.5915019512 4293850621
-0.2801653147 -0.1483950019 0.5925118923 4293850621
-0.2802258134 -0.1477685720 0.5926398039 4293850621
-0.2802860737 -0.1471417546 0.5927672386 4293916414
-0.2803460956 -0.1465145200 0.5928941965 4293916414
-0.2804059088 -0.1458868831 0.5930206776 4293916414
-0.2804654837 -0.1452588439 0.5931466818 4293850621
-0.2805248201 -0.1446304172 0.5932721496 4293850621
-0.2805839181 -0.1440015733 0.5933972001 4293916414
-0.2806428075 -0.1433723420 0.5935217142 4293982207
-0.2807014287 -0.1427427232 0.5936456919 4293982207
-0.2807598412 -0.1421127021 0.5937692523 4293982205
-0.2808180153 -0.1414822936 0.5938922763 4293982205
-0.2808759511 -0.1408514827 0.5940147638 4293917179
-0.2809336483 -0.1402202994 0.5941368341 4293785593
-0.2805729806 -0.1393809915 0.5933740139 4293653753
-0.2806301117 -0.1387499720 0.5934948921 4293587960
-0.2802687287 -0.1379127204 0.5927305818 4293719550
-0.2799068987 -0.1370769590 0.5919653773 4293785343
-0.2799631655 -0.1364466697 0.5920844078 4293390332
-0.2796006501 -0.1356129795 0.5913176537 4292732402
-0.2796563506 -0.1349828839 0.5914354920 4292008425
-0.2792930901 -0.1341512650 0.5906672478 4291153116
-0.2789294422 -0.1333211809 0.5898981690 4290429647
-0.2789842486 -0.1326918304 0.5900141001 4290100682
-0.2786198854 -0.1318638325 0.5892434716 4289903301
-0.2782551050 -0.1310373545 0.5884720087 4289903301
-0.2783090472 -0.1304087937 0.5885860920 4289903303
-0.2783627510 -0.1297798753 0.5886996984 4289837510
-0.2784162462 -0.1291505992 0.5888128281 4289902788
-0.2784694731 -0.1285209507 0.5889254212 4290165960
-0.2785224617 -0.1278909445 0.5890374780 4290429132
-0.2785752118 -0.1272605807 0.5891490579 4290692304
-0.2786277235 -0.1266298741 0.5892601013 4290955731
-0.2790997028 -0.1261885464 0.5902582407 4291284696
-0.2791517973 -0.1255561709 0.5903684497 4291613661
-0.2787838280 -0.1247355789 0.5895901918 4291876833
-0.2788353562 -0.1241034418 0.5896992087 4292337384
-0.2788866758 -0.1234709546 0.5898077488 4292403177
-0.2789377272 -0.1228381246 0.5899156928 4292533993
-0.2789885402 -0.1222049445 0.5900231600 4292468200
-0.2790391147 -0.1215714142 0.5901301503 4292402405
-0.2782488167 -0.1205732822 0.5884587169 4292402405
-0.2782987356 -0.1199409813 0.5885643363 4292336612
-0.2783484161 -0.1193083376 0.5886694193 4292270819
-0.2783978581 -0.1186753586 0.5887739658 4292073443
-0.2784470618 -0.1180420443 0.5888780355 4292007650
-0.2780753076 -0.1172310412 0.5880918503 4291744992
-0.2781239450 -0.1165980175 0.5881946683 4291481820
-0.2781723440 -0.1159646586 0.5882970095 4291350236
-0.2786413729 -0.1155054495 0.5892889500 4291152857
-0.2786893249 -0.1148704737 0.5893903971 4291021273
-0.2787370384 -0.1142351776 0.5894913077 4291021273
-0.2792056501 -0.1137711480 0.5904822946 4291218652
-0.2792529166 -0.1131342426 0.5905823112 4291284445
-0.2792999446 -0.1124970093 0.5906817913 4291416290
-0.2793467343 -0.1118594483 0.5907807350 4291547876
-0.2793932855 -0.1112215742 0.5908791423 4291613670
-0.2794395685 -0.1105833873 0.5909770131 4291613670
-0.2794856131 -0.1099448726 0.5910744071 4291613670
-0.2795313895 -0.1093060523 0.5911712050 4291745256
-0.2799986005 -0.1088308170 0.5921593308 4291679203
-0.2804656923 -0.1083533391 0.5931471586 4291744996
-0.2805108726 -0.1077116579 0.5932426453 4291679460
-0.2809776664 -0.1072306633 0.5942298770 4291613667
-0.2810223699 -0.1065873951 0.5943244696 4291482083
-0.2810668349 -0.1059438139 0.5944184661 4291416290
-0.2811110616 -0.1052999347 0.5945119858 4291350497
-0.2815771699 -0.1048128903 0.5954977274 4291350497
-0.2816209197 -0.1041674390 0.5955902934 4291153118
-0.2816644311 -0.1035216898 0.5956823230 4290824153
-0.2817076743 -0.1028756350 0.5957737565 4290495701
-0.2821730971 -0.1023825556 0.5967580676 4290035150
-0.2822158933 -0.1017349437 0.5968485475 4289574599
-0.2826809585 -0.1012383625 0.5978321433 4289311427
-0.2827233076 -0.1005891934 0.5979216695 4289245634
-0.2831880450 -0.1000891179 0.5989045501 4289114048
-0.2836526632 -0.0995868146 0.5998871922 4289114814
-0.2836943567 -0.0989348367 0.5999753475 4289180607
-0.2845814824 -0.0985755101 0.6018515229 4289377472
-0.2850456834 -0.0980665162 0.6028332114 4289574851
-0.2855097651 -0.0975552872 0.6038146615 4289771976
-0.2859736681 -0.0970418304 0.6047958136 4290100941
-0.2864374518 -0.0965261459 0.6057766080 4290429908
-0.2869010866 -0.0960082337 0.6067571044 4290627287
-0.2873645425 -0.0954880938 0.6077373028 4290824664
-0.2874045968 -0.0948260650 0.6078220010 4291285215
-0.2882910669 -0.0944411308 0.6096967459 4291745505
-0.2883307040 -0.0937765986 0.6097805500 4292074470
-0.2887935340 -0.0932485312 0.6107593775 4292272102
-0.2888326645 -0.0925824866 0.6108421683 4292469481
-0.2892951369 -0.0920509398 0.6118202209 4292930032
-0.2893337905 -0.0913833827 0.6119019985 4293456376
-0.2897958755 -0.0908483714 0.6128792167 4293719286
-0.2898340523 -0.0901792943 0.6129599810 4294048251
-0.2672405839 -0.2111198902 0.5665084720 4293127160
-0.2669173479 -0.2102358788 0.5658233166 4292798195
-0.2665937245 -0.2093530595 0.5651372075 4292469489
-0.2662696540 -0.2084714323 0.5644502640 4292403696
-0.2659451962 -0.2075910270 0.5637624860 4292337903
-0.2656203210 -0.2067118138 0.5630737543 4292337903
-0.2652950287 -0.2058338076 0.5623841882 4292403698
-0.2649693191 -0.2049570233 0.5616937876 4292469491
-0.2650484741 -0.2043939829 0.5618615746 4292403698
-0.2647220492 -0.2035187781 0.5611696243 4292403698
-0.2648007572 -0.2029555887 0.5613364577 4292469491
-0.2648792863 -0.2023918927 0.5615028739 4292403698
-0.2645518780 -0.2015186250 0.5608088374 4292601077
-0.2650358081 -0.2012630254 0.5618346930 4292535284
-0.2651138008 -0.2006978244 0.5620000362 4292666870
-0.2651916146 -0.2001321465 0.5621650219 4292930042
-0.2652692795 -0.1995659620 0.5623296499 4292995835
-0.2653467655 -0.1989992708 0.5624939203 4293127421
-0.2654240727 -0.1984321028 0.5626577735 4292930040
-0.2655012012 -0.1978644282 0.5628212690 4292995833
-0.2655781507 -0.1972962618 0.5629844069 4292930040
-0.2652480900 -0.1964263320 0.5622847676 4292995833
-0.2653245926 -0.1958580464 0.5624468923 4293193212
-0.2649938166 -0.1949897557 0.5617457032 4293127419
-0.2650698423 -0.1944213659 0.5619068742 4292930040
-0.2647383809 -0.1935547143 0.5612041950 4292930040
-0.2648139000 -0.1929862201 0.5613643527 4293126908
-0.2648892701 -0.1924172342 0.5615240932 4293126908
-0.2649644315 -0.1918477714 0.5616834164 4293126908
-0.2654471993 -0.1915720999 0.5627067685 4293061115
-0.2655221224 -0.1910007894 0.5628656149 4293061115
-0.2655968666 -0.1904290020 0.5630240440 4293126908
-0.2660795152 -0.1901483685 0.5640472174 4293126908
-0.2661540210 -0.1895747334 0.5642051697 4293061115
-0.2662283480 -0.1890006214 0.5643627048 4293061628
-0.2663024664 -0.1884260178 0.5645198226 4293127421
-0.2663764060 -0.1878509372 0.5646765828 4293061628
-0.2664501667 -0.1872753799 0.5648329258 4292995835
-0.2665237486 -0.1866993606 0.5649889112 4293193214
-0.2661882341 -0.1858373731 0.5642776489 4293193214
-0.2662613094 -0.1852612793 0.5644326210 4293127421
-0.2667433321 -0.1849683970 0.5654544234 4293127421
-0.2664069235 -0.1841076612 0.5647412539 4293127421
-0.2668887973 -0.1838120669 0.5657627583 4293259007
-0.2669612467 -0.1832331866 0.5659163594 4293258494
-0.2670334876 -0.1826538295 0.5660694838 4293126908
-0.2675152421 -0.1823532730 0.5670906901 4293126908
-0.2675872147 -0.1817720979 0.5672433376 4292929529
-0.2676590085 -0.1811904460 0.5673955083 4292666357
-0.2681406140 -0.1808849126 0.5684164166 4292600564
-0.2682121396 -0.1803014427 0.5685680509 4292403185
-0.2682834864 -0.1797175109 0.5687192678 4292271599
-0.2683545947 -0.1791331023 0.5688700676 4292271597
-0.2688359916 -0.1788212359 0.5698904991 4292271597
-0.2689068317 -0.1782350093 0.5700407028 4292008425
-0.2693881392 -0.1779195368 0.5710610151 4291811046
-0.2694587111 -0.1773314923 0.5712106228 4291811046
-0.2699399590 -0.1770124137 0.5722307563 4291679460
-0.2700102329 -0.1764225364 0.5723797083 4291679203
-0.2700803280 -0.1758322120 0.5725283027 4291613410
-0.2701502144 -0.1752414256 0.5726764202 4291481824
-0.2702198923 -0.1746501774 0.5728241801 4291416031
-0.2707007825 -0.1743234098 0.5738435388 4291284702
-0.2707701623 -0.1737303585 0.5739906430 4291218909
-0.2708393633 -0.1731368303 0.5741373301 4291218909
-0.2709083557 -0.1725428700 0.5742835999 4291284702
-0.2709771395 -0.1719484478 0.5744293928 4291153116
-0.2710457146 -0.1713535786 0.5745747685 4291218909
-0.2711140811 -0.1707582474 0.5747197270 4291218909
-0.2715944052 -0.1704210788 0.5757378936 4291218909
-0.2716624737 -0.1698239446 0.5758821964 4291218909
-0.2717303336 -0.1692263633 0.5760260820 4291350495
-0.2722104490 -0.1688842326 0.5770438313 4291547874
-0.2722780108 -0.1682848483 0.5771870613 4291811046
-0.2727580070 -0.1679390818 0.5782045722 4292073961
-0.2732380033 -0.1675910652 0.5792220831 4292139754
-0.2728922963 -0.1667362899 0.5784892440 4292271340
-0.2733720839 -0.1663855612 0.5795062780 4292600305
-0.2734387815 -0.1657821387 0.5796477199 4293060854
-0.2735053003 -0.1651782691 0.5797887444 4293455612
-0.2739848495 -0.1648225784 0.5808053017 4293587198
-0.2740510404 -0.1642169207 0.5809456110 4293652991
-0.2741170228 -0.1636108309 0.5810855031 4293718783
-0.2745963335 -0.1632501632 0.5821015835 4293652991
-0.2746619880 -0.1626422703 0.5822407603 4293652989
-0.2747274339 -0.1620339602 0.5823794603 4293718782
-0.2756203413 -0.1619114280 0.5842722654 4293652989
-0.2752715945 -0.1610582173 0.5835330486 4293587196
-0.2757505476 -0.1606889665 0.5845482945 4293521403
-0.2758153081 -0.1600770801 0.5846855640 4293455610
-0.2762941122 -0.1597042084 0.5857005715 4293389817
-0.2763585448 -0.1590905488 0.5858371258 4293389817
-0.2764227390 -0.1584764570 0.5859732628 4293389817
-0.2769012749 -0.1580986083 0.5869876742 4293324024
-0.2773797810 -0.1577184945 0.5880019665 4293258231
-0.2774435282 -0.1571012735 0.5881371498 4293192438
-0.2775070369 -0.1564836353 0.5882717967 4293126645
-0.2775703371 -0.1558655798 0.5884060264 4292995059
-0.2780484259 -0.1554791480 0.5894194841 4293126645
-0.2781113982 -0.1548593193 0.5895529389 4292995059
-0.2781741321 -0.1542390734 0.5896859169 4292929521
-0.2782366276 -0.1536183953 0.5898184180 4292863728
-0.2782989144 -0.1529973149 0.5899504423 4292732142
-0.2783609927 -0.1523758024 0.5900819898 4292666349
-0.2784228027 -0.1517538875 0.5902131200 4292732142
-0.2789000869 -0.1513571143 0.5912247896 4292666349
-0.2789615393 -0.1507334411 0.5913551450 4292732142
-0.2786069512 -0.1498856395 0.5906034708 4292534763
-0.2790838182 -0.1494848579 0.5916143060 4292600556
-0.2791446149 -0.1488599479 0.5917431712 4292600556
-0.2796212733 -0.1484555602 0.5927536488 4292468970
-0.2796817124 -0.1478289068 0.5928817391 4292468970
-0.2797419131 -0.1472018361 0.5930093527 4292600556
-0.2798018754 -0.1465743780 0.5931364894 4292534763
-0.2794451416 -0.1457293332 0.5923802853 4292468970
-0.2795045674 -0.1451019943 0.5925062299 4292403177
-0.2799803913 -0.1446895748 0.5935148597 4292468970
-0.2796227038 -0.1438461393 0.5927566290 4292534763
-0.2796814144 -0.1432176083 0.5928811431 4292403177
-0.2797398865 -0.1425886899 0.5930051208 4292403177
-0.2797981501 -0.1419593692 0.5931286216 4292403177
-0.2798561752 -0.1413296610 0.5932515860 4292337384
-0.2799139619 -0.1406995654 0.5933740735 4292140263
-0.2799715102 -0.1400690824 0.5934960842 4292140263
-0.2800288200 -0.1394382119 0.5936176181 4292140263
-0.2796684802 -0.1386000812 0.5928537250 4292140263
-0.2797252536 -0.1379693747 0.5929740667 4292008677
-0.2797817886 -0.1373382807 0.5930938721 4291942884
-0.2798380554 -0.1367068142 0.5932132006 4291877093
-0.2794763744 -0.1358718574 0.5924464464 4291679714
-0.2791142464 -0.1350384206 0.5916788578 4291350749
-0.2791696787 -0.1344076991 0.5917962790 4290955991
-0.2788068354 -0.1335763335 0.5910271406 4290363854
-0.2784436047 -0.1327464879 0.5902571678 4289837510
-0.2784981430 -0.1321165413 0.5903727412 4289640390
-0.2781341970 -0.1312887967 0.5896012187 4289640390
-0.2781881690 -0.1306590587 0.5897156596 4289508804
-0.2782419026 -0.1300289631 0.5898295641 4289443011
-0.2778769135 -0.1292039007 0.5890558362 4289836995
-0.2779300809 -0.1285740137 0.5891685486 4290034374
-0.2779830098 -0.1279437840 0.5892807841 4290166215
-0.2780357003 -0.1273131669 0.5893924832 4290363594
-0.2780881524 -0.1266822070 0.5895037055 4290560718
-0.2785592675 -0.1262407303 0.5905023217 4290692304
-0.2786113024 -0.1256081015 0.5906127095 4290561233
-0.2786631286 -0.1249751300 0.5907225013 4290429647
-0.2787146866 -0.1243418008 0.5908318162 4290692819
-0.2787660062 -0.1237081140 0.5909405947 4290890198
-0.2788170874 -0.1230740845 0.5910488963 4291021784
-0.2784485817 -0.1222555861 0.5902677178 4291087577
-0.2784990966 -0.1216218174 0.5903747678 4291087577
-0.2781298459 -0.1208054945 0.5895920992 4291021784
-0.2777602375 -0.1199907437 0.5888085365 4291021530
-0.2778098583 -0.1193578541 0.5889137387 4290955737
-0.2778592408 -0.1187246293 0.5890184045 4290890196
-0.2779083848 -0.1180910692 0.5891225934 4291021782
-0.2779572904 -0.1174571738 0.5892262459 4290890196
-0.2775859833 -0.1166464761 0.5884391665 4290758610
-0.2780543268 -0.1161883846 0.5894319415 4290890196
-0.2781024873 -0.1155534908 0.5895340443 4290955989
-0.2781504095 -0.1149182692 0.5896356106 4291021784
-0.2781980634 -0.1142827198 0.5897366405 4291219163
-0.2786657810 -0.1138185188 0.5907281637 4291284956
-0.2787130177 -0.1131813601 0.5908282399 4291350749
-0.2787599862 -0.1125438735 0.5909278393 4291416542
-0.2788067460 -0.1119060665 0.5910269618 4291482335
-0.2788532078 -0.1112679467 0.5911254883 4291416542
-0.2788994610 -0.1106294990 0.5912234783 4291416542
-0.2789454460 -0.1099907383 0.5913209915 4291350749
-0.2794119716 -0.1095165983 0.5923099518 4291219163
-0.2798783779 -0.1090402156 0.5932986736 4291087326
-0.2803446949 -0.1085615978 0.5942871571 4290824154
-0.2803898752 -0.1079186872 0.5943829417 4290824411
-0.2808558643 -0.1074365452 0.5953707695 4291021790
-0.2809005976 -0.1067920551 0.5954656005 4290890204
-0.2809450924 -0.1061472595 0.5955598950 4290429653
-0.2814105749 -0.1056603268 0.5965467095 4290035150
-0.2814546227 -0.1050139517 0.5966400504 4289771978
-0.2814984024 -0.1043672711 0.5967328548 4289048255
-0.2815419436 -0.1037202924 0.5968251228 4288390325
-0.2820067406 -0.1032273173 0.5978104472 4287798958
-0.2820498049 -0.1025787741 0.5979017615 4287798958
-0.2825142741 -0.1020822972 0.5988863707 4287930544
-0.2829786241 -0.1015835777 0.5998707414 4288062130
-0.2830210626 -0.1009322107 0.5999606252 4288391095
-0.2834850550 -0.1004299968 0.6009442806 4288654267
-0.2839489579 -0.0999255478 0.6019276381 4288785851
-0.2844126821 -0.0994188711 0.6029106975 4288851644
-0.2848762870 -0.0989099592 0.6038934588 4289114300
-0.2853397429 -0.0983988121 0.6048759222 4289311679
-0.2858030796 -0.0978854373 0.6058580875 4289443265
-0.2862662673 -0.0973698273 0.6068399549 4289574851
-0.2863070071 -0.0967093483 0.6069263816 4289641158
-0.2867698371 -0.0961902589 0.6079074740 4289772744
-0.2868101001 -0.0955282450 0.6079928279 4289838537
-0.2872725725 -0.0950056687 0.6089732051 4290101709
-0.2877348959 -0.0944808647 0.6099532843 4290693332
-0.2877745032 -0.0938160643 0.6100372076 4291088090
-0.2878138125 -0.0931509957 0.6101205349 4291417053
-0.2882755697 -0.0926214680 0.6110993624 4291877604
-0.2883144021 -0.0919548795 0.6111817360 4292273132
-0.2883529663 -0.0912880227 0.6112635136 4292602097
-0.2883912921 -0.0906209052 0.6113446951 4293390068
-0.2884293199 -0.0899535194 0.6114252806 4293916412
-0.2668727636 -0.2132170200 0.5670638680 4293192953
-0.2661479712 -0.2120096087 0.5655238032 4292995320
-0.2658258975 -0.2111254781 0.5648394823 4292863734
-0.2650999129 -0.2099230289 0.5632968545 4292666355
-0.2655841410 -0.2096794695 0.5643257499 4292468976
-0.2652609646 -0.2087980658 0.5636390448 4292403696
-0.2649373710 -0.2079178691 0.5629514456 4292469489
-0.2642093599 -0.2067227811 0.5614045858 4292601077
-0.2638848126 -0.2058458626 0.5607149601 4292666870
-0.2635598779 -0.2049701512 0.5600244999 4292666870
-0.2636388540 -0.2044091672 0.5601923466 4292732663
-0.2637176812 -0.2038476765 0.5603598356 4292732663
-0.2633917332 -0.2029739022 0.5596672297 4292798456
-0.2634700835 -0.2024122626 0.5598337054 4292798456
-0.2635482550 -0.2018501312 0.5599998236 4292666870
-0.2632213235 -0.2009783089 0.5593051314 4292732663
-0.2637041211 -0.2007243633 0.5603310466 4292732663
-0.2637817860 -0.2001607418 0.5604960918 4292732663
-0.2638593018 -0.1995966136 0.5606607199 4292864249
-0.2639366090 -0.1990319937 0.5608250499 4292798456
-0.2640137672 -0.1984668672 0.5609889627 4292798456
-0.2640907466 -0.1979012489 0.5611525178 4292995835
-0.2641675472 -0.1973351389 0.5613157153 4293061628
-0.2642441690 -0.1967685372 0.5614785552 4293061628
-0.2647266388 -0.1965028346 0.5625037551 4293061628
-0.2643969059 -0.1956338584 0.5618030429 4293127421
-0.2640667260 -0.1947661340 0.5611014962 4293061628
-0.2641425431 -0.1941984445 0.5612626076 4292930040
-0.2642181516 -0.1936302632 0.5614232421 4292864247
-0.2642936110 -0.1930615902 0.5615835786 4292732663
-0.2643688619 -0.1924924254 0.5617434978 4292864249
-0.2644439638 -0.1919227839 0.5619030595 4292995835
-0.2649258077 -0.1916470528 0.5629269481 4293061628
-0.2650006413 -0.1910755634 0.5630859733 4293127421
-0.2650752962 -0.1905035824 0.5632445812 4293127421
-0.2651497722 -0.1899311244 0.5634028316 4293127421
-0.2656314969 -0.1896490604 0.5644263625 4293061628
-0.2657057047 -0.1890747696 0.5645840764 4293259007
-0.2657797635 -0.1884999871 0.5647414327 4293259007
-0.2658536136 -0.1879247278 0.5648983717 4293193214
-0.2659272850 -0.1873489767 0.5650548935 4292995835
-0.2660007775 -0.1867727637 0.5652110577 4292930042
-0.2660740614 -0.1861960739 0.5653668046 4292798456
-0.2661471963 -0.1856188923 0.5655221343 4292732663
-0.2662201226 -0.1850412488 0.5656771064 4292798456
-0.2667012811 -0.1847460419 0.5666995049 4292666357
-0.2667739391 -0.1841665655 0.5668538809 4292666357
-0.2668464184 -0.1835866123 0.5670078993 4292600051
-0.2669186890 -0.1830061823 0.5671615005 4292402672
-0.2673996389 -0.1827046424 0.5681834817 4292205547
-0.2674716711 -0.1821223944 0.5683364868 4292073961
-0.2675434947 -0.1815396696 0.5684890747 4291942632
-0.2676151097 -0.1809564680 0.5686413050 4292008425
-0.2680958509 -0.1806485951 0.5696628094 4291876839
-0.2681671977 -0.1800635755 0.5698143840 4291745253
-0.2682383657 -0.1794780791 0.5699656010 4291613667
-0.2687189579 -0.1791652441 0.5709868073 4291547874
-0.2691995800 -0.1788501441 0.5720080733 4291416288
-0.2688605189 -0.1779901385 0.5712875724 4291350495
-0.2693409622 -0.1776723266 0.5723084807 4291284702
-0.2698214352 -0.1773522645 0.5733293891 4291218909
-0.2698917389 -0.1767612994 0.5734787583 4291284445
-0.2699618638 -0.1761698723 0.5736277103 4291218652
-0.2700317502 -0.1755779833 0.5737763047 4291152859
-0.2705119550 -0.1752515733 0.5747966170 4291152859
-0.2709921598 -0.1749228984 0.5758169889 4291087323
-0.2706509829 -0.1740637124 0.5750920773 4291153116
-0.2707202137 -0.1734690964 0.5752391219 4291218909
-0.2707892060 -0.1728740185 0.5753857493 4291284702
-0.2708580196 -0.1722784936 0.5755319595 4291284702
-0.2709266245 -0.1716825068 0.5756777525 4291416288
-0.2714062631 -0.1713456959 0.5766968727 4291613667
-0.2714745700 -0.1707478911 0.5768420100 4291811046
-0.2719540894 -0.1704074591 0.5778609514 4291942632
-0.2720220983 -0.1698078662 0.5780054331 4292074218
-0.2725014985 -0.1694637984 0.5790241361 4292337390
-0.2725692093 -0.1688624024 0.5791679621 4292468976
-0.2726366818 -0.1682605445 0.5793113112 4292731889
-0.2731159031 -0.1679115146 0.5803295970 4292731889
-0.2731830478 -0.1673078537 0.5804722905 4292666096
-0.2736621499 -0.1669552028 0.5814903378 4292731889
-0.2737289965 -0.1663497388 0.5816323757 4292863475
-0.2737956345 -0.1657438427 0.5817739367 4292929268
-0.2738620639 -0.1651375145 0.5819150805 4292929268
-0.2743408084 -0.1647785157 0.5829323530 4292863475
-0.2748195529 -0.1644172519 0.5839496255 4292468715
-0.2744728029 -0.1635618061 0.5832128525 4292402922
-0.2749513090 -0.1631978452 0.5842295885 4292402922
-0.2750168741 -0.1625874788 0.5843688846 4292337129
-0.2754952610 -0.1622198969 0.5853853822 4292205543
-0.2759736180 -0.1618500352 0.5864018202 4292205543
-0.2760387361 -0.1612365246 0.5865402222 4292271336
-0.2761036158 -0.1606225967 0.5866780877 4292271336
-0.2765817344 -0.1602477580 0.5876939893 4292271336
-0.2766462862 -0.1596320271 0.5878311396 4292205543
-0.2767106295 -0.1590158790 0.5879678130 4292205543
-0.2771884501 -0.1586360782 0.5889831781 4292139750
-0.2772524357 -0.1580181420 0.5891191363 4292008164
-0.2777301073 -0.1576347053 0.5901341438 4292008164
-0.2777937651 -0.1570149958 0.5902693868 4292074212
-0.2778571844 -0.1563948691 0.5904041529 4292074212
-0.2779203951 -0.1557743102 0.5905384421 4291811040
-0.2775690854 -0.1549220979 0.5897919536 4291811040
-0.2776317596 -0.1543016285 0.5899251103 4291811040
-0.2776941955 -0.1536807418 0.5900577903 4291876833
-0.2777563930 -0.1530594230 0.5901899934 4291876833
-0.2778183818 -0.1524376869 0.5903216600 4291876833
-0.2778801620 -0.1518155485 0.5904529095 4291876833
-0.2779417038 -0.1511929929 0.5905836821 4291876833
-0.2780030072 -0.1505700201 0.5907139778 4291811040
-0.2780641019 -0.1499466300 0.5908437967 4291745247
-0.2781249583 -0.1493228376 0.5909730792 4291745247
-0.2781855762 -0.1486986428 0.5911019444 4291745247
-0.2786612809 -0.1482950300 0.5921127200 4291745247
-0.2787215710 -0.1476690769 0.5922407508 4291745247
-0.2787815928 -0.1470427215 0.5923683643 4291745247
-0.2788414061 -0.1464159638 0.5924954414 4291745247
-0.2789009809 -0.1457888037 0.5926220417 4291876833
-0.2789603174 -0.1451612413 0.5927481055 4291811040
-0.2790194452 -0.1445332766 0.5928737521 4291811040
-0.2786624134 -0.1436904520 0.5921151042 4291811040
-0.2787209749 -0.1430626363 0.5922395587 4291679454
-0.2787793279 -0.1424344182 0.5923635364 4291679454
-0.2788374126 -0.1418058127 0.5924869776 4291679454
-0.2788952887 -0.1411768049 0.5926099420 4291613661
-0.2789529264 -0.1405474097 0.5927323699 4291548126
-0.2790103257 -0.1399176270 0.5928543806 4291482333
-0.2790674865 -0.1392874569 0.5929758549 4291482333
-0.2791244090 -0.1386568993 0.5930967927 4291548126
-0.2787644267 -0.1378199458 0.5923318863 4291548126
-0.2792375684 -0.1373946369 0.5933372378 4291482333
-0.2792938054 -0.1367629319 0.5934567451 4291350747
-0.2789328396 -0.1359276623 0.5926897526 4291087575
-0.2789885104 -0.1352961361 0.5928080082 4290627026
-0.2786268294 -0.1344629377 0.5920395255 4290232268
-0.2786819637 -0.1338316053 0.5921566486 4289377472
-0.2783195674 -0.1330004930 0.5913865566 4288653749
-0.2783741057 -0.1323693693 0.5915024877 4288456370
-0.2780109942 -0.1315403581 0.5907309055 4288522163
-0.2780649960 -0.1309094280 0.5908456445 4288587702
-0.2781187296 -0.1302781403 0.5909598470 4288587702
-0.2777545750 -0.1294518113 0.5901861191 4289047992
-0.2778077722 -0.1288207471 0.5902991295 4289376957
-0.2778607309 -0.1281893104 0.5904116631 4289705922
-0.2779134512 -0.1275575161 0.5905236602 4289969094
-0.2779659331 -0.1269253641 0.5906351805 4290363852
-0.2780181468 -0.1262928545 0.5907461643 4290495438
-0.2780701518 -0.1256599873 0.5908566117 4290561233
-0.2785401344 -0.1252147853 0.5918552876 4290561233
-0.2785917222 -0.1245802566 0.5919649005 4290692819
-0.2782246768 -0.1237592697 0.5911849737 4290890198
-0.2782756984 -0.1231249943 0.5912933946 4290824405
-0.2779079378 -0.1223061830 0.5905119777 4290692819
-0.2779583931 -0.1216721684 0.5906192064 4290758099
-0.2775899172 -0.1208555251 0.5898362398 4290823892
-0.2776398063 -0.1202217788 0.5899422765 4290823894
-0.2776894569 -0.1195876896 0.5900477171 4290823894
-0.2777388692 -0.1189532652 0.5901527405 4290758612
-0.2777880430 -0.1183185056 0.5902571678 4290890198
-0.2774178982 -0.1175059006 0.5894706845 4290890198
-0.2774664760 -0.1168714240 0.5895739198 4291021784
-0.2775148153 -0.1162366197 0.5896766782 4291284956
-0.2779822052 -0.1157760993 0.5906697512 4291219163
-0.2780301273 -0.1151396707 0.5907716155 4291021784
-0.2780778110 -0.1145029142 0.5908729434 4290955991
-0.2785447538 -0.1140375733 0.5918650627 4291153116
-0.2785919905 -0.1133992076 0.5919654965 4291021530
-0.2786389887 -0.1127605140 0.5920653343 4291021530
-0.2786857486 -0.1121214926 0.5921646953 4291021530
-0.2787322402 -0.1114821583 0.5922635198 4291021530
-0.2787784934 -0.1108424962 0.5923618078 4290955737
-0.2788245082 -0.1102025285 0.5924595594 4290889944
-0.2797102332 -0.1098922417 0.5943415761 4290758358
-0.2797558606 -0.1092497036 0.5944384933 4290298067
-0.2802213728 -0.1087699309 0.5954276323 4289837516
-0.2802665532 -0.1081258059 0.5955237150 4289442758
-0.2807317674 -0.1076425090 0.5965121388 4289048000
-0.2807765305 -0.1069967970 0.5966072679 4288455863
-0.2808210254 -0.1063507795 0.5967018008 4287600554
-0.2808652818 -0.1057044491 0.5967958570 4286877086
-0.2817502916 -0.1053723618 0.5986763835 4286482328
-0.2817941606 -0.1047234908 0.5987696052 4286482328
-0.2818377614 -0.1040743217 0.5988622308 4286416535
-0.2818811238 -0.1034248471 0.5989543796 4286614684
-0.2823449969 -0.1029284671 0.5999400020 4287206821
-0.2823878825 -0.1022774279 0.6000311971 4287667372
-0.2828514278 -0.1017775461 0.6010161638 4287930544
-0.2833148539 -0.1012754291 0.6020008326 4288193716
-0.2841991484 -0.1009205878 0.6038798690 4288522681
-0.2842412591 -0.1002644897 0.6039693356 4288522679
-0.2847042680 -0.0997556597 0.6049531102 4288720058
-0.2847459018 -0.0990980119 0.6050416231 4289114046
-0.2852085829 -0.0985856876 0.6060246825 4289311425
-0.2856710851 -0.0980711356 0.6070075035 4289377472
-0.2861334682 -0.0975543484 0.6079899669 4289509058
-0.2861742377 -0.0968926325 0.6080765724 4289509572
-0.2862147391 -0.0962306336 0.6081626415 4289575365
-0.2862549722 -0.0955683514 0.6082481146 4289574851
-0.2867165804 -0.0950455666 0.6092289686 4289903816
-0.2867563367 -0.0943817571 0.6093134284 4290364365
-0.2867958248 -0.0937176719 0.6093973517 4290693330
-0.2872568667 -0.0931901559 0.6103770137 4291219161
-0.2872958779 -0.0925245434 0.6104599237 4291613919
-0.2869126797 -0.0917237774 0.6096456647 4292009190
-0.2869510949 -0.0910586044 0.6097273231 4292469741
-0.2869892418 -0.0903931707 0.6098083854 4293192689
-0.2870271206 -0.0897274688 0.6098888516 4293784826
-0.2669854164 -0.2150752395 0.5686452389 4293126906
-0.2670676112 -0.2145094573 0.5688203573 4292929527
-0.2667473257 -0.2136209458 0.5681381226 4292863734
-0.2660241425 -0.2124122828 0.5665978789 4292732148
-0.2648977339 -0.2108860165 0.5641987920 4292666355
-0.2641731501 -0.2096839994 0.5626554489 4292666355
-0.2638506889 -0.2088036835 0.5619686842 4292600562
-0.2631248832 -0.2076066285 0.5604228377 4292798456
-0.2632045746 -0.2070466429 0.5605925918 4292798456
-0.2628809214 -0.2061699331 0.5599032044 4292864249
-0.2625568211 -0.2052944452 0.5592129230 4292930042
-0.2622323334 -0.2044201642 0.5585218072 4292864249
-0.2627145350 -0.2041743547 0.5595488548 4292864249
-0.2627931535 -0.2036135644 0.5597162247 4292930042
-0.2628715634 -0.2030522674 0.5598832965 4292930042
-0.2625459135 -0.2021794170 0.5591896772 4292863736
-0.2626239061 -0.2016179711 0.5593557954 4292797943
-0.2622975409 -0.2007467151 0.5586606860 4292797943
-0.2623750567 -0.2001851499 0.5588257909 4292929529
-0.2628567815 -0.1999306679 0.5598518252 4292929529
-0.2629340589 -0.1993672252 0.5600163937 4292929529
-0.2630111873 -0.1988033056 0.5601806641 4293061115
-0.2630881369 -0.1982388794 0.5603445172 4292995322
-0.2631648779 -0.1976739466 0.5605080128 4292929529
-0.2632414699 -0.1971085370 0.5606711507 4292929529
-0.2637229860 -0.1968449950 0.5616967082 4292929529
-0.2637993693 -0.1962777376 0.5618593693 4292995322
-0.2634702027 -0.1954093426 0.5611582994 4293061115
-0.2631406188 -0.1945421994 0.5604563951 4293126908
-0.2636218071 -0.1942740828 0.5614811778 4293126908
-0.2636973262 -0.1937057227 0.5616420507 4292995322
-0.2637726963 -0.1931368709 0.5618025661 4292995835
-0.2638478577 -0.1925675422 0.5619626641 4293061628
-0.2639228702 -0.1919977069 0.5621224046 4293127421
-0.2644038200 -0.1917219013 0.5631468296 4293127421
-0.2644785643 -0.1911502331 0.5633060336 4293061628
-0.2645531595 -0.1905780882 0.5634648204 4292995835
-0.2650340199 -0.1902973056 0.5644890666 4292930042
-0.2651083469 -0.1897233129 0.5646473765 4292864249
-0.2655892074 -0.1894389242 0.5656715035 4292864249
-0.2656632662 -0.1888630837 0.5658292770 4292798456
-0.2657371461 -0.1882867515 0.5659866333 4292666870
-0.2658108473 -0.1877099425 0.5661435723 4292535284
-0.2658843696 -0.1871326566 0.5663001537 4292272112
-0.2659576833 -0.1865548939 0.5664563179 4292074733
-0.2660308182 -0.1859766543 0.5666121244 4292074733
-0.2661037743 -0.1853979230 0.5667675138 4292074733
-0.2661765516 -0.1848187298 0.5669224858 4292139754
-0.2666568458 -0.1845211983 0.5679454803 4291942375
-0.2667293549 -0.1839401722 0.5680998564 4291810789
-0.2668016553 -0.1833586693 0.5682538748 4291679203
-0.2672818303 -0.1830561608 0.5692766309 4291613410
-0.2673538625 -0.1824728251 0.5694300532 4291547617
-0.2678340077 -0.1821667105 0.5704526305 4291350495
-0.2679057717 -0.1815815270 0.5706055164 4291218909
-0.2679773271 -0.1809958965 0.5707579255 4291021530
-0.2684573233 -0.1806847900 0.5717802644 4291021530
-0.2685286105 -0.1800973117 0.5719320774 4290955737
-0.2685997188 -0.1795093715 0.5720835328 4290955737
-0.2690795660 -0.1791933030 0.5731055140 4291087323
-0.2691503763 -0.1786035299 0.5732563734 4291153116
-0.2696301341 -0.1782838255 0.5742782354 4291153116
-0.2701099217 -0.1779618710 0.5753000975 4291153116
-0.2697710097 -0.1771001816 0.5745782256 4291153116
-0.2702506185 -0.1767755002 0.5755997300 4291218909
-0.2707302272 -0.1764485538 0.5766212344 4291284702
-0.2708001733 -0.1758533120 0.5767701864 4291284702
-0.2708699107 -0.1752576083 0.5769187808 4291416288
-0.2713493407 -0.1749256700 0.5779399276 4291482081
-0.2714188099 -0.1743281484 0.5780878067 4291547874
-0.2714880407 -0.1737301648 0.5782353282 4291613667
-0.2711468935 -0.1728701890 0.5775086880 4291744996
-0.2712156177 -0.1722721905 0.5776550770 4291810789
-0.2712841630 -0.1716737449 0.5778010488 4291876580
-0.2717629969 -0.1713336557 0.5788209438 4291942373
-0.2718312144 -0.1707334071 0.5789662004 4292008166
-0.2723099589 -0.1703896821 0.5799859166 4292008166
-0.2727887034 -0.1700437069 0.5810055733 4292139752
-0.2728565335 -0.1694402844 0.5811499953 4292205545
-0.2733351588 -0.1690906733 0.5821694136 4292139752
-0.2734026611 -0.1684854329 0.5823131800 4292073959
-0.2734699547 -0.1678797603 0.5824565291 4292008166
-0.2735370398 -0.1672736257 0.5825994015 4292008166
-0.2740153372 -0.1669176817 0.5836181045 4292008166
