VERSION 0.7
FIELDS x y z rgba
SIZE 4 4 4 4
TYPE F F F U
COUNT 1 1 1 1
WIDTH 920
HEIGHT 1
VIEWPOINT 0.0 0.0 0.0 1.0 0.0 0.0 0.0
POINTS 920
DATA ascii
-0.3565216362 -0.1326760501 0.6475263834 4282598764
-0.3403387368 -0.1427378803 0.6193839312 4284769906
-0.3404029310 -0.1420764923 0.6195006967 4283059288
-0.3404668272 -0.1414147168 0.6196169853 4282926675
-0.3405304551 -0.1407525837 0.6197327971 4282926675
-0.3405937850 -0.1400900632 0.6198480725 4283058501
-0.3411293626 -0.1396205723 0.6208227277 4284571740
-0.3411922455 -0.1389563978 0.6209371686 4288387440
-0.3412548304 -0.1382918656 0.6210511327 4289834886
-0.3413171768 -0.1376269758 0.6211645603 4289834850
-0.3423248827 -0.1373410970 0.6229984760 4288979541
-0.3428597450 -0.1368624121 0.6239718795 4288584285
-0.3433944881 -0.1363815069 0.6249450445 4288979043
-0.3444021940 -0.1360853314 0.6267790198 4289111694
-0.3449368179 -0.1355991066 0.6277519464 4287269490
-0.3449980617 -0.1349255741 0.6278634071 4284112764
-0.3455323279 -0.1344358474 0.6288357377 4282796904
-0.3470133543 -0.1343103945 0.6315310597 4282731899
-0.3480210602 -0.1339967102 0.6333649755 4282402934
-0.3485552371 -0.1334975809 0.6343371868 4282665847
-0.3495629728 -0.1331767142 0.6361711025 4282665847
-0.3510444760 -0.1330313087 0.6388673186 4282796406
-0.3525261879 -0.1328799874 0.6415638924 4282467441
-0.3540080786 -0.1327227503 0.6442607641 4282335591
-0.3564381301 -0.1329130828 0.6486832500 4282401384
-0.3579205573 -0.1327421367 0.6513811350 4282467178
-0.3589290380 -0.1323903799 0.6532164812 4282401385
-0.3594633043 -0.1318605989 0.6541887522 4282401648
-0.3599974215 -0.1313285977 0.6551607847 4282599027
-0.3610057533 -0.1309664696 0.6569958925 4282467698
-0.3397393525 -0.1434634477 0.6195453405 4285363837
-0.3398037553 -0.1428021491 0.6196627617 4283388515
-0.3398678601 -0.1421404779 0.6197797060 4282927964
-0.3399317265 -0.1414784342 0.6198961735 4282794836
-0.3395237625 -0.1406207085 0.6191521883 4282400078
-0.3395869732 -0.1399588436 0.6192674637 4284834636
-0.3405933976 -0.1396835446 0.6211027503 4288650630
-0.3401844203 -0.1388265640 0.6203569770 4289834599
-0.3402468860 -0.1381626725 0.6204708815 4288650325
-0.3398371041 -0.1373077035 0.6197236180 4290820959
-0.3413151801 -0.1372133642 0.6224189997 4291676268
-0.3418491781 -0.1367353946 0.6233928204 4291083916
-0.3423830569 -0.1362552196 0.6243663430 4290360193
-0.3424444795 -0.1355858296 0.6244783998 4287927442
-0.3429780304 -0.1351021677 0.6254513860 4284966757
-0.3435114920 -0.1346163005 0.6264241934 4283060336
-0.3445174396 -0.1343124658 0.6282586455 4282665578
-0.3459960818 -0.1341878921 0.6309551001 4282796913
-0.3470022082 -0.1338750273 0.6327897906 4282862706
-0.3475355208 -0.1333766282 0.6337623596 4282730613
-0.3485416174 -0.1330565512 0.6355971098 4282862199
-0.3495477736 -0.1327324212 0.6374319196 4282796155
-0.3515001237 -0.1327615976 0.6409922242 4282401397
-0.3529796898 -0.1326052248 0.6436902881 4282204267
-0.3549326658 -0.1326197684 0.6472517252 4282270060
-0.3564126492 -0.1324506253 0.6499506235 4282466926
-0.3578928411 -0.1322755516 0.6526498795 4282466926
-0.3588997126 -0.1319205165 0.6544860601 4282401646
-0.3594330549 -0.1313882917 0.6554586291 4282467439
-0.3609135151 -0.1311981976 0.6581583619 4282402159
-0.3386686444 -0.1439891458 0.6188462377 4285429377
-0.3387331963 -0.1433288753 0.6189641953 4283389794
-0.3387974501 -0.1426682174 0.6190816164 4283323752
-0.3388614655 -0.1420072019 0.6191985607 4282731615
-0.3384544551 -0.1411494911 0.6184548736 4282926935
-0.3389886320 -0.1406840235 0.6194309592 4283124314
-0.3395227194 -0.1402163655 0.6204068661 4287597677
-0.3391147256 -0.1393593699 0.6196613312 4290163604
-0.3391773403 -0.1386964917 0.6197757721 4290557033
-0.3387685120 -0.1378415376 0.6190287471 4290359654
-0.3397730291 -0.1375604272 0.6208642721 4291739500
-0.3403062522 -0.1370854080 0.6218386292 4291476328
-0.3408393562 -0.1366081685 0.6228127480 4289702002
-0.3413723707 -0.1361287236 0.6237867475 4287859798
-0.3419052660 -0.1356470734 0.6247605085 4285756024
-0.3424380422 -0.1351632178 0.6257340312 4284374371
-0.3434424698 -0.1348624080 0.6275694370 4283125620
-0.3444469571 -0.1345575303 0.6294049025 4282928241
-0.3459234238 -0.1344320029 0.6321028471 4282862449
-0.3469280899 -0.1341180801 0.6339386702 4282401898
-0.3479328156 -0.1338000894 0.6357745528 4282730100
-0.3489375710 -0.1334780455 0.6376105547 4282861686
-0.3480533063 -0.1324331611 0.6359947920 4282599287
-0.3504748344 -0.1326429844 0.6404196024 4282270322
-0.3519520164 -0.1324875057 0.6431188583 4282138735
-0.3543744087 -0.1326799095 0.6475452185 4282270321
-0.3558521271 -0.1325107068 0.6502454877 4282401648
-0.3573300540 -0.1323355734 0.6529460549 4282401648
-0.3583353758 -0.1319803894 0.6547831297 4282401646
-0.3593407571 -0.1316211373 0.6566202044 4282467439
-0.3608190417 -0.1314300448 0.6593214273 4282401646
-0.3622974753 -0.1312330216 0.6620230079 4282335853
-0.3651952147 -0.1315412223 0.6673180461 4282401646
-0.3376633823 -0.1438536942 0.6182641387 4283586921
-0.3377278149 -0.1431940794 0.6183820963 4282928991
-0.3377919495 -0.1425340772 0.6184995174 4283060587
-0.3378558159 -0.1418736875 0.6186164618 4282797415
-0.3379194140 -0.1412129402 0.6187328696 4283125343
-0.3379827142 -0.1405518204 0.6188488007 4284704375
-0.3385159373 -0.1400848776 0.6198251247 4289308295
-0.3381085396 -0.1392284483 0.6190791726 4290426776
-0.3377006948 -0.1383734941 0.6183324456 4290886252
-0.3382332623 -0.1379036158 0.6193075776 4291215217
-0.3387657106 -0.1374315321 0.6202824712 4291740522
-0.3392980695 -0.1369572431 0.6212572455 4291806315
-0.3398303092 -0.1364807338 0.6222317815 4290360959
-0.3398916721 -0.1358139068 0.6223441362 4287729239
-0.3408944607 -0.1355210990 0.6241802573 4284505959
-0.3414263725 -0.1350379735 0.6251541972 4283519064
-0.3424291909 -0.1347379684 0.6269903779 4283322235
-0.3434320688 -0.1344338953 0.6288266182 4282795891
-0.3449061811 -0.1343092620 0.6315257549 4282335344
-0.3459092379 -0.1339961439 0.6333623528 4282795895
-0.3459696472 -0.1333157122 0.6334729195 4282730100
-0.3488583267 -0.1337191164 0.6387621164 4282795893
-0.3498616517 -0.1333919615 0.6405992508 4282533230
-0.3513366282 -0.1332395673 0.6432999372 4282335851
-0.3532834649 -0.1332591623 0.6468645930 4282139501
-0.3552306294 -0.1332709640 0.6504299045 4282271087
-0.3571781814 -0.1332749724 0.6539958119 4282271087
-0.3586541116 -0.1330960691 0.6566982865 4282205294
-0.3596582413 -0.1327370107 0.6585369110 4282467439
-0.3587741256 -0.1316808313 0.6569180489 4282599025
-0.3611944020 -0.1318343431 0.6613495946 4282335853
-0.3626707494 -0.1316353828 0.6640527844 4281875302
-0.3665087521 -0.1322828084 0.6710801721 4282072681
-0.3356567919 -0.1439744681 0.6158424020 4284506485
-0.3366589248 -0.1437180340 0.6176810861 4282928233
-0.3367231786 -0.1430590600 0.6177989841 4282862440
-0.3367871940 -0.1423996985 0.6179164052 4282402408
-0.3368509412 -0.1417399645 0.6180333495 4282468201
-0.3369143903 -0.1410798579 0.6181498170 4283060067
-0.3369775712 -0.1404193789 0.6182657480 4283257446
-0.3370404840 -0.1397585422 0.6183811426 4284638033
-0.3371031284 -0.1390973181 0.6184961200 4285295963
-0.3371655047 -0.1384357363 0.6186105013 4286150722
-0.3367579281 -0.1375818998 0.6178627014 4287334996
-0.3372894228 -0.1371114552 0.6188378334 4289045603
-0.3373509645 -0.1364487857 0.6189507842 4289571947
-0.3378821611 -0.1359748542 0.6199253798 4288124799
-0.3384132385 -0.1354987174 0.6208997965 4285822044
-0.3389442265 -0.1350203753 0.6218740344 4283781992
-0.3394750953 -0.1345398277 0.6228480339 4283453027
-0.3400058746 -0.1340570599 0.6238218546 4282993522
-0.3414772451 -0.1339410841 0.6265214086 4282730350
-0.3424783647 -0.1336356103 0.6283582449 4282533491
-0.3439500928 -0.1335087270 0.6310584545 4282270319
-0.3463632166 -0.1337393373 0.6354858875 4282664820
-0.3478354812 -0.1335987598 0.6381871700 4282664820
-0.3493079841 -0.1334522516 0.6408888102 4282533230
-0.3517223597 -0.1336576641 0.6453185678 4282401644
-0.3531953990 -0.1334974319 0.6480211616 4282336114
-0.3551396430 -0.1335083246 0.6515883207 4282467700
-0.3570842147 -0.1335114390 0.6551561356 4282271341
-0.3552598059 -0.1321050972 0.6518087983 4282205548
-0.3595606387 -0.1329714060 0.6596997380 4282533232
-0.3624486327 -0.1333005726 0.6649984717 4282533232
-0.3601518273 -0.1317216903 0.6607844234 4282204267
-0.3625687659 -0.1318665445 0.6652188301 4281875302
-0.3355261087 -0.1448976696 0.6168596745 4285361794
-0.3341866434 -0.1436365843 0.6143971086 4283388004
-0.3351870775 -0.1433818936 0.6162363887 4283059815
-0.3352511227 -0.1427244842 0.6163541079 4282336092
-0.3353148997 -0.1420666873 0.6164714098 4282469222
-0.3353784084 -0.1414085180 0.6165881753 4281811292
-0.3354416490 -0.1407499909 0.6167044044 4281678934
-0.3355046213 -0.1400910765 0.6168201566 4281810520
-0.3360359967 -0.1396265328 0.6177970767 4281677644
-0.3360984921 -0.1389659643 0.6179119945 4282006609
-0.3361607492 -0.1383050233 0.6180264354 4282400340
-0.3357537687 -0.1374517530 0.6172782183 4282466133
-0.3362843990 -0.1369820535 0.6182537675 4283189858
-0.3363457918 -0.1363200098 0.6183666587 4283781995
-0.3364069462 -0.1356576234 0.6184790730 4284506485
-0.3369370699 -0.1351831406 0.6194537282 4284243313
-0.3374671042 -0.1347064525 0.6204282045 4283650933
-0.3379970193 -0.1342275590 0.6214024425 4283387761
-0.3385268152 -0.1337464601 0.6223764420 4282796904
-0.3399957418 -0.1336322874 0.6250770688 4282731111
-0.3409951925 -0.1333285719 0.6269145012 4282468717
-0.3429342210 -0.1333862245 0.6304793954 4282008166
-0.3444037735 -0.1332543045 0.6331811547 4282599284
-0.3458735347 -0.1331164539 0.6358832717 4282665077
-0.3473434746 -0.1329726875 0.6385857463 4282664307
-0.3488136530 -0.1328229904 0.6412886381 4282532721
-0.3507541716 -0.1328454316 0.6448562741 4282466936
-0.3526950479 -0.1328600794 0.6484245658 4282466936
-0.3565176427 -0.1335717887 0.6554523110 4282402155
-0.3579891026 -0.1333918273 0.6581575871 4282402155
-0.3614031374 -0.1331874728 0.6644342542 4282270060
-0.3638165295 -0.1333337128 0.6688711643 4282072683
-0.3667010963 -0.1336418092 0.6741744280 4282204269
-0.3695862889 -0.1339383572 0.6794788241 4282533232
-0.3724721074 -0.1342233270 0.6847843528 4282533232
-0.3777133524 -0.1353405118 0.6944203377 4282467952
-0.3335890174 -0.1443559080 0.6145532727 4283191655
-0.3336533904 -0.1437008232 0.6146718264 4283323241
-0.3337174952 -0.1430453509 0.6147899628 4283059566
-0.3342488110 -0.1425889283 0.6157687306 4282599015
-0.3343124390 -0.1419317871 0.6158859730 4281941596
-0.3343758285 -0.1412742734 0.6160027385 4282402147
-0.3344389200 -0.1406163722 0.6161190271 4282402147
-0.3349696100 -0.1401538551 0.6170966625 4281546838
-0.3350322545 -0.1394943148 0.6172120571 4282270309
-0.3355626464 -0.1390282959 0.6181891561 4282401895
-0.3356248438 -0.1383670717 0.6183037162 4282599277
-0.3347503841 -0.1373213828 0.6166927814 4282401898
-0.3352801502 -0.1368524283 0.6176687479 4282533484
-0.3353414237 -0.1361910403 0.6177816391 4282862449
-0.3358708620 -0.1357185841 0.6187570095 4282993522
-0.3359316885 -0.1350555420 0.6188690662 4283059315
-0.3364608586 -0.1345795989 0.6198439002 4283322486
-0.3369898796 -0.1341014355 0.6208184958 4283388279
-0.3375188112 -0.1336210519 0.6217929125 4283125108
-0.3389853537 -0.1335077882 0.6244946718 4282927729
-0.3404521346 -0.1333886087 0.6271967888 4282796402
-0.3419190943 -0.1332634985 0.6298993230 4282664816
-0.3433862925 -0.1331324726 0.6326022744 4282664816
-0.3448536694 -0.1329955161 0.6353055239 4282730609
-0.3463212848 -0.1328526288 0.6380091906 4282664816
-0.3482584059 -0.1328829080 0.6415778995 4282533230
-0.3506653309 -0.1330835372 0.6460120678 4282533232
-0.3521337509 -0.1329200566 0.6487172246 4282533232
-0.3540719450 -0.1329269260 0.6522879004 4282401905
-0.3560104966 -0.1329259872 0.6558591127 4282336112
-0.3588888645 -0.1332661062 0.6611617804 4282401648
-0.3645868301 -0.1346356720 0.6716588736 4282204269
-0.3679977655 -0.1343887895 0.6779426932 4282335855
-0.3708787560 -0.1346817464 0.6832501292 4282401646
-0.3742304742 -0.1351329088 0.6894248724 4282533232
-0.3771127462 -0.1354017854 0.6947346926 4282665331
-0.3320577741 -0.1446689665 0.6129865646 4285099903
-0.3321221769 -0.1440158188 0.6131054759 4283388782
-0.3321863115 -0.1433622986 0.6132238507 4283586161
-0.3327168226 -0.1429088265 0.6142032146 4282335845
-0.3327805102 -0.1422536373 0.6143208146 4282335845
-0.3328439593 -0.1415980607 0.6144378781 4282467431
-0.3329071105 -0.1409421116 0.6145544648 4281875294
-0.3334369957 -0.1404825449 0.6155326366 4282204516
-0.3334996998 -0.1398249418 0.6156483889 4282270309
-0.3340292871 -0.1393618733 0.6166260839 4282138472
-0.3345588148 -0.1388965845 0.6176035404 4282335851
-0.3332188427 -0.1376568228 0.6151298881 4281875302
-0.3347441852 -0.1369138062 0.6179457307 4282796402
-0.3348054290 -0.1362521350 0.6180588007 4283322746
-0.3353340924 -0.1357795000 0.6190347075 4283059314
-0.3358626366 -0.1353046298 0.6200104356 4283256693
-0.3363910913 -0.1348275542 0.6209859848 4283322486
-0.3369194269 -0.1343482733 0.6219612956 4283190900
-0.3383837044 -0.1342381239 0.6246643662 4282928241
-0.3398481905 -0.1341220438 0.6273679137 4282928241
-0.3413129151 -0.1340000480 0.6300718188 4282730863
-0.3427778482 -0.1338721216 0.6327760816 4282401898
-0.3409644961 -0.1324645728 0.6294285655 4282664816
-0.3443030119 -0.1330554038 0.6355916262 4282730609
-0.3457683325 -0.1329124719 0.6382966042 4282664816
-0.3477024436 -0.1329427809 0.6418669820 4282533230
-0.3501055837 -0.1331435144 0.6463032365 4282402157
-0.3520404696 -0.1331572980 0.6498751044 4282336364
-0.3539756835 -0.1331632584 0.6534475684 4282336366
-0.3559112847 -0.1331614107 0.6570206881 4282336366
-0.3587851822 -0.1335007697 0.6623259783 4282270062
-0.3611906469 -0.1336549968 0.6667665839 4282401648
-0.3712258041 -0.1350841820 0.6852916479 4282401646
-0.3741029799 -0.1353638470 0.6906030774 4282599025
-0.3793896437 -0.1357204467 0.7003623843 4282073194
-0.3813293278 -0.1356322020 0.7039430737 4282138733
-0.3837389946 -0.1357021928 0.7083913684 4282599284
-0.3842700124 -0.1351018101 0.7093716264 4282665077
-0.3319903016 -0.1449367404 0.6141211390 4283322724
-0.3315890133 -0.1440800428 0.6133788824 4282862440
-0.3311873078 -0.1432248205 0.6126357913 4282599268
-0.3317169547 -0.1427720934 0.6136155128 4282467177
-0.3322464824 -0.1423171461 0.6145950556 4282269798
-0.3323098719 -0.1416613013 0.6147122979 4282270052
-0.3319068253 -0.1408073306 0.6139667630 4282270052
-0.3324358165 -0.1403485090 0.6149452925 4281875040
-0.3324984014 -0.1396915466 0.6150610447 4282532970
-0.3325606883 -0.1390342116 0.6151763201 4281875302
-0.3326227367 -0.1383765191 0.6152910590 4282138474
-0.3322179019 -0.1375252903 0.6145421863 4282270062
-0.3327459693 -0.1370600164 0.6155190468 4282533234
-0.3328071833 -0.1364012212 0.6156322360 4282862195
-0.3328681290 -0.1357420534 0.6157450080 4283191160
-0.3333957493 -0.1352719963 0.6167209744 4283388280
-0.3343902826 -0.1349882483 0.6185606718 4283585659
-0.3349177539 -0.1345128417 0.6195364594 4283585658
-0.3354451358 -0.1340352148 0.6205120087 4283256693
-0.3364396691 -0.1337411404 0.6223517060 4282796656
-0.3374342918 -0.1334429830 0.6241915226 4282599277
-0.3388963640 -0.1333246678 0.6268961430 4282533484
-0.3417612612 -0.1337493211 0.6321956515 4282533484
-0.3436916471 -0.1337983906 0.6357665062 4282599023
-0.3451547027 -0.1336585730 0.6384728551 4282533230
-0.3470857143 -0.1336929947 0.6420449018 4282599023
-0.3448064327 -0.1321063638 0.6378287077 4282599023
-0.3495450616 -0.1332034618 0.6465942264 4282402157
-0.3514768779 -0.1332172602 0.6501677632 4282336364
-0.3538771868 -0.1333997101 0.6546078920 4282270571
-0.3562779427 -0.1335724741 0.6590488553 4282204778
-0.3591474593 -0.1339101344 0.6643569469 4282335855
-0.3620176315 -0.1342362463 0.6696662307 4282401648
-0.3648884296 -0.1345507801 0.6749767065 4282270060
-0.3677598536 -0.1348537654 0.6802883148 4282270060
-0.3739118278 -0.1363411397 0.6916683316 4282467437
-0.3768465221 -0.1358621716 0.6970969439 4282073194
-0.3787828684 -0.1357817650 0.7006788254 4281744229
-0.3807195127 -0.1356935054 0.7042612433 4281546596
-0.3826564252 -0.1355973780 0.7078441978 4282204526
-0.3836555779 -0.1351629198 0.7096924782 4282599284
-0.3841856122 -0.1345600486 0.7106729150 4283388800
-0.3851846457 -0.1341182888 0.7125209570 4283652477
-0.3866528571 -0.1338348389 0.7152369022 4284047235
-0.3867132664 -0.1330609471 0.7153486013 4283981692
-0.3867733181 -0.1322866827 0.7154597044 4283718520
-0.3317908049 -0.1465145200 0.6150157452 4289968066
-0.3304615021 -0.1452469081 0.6125516891 4283981422
-0.3305259943 -0.1445945352 0.6126711965 4282797148
-0.3305901885 -0.1439417750 0.6127902269 4282665061
-0.3306541741 -0.1432886422 0.6129087806 4282270303
-0.3302527070 -0.1424345076 0.6121646762 4282598763
-0.3312464952 -0.1421809196 0.6140068173 4281875040
-0.3313097656 -0.1415257305 0.6141240001 4281677915
-0.3309073150 -0.1406723261 0.6133780479 4281809501
-0.3314354420 -0.1402142346 0.6143569946 4282072930
-0.3314978778 -0.1395579278 0.6144727468 4281678172
-0.3315600455 -0.1389012486 0.6145879626 4281875554
-0.3316219449 -0.1382441968 0.6147027016 4282072933
-0.3312177360 -0.1373935491 0.6139534712 4282270058
-0.3317449391 -0.1369290054 0.6149306893 4282270058
-0.3313400149 -0.1360794753 0.6141800880 4283388793
-0.3318668306 -0.1356123537 0.6151566505 4283257207
-0.3323935568 -0.1351430267 0.6161329746 4283454073
-0.3329201937 -0.1346714944 0.6171091795 4283322487
-0.3339130878 -0.1343854219 0.6189495921 4283191414
-0.3349060118 -0.1340952963 0.6207901239 4283125621
-0.3358990252 -0.1338011026 0.6226307750 4282862449
-0.3368920684 -0.1335028410 0.6244715452 4282467691
-0.3378851712 -0.1332005113 0.6263123751 4282467691
-0.3393451273 -0.1330771595 0.6290185452 4282665070
-0.3412721157 -0.1331299990 0.6325905323 4282467437
-0.3427325487 -0.1329938471 0.6352975965 4282401644
-0.3469952941 -0.1339333355 0.6431991458 4282336364
-0.3489237130 -0.1339590549 0.6467736959 4282402157
-0.3508524895 -0.1339769661 0.6503489017 4282402157
-0.3537161350 -0.1343419850 0.6556570530 4282336364
-0.3509723544 -0.1325770617 0.6505711079 4282270571
-0.3561734557 -0.1338081956 0.6602119803 4282204778
-0.3590385020 -0.1341450959 0.6655226946 4282467439
-0.3619041741 -0.1344704479 0.6708346009 4282270060
-0.3652381599 -0.1349570155 0.6770145297 4282270058
-0.3681051731 -0.1352582723 0.6823289394 4282467437
-0.3709728122 -0.1355479509 0.6876444817 4282533230
-0.3743089736 -0.1359960437 0.6938284039 4282204265
-0.3781752586 -0.1358430535 0.7009950876 4282073194
-0.3791726232 -0.1354203969 0.7028438449 4282401905
-0.3811063468 -0.1353261322 0.7064281702 4282401905
-0.3816355169 -0.1347280592 0.7074091434 4282928503
-0.3826328814 -0.1342921108 0.7092578411 4283586433
-0.3831617832 -0.1336886287 0.7102382779 4284244614
-0.3841590285 -0.1332453787 0.7120867372 4284836751
-0.3842190802 -0.1324749142 0.7121980786 4284113792
-0.3842788041 -0.1317040920 0.7123088241 4285890203
-0.3876191676 -0.1320506185 0.7185005546 4290560728
-0.3872691393 -0.1303362101 0.7178516984 4291416290
-0.3307257891 -0.1470280439 0.6143062711 4291284441
-0.3298630714 -0.1459637433 0.6127038002 4285692036
-0.3294637203 -0.1451071054 0.6119620800 4281876046
-0.3290639520 -0.1442519277 0.6112195253 4282336597
-0.3291279674 -0.1436007470 0.6113383770 4282270048
-0.3291916847 -0.1429491788 0.6114567518 4282072669
-0.3292551637 -0.1422972381 0.6115746498 4281875300
-0.3293183446 -0.1416449100 0.6116920114 4281612128
-0.3293812871 -0.1409922242 0.6118089557 4281480795
-0.3299086094 -0.1405370831 0.6127884388 4281415002
-0.3299711049 -0.1398827285 0.6129044890 4281744219
-0.3300333023 -0.1392280012 0.6130200624 4281349461
-0.3300952613 -0.1385728866 0.6131350994 4281809758
-0.3301569521 -0.1379174143 0.6132496595 4281809758
-0.3297532499 -0.1370682567 0.6124998331 4282138983
-0.3307446837 -0.1367977858 0.6143413782 4282467948
-0.3308056295 -0.1361402869 0.6144545674 4283520636
-0.3313316703 -0.1356729865 0.6154316664 4283849601
-0.3318576217 -0.1352034807 0.6164085865 4283980930
-0.3328489661 -0.1349204481 0.6182499528 4283323000
-0.3333747685 -0.1344455779 0.6192266345 4282796402
-0.3348318636 -0.1343421936 0.6219331026 4282664816
-0.3358234167 -0.1340469569 0.6237748265 4282730609
-0.3368149996 -0.1337476522 0.6256166697 4282664816
-0.3373407125 -0.1332602203 0.6265931129 4282599023
-0.3387983441 -0.1331368387 0.6293005943 4282599023
-0.3407222927 -0.1331897229 0.6328742504 4282467437
-0.3421804011 -0.1330535263 0.6355826855 4282401644
-0.3431724906 -0.1327310652 0.6374253631 4282270571
-0.3460299671 -0.1331221461 0.6427330375 4282270571
-0.3479552865 -0.1331447512 0.6463091969 4282336366
-0.3531465232 -0.1344023496 0.6559516191 4282270573
-0.3555396795 -0.1345794052 0.6603968143 4282270573
-0.3616666496 -0.1361522079 0.6717773676 4282336366
-0.3584604859 -0.1342054456 0.6658220291 4282401646
-0.3622552454 -0.1348785758 0.6728706360 4282270060
-0.3651171625 -0.1351906359 0.6781865358 4282336364
-0.3679797053 -0.1354911178 0.6835035682 4282467950
-0.3708428741 -0.1357800215 0.6888217330 4282336362
-0.3751080334 -0.1365675330 0.6967440248 4282138983
-0.3751693964 -0.1358156055 0.6968579888 4282270573
-0.3790909946 -0.1348882169 0.7041421533 4282796663
-0.3800866604 -0.1344580799 0.7059916258 4283454847
-0.3806147575 -0.1338593960 0.7069724798 4283718019
-0.3816103041 -0.1334219724 0.7088216543 4283521405
-0.3816703558 -0.1326552927 0.7089332342 4283784577
-0.3821978867 -0.1320498884 0.7099130750 4284771722
-0.3822573721 -0.1312815547 0.7100235820 4289574611
-0.3283375502 -0.1462680697 0.6111310124 4288257963
-0.3279390931 -0.1454123855 0.6103893518 4282468179
-0.3280034661 -0.1447626203 0.6105092168 4282336856
-0.3276042342 -0.1439089179 0.6097661257 4282665821
-0.3276680112 -0.1432593018 0.6098847985 4282007137
-0.3277314901 -0.1426093131 0.6100029945 4281809758
-0.3277947307 -0.1419589370 0.6101207137 4281414751
-0.3283214569 -0.1415080577 0.6111010313 4281743716
-0.3283842504 -0.1408560276 0.6112179160 4281546589
-0.3284467757 -0.1402036101 0.6113343239 4281678175
-0.3285090327 -0.1395508200 0.6114501953 4281415254
-0.3285710514 -0.1388976723 0.6115655899 4281810012
-0.3286327720 -0.1382441372 0.6116805077 4281481306
-0.3282299936 -0.1373959184 0.6109308004 4281678685
-0.3296841085 -0.1373228133 0.6136373878 4282336362
-0.3297452033 -0.1366663426 0.6137511134 4282862706
-0.3307350874 -0.1363926381 0.6155934930 4282073190
-0.3312604129 -0.1359242201 0.6165713072 4282467948
-0.3322503269 -0.1356433034 0.6184138060 4283125621
-0.3327755332 -0.1351695359 0.6193913817 4283323000
-0.3328357637 -0.1345056891 0.6195034981 4283322746
-0.3338256180 -0.1342153400 0.6213458776 4282927988
-0.3352805376 -0.1341069341 0.6240538955 4282796402
-0.3362705708 -0.1338075250 0.6258966923 4282862195
-0.3367954791 -0.1333198845 0.6268736720 4282796402
-0.3382508159 -0.1331964582 0.6295824647 4282467437
-0.3397063613 -0.1330671012 0.6322916746 4282336364
-0.3411621153 -0.1329318136 0.6350012422 4282336364
-0.3426180482 -0.1327905655 0.6377111673 4282270573
-0.3450053930 -0.1330023706 0.6421546936 4282270573
-0.3473932445 -0.1332044899 0.6465991735 4282270573
-0.3497816026 -0.1333969235 0.6510446072 4282270573
-0.3526363075 -0.1337563694 0.6563580036 4282270573
-0.3554916680 -0.1341042519 0.6616726518 4282336366
-0.3583476841 -0.1344405562 0.6669884920 4282401646
-0.3621364534 -0.1351130754 0.6740405560 4282467439
-0.3649938703 -0.1354243755 0.6793590188 4282402157
-0.3673857152 -0.1355520487 0.6838109493 4282270571
-0.3707106113 -0.1360121816 0.6899995208 4282073190
-0.3731034994 -0.1361185461 0.6944534183 4282336362
-0.3740974963 -0.1357075274 0.6963034868 4282731124
-0.3764910400 -0.1357972175 0.7007585764 4282862710
-0.3774852157 -0.1353751719 0.7026090622 4282994042
-0.3784793913 -0.1349489838 0.7044594288 4283454593
-0.3272767961 -0.1467757672 0.6104185581 4290297546
-0.3268792927 -0.1459201127 0.6096771359 4284639348
-0.3264813721 -0.1450659037 0.6089349985 4281810249
-0.3270080686 -0.1446222663 0.6099173427 4282270551
-0.3270720541 -0.1439727694 0.6100366712 4282599516
-0.3266730607 -0.1431201696 0.6092925072 4282467427
-0.3267364204 -0.1424708366 0.6094107032 4282467427
-0.3272624016 -0.1420219988 0.6103917360 4282204518
-0.3273253441 -0.1413709968 0.6105090976 4282336104
-0.3273880184 -0.1407196075 0.6106259823 4282138977
-0.3274503946 -0.1400678456 0.6107423306 4281678426
-0.3275125325 -0.1394157112 0.6108582616 4281941596
-0.3275744021 -0.1387632191 0.6109736562 4281810010
-0.3280994296 -0.1383056939 0.6119528413 4281546840
-0.3272338212 -0.1372626871 0.6103383899 4282073184
-0.3286855817 -0.1371905059 0.6130461097 4282797164
-0.3292102218 -0.1367272586 0.6140246391 4284047231
-0.3297347724 -0.1362618059 0.6150029898 4284508035
-0.3307230473 -0.1359848529 0.6168463230 4285100172
-0.3317114115 -0.1357038319 0.6186897755 4285888927
-0.3313077986 -0.1348521262 0.6179369092 4286152099
-0.3332242370 -0.1349416375 0.6215113401 4285559962
-0.3342126906 -0.1346493214 0.6233549714 4284112516
-0.3352012038 -0.1343529522 0.6251987219 4282993781
-0.3361897767 -0.1340524852 0.6270425320 4282533230
-0.3371784091 -0.1337479502 0.6288864613 4282335851
-0.3358445168 -0.1325228661 0.6263985634 4282138472
-0.3386912048 -0.1329442859 0.6317080855 4282204778
-0.3401445746 -0.1328098774 0.6344187856 4282270571
-0.3420628905 -0.1328500360 0.6379967332 4282270573
-0.3444464207 -0.1330619454 0.6424423456 4282270573
-0.3468304574 -0.1332641840 0.6468889117 4282270573
-0.3496800065 -0.1336344332 0.6522037387 4282270573
-0.3525302112 -0.1339931190 0.6575198174 4282270573
-0.3549159169 -0.1341644078 0.6619694829 4282270573
-0.3582325876 -0.1346757859 0.6681555510 4282401905
-0.3615500331 -0.1351737380 0.6743431091 4282467698
-0.3648682833 -0.1356582195 0.6805320978 4282336364
-0.3677218556 -0.1359571368 0.6858544350 4282007399
-0.3696449399 -0.1359021366 0.6894412637 4282073190
-0.3720339239 -0.1360094994 0.6938970685 4282467948
-0.3748890758 -0.1362764090 0.6992223859 4282928503
-0.3759426475 -0.1351012588 0.7011874318 4283125628
-0.3769350946 -0.1346767843 0.7030384541 4283849351
-0.3774615228 -0.1340826601 0.7040203214 4283850373
-0.3789199293 -0.1338154674 0.7067404985 4284047752
-0.3789800107 -0.1330513209 0.7068525553 4283126901
-0.3795059919 -0.1324495226 0.7078335285 4284640140
-0.3272048235 -0.1470481157 0.6115511656 4287271068
-0.3263465464 -0.1459847093 0.6099470258 4282205007
-0.3259493411 -0.1451301426 0.6092046499 4282468179
-0.3260134459 -0.1444816887 0.6093244553 4282336343
-0.3260772824 -0.1438328475 0.6094437838 4283191652
-0.3261408806 -0.1431836188 0.6095626354 4282138713
-0.3262041807 -0.1425340176 0.6096809506 4281349197
-0.3262672424 -0.1418840438 0.6097988486 4281612373
-0.3263300359 -0.1412336975 0.6099162102 4281414994
-0.3263925612 -0.1405829638 0.6100330353 4281876054
-0.3264548182 -0.1399318576 0.6101494431 4281612882
-0.3265168369 -0.1392803937 0.6102653146 4281810261
-0.3265785575 -0.1386285424 0.6103806496 4281612882
-0.3266400397 -0.1379763335 0.6104955673 4281875802
-0.3267012239 -0.1373237520 0.6106099486 4281810009
-0.3272249997 -0.1368643939 0.6115888953 4282073435
-0.3277486563 -0.1364028156 0.6125676036 4282139228
-0.3282722235 -0.1359390169 0.6135461926 4283784302
-0.3292587996 -0.1356638223 0.6153901219 4285034369
-0.3302454352 -0.1353845447 0.6172341108 4285559961
-0.3316954076 -0.1352901608 0.6199441552 4285099410
-0.3326822519 -0.1350018233 0.6217885613 4283783551
-0.3332057297 -0.1345223039 0.6227669716 4282336105
-0.3341926038 -0.1342267543 0.6246114373 4281743968
-0.3366302252 -0.1338077039 0.6291673779 4281941347
-0.3380810916 -0.1336823553 0.6318790913 4282072933
-0.3395321965 -0.1335510612 0.6345912218 4282138985
-0.3419113159 -0.1337768435 0.6390378475 4282138985
-0.3396509588 -0.1321871281 0.6348131895 4282204780
-0.3438866735 -0.1331214905 0.6427298188 4282204780
-0.3462668955 -0.1333238333 0.6471784711 4282204780
-0.3491118550 -0.1336942613 0.6524958014 4282336366
-0.3519575000 -0.1340531409 0.6578143239 4282402159
-0.3548037708 -0.1344004273 0.6631340981 4282270573
-0.3576506972 -0.1347361505 0.6684550643 4282401905
-0.3642147481 -0.1364526749 0.6807233691 4282336112
-0.3665989339 -0.1365846246 0.6851794124 4282138985
-0.3708424568 -0.1373955309 0.6931106448 4282138985
-0.3690447509 -0.1359631270 0.6897506714 4282336362
-0.3723596632 -0.1364111602 0.6959463358 4282533741
-0.3733506203 -0.1359988898 0.6977984309 4282796917
-0.3743415475 -0.1355824918 0.6996504664 4283191675
-0.3753324747 -0.1351619661 0.7015025020 4283849351
-0.3758581877 -0.1345707774 0.7024850845 4283980937
-0.3759185076 -0.1338117272 0.7025977969 4284047752
-0.3769689202 -0.1326200068 0.7045611143 4283916415
-0.3774938881 -0.1320207864 0.7055422664 4287074479
-0.3270654380 -0.1479718238 0.6125622392 4290231755
-0.3262091577 -0.1469056159 0.6109585166 4284047213
-0.3253522515 -0.1458426714 0.6093536019 4282073676
-0.3254165649 -0.1451943368 0.6094740629 4281481539
-0.3250195980 -0.1443408728 0.6087306142 4281415479
-0.3250833154 -0.1436926872 0.6088499427 4282797132
-0.3251467645 -0.1430441290 0.6089687943 4284506962
-0.3252099454 -0.1423951834 0.6090871096 4285954408
-0.3252728581 -0.1417458653 0.6092049479 4287269988
-0.3253355324 -0.1410961747 0.6093223095 4287730539
-0.3253979087 -0.1404460967 0.6094391346 4288059497
-0.3254600465 -0.1397956610 0.6095555425 4288256876
-0.3255219162 -0.1391448379 0.6096713543 4287467119
-0.3260453343 -0.1386900991 0.6106516719 4286743396
-0.3261067569 -0.1380376220 0.6107667089 4285755746
-0.3257059157 -0.1371901780 0.6100159883 4284110921
-0.3262287974 -0.1367315650 0.6109952927 4282467138
-0.3267515898 -0.1362707317 0.6119744182 4281940794
-0.3272742629 -0.1358076781 0.6129533648 4281612880
-0.3282591999 -0.1355333030 0.6147980094 4282270810
-0.3292441964 -0.1352548599 0.6166428328 4282401897
-0.3302292526 -0.1349723339 0.6184877753 4282072932
-0.3307517767 -0.1344976425 0.6194664240 4281941604
-0.3317368925 -0.1342079043 0.6213114262 4281810018
-0.3327220380 -0.1339140832 0.6231565475 4281349469
-0.3337072432 -0.1336161941 0.6250017285 4281612641
-0.3346925378 -0.1333142221 0.6268470287 4281481055
-0.3361408412 -0.1331916302 0.6295596361 4281612641
-0.3375893831 -0.1330630928 0.6322726011 4281875813
-0.3413539529 -0.1338365972 0.6393232942 4282007399
-0.3432665467 -0.1338721663 0.6429053545 4282204778
-0.3456428349 -0.1340796351 0.6473559141 4282402157
-0.3443123400 -0.1328470409 0.6448640823 4282599023
-0.3485429585 -0.1337540597 0.6527876258 4282270058
-0.3513840139 -0.1341131032 0.6581085920 4282334822
-0.3546893597 -0.1346365809 0.6642991900 4282663787
-0.3575317860 -0.1349715292 0.6696227789 4282206059
-0.3603748381 -0.1352948993 0.6749476194 4281877094
-0.3632185459 -0.1356066763 0.6802735329 4282073194
-0.3655989170 -0.1357345879 0.6847317219 4282270573
-0.3675156832 -0.1356814504 0.6883217096 4282467700
-0.3694327772 -0.1356204450 0.6919122338 4282730872
-0.3704217970 -0.1352126896 0.6937645078 4282994045
-0.3718750477 -0.1349693239 0.6964863539 4283323010
-0.3728640974 -0.1345523894 0.6983387470 4282731387
-0.3738531470 -0.1341313273 0.7001911402 4283323524
-0.3743776679 -0.1335404664 0.7011735439 4283652226
-0.3744374514 -0.1327826232 0.7012854815 4283257468
-0.3749615550 -0.1321882159 0.7022671103 4285363085
-0.3754855096 -0.1315915585 0.7032483816 4290626525
-0.3260692060 -0.1478286237 0.6119694114 4287007898
-0.3252142966 -0.1467628777 0.6103649139 4281744458
-0.3243587613 -0.1457004100 0.6087592244 4281547332
-0.3244229257 -0.1450527310 0.6088796854 4283718501
-0.3244868517 -0.1444046646 0.6089996696 4286021492
-0.3245505095 -0.1437562257 0.6091191173 4287995282
-0.3246139288 -0.1431073993 0.6092380881 4289441425
-0.3242165148 -0.1422561258 0.6084922552 4289507218
-0.3247399330 -0.1418086141 0.6094745994 4289967244
-0.3248025477 -0.1411586553 0.6095921397 4290427795
-0.3248648942 -0.1405083090 0.6097091436 4290887574
-0.3249269724 -0.1398576051 0.6098256707 4291019160
-0.3249887824 -0.1392065287 0.6099416614 4291216539
-0.3250503242 -0.1385550797 0.6100571752 4291216539
-0.3255727887 -0.1380988657 0.6110377312 4291413420
-0.3256338835 -0.1374457479 0.6111524105 4290887076
-0.3261560500 -0.1369860172 0.6121323705 4288782242
-0.3266781271 -0.1365240812 0.6131122112 4286084729
-0.3272000849 -0.1360599250 0.6140918732 4283190625
-0.3291066885 -0.1361664683 0.6176701784 4282006351
-0.3282437325 -0.1351249516 0.6160505414 4282205027
-0.3287653923 -0.1346541345 0.6170296669 4282139234
-0.3297488093 -0.1343692988 0.6188752651 4282073190
-0.3307322562 -0.1340803802 0.6207210422 4281678432
-0.3317157626 -0.1337873787 0.6225669384 4281875815
-0.3331614435 -0.1336757094 0.6252801418 4281481057
-0.3341451287 -0.1333736330 0.6271263957 4281612382
-0.3355911374 -0.1332510114 0.6298402548 4281546589
-0.3370373547 -0.1331224293 0.6325545311 4281941347
-0.3394086063 -0.1333512664 0.6370049119 4282072933
-0.3413178921 -0.1333896667 0.6405882239 4282073192
-0.3460029364 -0.1344991177 0.6493812203 4282138985
-0.3488387167 -0.1348740160 0.6547033787 4282270060
-0.3544515371 -0.1363050193 0.6652376056 4282335853
-0.3512725830 -0.1343500465 0.6592712998 4282401644
-0.3573499918 -0.1359292865 0.6706774235 4282533230
-0.3574105799 -0.1352070272 0.6707911491 4282008169
-0.3597860634 -0.1353554279 0.6752495170 4282008169
-0.3626251817 -0.1356673539 0.6805779338 4282270573
-0.3645384908 -0.1356230229 0.6841688752 4282402159
-0.3664521277 -0.1355708092 0.6877604127 4282665077
-0.3679026961 -0.1353402883 0.6904828548 4282928249
-0.3688900173 -0.1349342465 0.6923358440 4282994044
-0.3698772788 -0.1345240921 0.6941887736 4283191423
-0.3708645701 -0.1341098100 0.6960417032 4282796665
-0.3718518019 -0.1336914003 0.6978945732 4283257216
-0.3723753095 -0.1331031024 0.6988770962 4282862708
-0.3728986382 -0.1325125694 0.6998592615 4283323259
-0.3729579151 -0.1317559183 0.6999705434 4287534252
-0.3250086010 -0.1483347118 0.6112530231 4290363339
-0.3241554797 -0.1472679824 0.6096485257 4284244592
-0.3233017623 -0.1462045461 0.6080428958 4282599767
-0.3233660758 -0.1455579102 0.6081638336 4285034106
-0.3234301209 -0.1449109018 0.6082842946 4287073689
-0.3234938979 -0.1442634910 0.6084042788 4286877315
-0.3235574067 -0.1436157078 0.6085237265 4286153592
-0.3231609762 -0.1427644640 0.6077781320 4284705622
-0.3232238889 -0.1421168298 0.6078964472 4283126590
-0.3237464130 -0.1416700631 0.6088791490 4282993721
-0.3238088787 -0.1410207748 0.6089966893 4283454272
-0.3238711059 -0.1403710991 0.6091136932 4284111943
-0.3239330351 -0.1397210509 0.6092301607 4284967252
-0.3239947259 -0.1390706152 0.6093462110 4286611556
-0.3245164454 -0.1386164427 0.6103274226 4288585346
-0.3250380754 -0.1381600499 0.6113084555 4290098589
-0.3250991404 -0.1375066787 0.6114233136 4291480242
-0.3256205022 -0.1370467693 0.6124038696 4291808455
-0.3256811202 -0.1363917291 0.6125178337 4291676869
-0.3266629279 -0.1361203045 0.6143643856 4290032568
-0.3271839917 -0.1356537342 0.6153443456 4285887609
-0.3272440732 -0.1349948198 0.6154572964 4282205530
-0.3286868334 -0.1349031627 0.6181707978 4281810772
-0.3296687603 -0.1346172839 0.6200175285 4281941857
-0.3306507468 -0.1343273371 0.6218643188 4281876064
-0.3297878206 -0.1332876384 0.6202414036 4281546337
-0.3321535587 -0.1335497051 0.6246907115 4281677923
-0.3331356049 -0.1332484335 0.6265377402 4281809248
-0.3350407183 -0.1333103329 0.6301206946 4281677662
-0.3364846110 -0.1331817210 0.6328362823 4282072419
-0.3388520181 -0.1334106773 0.6372886896 4282072419
-0.3412199318 -0.1336299479 0.6417421699 4282072679
-0.3431265652 -0.1336596161 0.6453280449 4282072679
-0.3459573686 -0.1340393871 0.6506519318 4282073194
-0.3487887979 -0.1344075799 0.6559771299 4282336366
-0.3516208827 -0.1347641796 0.6613035202 4282271087
-0.3544536531 -0.1351092011 0.6666311622 4282007915
-0.3568248451 -0.1352674216 0.6710907221 4282007401
-0.3596587777 -0.1355901808 0.6764206290 4282270573
-0.3620310128 -0.1357279867 0.6808820963 4282533745
-0.3639412522 -0.1356836557 0.6844747663 4282665331
-0.3649267554 -0.1352885067 0.6863282323 4282928249
-0.3663748801 -0.1350597739 0.6890517473 4283125628
-0.3673604429 -0.1346554458 0.6909053326 4283191421
-0.3683460057 -0.1342470050 0.6927589178 4283323007
-0.3688687384 -0.1336667240 0.6937420368 4283323007
-0.3698542118 -0.1332509667 0.6955954432 4283915144
-0.3703767061 -0.1326652616 0.6965780854 4283322999
-0.3708989918 -0.1320773065 0.6975604296 4285494168
-0.3709580004 -0.1313231587 0.6976714134 4290692314
-0.3226392269 -0.1475615650 0.6080670357 4287139484
-0.3236207664 -0.1473328173 0.6099169254 4283784043
-0.3223100305 -0.1460611671 0.6074466109 4286284177
-0.3223741949 -0.1454151869 0.6075675488 4285823372
-0.3224380910 -0.1447688341 0.6076879501 4283717996
-0.3225017190 -0.1441220790 0.6078079343 4281680734
-0.3221062720 -0.1432708651 0.6070625782 4280957011
-0.3221693039 -0.1426242888 0.6071813703 4280824154
-0.3222320676 -0.1419773251 0.6072996855 4281482084
-0.3222945929 -0.1413299739 0.6074175239 4282337395
-0.3223568499 -0.1406822652 0.6075348258 4282468981
-0.3228781223 -0.1402336508 0.6085172296 4282600054
-0.3229399323 -0.1395842582 0.6086337566 4283323777
-0.3234609365 -0.1391321272 0.6096156836 4283783810
-0.3235222995 -0.1384810656 0.6097313166 4284507533
-0.3235834241 -0.1378296465 0.6098465323 4285559949
-0.3241039813 -0.1373727024 0.6108276248 4286875809
-0.3246244490 -0.1369135380 0.6118085384 4289309877
-0.3251448274 -0.1364521682 0.6127892137 4291152081
-0.3252051175 -0.1357964873 0.6129028797 4291546071
-0.3257251978 -0.1353316009 0.6138830781 4291019727
-0.3271655142 -0.1352449208 0.6165975332 4287403422
-0.3281458020 -0.1349630207 0.6184450984 4282995291
-0.3301065862 -0.1343869865 0.6221404672 4282336607
-0.3310870528 -0.1340928376 0.6239883900 4282072933
-0.3320675790 -0.1337946206 0.6258363128 4281875554
-0.3344300985 -0.1340462118 0.6302888989 4281809248
-0.3321858943 -0.1324510872 0.6260592937 4282006627
-0.3368527293 -0.1336065084 0.6348547339 4282138212
-0.3387555778 -0.1336518824 0.6384409666 4282072419
-0.3406587541 -0.1336894333 0.6420278549 4282072422
-0.3430233598 -0.1338991225 0.6464843154 4282138215
-0.3458496332 -0.1342781335 0.6518108845 4282138987
-0.3486765325 -0.1346455812 0.6571386456 4282270573
-0.3510428369 -0.1348242611 0.6615983248 4281942374
-0.3534096181 -0.1349932253 0.6660588980 4281613409
-0.3557768762 -0.1351524591 0.6705204248 4282138733
-0.3586061299 -0.1354763210 0.6758526564 4282401905
-0.3609744310 -0.1356151551 0.6803160906 4282600054
-0.3624198437 -0.1353992671 0.6830402017 4282731640
-0.3634036481 -0.1350058466 0.6848943233 4282929019
-0.3648492694 -0.1347789168 0.6876188517 4283126398
-0.3658331335 -0.1343763024 0.6894730926 4283323775
-0.3663550019 -0.1338008493 0.6904566288 4283850119
-0.3668766916 -0.1332231462 0.6914398670 4283915396
-0.3678603768 -0.1328100413 0.6932937503 4284244361
-0.3688440323 -0.1323928237 0.6951476336 4284573318
-0.3689031005 -0.1316415370 0.6952589750 4288718277
-0.3256999254 -0.1499573141 0.6151230335 4290560722
-0.3239355087 -0.1484652013 0.6117907166 4285692040
-0.3230853379 -0.1473975927 0.6101850867 4285231238
-0.3217768073 -0.1461254060 0.6077137589 4284704894
-0.3213831186 -0.1452722400 0.6069702506 4282072920
-0.3209889829 -0.1444205195 0.6062258482 4281480783
-0.3210524023 -0.1437753439 0.6063455939 4281417574
-0.3211155534 -0.1431298107 0.6064648628 4281549160
-0.3207202554 -0.1422806233 0.6057183743 4281812088
-0.3207828104 -0.1416352391 0.6058365107 4281943674
-0.3213034570 -0.1411909014 0.6068197489 4281944704
-0.3213655651 -0.1405438483 0.6069370508 4282339462
-0.3214274049 -0.1398964077 0.6070538759 4282668945
-0.3219476044 -0.1394472420 0.6080363393 4283458461
-0.3220090270 -0.1387981474 0.6081523299 4284049571
-0.3225289583 -0.1383454651 0.6091343164 4284839087
-0.3230488300 -0.1378905773 0.6101161242 4285627811
-0.3231095970 -0.1372385174 0.6102309227 4286219948
-0.3236292005 -0.1367800981 0.6112121940 4286482320
-0.3241486847 -0.1363194585 0.6121932864 4286942871
-0.3246680498 -0.1358566135 0.6131742001 4289508014
-0.3251873553 -0.1353915334 0.6141549945 4291021253
-0.3257065415 -0.1349242330 0.6151354909 4291546320
-0.3262256086 -0.1344547272 0.6161158681 4289638323
-0.3272041678 -0.1341714263 0.6179639697 4284178031
-0.3281827569 -0.1338840574 0.6198121905 4281612104
-0.3291614354 -0.1335925907 0.6216604710 4282006876
-0.3301401436 -0.1332970560 0.6235089302 4282204255
-0.3334183693 -0.1339210123 0.6297001839 4281809760
-0.3362374604 -0.1343477815 0.6350244284 4282072932
-0.3381371796 -0.1343972981 0.6386122704 4282072933
-0.3358960748 -0.1328016967 0.6343796253 4282072933
-0.3400968313 -0.1337488741 0.6423133016 4282072422
-0.3424575925 -0.1339586675 0.6467719078 4282072422
-0.3452792466 -0.1343378872 0.6521009207 4282072933
-0.3481015563 -0.1347054988 0.6574311852 4282007140
-0.3509245217 -0.1350615323 0.6627627015 4281875553
-0.3532875180 -0.1352296621 0.6672254801 4281941346
-0.3556510210 -0.1353880465 0.6716892123 4282467447
-0.3575542271 -0.1353622675 0.6752836704 4282664826
-0.3599185944 -0.1355021149 0.6797490716 4282731642
-0.3609006703 -0.1351145357 0.6816038489 4282863228
-0.3623437285 -0.1348944604 0.6843292117 4282929530
-0.3633258939 -0.1344977021 0.6861841083 4283061116
-0.3643080294 -0.1340968162 0.6880390048 4283521154
-0.3648289442 -0.1335230023 0.6890228391 4284310670
-0.3653496802 -0.1329469383 0.6900063157 4284310152
-0.3658702672 -0.1323686391 0.6909894943 4284244359
-0.3673135936 -0.1321200430 0.6937153935 4286612899
-0.3673724532 -0.1313703358 0.6938265562 4291415788
-0.3247026503 -0.1498124003 0.6145285964 4287731883
-0.3233979046 -0.1485303640 0.6120592356 4284244854
-0.3225491941 -0.1474623084 0.6104530096 4283586161
-0.3203289807 -0.1457736939 0.6062510610 4281809750
-0.3199358284 -0.1449220181 0.6055069566 4281743706
-0.3195421994 -0.1440717876 0.6047620177 4281414741
-0.3196053803 -0.1434282064 0.6048815846 4281613421
-0.3196683228 -0.1427842379 0.6050006747 4281613421
-0.3197309673 -0.1421398968 0.6051192880 4281549166
-0.3197933733 -0.1414951831 0.6052373648 4281746545
-0.3203131258 -0.1410515904 0.6062210202 4282010497
-0.3203750849 -0.1404051930 0.6063383222 4282668427
-0.3208945692 -0.1399580836 0.6073215008 4283128726
-0.3209561110 -0.1393100172 0.6074379683 4283457691
-0.3214753270 -0.1388593912 0.6084206700 4284246946
-0.3224525154 -0.1386034042 0.6102700233 4284773290
-0.3225135207 -0.1379514486 0.6103854775 4285825202
-0.3221160471 -0.1371040940 0.6096332669 4286022581
-0.3226347566 -0.1366464347 0.6106148958 4286416297
-0.3231533468 -0.1361865401 0.6115964055 4285758367
-0.3232133687 -0.1355322003 0.6117100120 4285626498
-0.3241902292 -0.1352601051 0.6135588288 4287468702
-0.3247085214 -0.1347935647 0.6145397425 4291151050
-0.3252267241 -0.1343247890 0.6155204773 4291348429
-0.3262036145 -0.1340423226 0.6173692942 4289967039
-0.3267216682 -0.1335681677 0.6183497906 4283914083
-0.3276986182 -0.1332784742 0.6201987267 4281743437
-0.3291346431 -0.1331704110 0.6229165792 4282072402
-0.3305709064 -0.1330564022 0.6256347895 4282270563
-0.3329257667 -0.1333041787 0.6300916076 4281941598
-0.3375776410 -0.1344569325 0.6388956904 4282072679
-0.3399339914 -0.1346806586 0.6433552504 4282138472
-0.3381558061 -0.1332650781 0.6399899125 4282072679
-0.3418910503 -0.1340181828 0.6470592022 4281941093
-0.3447080851 -0.1343975812 0.6523907185 4281809761
-0.3479854763 -0.1349436492 0.6585934162 4281743968
-0.3503441513 -0.1351215988 0.6630573869 4282007139
-0.3527033031 -0.1352898180 0.6675223112 4282467690
-0.3569026291 -0.1361501068 0.6754699349 4282468219
-0.3588030636 -0.1361205876 0.6790666580 4282665598
-0.3584033847 -0.1352153122 0.6783102751 4282863485
-0.3598439097 -0.1350020915 0.6810365319 4282995071
-0.3612845838 -0.1347828805 0.6837631464 4283192702
-0.3618047535 -0.1342161298 0.6847476363 4283258495
-0.3627851903 -0.1338169724 0.6866031885 4283587201
-0.3633051217 -0.1332447976 0.6875872612 4284245131
-0.3633643687 -0.1325024515 0.6876993775 4283915649
-0.3638839424 -0.1319267303 0.6886826754 4285034130
-0.3648640215 -0.1315148175 0.6905375719 4289442510
-0.3268313110 -0.1518008858 0.6198602915 4291218909
-0.3241621256 -0.1498780549 0.6147979498 4285823632
-0.3219475448 -0.1481757164 0.6105978489 4282599775
-0.3215562403 -0.1473180205 0.6098557115 4282336354
-0.3202520907 -0.1460456997 0.6073822975 4281810010
-0.3194034398 -0.1449856311 0.6057727337 4281546589
-0.3190105259 -0.1441350430 0.6050275564 4281612382
-0.3186171949 -0.1432859302 0.6042816043 4281548144
-0.3182234168 -0.1424382776 0.6035347581 4281613937
-0.3182858527 -0.1417955160 0.6036531925 4281614963
-0.3183480501 -0.1411523819 0.6037710905 4281943928
-0.3188667893 -0.1407104731 0.6047549248 4282009988
-0.3189285398 -0.1400656551 0.6048720479 4282273160
-0.3194470406 -0.1396202296 0.6058554053 4283193492
-0.3199654520 -0.1391725689 0.6068386436 4283917215
-0.3204837739 -0.1387226731 0.6078216434 4284575395
-0.3210020065 -0.1382705718 0.6088045239 4284904360
-0.3219774961 -0.1380122900 0.6106546521 4285101741
-0.3220382035 -0.1373596936 0.6107697487 4285562292
-0.3220986426 -0.1367067397 0.6108843684 4285759156
-0.3226164281 -0.1362466663 0.6118664145 4285495984
-0.3231340945 -0.1357843876 0.6128482223 4285363869
-0.3241094649 -0.1355112642 0.6146981120 4284837525
-0.3246270418 -0.1350436062 0.6156796813 4286676625
-0.3251445293 -0.1345737129 0.6166611314 4290229447
-0.3242878020 -0.1335357726 0.6150363088 4291150798
-0.3261791468 -0.1336272657 0.6186233759 4289440180
-0.3271545172 -0.1333374530 0.6204732656 4283650911
-0.3285882175 -0.1332293749 0.6231923699 4282137672
-0.3300221264 -0.1331153363 0.6259118915 4282269533
-0.3328315914 -0.1335471869 0.6312402487 4282401119
-0.3351832330 -0.1337844729 0.6357003450 4282204267
-0.3393698335 -0.1347403675 0.6436405182 4282270060
-0.3417228460 -0.1349544972 0.6481032372 4282204780
-0.3399474621 -0.1335370094 0.6447360516 4281941608
-0.3445950449 -0.1346365064 0.6535505056 4281678436
-0.3474081755 -0.1350035667 0.6588858962 4281744229
-0.3497630060 -0.1351816207 0.6633519530 4282073710
-0.3521182835 -0.1353499293 0.6678189039 4282468468
-0.3544740677 -0.1355085075 0.6722868085 4282468219
-0.3559118509 -0.1353081465 0.6750136614 4282797184
-0.3587277234 -0.1356227547 0.6803542376 4282929021
-0.3597066700 -0.1352348775 0.6822108626 4282994814
-0.3606855869 -0.1348428577 0.6840674877 4283455615
-0.3612049818 -0.1342758983 0.6850525141 4283784580
-0.3617241979 -0.1337066740 0.6860372424 4283981187
-0.3604044616 -0.1324594021 0.6835342646 4284244359
-0.3618426323 -0.1322254688 0.6862618327 4283849854
-0.3623612225 -0.1316514015 0.6872454286 4287139504
-0.3633395731 -0.1312412173 0.6891009212 4291351275
-0.3226449788 -0.1501728296 0.6132122874 4289508293
-0.3213450611 -0.1488891989 0.6107416749 4283915637
-0.3186785281 -0.1469807625 0.6056737304 4282402398
-0.3201087713 -0.1469644457 0.6083920002 4281612633
-0.3165294826 -0.1446527690 0.6015892625 4281678426
-0.3179593086 -0.1446347535 0.6043067575 4281809509
-0.3175669312 -0.1437856704 0.6035610437 4281480544
-0.3176298141 -0.1431434304 0.6036806107 4281418601
-0.3172366619 -0.1422963440 0.6029333472 4281615980
-0.3172989786 -0.1416542530 0.6030517817 4281483901
-0.3173610270 -0.1410117894 0.6031696796 4281747073
-0.3174228072 -0.1403689384 0.6032871008 4282272907
-0.3179404736 -0.1399264783 0.6042709947 4282667665
-0.3184580803 -0.1394817978 0.6052547097 4283390356
-0.3194319010 -0.1392337978 0.6071056128 4283587735
-0.3199494183 -0.1387837380 0.6080891490 4284246178
-0.3204668462 -0.1383314580 0.6090725660 4284640936
-0.3209841847 -0.1378769428 0.6100558043 4284708010
-0.3210447431 -0.1372250170 0.6101709008 4284839596
-0.3215618134 -0.1367670000 0.6111536622 4284774824
-0.3216219544 -0.1361134052 0.6112679243 4284709031
-0.3216817975 -0.1354594529 0.6113816500 4284576675
