VERSION 0.7
FIELDS x y z rgba
SIZE 4 4 4 4
TYPE F F F U
COUNT 1 1 1 1
WIDTH 920
HEIGHT 1
VIEWPOINT 0.0 0.0 0.0 1.0 0.0 0.0 0.0
POINTS 920
DATA ascii
-0.3134393990 -0.1744326651 0.6219750643 4289573308
-0.3130759299 -0.1735401303 0.6212537885 4289376699
-0.3131487668 -0.1728900820 0.6213983297 4288784562
-0.3132213652 -0.1722395867 0.6215423942 4288192425
-0.3128567636 -0.1713493168 0.6208188534 4287929253
-0.3129287660 -0.1706988215 0.6209617853 4287467932
-0.3125633895 -0.1698103845 0.6202366948 4286612623
-0.3117603064 -0.1686867177 0.6186431050 4286678417
-0.3113939464 -0.1678019464 0.6179161072 4286744210
-0.3110271394 -0.1669185460 0.6171882153 4286941589
-0.3110974431 -0.1662703753 0.6173277497 4287336347
-0.3111674786 -0.1656217724 0.6174668074 4287204761
-0.3112373054 -0.1649727225 0.6176053286 4286810003
-0.3117447197 -0.1645543724 0.6186122298 4286810002
-0.3122521043 -0.1641337425 0.6196190119 4286810002
-0.3123213947 -0.1634815633 0.6197565198 4286416014
-0.3123904169 -0.1628289521 0.6198934913 4285955463
-0.3124592006 -0.1621759087 0.6200299859 4285560705
-0.3129660785 -0.1617489755 0.6210358143 4285034361
-0.3139113188 -0.1615454108 0.6229115129 4284705394
-0.3152952194 -0.1615624428 0.6256576777 4284836980
-0.3158022165 -0.1611259580 0.6266636848 4285165945
-0.3163091242 -0.1606872082 0.6276696324 4286021254
-0.3172548115 -0.1604681462 0.6295461655 4287467930
-0.3182005882 -0.1602449715 0.6314229369 4288849583
-0.3191465139 -0.1600176841 0.6332999468 4290691787
-0.3196534514 -0.1595671028 0.6343059540 4292205026
-0.3233374357 -0.1400196552 0.6416162252 4290627285
-0.3225139081 -0.1389519721 0.6399821043 4287139753
-0.3221316934 -0.1380770802 0.6392236352 4283981689
-0.3213070929 -0.1370152086 0.6375873089 4282731892
-0.3191557229 -0.1353941560 0.6333183050 4282666099
-0.3178875446 -0.1341552883 0.6308017373 4282731648
-0.3148497939 -0.1321791261 0.6247738004 4283455371
-0.3069455326 -0.1281840354 0.6090888977 4284376475
-0.2950568497 -0.1225686595 0.5854975581 4284639647
-0.3039584756 -0.1255962998 0.6031615138 4284772001
-0.2947195768 -0.1211289838 0.5848283172 4284377243
-0.2943291664 -0.1203195974 0.5840535164 4283917456
-0.2944325805 -0.1190635711 0.5842587948 4285036189
-0.2944839299 -0.1184350625 0.5843606591 4286352049
-0.3149269521 -0.2000031471 0.6263072491 4292074470
-0.3150093257 -0.1993594021 0.6264710426 4291877091
-0.3146592379 -0.1984425634 0.6257748008 4291744994
-0.3151733875 -0.1980703920 0.6267973185 4291613408
-0.3152550757 -0.1974251419 0.6269598007 4291350236
-0.3153365254 -0.1967793852 0.6271218061 4290955478
-0.3154177666 -0.1961331218 0.6272833943 4290560720
-0.3154987991 -0.1954863667 0.6274445057 4290165962
-0.3155795932 -0.1948391050 0.6276051402 4289573827
-0.3152271509 -0.1939249784 0.6269042492 4288915897
-0.3153073788 -0.1932776123 0.6270638108 4288257965
-0.3153873682 -0.1926297694 0.6272228956 4287994793
-0.3150338233 -0.1917177141 0.6265197396 4287995306
-0.3146798015 -0.1908069551 0.6258157492 4288521650
-0.3147588968 -0.1901594102 0.6259730458 4289310651
-0.3144041002 -0.1892503500 0.6252674460 4290034374
-0.3144826293 -0.1886027157 0.6254236102 4290823890
-0.3145609200 -0.1879546195 0.6255792975 4291284441
-0.3142050207 -0.1870476753 0.6248714924 4291810785
-0.3142827451 -0.1863994896 0.6250260472 4292271336
-0.3139260411 -0.1854942739 0.6243166924 4292600301
-0.3140031993 -0.1848460436 0.6244701147 4292863473
-0.3136457205 -0.1839425564 0.6237591505 4293324279
-0.3137222826 -0.1832942516 0.6239115000 4293784830
-0.3137986362 -0.1826454848 0.6240633130 4293850623
-0.3138747513 -0.1819962412 0.6242147088 4293784830
-0.3135158122 -0.1810953617 0.6235008240 4294113791
-0.3135913610 -0.1804460734 0.6236510873 4293587451
-0.3136666715 -0.1797963232 0.6238008738 4293257716
-0.3133065999 -0.1788976341 0.6230847836 4292336614
-0.3133813143 -0.1782478392 0.6232333779 4291086547
-0.3130204678 -0.1773509383 0.6225157380 4289704894
-0.3130946159 -0.1767011285 0.6226631999 4288389804
-0.3127329648 -0.1758060008 0.6219440103 4287929253
-0.3128065467 -0.1751561761 0.6220903397 4288060839
-0.3128798902 -0.1745058894 0.6222361922 4288521390
-0.3125171363 -0.1736130118 0.6215147376 4289310136
-0.3125898838 -0.1729627252 0.6216594577 4289573308
-0.3122263551 -0.1720716655 0.6209364533 4289441722
-0.3118623495 -0.1711819619 0.6202125549 4289507515
-0.3114979267 -0.1702936292 0.6194877625 4289310906
-0.3115694225 -0.1696442664 0.6196299791 4288916148
-0.3112041950 -0.1687577665 0.6189036965 4288322731
-0.3108385503 -0.1678726524 0.6181764603 4287862180
-0.3109091222 -0.1672237664 0.6183168292 4287138968
-0.3105427027 -0.1663405001 0.6175881028 4287073175
-0.3106127083 -0.1656916589 0.6177273393 4287138968
-0.3098085225 -0.1645781100 0.6161280274 4287007382
-0.3098778427 -0.1639302224 0.6162658334 4287204761
-0.3103840649 -0.1635121852 0.6172726154 4287336347
-0.3104529977 -0.1628625095 0.6174097061 4287073174
-0.3100843132 -0.1619839370 0.6166765094 4286875795
-0.3101526499 -0.1613343209 0.6168124080 4286810772
-0.3106583059 -0.1609109044 0.6178179979 4286284428
-0.3111639023 -0.1604852229 0.6188235283 4285889668
-0.3121071756 -0.1602820754 0.6206994057 4285692289
-0.3126127422 -0.1598509550 0.6217048764 4285297531
-0.3135561645 -0.1596405357 0.6235811114 4285165945
-0.3144997358 -0.1594260037 0.6254576445 4284770417
-0.3154434562 -0.1592073590 0.6273344159 4285033589
-0.3163872659 -0.1589846164 0.6292114258 4285757312
-0.3177694976 -0.1589770466 0.6319603324 4287007379
-0.3182752430 -0.1585267931 0.6329661012 4288520618
-0.3192194104 -0.1582917124 0.6348438263 4290165443
-0.3197251260 -0.1578360051 0.6358495355 4291679452
-0.3213202655 -0.1408734918 0.6390218735 4290955991
-0.3209397495 -0.1399974972 0.6382651329 4287468720
-0.3209997416 -0.1393143833 0.6383844018 4283915898
-0.3197364211 -0.1380595863 0.6358720064 4281679201
-0.3189134002 -0.1369995475 0.6342352629 4281810787
-0.3176486492 -0.1357543319 0.6317199469 4282336884
-0.3137355447 -0.1333887577 0.6239378452 4282600056
-0.3098207414 -0.1310397387 0.6161523461 4282863236
-0.3001657724 -0.1262928694 0.5969511271 4283586959
-0.2953635156 -0.1236197054 0.5874006748 4283586960
-0.2980661094 -0.1240922213 0.5927754641 4283850132
-0.2888446152 -0.1196148470 0.5744363070 4284179866
-0.2871799767 -0.1176563725 0.5711257458 4284180375
-0.2903238535 -0.1183028966 0.5773780942 4284048789
-0.2877229452 -0.1166073009 0.5722056031 4283720077
-0.2891494930 -0.1159076169 0.5750426054 4283784061
-0.2900838256 -0.1156411767 0.5769007802 4286942125
-0.2941141725 -0.1165979728 0.5849160552 4290692316
-0.3138252497 -0.1969647855 0.6254978776 4292074472
-0.3139064312 -0.1963205785 0.6256596446 4291613921
-0.3139873743 -0.1956758648 0.6258209944 4291416542
-0.3140680790 -0.1950306594 0.6259818673 4291350749
-0.3141485751 -0.1943849623 0.6261422634 4291021271
-0.3137966096 -0.1934722662 0.6254407763 4290363341
-0.3138765395 -0.1928264648 0.6256000996 4289836997
-0.3139562309 -0.1921801567 0.6257589459 4289113274
-0.3136031628 -0.1912695467 0.6250551939 4288455855
-0.3136822879 -0.1906231642 0.6252129674 4288192683
-0.3133284450 -0.1897142529 0.6245076656 4288192683
-0.3134070039 -0.1890677810 0.6246642470 4288521648
-0.3134853542 -0.1884208173 0.6248204112 4289244858
-0.3131303787 -0.1875140220 0.6241128445 4289705409
-0.3132081330 -0.1868669838 0.6242678761 4290626511
-0.3128523827 -0.1859619170 0.6235587597 4291218648
-0.3129295707 -0.1853148192 0.6237126589 4291744992
-0.3130065501 -0.1846672446 0.6238660812 4292073957
-0.3130832911 -0.1840191931 0.6240190268 4292534508
-0.3127260804 -0.1831166893 0.6233070493 4292863473
-0.3128022552 -0.1824685782 0.6234588623 4293258486
-0.3128781915 -0.1818200052 0.6236102581 4293587451
-0.3125198483 -0.1809196770 0.6228960156 4293982207
-0.3125952184 -0.1802710593 0.6230462193 4294113791
-0.3126703501 -0.1796219647 0.6231959462 4294376191
-0.3127452433 -0.1789724231 0.6233452559 4294178815
-0.3123854399 -0.1780747324 0.6226280928 4293981439
-0.3124597371 -0.1774251461 0.6227762103 4293586681
-0.3120991588 -0.1765292436 0.6220574975 4292271591
-0.3121728897 -0.1758796424 0.6222044826 4291153110
-0.3118115366 -0.1749855280 0.6214842200 4289903043
-0.3118847013 -0.1743359119 0.6216300726 4288784562
-0.3119576275 -0.1736858338 0.6217753887 4288191655
-0.3120303154 -0.1730353087 0.6219202876 4288257448
-0.3112321794 -0.1719034761 0.6203294992 4288520620
-0.3108687997 -0.1710143536 0.6196052432 4289046964
-0.3109404743 -0.1703651994 0.6197481155 4289442492
-0.3105763197 -0.1694778949 0.6190223098 4289574078
-0.3106474280 -0.1688287556 0.6191639900 4290033349
-0.3102824688 -0.1679432839 0.6184366345 4289835970
-0.3103529811 -0.1672941744 0.6185771227 4288981172
-0.3099872768 -0.1664105505 0.6178482175 4287994277
-0.3096210957 -0.1655283272 0.6171184182 4287336347
-0.3096907139 -0.1648797095 0.6172571182 4287007382
-0.3093237579 -0.1639993489 0.6165257692 4286875796
-0.3089563847 -0.1631203890 0.6157935262 4286744210
-0.3090250492 -0.1624723077 0.6159303784 4286875796
-0.3086569011 -0.1615952104 0.6151966453 4286941589
-0.3087249994 -0.1609471887 0.6153323054 4287205530
-0.3083560765 -0.1600719839 0.6145970225 4286876565
-0.3088604212 -0.1596498340 0.6156022549 4286679186
-0.3093647361 -0.1592254192 0.6166074276 4286547600
-0.3103060424 -0.1590227038 0.6184836030 4286481037
-0.3108103275 -0.1585928500 0.6194887161 4286086279
-0.3117518127 -0.1583828479 0.6213651896 4285165175
-0.3126933873 -0.1581687629 0.6232419014 4284902003
-0.3136351109 -0.1579505503 0.6251189113 4284638831
-0.3145769536 -0.1577282399 0.6269960999 4284507245
-0.3150812984 -0.1572833657 0.6280013323 4284441452
-0.3160232902 -0.1570537537 0.6298788786 4285165175
-0.3165276051 -0.1566034108 0.6308839917 4286810000
-0.3170318305 -0.1561508179 0.6318890452 4288257446
-0.3170980215 -0.1554811895 0.6320209503 4289903041
-0.3176020086 -0.1550249755 0.6330254674 4291416280
-0.3193677962 -0.1410346925 0.6365449429 4289179329
-0.3189881146 -0.1401606053 0.6357881427 4284771198
-0.3181679249 -0.1390956342 0.6341534257 4281810788
-0.3182274401 -0.1384169459 0.6342720389 4281744995
-0.3165257871 -0.1369758248 0.6308803558 4282073708
-0.3139425516 -0.1351627111 0.6257316470 4282073708
-0.2968251109 -0.1271357536 0.5916141868 4281941873
-0.3065700233 -0.1306307763 0.6110371947 4282270838
-0.3013393581 -0.1277346462 0.6006117463 4282402685
-0.2956658900 -0.1246749610 0.5893036723 4282468478
-0.2921936512 -0.1225637347 0.5823830366 4282798213
-0.2896014750 -0.1208350956 0.5772165060 4282929799
-0.2905350924 -0.1205812395 0.5790773034 4283192971
-0.2866183221 -0.1183209345 0.5712705851 4283192971
-0.2893153131 -0.1187936068 0.5766460896 4283324555
-0.2893663645 -0.1181737557 0.5767478347 4283785106
-0.2898583412 -0.1177327782 0.5777284503 4283917457
-0.2907914817 -0.1174678281 0.5795882940 4283720078
-0.2877526283 -0.1156030297 0.5735315084 4283323257
-0.2922165394 -0.1167492494 0.5824286342 4283191671
-0.2909423113 -0.1155958623 0.5798889399 4285231505
-0.2896673679 -0.1144478396 0.5773478150 4289376464
-0.3125593662 -0.1952181011 0.6243569255 4292008679
-0.3126397729 -0.1945744455 0.6245175600 4291811300
-0.3127199709 -0.1939302832 0.6246777177 4291482335
-0.3127999306 -0.1932856441 0.6248374581 4291087577
-0.3124481142 -0.1923747957 0.6241347194 4290692304
-0.3125275075 -0.1917300373 0.6242933273 4290165960
-0.3126066923 -0.1910848022 0.6244514585 4289640129
-0.3122537732 -0.1901760399 0.6237464547 4289179578
-0.3119003773 -0.1892685741 0.6230405569 4288784820
-0.3119786680 -0.1886236668 0.6231969595 4288521648
-0.3116244972 -0.1877179146 0.6224894524 4288521135
-0.3117022216 -0.1870729178 0.6226447225 4288455342
-0.3117797077 -0.1864274442 0.6227995157 4289244858
-0.3114244342 -0.1855238229 0.6220898032 4289902788
-0.3115013540 -0.1848782897 0.6222434640 4290692304
-0.3115780354 -0.1842322797 0.6223966479 4291284441
-0.3116544783 -0.1835857928 0.6225493550 4291744992
-0.3117307127 -0.1829388291 0.6227016449 4291942371
-0.3118067086 -0.1822913885 0.6228534579 4292336615
-0.3118824661 -0.1816434860 0.6230047941 4292797166
-0.3115247190 -0.1807437092 0.6222901940 4293390072
-0.3115999103 -0.1800957620 0.6224403381 4293850623
-0.3116748631 -0.1794473380 0.6225900650 4294047999
-0.3117496073 -0.1787984520 0.6227393746 4294047999
-0.3118240833 -0.1781491041 0.6228881478 4294113791
-0.3118983209 -0.1774992794 0.6230364442 4294179583
-0.3115384579 -0.1766030341 0.6223175526 4294113791
-0.3116121292 -0.1759531945 0.6224647164 4293784830
-0.3112514615 -0.1750587523 0.6217442751 4293455865
-0.3113245666 -0.1744088978 0.6218903065 4292403177
-0.3113974035 -0.1737585813 0.6220358610 4291218903
-0.3114700317 -0.1731078178 0.6221809387 4289968836
-0.3111079037 -0.1722160727 0.6214575768 4288718769
-0.3107453585 -0.1713256985 0.6207333207 4288126632
-0.3103823364 -0.1704366803 0.6200081706 4288258218
-0.3104537129 -0.1697868407 0.6201507449 4288455597
-0.3100899160 -0.1688996553 0.6194240451 4289046965
-0.3101606965 -0.1682498306 0.6195654273 4289704895
-0.3097961247 -0.1673644930 0.6188371778 4290297546
-0.3094311357 -0.1664805412 0.6181080937 4290165960
-0.3095009923 -0.1658312231 0.6182476282 4289376444
-0.3091352284 -0.1649491191 0.6175169945 4288586928
-0.3092044890 -0.1642998308 0.6176553369 4287862691
-0.3088379502 -0.1634196192 0.6169231534 4287073175
-0.3089066446 -0.1627703607 0.6170603633 4286678417
-0.3085393012 -0.1618920267 0.6163265705 4286283659
-0.3077356517 -0.1607873440 0.6147212386 4286284173
-0.3078033328 -0.1601395607 0.6148564219 4286349966
-0.3074346781 -0.1592654288 0.6141200662 4286744979
-0.3079379499 -0.1588426977 0.6151253581 4286810772
-0.3084411621 -0.1584177017 0.6161305904 4286941588
-0.3085079789 -0.1577672958 0.6162639856 4286612623
-0.3090109825 -0.1573387086 0.6172688007 4286283658
-0.3090773821 -0.1566865295 0.6174014211 4285757314
-0.3095801771 -0.1562543362 0.6184057593 4285428349
-0.3105196357 -0.1560393274 0.6202824116 4285296763
-0.3110224009 -0.1556016803 0.6212867498 4285165177
-0.3119620085 -0.1553793848 0.6231636405 4284902005
-0.3124647439 -0.1549362838 0.6241678596 4284704626
-0.3129673898 -0.1544909030 0.6251719594 4284638833
-0.3130327761 -0.1538284272 0.6253025532 4285428349
-0.3135351837 -0.1533794552 0.6263061762 4286678416
-0.3140375316 -0.1529282033 0.6273096204 4288323241
-0.3149772584 -0.1526867747 0.6291868091 4289968066
-0.3159171045 -0.1524412036 0.6310642362 4291416282
-0.3182976842 -0.1415804178 0.6358196139 4287928748
-0.3179190159 -0.1407063752 0.6350631714 4282994024
-0.3166615069 -0.1394470185 0.6325511932 4281283406
-0.3158425093 -0.1383853704 0.6309152246 4281745254
-0.3145835698 -0.1371355653 0.6284003854 4281811047
-0.3124449551 -0.1355098337 0.6241284013 4281482086
-0.3085471690 -0.1331345290 0.6163423061 4281284707
-0.2927782536 -0.1256806403 0.5848429203 4281481833
-0.2976686060 -0.1271192580 0.5946117043 4281481833
-0.2884879112 -0.1225583553 0.5762726665 4281349995
-0.2902997732 -0.1226837933 0.5798919797 4281613167
-0.2868328989 -0.1205820516 0.5729666948 4282007927
-0.2855645716 -0.1194150522 0.5704330802 4282139513
-0.2851756513 -0.1186195016 0.5696562529 4282337662
-0.2847863734 -0.1178255081 0.5688785911 4282337662
-0.2857173979 -0.1175765693 0.5707383752 4282337660
-0.2857678533 -0.1169630885 0.5708391666 4282732418
-0.2840564549 -0.1156321838 0.5674206018 4282864002
-0.2858680189 -0.1157351583 0.5710392594 4282798209
-0.2837149799 -0.1142337993 0.5667384267 4283125628
-0.2846453190 -0.1139766350 0.5685968399 4283388800
-0.2860164046 -0.1138908491 0.5713357329 4282863478
-0.2917954922 -0.1155444458 0.5828797817 4283850373
-0.2936086059 -0.1156107560 0.5865015984 4287995065
-0.2901309133 -0.1135974601 0.5795547366 4291745266
-0.3112937808 -0.1934750974 0.6232115030 4292008677
-0.3113734424 -0.1928320080 0.6233710051 4291877091
-0.3114528954 -0.1921884120 0.6235300303 4291218648
-0.3115321100 -0.1915443391 0.6236886382 4291021269
-0.3107491136 -0.1903716922 0.6221210361 4290758097
-0.3108276427 -0.1897284240 0.6222783327 4290494925
-0.3104747534 -0.1888224036 0.6215718389 4290165960
-0.3105527461 -0.1881790459 0.6217279434 4289639616
-0.3101990819 -0.1872747391 0.6210198998 4289112758
-0.3102764785 -0.1866313070 0.6211748719 4288586414
-0.3103536963 -0.1859873980 0.6213294268 4288652207
-0.3104306459 -0.1853430122 0.6214835048 4288718000
-0.3100755215 -0.1844412684 0.6207726002 4288915893
-0.3101519346 -0.1837968230 0.6209255457 4289771202
-0.3102281094 -0.1831519008 0.6210780144 4290692304
-0.3103040457 -0.1825065017 0.6212300658 4291218648
-0.3103797436 -0.1818606257 0.6213816404 4291810271
-0.3104552329 -0.1812142879 0.6215327382 4292139236
-0.3105304837 -0.1805674732 0.6216833591 4292666860
-0.3106054962 -0.1799201816 0.6218335629 4292930032
-0.3106802702 -0.1792724431 0.6219832301 4293192691
-0.3107548058 -0.1786242127 0.6221324801 4293719035
-0.3108291328 -0.1779755354 0.6222812533 4294113791
-0.3109031916 -0.1773263812 0.6224295497 4294047999
-0.3109770417 -0.1766767651 0.6225773692 4294048511
-0.3106174171 -0.1757815331 0.6218574643 4294180095
-0.3106906712 -0.1751319021 0.6220040917 4294114303
-0.3107637167 -0.1744818091 0.6221503019 4294114303
-0.3108364940 -0.1738312691 0.6222960353 4294047999
-0.3109090626 -0.1731802672 0.6224412918 4293455863
-0.3101139069 -0.1720475554 0.6208494306 4292534761
-0.3097519577 -0.1711577475 0.6201247573 4291482073
-0.3098234832 -0.1705081016 0.6202679873 4290035140
-0.3094607592 -0.1696201265 0.6195418239 4288850866
-0.3095317185 -0.1689705104 0.6196838617 4288257963
-0.3091682196 -0.1680843681 0.6189560890 4288126377
-0.3092385828 -0.1674347669 0.6190969944 4288784307
-0.3088743091 -0.1665504724 0.6183676720 4289376444
-0.3089441061 -0.1659009010 0.6185074449 4289639616
-0.3085790277 -0.1650184691 0.6177765727 4289836995
-0.3086482286 -0.1643689424 0.6179151535 4289573823
-0.3082824051 -0.1634883732 0.6171827316 4289113272
-0.3079161346 -0.1626092046 0.6164494157 4287863205
-0.3079844117 -0.1619601995 0.6165861487 4287205275
-0.3071822524 -0.1608550847 0.6149802208 4286876310
-0.3068146706 -0.1599801332 0.6142443419 4286613138
-0.3064466715 -0.1591065973 0.6135075688 4286415759
-0.3065136075 -0.1584595442 0.6136415601 4285955208
-0.3070157766 -0.1580362469 0.6146469116 4286678417
-0.3066467345 -0.1571641862 0.6139081120 4287138968
-0.3071486354 -0.1567381918 0.6149128675 4286875795
-0.3067789078 -0.1558671445 0.6141726971 4286810002
-0.3068446219 -0.1552179903 0.6143043041 4286744209
-0.3073460460 -0.1547879875 0.6153081059 4286612623
-0.3078474104 -0.1543557197 0.6163118482 4286481037
-0.3087848425 -0.1541388929 0.6181885600 4286020486
-0.3084136844 -0.1532676071 0.6174455881 4285428349
-0.3089147806 -0.1528294832 0.6184487343 4285033591
-0.3089793622 -0.1521741450 0.6185780168 4284967798
-0.3094801903 -0.1517324150 0.6195807457 4284507247
-0.3099809885 -0.1512884349 0.6205832958 4284441454
-0.3109183609 -0.1510543227 0.6224599481 4285230970
-0.3118558526 -0.1508161128 0.6243367791 4286481037
-0.3127934635 -0.1505737752 0.6262138486 4288060069
-0.3132942021 -0.1501179338 0.6272163391 4289968066
-0.3142319024 -0.1498682797 0.6290936470 4291547098
-0.3167902827 -0.1419278979 0.6342155337 4287205028
-0.3164125383 -0.1410548389 0.6334592700 4282402139
-0.3151576817 -0.1397944093 0.6309470534 4281546580
-0.3139020503 -0.1385392100 0.6284332871 4281809752
-0.3122071624 -0.1370967180 0.6250401139 4281219164
-0.3091956377 -0.1350865364 0.6190110445 4281284957
-0.3053053916 -0.1327077895 0.6112227440 4281284705
-0.3009746969 -0.1301558614 0.6025526524 4281284705
-0.2922538817 -0.1257344931 0.5850935578 4280955488
-0.2887964249 -0.1236046180 0.5781717300 4280823902
-0.2879713178 -0.1226109117 0.5765197873 4281021284
-0.2858284414 -0.1210627481 0.5722298026 4281152870
-0.2867585123 -0.1208188236 0.5740917921 4281218411
-0.2854925394 -0.1196504012 0.5715573430 4281415790
-0.2837865651 -0.1183041781 0.5681419969 4281547891
-0.2847159803 -0.1180583164 0.5700026751 4281613684
-0.2843271196 -0.1172646210 0.5692241192 4281745523
-0.2834982872 -0.1162921861 0.5675648451 4281942902
-0.2844273746 -0.1160406247 0.5694248080 4282074740
-0.2844771147 -0.1154281422 0.5695244670 4282272119
-0.2854061723 -0.1151702553 0.5713843703 4282402677
-0.2867751122 -0.1150847673 0.5741249919 4282665849
-0.2846249342 -0.1135887802 0.5698203444 4282731642
-0.2877536416 -0.1141973212 0.5760840178 4282336884
-0.2860424221 -0.1128819510 0.5726581812 4282929269
-0.2861391902 -0.1116471738 0.5728518963 4289377485
-0.3099493682 -0.1923778504 0.6219028234 4292205545
-0.3100285232 -0.1917358190 0.6220616698 4291876578
-0.3101074398 -0.1910932958 0.6222199798 4291613406
-0.3093256950 -0.1899219900 0.6206514835 4291416027
-0.3089736402 -0.1890170127 0.6199450493 4291284441
-0.3090515435 -0.1883757114 0.6201013923 4291087062
-0.3091292381 -0.1877339184 0.6202572584 4290758097
-0.3092066944 -0.1870916337 0.6204127073 4290231753
-0.3088531792 -0.1861892045 0.6197034121 4289771202
-0.3089300990 -0.1855468601 0.6198576689 4289310651
-0.3090067804 -0.1849040240 0.6200115681 4288850100
-0.3090832233 -0.1842607260 0.6201649308 4288257963
-0.3091594279 -0.1836169511 0.6203178763 4288192170
-0.3092354238 -0.1829726994 0.6204703450 4288586928
-0.3093111813 -0.1823279709 0.6206223369 4289179065
-0.3093867302 -0.1816827655 0.6207739115 4289968581
-0.3094620109 -0.1810370833 0.6209250093 4290626511
-0.3095370829 -0.1803909391 0.6210755706 4291416027
-0.3091801107 -0.1794936359 0.6203593016 4291810785
-0.3092545867 -0.1788474619 0.6205087900 4292140005
-0.3093288541 -0.1782008111 0.6206578016 4292468970
-0.3094028831 -0.1775536984 0.6208063364 4292929521
-0.3094767034 -0.1769061238 0.6209544539 4293192693
-0.3095502555 -0.1762580872 0.6211020350 4293521656
-0.3096235693 -0.1756095886 0.6212491393 4293982207
-0.3096966743 -0.1749606282 0.6213958263 4294047999
-0.3097695410 -0.1743112057 0.6215419769 4294179583
-0.3098421395 -0.1736613363 0.6216877103 4294245375
-0.3094816804 -0.1727693677 0.6209644675 4294311167
-0.3091207743 -0.1718787551 0.6202403307 4294311167
-0.3087594509 -0.1709895134 0.6195152998 4294047998
-0.3088307977 -0.1703405529 0.6196584702 4293521654
-0.3084686995 -0.1694531441 0.6189318895 4292929517
-0.3081061244 -0.1685671061 0.6182044744 4291087064
-0.3081765771 -0.1679186225 0.6183457971 4289836997
-0.3078132570 -0.1670344323 0.6176167727 4288587441
-0.3078831136 -0.1663859785 0.6177569628 4288192683
-0.3079527617 -0.1657370776 0.6178966761 4288192938
-0.3075883090 -0.1648552269 0.6171654463 4288258731
-0.3076573610 -0.1642063707 0.6173039675 4288784560
-0.3072921336 -0.1633263826 0.6165711880 4289310904
-0.3073606193 -0.1626775712 0.6167085767 4289179318
-0.3069946170 -0.1617994606 0.6159742475 4288916146
-0.3066281974 -0.1609227657 0.6152389646 4288718767
-0.3062613308 -0.1600474715 0.6145029068 4288389802
-0.3058940172 -0.1591735929 0.6137659550 4287534495
-0.3059608936 -0.1585263014 0.6139001250 4286744979
-0.3060275316 -0.1578785926 0.6140338182 4286612623
-0.3056591153 -0.1570071131 0.6132946014 4286612623
-0.3061600626 -0.1565819085 0.6142997146 4287006868
-0.3053559959 -0.1554899365 0.6126863956 4286941075
-0.3049863875 -0.1546218097 0.6119447947 4287073174
-0.3050515056 -0.1539747715 0.6120754480 4287138967
-0.3055516481 -0.1535460353 0.6130789518 4287007381
-0.3056163788 -0.1528972536 0.6132088304 4286941588
-0.3048099577 -0.1518142819 0.6115908027 4286875282
-0.3048740029 -0.1511665285 0.6117193103 4286480524
-0.3049378097 -0.1505183578 0.6118473411 4286348938
-0.3054370880 -0.1500838697 0.6128491163 4285756801
-0.3059362769 -0.1496471465 0.6138507128 4285099385
-0.3068713248 -0.1494203806 0.6157268286 4284967799
-0.3073704839 -0.1489782035 0.6167283654 4284902006
-0.3083056211 -0.1487441510 0.6186047196 4284704627
-0.3092409074 -0.1485059708 0.6204813123 4285165178
-0.3106124997 -0.1484722048 0.6232333779 4286217866
-0.3115480542 -0.1482248455 0.6251105666 4288586152
-0.3124836981 -0.1479733735 0.6269878745 4290165184
-0.3129829168 -0.1475120336 0.6279895902 4291810009
-0.3152855039 -0.1422713846 0.6326096058 4288061097
-0.3144712746 -0.1412029117 0.6309759021 4282139485
-0.3140938878 -0.1403332502 0.6302186847 4281547348
-0.3124034703 -0.1388815343 0.6268269420 4281875813
-0.3107121289 -0.1374369562 0.6234332919 4281612641
-0.3081444502 -0.1356142461 0.6182813048 4281349987
-0.3033865690 -0.1328439564 0.6087347865 4281349987
-0.2977509201 -0.1297124773 0.5974270701 4281415780
-0.2934267223 -0.1271745414 0.5887507200 4281415780
-0.2904147506 -0.1252216995 0.5827072859 4281481575
-0.2878395319 -0.1234696135 0.5775401592 4281481575
-0.2861394584 -0.1221024692 0.5741290450 4281547368
-0.2844385207 -0.1207425296 0.5707162023 4281613161
-0.2840517461 -0.1199451014 0.5699401498 4281744747
-0.2836645842 -0.1191492304 0.5691633224 4281744747
-0.2828384936 -0.1181717068 0.5675057769 4281810540
-0.2828890383 -0.1175621673 0.5676072240 4281942126
-0.2820619941 -0.1165896654 0.5659477711 4282073712
-0.2812344134 -0.1156206205 0.5642872453 4282139505
-0.2826003730 -0.1155521795 0.5670279860 4282139505
-0.2822109461 -0.1147638112 0.5662466288 4282073712
-0.2813821733 -0.1137994826 0.5645837188 4282074488
-0.2814309299 -0.1131918058 0.5646815300 4282469246
-0.2836750746 -0.1134620011 0.5691843629 4282732416
-0.2819669247 -0.1121501923 0.5657570362 4282600830
-0.2864077687 -0.1132780090 0.5746674538 4282403704
-0.2877744436 -0.1131770015 0.5774095654 4282206325
-0.2851864696 -0.1115234196 0.5722169280 4283916677
-0.2887503505 -0.1122733653 0.5793676972 4287272120
-0.2901172638 -0.1121580973 0.5821104050 4290692829
-0.3083341718 -0.1897360384 0.6200437546 4292073957
-0.3075531423 -0.1885682493 0.6184731722 4291810785
-0.3076307774 -0.1879285127 0.6186292768 4291613406
-0.3077081740 -0.1872882843 0.6187849045 4291416027
-0.3073554933 -0.1863868833 0.6180756688 4291087062
-0.3074323237 -0.1857465804 0.6182302237 4290823890
-0.3075089455 -0.1851058006 0.6183842421 4290363339
-0.3075853288 -0.1844645441 0.6185379028 4289968581
-0.3072311878 -0.1835657060 0.6178257465 4289310651
-0.3077374101 -0.1831806004 0.6188437343 4288718514
-0.3078131080 -0.1825379133 0.6189959645 4288389549
-0.3078885972 -0.1818947494 0.6191477180 4288257963
-0.3075331151 -0.1809976250 0.6184328794 4288455342
-0.3076080382 -0.1803544164 0.6185835600 4288784307
-0.3076826930 -0.1797107458 0.6187337041 4289836995
-0.3081881702 -0.1793173999 0.6197502017 4290692304
-0.3082624972 -0.1786718816 0.6198996305 4291350489
-0.3083365858 -0.1780259162 0.6200486422 4291679454
-0.3084104359 -0.1773794740 0.6201971769 4292074212
-0.3084840775 -0.1767325699 0.6203452349 4292468970
-0.3085574508 -0.1760851890 0.6204928160 4292797935
-0.3086306155 -0.1754373610 0.6206399202 4292995314
-0.3087035120 -0.1747890711 0.6207865477 4293455863
-0.3087761998 -0.1741403341 0.6209326982 4293784828
-0.3088486493 -0.1734911203 0.6210783720 4294113791
-0.3084888160 -0.1725997180 0.6203547120 4294245375
-0.3076963723 -0.1714688689 0.6187611818 4294245375
-0.3082000613 -0.1710609347 0.6197740436 4294311167
-0.3078389764 -0.1701727360 0.6190479994 4294311167
-0.3074774742 -0.1692858934 0.6183210015 4294179583
-0.3075481057 -0.1686376184 0.6184630394 4293719037
-0.3071858287 -0.1677526236 0.6177344918 4293126900
-0.3072558641 -0.1671043634 0.6178753376 4292206311
-0.3073256612 -0.1664556712 0.6180157065 4291022037
-0.3069622815 -0.1655730009 0.6172849536 4289640384
-0.3070315123 -0.1649243385 0.6174241900 4288653489
-0.3066673279 -0.1640435457 0.6166918874 4288389804
-0.3067359924 -0.1633949131 0.6168299317 4288389804
-0.3068043888 -0.1627458632 0.6169674397 4288652976
-0.3064391017 -0.1618674248 0.6162329316 4289113527
-0.3060733974 -0.1609903872 0.6154974699 4289639869
-0.3057072759 -0.1601147503 0.6147611737 4289705662
-0.3053406775 -0.1592405289 0.6140240431 4289442490
-0.3054074943 -0.1585929990 0.6141583920 4288916146
-0.3054740727 -0.1579450518 0.6142922640 4288455595
-0.3055403829 -0.1572966725 0.6144255996 4287995044
-0.3051723540 -0.1564253569 0.6136855483 4287928483
-0.3048039079 -0.1555554718 0.6129446030 4287402139
-0.3040007353 -0.1544663310 0.6113294363 4287007381
-0.3040657043 -0.1538199782 0.6114600897 4286875795
-0.3041304350 -0.1531731933 0.6115902662 4287073174
-0.3037603498 -0.1523081064 0.6108460426 4287533725
-0.3033898175 -0.1514444649 0.6101009846 4287796897
-0.3030188978 -0.1505822688 0.6093550324 4287665311
-0.3026475012 -0.1497215033 0.6086081862 4287533725
-0.3027106524 -0.1490763873 0.6087351441 4287138967
-0.3036435544 -0.1488573998 0.6106112003 4286546830
-0.3037063777 -0.1482096165 0.6107375622 4286020486
-0.3046393394 -0.1479842514 0.6126136780 4285691521
-0.3051371276 -0.1475442946 0.6136146784 4285362556
-0.3060702384 -0.1473116130 0.6154910922 4284967285
-0.3070034385 -0.1470748186 0.6173676848 4284638320
-0.3079367280 -0.1468339115 0.6192445159 4284901744
-0.3088701069 -0.1465888768 0.6211215258 4285559674
-0.3093678653 -0.1461338848 0.6221225262 4286481289
-0.3098655641 -0.1456766427 0.6231232882 4288060321
-0.3103631437 -0.1452171206 0.6241239309 4290033857
-0.3108606637 -0.1447553486 0.6251243949 4291547096
-0.3124740720 -0.1420158297 0.6283689141 4289245632
-0.3125343621 -0.1413449347 0.6284901500 4282468953
-0.3117212355 -0.1402807236 0.6268550158 4281086800
-0.3104708493 -0.1390243322 0.6243405342 4281942109
-0.3079094291 -0.1371894032 0.6191896796 4281284192
-0.3053467870 -0.1353653669 0.6140362620 4281349985
-0.3014721274 -0.1329740882 0.6062445641 4281284194
-0.2971587181 -0.1304075867 0.5975705385 4281218401
-0.2932805121 -0.1280503571 0.5897716880 4281218401
-0.2898377776 -0.1258996129 0.5828484893 4281218401
-0.2877051830 -0.1243304536 0.5785599947 4281218401
-0.2855715752 -0.1227703616 0.5742693543 4281284194
-0.2843117118 -0.1215934902 0.5717358589 4281349989
-0.2817386687 -0.1198635697 0.5665615797 4281349989
-0.2826649249 -0.1196260825 0.5684242845 4281284196
-0.2818406820 -0.1186475456 0.5667667985 4281415782
-0.2818913460 -0.1180390343 0.5668686628 4281547368
-0.2819417417 -0.1174301952 0.5669699907 4281613161
-0.2811161578 -0.1164582372 0.5653098226 4281744747
-0.2811659276 -0.1158506423 0.5654098988 4281744747
-0.2812154591 -0.1152427271 0.5655094981 4281810285
-0.2817028463 -0.1148130521 0.5664895773 4281810285
-0.2808755934 -0.1138483286 0.5648260117 4282008179
-0.2818008363 -0.1135937274 0.5666866302 4282205558
-0.2822878063 -0.1131593063 0.5676658750 4282272119
-0.2827746570 -0.1127226725 0.5686449409 4282469498
-0.2815074921 -0.1115885600 0.5660967231 4282863485
-0.2837481201 -0.1118427515 0.5706024766 4282534520
-0.2820415199 -0.1105399057 0.5671706200 4282073708
-0.2869146764 -0.1118087843 0.5769703388 4282468466
-0.2816972733 -0.1091462001 0.5664783716 4284376196
-0.2817440927 -0.1085348353 0.5665725470 4287665846
-0.2826685309 -0.1082593873 0.5684315562 4290890204
-0.3062124252 -0.1874807924 0.6171554923 4292139750
-0.3062895536 -0.1868421286 0.6173108816 4291942371
-0.3059373498 -0.1859421879 0.6166010499 4291679199
-0.3060138822 -0.1853034645 0.6167553067 4291416027
-0.3060902059 -0.1846642494 0.6169091463 4291284441
-0.3061663210 -0.1840245575 0.6170625091 4291087062
-0.3062421679 -0.1833843887 0.6172154546 4290692304
-0.3058882058 -0.1824874431 0.6165020466 4290297546
-0.3063932359 -0.1821026206 0.6175199151 4289771202
-0.3064684272 -0.1814610362 0.6176714301 4289179065
-0.3061134517 -0.1805653721 0.6169559956 4288718514
-0.3061880767 -0.1799237430 0.6171063781 4288521135
-0.3062624633 -0.1792816371 0.6172563434 4288389549
-0.3067668974 -0.1788899750 0.6182729602 4289113272
-0.3068409264 -0.1782460362 0.6184222102 4289968581
-0.3069147468 -0.1776016355 0.6185709238 4290626511
-0.3069882989 -0.1769567728 0.6187192202 4291087317
-0.3070616424 -0.1763114482 0.6188670397 4291613661
-0.3071347475 -0.1756656468 0.6190143824 4292074212
-0.3072076440 -0.1750193983 0.6191612482 4292271591
-0.3072802722 -0.1743726879 0.6193076968 4292600556
-0.3077837527 -0.1739691794 0.6203224063 4292995314
-0.3078560233 -0.1733206362 0.6204680800 4293587449
-0.3074967861 -0.1724298149 0.6197440624 4293916414
-0.3071371317 -0.1715403497 0.6190191507 4293916414
-0.3072084785 -0.1708922684 0.6191629767 4294047999
-0.3068480194 -0.1700046360 0.6184365153 4294311167
-0.3069188297 -0.1693565696 0.6185791492 4294311167
-0.3065575957 -0.1684707701 0.6178511381 4293982459
-0.3061959445 -0.1675863564 0.6171222329 4294048252
-0.3062658012 -0.1669387817 0.6172630787 4294048511
-0.3063354492 -0.1662907600 0.6174033880 4293785339
-0.3064048588 -0.1656422913 0.6175432801 4293061618
-0.3060417473 -0.1647606790 0.6168114543 4292206309
-0.3061105609 -0.1641122401 0.6169501543 4291021524
-0.3057466745 -0.1632325053 0.6162167788 4289968836
-0.3058149219 -0.1625841260 0.6163542867 4288915893
-0.3058829308 -0.1619352996 0.6164913774 4288586928
-0.3055179417 -0.1610579342 0.6157557368 4288324011
-0.3051525056 -0.1601819694 0.6150192618 4288455597
-0.3047866523 -0.1593074054 0.6142818928 4288981939
-0.3048534095 -0.1586596370 0.6144164205 4289574076
-0.3049198985 -0.1580114365 0.6145504117 4289771453
-0.3045529425 -0.1571392864 0.6138108373 4289574074
-0.3046188653 -0.1564911604 0.6139436960 4289704892
-0.3038177192 -0.1553992480 0.6123290658 4289178548
-0.3034494519 -0.1545313746 0.6115868688 4288389802
-0.3030807674 -0.1536649317 0.6108437777 4287600286
-0.3027116656 -0.1527999192 0.6100998521 4286942356
-0.3027758896 -0.1521543413 0.6102293134 4286810770
-0.3019721508 -0.1510742158 0.6086093783 4287073174
-0.3016017377 -0.1502135396 0.6078628898 4287204760
-0.3012309074 -0.1493542939 0.6071155071 4287270553
-0.3012938201 -0.1487107873 0.6072422266 4287270553
-0.3013564348 -0.1480668783 0.6073684692 4287138967
-0.3018531799 -0.1476349831 0.6083695889 4286744209
-0.3019154072 -0.1469893456 0.6084950566 4286546830
-0.3024118841 -0.1465538740 0.6094956994 4286481037
-0.3029083312 -0.1461161375 0.6104962230 4286217352
-0.3038393557 -0.1458848566 0.6123726368 4285691008
-0.3043357134 -0.1454416811 0.6133730412 4285559676
-0.3052668571 -0.1452030838 0.6152496934 4285230711
-0.3057631552 -0.1447544545 0.6162499785 4284902003
-0.3062593639 -0.1443035752 0.6172500849 4284836210
-0.3067555130 -0.1438504159 0.6182500124 4285296763
-0.3072515726 -0.1433950067 0.6192498207 4286415244
-0.3077475429 -0.1429373473 0.6202494502 4287928998
-0.3082434535 -0.1424774081 0.6212489009 4289442237
-0.3087392449 -0.1420152187 0.6222481728 4291284702
-0.3092349470 -0.1415507793 0.6232472062 4289376705
-0.3088593483 -0.1406871974 0.6224901676 4283521390
-0.3089189827 -0.1400226057 0.6226103902 4281021256
-0.3081068099 -0.1389645189 0.6209734678 4281416281
-0.3059863746 -0.1373229623 0.6166998744 4281218902
-0.3025569916 -0.1351063699 0.6097881198 4281218912
-0.2995620370 -0.1330981851 0.6037519574 4280889947
-0.2952573299 -0.1305243820 0.5950760245 4281218399
-0.2913869321 -0.1281608790 0.5872754455 4281152606
-0.2888236642 -0.1263867170 0.5821093321 4281021020
-0.2871319354 -0.1250034571 0.5786997080 4281021020
-0.2850028574 -0.1234383509 0.5744087100 4281021022
-0.2833092809 -0.1220704168 0.5709953308 4281086815
-0.2829246223 -0.1212711334 0.5702201128 4281086815
-0.2825395763 -0.1204733923 0.5694440603 4281086815
-0.2817173600 -0.1194919497 0.5677869320 4281086817
-0.2808945775 -0.1185139567 0.5661286712 4281152610
-0.2809451222 -0.1179061532 0.5662304759 4281284196
-0.2805584073 -0.1171156019 0.5654510856 4281349989
-0.2801712751 -0.1163266078 0.5646708608 4281415782
-0.2802209258 -0.1157197207 0.5647709370 4281481575
-0.2798330784 -0.1149329245 0.5639892220 4281613161
-0.2803194821 -0.1145049781 0.5649695396 4281678954
-0.2794936001 -0.1135417596 0.5633050799 4281613421
-0.2805616260 -0.1114625707 0.5654575825 4282270836
-0.2823603749 -0.1115448996 0.5690829158 4282468215
-0.2819702923 -0.1107593775 0.5682966709 4282534008
-0.2807039618 -0.1096333712 0.5657444596 4282468215
-0.2829408646 -0.1098734364 0.5702528358 4282139501
-0.2834260166 -0.1094271541 0.5712305903 4282665845
-0.2843491733 -0.1091468334 0.5730912089 4284245380
-0.2857105732 -0.1090296134 0.5758350492 4287140272
-0.2835659385 -0.1075762063 0.5715126395 4290298069
-0.3045216501 -0.1854970008 0.6151247025 4292205798
-0.3045978844 -0.1848598272 0.6152787805 4291942626
-0.3046739399 -0.1842221767 0.6154323816 4291810785
-0.3047497272 -0.1835840642 0.6155855060 4291679199
-0.3048253357 -0.1829454601 0.6157381535 4291481820
-0.3049006760 -0.1823063940 0.6158903837 4291284441
-0.3049758077 -0.1816668510 0.6160421371 4291087062
-0.3050507009 -0.1810268313 0.6161934137 4290626511
-0.3051253855 -0.1803863347 0.6163442731 4289968581
-0.3051998317 -0.1797453761 0.6164946556 4289442237
-0.3052740395 -0.1791039556 0.6166445613 4289112758
-0.3053480387 -0.1784620583 0.6167940497 4288849586
-0.3054217994 -0.1778196990 0.6169430017 4288850100
-0.3054953218 -0.1771768779 0.6170915365 4289376444
-0.3055686057 -0.1765335947 0.6172395945 4289903043
-0.3060715497 -0.1761372238 0.6182554960 4290429387
-0.3061444759 -0.1754921079 0.6184028387 4291021524
-0.3057871163 -0.1746009588 0.6176809669 4291613661
-0.3062896729 -0.1742004901 0.6186960936 4291679454
-0.3063618839 -0.1735539883 0.6188420057 4292074212
-0.3064338863 -0.1729070395 0.6189874411 4292666349
-0.3060751557 -0.1720176935 0.6182628274 4293061107
-0.3061465919 -0.1713707447 0.6184070706 4293324279
-0.3057870865 -0.1704832166 0.6176809072 4293587451
-0.3054271638 -0.1695970744 0.6169538498 4293850621
-0.3059285581 -0.1691888869 0.6179667115 4293982207
-0.3055679798 -0.1683036685 0.6172382832 4293917179
-0.3056380153 -0.1676562876 0.6173797846 4294048765
-0.3052766323 -0.1667729169 0.6166498065 4294048511
-0.3053461015 -0.1661255658 0.6167901158 4293916925
-0.3054153323 -0.1654777825 0.6169299483 4293916927
-0.3054843247 -0.1648295522 0.6170693040 4293982719
-0.3051215112 -0.1639489979 0.6163364053 4293784830
-0.3047582507 -0.1630698293 0.6156026721 4293324279
-0.3048263192 -0.1624221206 0.6157401800 4292337384
-0.3048941493 -0.1617739797 0.6158772111 4291284696
-0.3045297861 -0.1608971953 0.6151412129 4289968836
-0.3045970500 -0.1602491140 0.6152770519 4289047734
-0.3042319119 -0.1593742073 0.6145395041 4288455595
-0.3042986095 -0.1587262005 0.6146742105 4288389802
-0.3043650389 -0.1580777466 0.6148083806 4288916146
-0.3035663664 -0.1569816470 0.6131951213 4289508283
-0.3040646613 -0.1565569043 0.6142016053 4289968834
-0.3032650352 -0.1554645598 0.6125863791 4290034627
-0.3028974831 -0.1545963436 0.6118440032 4290034627
-0.3025295436 -0.1537295729 0.6111007333 4289574076
-0.3021611273 -0.1528642178 0.6103565693 4288652974
-0.3017923236 -0.1520003080 0.6096115708 4287863458
-0.3014230728 -0.1511378437 0.6088657379 4287533725
-0.3010534048 -0.1502768248 0.6081190109 4287204760
-0.3006833196 -0.1494172513 0.6073713899 4286941588
-0.3007461429 -0.1487734914 0.6074983478 4286875795
-0.3008087277 -0.1481293440 0.6076247096 4287007381
-0.3008710444 -0.1474847794 0.6077506542 4287138967
-0.3009331524 -0.1468398273 0.6078760624 4287204760
-0.3009949923 -0.1461944729 0.6080009937 4287138967
-0.3014903665 -0.1457584351 0.6090016961 4287006868
-0.3019857109 -0.1453201473 0.6100022197 4286875282
-0.3024809361 -0.1448796093 0.6110026240 4286414985
-0.3029761314 -0.1444368064 0.6120028496 4285822848
-0.3030370772 -0.1437857449 0.6121259332 4285296761
-0.3030977845 -0.1431342959 0.6122485995 4285230968
-0.3035925627 -0.1426865757 0.6132479906 4285099384
-0.3040872514 -0.1422366053 0.6142472625 4284967798
-0.3037128747 -0.1413798630 0.6134909987 4284573557
-0.3042072058 -0.1409272403 0.6144896150 4284836729
-0.3047015071 -0.1404723674 0.6154880524 4285890191
-0.3047609329 -0.1398157924 0.6156080961 4283390057
-0.3039504290 -0.1387617886 0.6139709353 4280495430
-0.3035742640 -0.1379087418 0.6132110953 4281350739
-0.3027626872 -0.1368605494 0.6115717292 4281350490
-0.2984698117 -0.1342501342 0.6029002070 4281087318
-0.2959156930 -0.1324371845 0.5977410078 4281153117
-0.2929250896 -0.1304413080 0.5917000771 4280824152
-0.2899330854 -0.1284582466 0.5856562853 4281152860
-0.2873750925 -0.1266799271 0.5804892182 4281087067
-0.2861223817 -0.1254855692 0.5779587626 4281021020
-0.2844333649 -0.1241064370 0.5745469928 4280955227
-0.2831791043 -0.1229236200 0.5720134377 4280889434
-0.2819241285 -0.1217461228 0.5694783926 4280889434
-0.2815400660 -0.1209484041 0.5687026381 4280955229
-0.2811556160 -0.1201522350 0.5679260492 4280955229
-0.2798987925 -0.1189869419 0.5653873086 4281021022
-0.2799494267 -0.1183801666 0.5654895902 4281021022
-0.2791275382 -0.1174061745 0.5638294220 4281021024
-0.2791775465 -0.1168006361 0.5639303923 4281086817
-0.2792273164 -0.1161947772 0.5640309453 4281218403
-0.2788404524 -0.1154079884 0.5632494688 4281349989
-0.2793261111 -0.1149820909 0.5642305017 4281415782
-0.2789386213 -0.1141965538 0.5634477735 4281481575
-0.2789873183 -0.1135903597 0.5635461807 4281350247
-0.2790358067 -0.1129838452 0.5636441112 4281481833
-0.2795207798 -0.1125528812 0.5646237731 4281810540
-0.2778215408 -0.1112451330 0.5611913204 4281942126
-0.2796166837 -0.1113363802 0.5648174286 4281810540
-0.2801012099 -0.1109006777 0.5657961965 4281942126
-0.2788374722 -0.1097745225 0.5632435083 4282205298
-0.2793215513 -0.1093382016 0.5642212629 4282205298
-0.2780567110 -0.1082190424 0.5616663694 4282468470
-0.2781030238 -0.1076129079 0.5617598891 4282534263
-0.2785864174 -0.1071747169 0.5627363324 4282403184
-0.2795071304 -0.1069016159 0.5645961761 4282403184
-0.2795529068 -0.1062917188 0.5646886230 4283390071
-0.2826613188 -0.1068392172 0.5709675550 4285429654
-0.2835823596 -0.1065508947 0.5728279948 4288389820
-0.2845489979 -0.1056368425 0.5747805834 4292336612
-0.3033356071 -0.1831430644 0.6141067743 4292205543
-0.3034109175 -0.1825060397 0.6142591834 4291876578
-0.3034859896 -0.1818685383 0.6144111753 4291547613
-0.3035608232 -0.1812305748 0.6145626903 4291481820
-0.3036354482 -0.1805921197 0.6147137284 4291350234
-0.3037098348 -0.1799532175 0.6148643494 4291021269
-0.3037839830 -0.1793138236 0.6150144935 4290692304
-0.3038579226 -0.1786739826 0.6151641607 4290757583
-0.3043603003 -0.1782847643 0.6161812544 4289968067
-0.3044338822 -0.1776430756 0.6163302064 4289178551
-0.3045072258 -0.1770009249 0.6164787412 4288915379
-0.3045803607 -0.1763583124 0.6166267395 4288981171
-0.3046532571 -0.1757152379 0.6167743206 4289244343
-0.3047259152 -0.1750717014 0.6169214249 4289705664
-0.3047983348 -0.1744277030 0.6170680523 4290232008
-0.3048705161 -0.1737832427 0.6172142029 4290955731
-0.3049424887 -0.1731383353 0.6173598766 4291284696
-0.3050141931 -0.1724929661 0.6175050735 4291745247
-0.3046559989 -0.1716050953 0.6167798638 4292140005
-0.3047271371 -0.1709597409 0.6169239283 4292468970
-0.3043681681 -0.1700737029 0.6161971688 4292797935
-0.3044387400 -0.1694283485 0.6163400412 4293192691
-0.3045091033 -0.1687825322 0.6164824963 4293521656
-0.3045791984 -0.1681362838 0.6166244149 4293851134
-0.3046490848 -0.1674895883 0.6167659163 4293916927
-0.3042883277 -0.1666067839 0.6160355210 4293851134
-0.3043576181 -0.1659601182 0.6161758304 4293785341
-0.3039961159 -0.1650791913 0.6154439449 4293851132
-0.3040648401 -0.1644325554 0.6155830622 4293916925
-0.3041333258 -0.1637854725 0.6157217026 4293916925
-0.3042015731 -0.1631379724 0.6158598661 4293916925
-0.3042695820 -0.1624900252 0.6159975529 4294180095
-0.3039062619 -0.1616124064 0.6152620912 4293719546
-0.3039737046 -0.1609645039 0.6153985858 4293192691
-0.3036096394 -0.1600887924 0.6146615148 4292403175
-0.3036764860 -0.1594409496 0.6147968769 4291350489
-0.3037430942 -0.1587926894 0.6149317026 4290100422
-0.3038094640 -0.1581440121 0.6150660515 4289179065
-0.3030123115 -0.1570474654 0.6134521961 4288784307
-0.3035097420 -0.1566225737 0.6144592762 4288981941
-0.3022798002 -0.1553079337 0.6119692326 4288850355
-0.3019129038 -0.1544403136 0.6112264395 4289245113
-0.3019776046 -0.1537941396 0.6113573909 4289705664
-0.3016099334 -0.1529284567 0.6106131077 4289771457
-0.3016740382 -0.1522823870 0.6107428670 4289639871
-0.3008733094 -0.1512014121 0.6091217995 4289113527
-0.3005043864 -0.1503400505 0.6083748937 4288455597
-0.3001350164 -0.1494801491 0.6076270938 4287863460
-0.3001977801 -0.1488361508 0.6077541709 4287271323
-0.3002602756 -0.1481917500 0.6078807116 4286810002
-0.3003225625 -0.1475469470 0.6080067754 4286678416
-0.2999517620 -0.1466900557 0.6072561145 4286875795
-0.3000134528 -0.1460453868 0.6073809862 4286875795
-0.3000749052 -0.1454003155 0.6075053811 4286875795
-0.3005692065 -0.1449637264 0.6085060835 4287007381
-0.3006302416 -0.1443169415 0.6086297035 4286941329
-0.3006910384 -0.1436697543 0.6087527275 4286743950
-0.3007515669 -0.1430221796 0.6088753343 4286546828
-0.3008118570 -0.1423742175 0.6089974046 4286415242
-0.3008719087 -0.1417258531 0.6091189384 4286020486
-0.3009316921 -0.1410771161 0.6092399955 4285757314
-0.3005575240 -0.1402256340 0.6084824800 4285494659
-0.3006167412 -0.1395770609 0.6086023450 4285428866
-0.3011095524 -0.1391285658 0.6096000671 4283258218
-0.3007344007 -0.1382787526 0.6088405252 4281218635
-0.2994907200 -0.1370332390 0.6063227057 4281547865
-0.2986803949 -0.1359906346 0.6046822071 4281218900
-0.2965668738 -0.1343612373 0.6004033089 4281087064
-0.2931493521 -0.1321535110 0.5934845209 4280955478
-0.2910334170 -0.1305449903 0.5892007947 4280758613
-0.2884819210 -0.1287515908 0.5840352774 4280890199
-0.2863637507 -0.1271620989 0.5797470212 4281087067
-0.2851137817 -0.1259656996 0.5772163868 4281087067
-0.2834283412 -0.1245835349 0.5738042593 4281087067
-0.2826116085 -0.1235888302 0.5721507668 4280955481
-0.2817943096 -0.1225975528 0.5704960823 4280889688
-0.2805414796 -0.1214214563 0.5679597855 4280889688
-0.2805930376 -0.1208126098 0.5680641532 4280889434
-0.2802092433 -0.1200170666 0.5672871470 4280889434
-0.2798250318 -0.1192230731 0.5665093064 4280955229
-0.2790051699 -0.1182461753 0.5648494959 4280889436
-0.2790554464 -0.1176397800 0.5649512410 4280823643
-0.2786700726 -0.1168504804 0.5641710162 4280823643
-0.2782842815 -0.1160627455 0.5633900166 4280955229
-0.2787692547 -0.1156379506 0.5643718243 4281086815
-0.2788184881 -0.1150312051 0.5644714832 4281152610
-0.2779960036 -0.1140665635 0.5628063679 4281218403
-0.2784804106 -0.1136389151 0.5637870431 4281416040
-0.2785288393 -0.1130321547 0.5638850927 4281350247
-0.2781410515 -0.1122491434 0.5631000400 4281416039
-0.2781889141 -0.1116427109 0.5631969571 4281613418
-0.2782365382 -0.1110359654 0.5632933974 4281810538
-0.2782839239 -0.1104289070 0.5633893013 4281876331
-0.2774585485 -0.1094772741 0.5617183447 4282073710
-0.2783779502 -0.1092138663 0.5635796785 4282139503
-0.2788610160 -0.1087761149 0.5645576119 4282008430
-0.2793439627 -0.1083361506 0.5655353665 4281942637
-0.2776440680 -0.1070523635 0.5620939136 4282008428
-0.2798729241 -0.1072822213 0.5666062832 4282205807
-0.2807922065 -0.1070029885 0.5684673190 4282205546
-0.2812747359 -0.1065541729 0.5694442391 4281876581
-0.2795729935 -0.1052806526 0.5659990311 4282270820
-0.2800549567 -0.1048321947 0.5669748187 4283257715
-0.2867455781 -0.1054016724 0.5805199742 4289902271
-0.2872279286 -0.1049328893 0.5814965367 4290823373
-0.2877101600 -0.1044618934 0.5824728012 4292007899
-0.3020737469 -0.1814301908 0.6129302979 4292205798
-0.3021483123 -0.1807937920 0.6130815744 4291942371
-0.3022226393 -0.1801569313 0.6132323742 4291810785
-0.3022967279 -0.1795195937 0.6133827567 4291679199
-0.3023706079 -0.1788817793 0.6135326624 4291547613
-0.3024442494 -0.1782435030 0.6136820912 4291415513
-0.3029455841 -0.1778559834 0.6146993041 4291086548
-0.3030188680 -0.1772158742 0.6148480177 4290494411
-0.3030919433 -0.1765753031 0.6149963140 4289902274
-0.3031647801 -0.1759342700 0.6151440740 4289441723
-0.3032373786 -0.1752927750 0.6152914166 4289310137
-0.3033097684 -0.1746508181 0.6154382825 4289244343
-0.3033819199 -0.1740083992 0.6155846715 4289112757
-0.3034538329 -0.1733655185 0.6157305837 4289442492
-0.3039542139 -0.1729661524 0.6167459488 4289968836
