VERSION 0.7
FIELDS x y z rgba
SIZE 4 4 4 4
TYPE F F F U
COUNT 1 1 1 1
WIDTH 920
HEIGHT 1
VIEWPOINT 0.0 0.0 0.0 1.0 0.0 0.0 0.0
POINTS 920
DATA ascii
-0.2845613062 -0.1217818558 0.5975977182 4293353634
-0.2846120000 -0.1211394519 0.5977041721 4293222048
-0.2846624255 -0.1204967052 0.5978100300 4293811357
-0.2847125828 -0.1198536158 0.5979154110 4293745564
-0.2847625315 -0.1192101911 0.5980202556 4293155226
-0.2848121822 -0.1185664237 0.5981245637 4293221019
-0.2844383419 -0.1177471057 0.5973394513 4292636836
-0.2844874561 -0.1171036288 0.5974425673 4293623731
-0.2845362723 -0.1164598167 0.5975451469 4293173958
-0.2841613889 -0.1156433299 0.5967578292 4294555611
-0.2842096686 -0.1149998233 0.5968592167 4293511389
-0.2838340402 -0.1141855568 0.5960704088 4293577182
-0.2838817239 -0.1135423556 0.5961705446 4292988893
-0.2835053802 -0.1127303243 0.5953801870 4293054686
-0.2831286490 -0.1119198874 0.5945889950 4292924640
-0.2831754386 -0.1112776473 0.5946872830 4293056226
-0.2832219601 -0.1106350794 0.5947849751 4293122532
-0.2832682431 -0.1099922061 0.5948821902 4293188325
-0.2828901410 -0.1091853157 0.5940881371 4293122532
-0.2829358578 -0.1085427701 0.5941841006 4293122532
-0.2825570405 -0.1077381521 0.5933885574 4293188325
-0.2826021612 -0.1070959494 0.5934833288 4293254118
-0.2822226286 -0.1062936038 0.5926862955 4293188839
-0.2822671533 -0.1056517586 0.5927798748 4293254632
-0.2818869352 -0.1048517078 0.5919812918 4293320679
-0.2819308937 -0.1042102203 0.5920736194 4293386472
-0.2815499306 -0.1034124643 0.5912736058 4293518058
-0.2811686099 -0.1026163399 0.5904727578 4293649644
-0.2812116742 -0.1019759029 0.5905632377 4293650157
-0.2812544703 -0.1013351679 0.5906531215 4293715950
-0.2808721066 -0.1005420312 0.5898501277 4293847536
-0.2809143364 -0.0999016836 0.5899388194 4293979122
-0.2805312574 -0.0991108790 0.5891343355 4294110707
-0.2805728912 -0.0984709263 0.5892217755 4294110707
-0.2801891267 -0.0976824611 0.5884158015 4294045684
-0.2802301943 -0.0970429182 0.5885021091 4294177270
-0.2802710235 -0.0964030847 0.5885878205 4294243063
-0.2798862159 -0.0956176668 0.5877797008 4294374649
-0.2799264491 -0.0949782506 0.5878642201 4294572028
-0.2803919017 -0.0944819376 0.5888416767 4294703614
-0.2800061405 -0.0936986059 0.5880315900 4294769407
-0.2800455987 -0.0930583701 0.5881144404 4294769407
-0.2800848186 -0.0924178660 0.5881967545 4294835199
-0.2801237404 -0.0917771012 0.5882785320 4294835199
-0.2801624238 -0.0911360607 0.5883597732 4294900991
-0.2802008688 -0.0904947594 0.5884404778 4294966783
-0.2798131108 -0.0897166431 0.5876262188 4294901503
-0.2798509598 -0.0890757889 0.5877056718 4294835711
-0.2794625163 -0.0883000791 0.5868899226 4294638332
-0.2794997990 -0.0876596868 0.5869681835 4294440953
-0.2795367837 -0.0870190412 0.5870459080 4294176752
-0.2791473567 -0.0862464681 0.5862280130 4293781994
-0.2791837752 -0.0856062919 0.5863044858 4293385955
-0.2792199254 -0.0849658698 0.5863804221 4292728025
-0.2796821594 -0.0844539404 0.5873512030 4292529106
-0.2792914510 -0.0836842805 0.5865306854 4292594899
-0.2793268263 -0.0830431208 0.5866049528 4293185242
-0.2793619335 -0.0824017152 0.5866786838 4293514207
-0.2793967724 -0.0817600712 0.5867518187 4294237417
-0.2794313729 -0.0811181813 0.5868244767 4294566382
-0.2794656754 -0.0804760605 0.5868965387 4294831348
-0.2794997394 -0.0798337013 0.5869680643 4294963705
-0.2795335054 -0.0791911110 0.5870389938 4294900221
-0.2831252813 -0.1644914448 0.5959720016 4294244348
-0.2836083174 -0.1641087979 0.5969887972 4293915383
-0.2836747766 -0.1634837985 0.5971286893 4293718004
-0.2837409973 -0.1628583521 0.5972681046 4293717238
-0.2838070095 -0.1622324884 0.5974070430 4293322480
-0.2842896581 -0.1618434787 0.5984230042 4293255917
-0.2843553126 -0.1612158120 0.5985612273 4293058538
-0.2844207287 -0.1605877131 0.5986989737 4292859876
-0.2849030793 -0.1601937264 0.5997142792 4292662497
-0.2845509350 -0.1593302190 0.5989729762 4292333016
-0.2846156955 -0.1587008238 0.5991092920 4291609293
-0.2846802175 -0.1580709964 0.5992451310 4291147716
-0.2851620317 -0.1576716006 0.6002593637 4289831856
-0.2852261961 -0.1570400000 0.6003944278 4289828260
-0.2852901220 -0.1564079672 0.6005290151 4289367709
-0.2853538394 -0.1557755172 0.6006631255 4289954713
-0.2858352065 -0.1553697884 0.6016764045 4290086299
-0.2858985364 -0.1547355652 0.6018096805 4290871965
-0.2859616578 -0.1541009247 0.6019425392 4291398309
-0.2860245407 -0.1534658670 0.6020749211 4292317358
-0.2860871851 -0.1528303772 0.6022067666 4292317358
-0.2861495912 -0.1521944851 0.6023381352 4293037231
-0.2862117887 -0.1515581608 0.6024690270 4292708266
-0.2862737179 -0.1509214342 0.6025994420 4292440733
-0.2863354385 -0.1502842903 0.6027293205 4291519631
-0.2863969207 -0.1496467441 0.6028587222 4291844748
-0.2860393524 -0.1487909257 0.6021060944 4291647369
-0.2861002684 -0.1481534988 0.6022343040 4292498830
-0.2861609459 -0.1475156546 0.6023620367 4292630416
-0.2858023345 -0.1466623545 0.6016071439 4293351317
-0.2858624458 -0.1460246295 0.6017337441 4293351317
-0.2859223187 -0.1453865170 0.6018597484 4293285013
-0.2855626643 -0.1445357502 0.6011026502 4293153427
-0.2856219709 -0.1438977718 0.6012275219 4293088406
-0.2852615416 -0.1430490315 0.6004688144 4293088406
-0.2853203118 -0.1424111873 0.6005924940 4293219731
-0.2853788137 -0.1417729557 0.6007156968 4293219731
-0.2854371071 -0.1411343366 0.6008383632 4293285524
-0.2850753069 -0.1402887106 0.6000767946 4293285524
-0.2851330042 -0.1396502554 0.6001982689 4293285524
-0.2851904929 -0.1390113980 0.6003192663 4293285524
-0.2852477133 -0.1383721679 0.6004397273 4293285524
-0.2853047252 -0.1377325505 0.6005597115 4293219731
-0.2853614688 -0.1370925605 0.6006791592 4293351317
-0.2854179740 -0.1364521682 0.6007981300 4293417110
-0.2850538194 -0.1356114000 0.6000315547 4293351317
-0.2851097584 -0.1349712014 0.6001493335 4293351317
-0.2851654589 -0.1343306303 0.6002665758 4293417110
-0.2852209210 -0.1336896867 0.6003832817 4293417110
-0.2852761149 -0.1330483705 0.6004995108 4293351316
-0.2853311002 -0.1324066669 0.6006152034 4293482902
-0.2853858173 -0.1317646056 0.6007304192 4293744792
-0.2850192785 -0.1309287846 0.5999588966 4293744792
-0.2850734293 -0.1302869469 0.6000728607 4293482903
-0.2851273417 -0.1296447217 0.6001863480 4293482903
-0.2847597599 -0.1288115978 0.5994125605 4293417367
-0.2848131061 -0.1281696111 0.5995248556 4293483160
-0.2848661840 -0.1275272667 0.5996366143 4293548442
-0.2849190235 -0.1268845499 0.5997478366 4293614235
-0.2845500708 -0.1260547489 0.5989711881 4293548444
-0.2846023440 -0.1254122704 0.5990812182 4293614237
-0.2846543491 -0.1247694567 0.5991907120 4293614750
-0.2842843235 -0.1239423901 0.5984117985 4293614750
-0.2843357921 -0.1232998222 0.5985201001 4293483678
-0.2843869627 -0.1226569042 0.5986278653 4293549471
-0.2844379246 -0.1220136359 0.5987350941 4293549473
-0.2844886184 -0.1213700324 0.5988418460 4293549473
-0.2845390737 -0.1207260787 0.5989480019 4293286553
-0.2845892608 -0.1200817823 0.5990536809 4293220760
-0.2846392095 -0.1194371507 0.5991588235 4292893337
-0.2846888900 -0.1187921762 0.5992634296 4292959130
-0.2843158841 -0.1179715768 0.5984781981 4293679003
-0.2843649983 -0.1173268855 0.5985816121 4293350038
-0.2839912474 -0.1165084913 0.5977948904 4293157018
-0.2840397954 -0.1158640981 0.5978970528 4294341292
-0.2836653292 -0.1150479168 0.5971088409 4293436100
-0.2837132812 -0.1144038290 0.5972098112 4294291409
-0.2833380997 -0.1135898754 0.5964200497 4293249242
-0.2833854854 -0.1129460931 0.5965197682 4293315035
-0.2830095887 -0.1121343747 0.5957285166 4293053403
-0.2830563784 -0.1114909127 0.5958270431 4293250782
-0.2831029594 -0.1108471379 0.5959250331 4292727263
-0.2827259898 -0.1100383103 0.5951315761 4292529884
-0.2827719748 -0.1093948632 0.5952283144 4292595675
-0.2823943198 -0.1085883006 0.5944333673 4292727261
-0.2824397087 -0.1079451963 0.5945289135 4292858847
-0.2820613384 -0.1071409062 0.5937324762 4292990433
-0.2821061611 -0.1064981446 0.5938267708 4292990946
-0.2821507156 -0.1058550775 0.5939205885 4292990946
-0.2817713022 -0.1050537303 0.5931219459 4292990946
-0.2813915014 -0.1042540222 0.5923224688 4292925153
-0.2810113132 -0.1034559384 0.5915222168 4292991460
-0.2810546458 -0.1028145701 0.5916134119 4292991460
-0.2806737721 -0.1020187959 0.5908116698 4293057253
-0.2807165086 -0.1013778076 0.5909016728 4293123046
-0.2803349197 -0.1005843505 0.5900983810 4293254886
-0.2803771198 -0.0999437496 0.5901871920 4293386472
-0.2804190218 -0.0993028581 0.5902754664 4293583851
-0.2800364196 -0.0985124186 0.5894700289 4293649644
-0.2800777555 -0.0978719220 0.5895570517 4293650156
-0.2796944380 -0.0970838219 0.5887501836 4293781742
-0.2797352076 -0.0964437351 0.5888360143 4293913328
-0.2793511748 -0.0956579968 0.5880275965 4294044914
-0.2793913484 -0.0950183272 0.5881122351 4294242293
-0.2798559666 -0.0945218131 0.5890902281 4294373879
-0.2794709802 -0.0937381610 0.5882797837 4294439672
-0.2795103788 -0.0930976644 0.5883628130 4294439672
-0.2795495391 -0.0924569070 0.5884451866 4294702844
-0.2795884609 -0.0918158740 0.5885270834 4294702844
-0.2792021334 -0.0910360143 0.5877138972 4294702842
-0.2792404592 -0.0903954282 0.5877945423 4294768635
-0.2792785168 -0.0897545740 0.5878746510 4294834428
-0.2793163061 -0.0891134664 0.5879542232 4294966271
-0.2789286375 -0.0883374363 0.5871382356 4294967039
-0.2785406113 -0.0875630975 0.5863214135 4294967039
-0.2785775363 -0.0869231671 0.5863991380 4294705151
-0.2781887949 -0.0861512572 0.5855808854 4294639614
-0.2786505520 -0.0856425539 0.5865528584 4294835198
-0.2786866724 -0.0850018635 0.5866288543 4294572026
-0.2787225246 -0.0843609348 0.5867043734 4294765815
-0.2787581086 -0.0837197527 0.5867792964 4294042092
-0.2787934542 -0.0830783248 0.5868536234 4293840350
-0.2784028351 -0.0823108032 0.5860313773 4293182420
-0.2784375846 -0.0816698745 0.5861045718 4293114317
-0.2784720659 -0.0810287073 0.5861771703 4293180110
-0.2785063088 -0.0803873017 0.5862491727 4293181393
-0.2785402536 -0.0797456577 0.5863206983 4293641944
-0.2785739601 -0.0791037828 0.5863916278 4293711073
-0.2786073983 -0.0784616768 0.5864620209 4294369003
-0.2782145143 -0.0777003467 0.5856350064 4294503410
-0.2786734700 -0.0771767721 0.5866010785 4294832375
-0.2787061036 -0.0765339807 0.5866698027 4294965499
-0.2787384987 -0.0758909583 0.5867379308 4294965756
-0.2823607624 -0.1624459326 0.5957555771 4294244607
-0.2824265063 -0.1618216783 0.5958942771 4293981178
-0.2829080820 -0.1614343822 0.5969103575 4293979638
-0.2829734683 -0.1608083397 0.5970483422 4293716466
-0.2830386162 -0.1601818502 0.5971858501 4293386218
-0.2831035852 -0.1595549434 0.5973228216 4293123046
-0.2835847139 -0.1591613144 0.5983380079 4292925153
-0.2832327783 -0.1582998186 0.5975954533 4292333016
-0.2832970619 -0.1576716155 0.5977310538 4291805900
-0.2837778032 -0.1572739333 0.5987454057 4291082177
-0.2838416994 -0.1566439569 0.5988802314 4290749619
-0.2839053869 -0.1560135484 0.5990145802 4289894310
-0.2839688361 -0.1553827226 0.5991485119 4290087582
-0.2844491601 -0.1549787074 0.6001619101 4289692824
-0.2845122218 -0.1543461084 0.6002950072 4290084246
-0.2845750749 -0.1537130922 0.6004276276 4290347418
-0.2846377194 -0.1530796587 0.6005597115 4291067804
-0.2847000957 -0.1524457932 0.6006913781 4291528355
-0.2851797938 -0.1520341188 0.6017035246 4292446889
-0.2852418125 -0.1513985097 0.6018343568 4292249510
-0.2853036225 -0.1507624686 0.6019647121 4292377246
-0.2853651643 -0.1501260251 0.6020945907 4291850902
-0.2854264677 -0.1494891793 0.6022239923 4291912592
-0.2854875624 -0.1488519162 0.6023528576 4291188869
-0.2851303220 -0.1479972303 0.6015991569 4291447167
-0.2851908505 -0.1473600864 0.6017268300 4291447167
-0.2852511406 -0.1467225403 0.6018540263 4292364932
-0.2853111923 -0.1460845768 0.6019807458 4292693897
-0.2853710055 -0.1454462260 0.6021069288 4292759690
-0.2854306102 -0.1448074579 0.6022326350 4292825483
-0.2850713432 -0.1439569145 0.6014746428 4292760719
-0.2851303518 -0.1433182955 0.6015991569 4292760719
-0.2847703397 -0.1424697787 0.6008396149 4292890765
-0.2848288119 -0.1418313086 0.6009629369 4293022351
-0.2848870158 -0.1411924511 0.6010857224 4293153937
-0.2845259607 -0.1403464973 0.6003239751 4293153937
-0.2845835984 -0.1397077888 0.6004455686 4293153937
-0.2846410275 -0.1390687078 0.6005667448 4293153937
-0.2846981883 -0.1384292394 0.6006873250 4293088144
-0.2847551107 -0.1377893686 0.6008074880 4293088144
-0.2848118246 -0.1371491402 0.6009270549 4293219730
-0.2848682702 -0.1365085095 0.6010461450 4293285523
-0.2849244773 -0.1358675063 0.6011647582 4293285523
-0.2845607102 -0.1350269765 0.6003972888 4293285523
-0.2846163511 -0.1343861520 0.6005147099 4293351316
-0.2850916386 -0.1339422315 0.6015174389 4293351316
-0.2847269177 -0.1331034005 0.6007479429 4293285523
-0.2847818136 -0.1324614733 0.6008637547 4293285523
-0.2848364711 -0.1318191588 0.6009790897 4293285010
-0.2848908901 -0.1311764866 0.6010939479 4293350803
-0.2849450707 -0.1305334419 0.6012082100 4293220243
-0.2849989831 -0.1298900396 0.6013219953 4293286036
-0.2846322358 -0.1290556341 0.6005482078 4293417622
-0.2846855819 -0.1284124553 0.6006607413 4293483415
-0.2847386897 -0.1277689040 0.6007727981 4293614489
-0.2847915590 -0.1271249950 0.6008843780 4293680282
-0.2844234407 -0.1262939125 0.6001076102 4293613978
-0.2844757140 -0.1256502420 0.6002179384 4293613978
-0.2845277488 -0.1250062287 0.6003277302 4293614235
-0.2841585577 -0.1241778806 0.5995488167 4293614235
-0.2846311033 -0.1237171218 0.6005457640 4293548442
-0.2846823931 -0.1230720431 0.6006540060 4293548442
-0.2847334146 -0.1224266216 0.6007617116 4293548444
-0.2843629420 -0.1216007024 0.5999799967 4293614237
-0.2844133973 -0.1209555492 0.6000864506 4293154967
-0.2844636142 -0.1203100458 0.6001924276 4293352346
-0.2845135927 -0.1196642071 0.6002978683 4293416856
-0.2841417193 -0.1188417003 0.5995132327 4293351063
-0.2841911018 -0.1181961372 0.5996174216 4293287066
-0.2842402458 -0.1175502390 0.5997211337 4293221273
-0.2838673294 -0.1167305633 0.5989342928 4292827283
-0.2834940255 -0.1159124672 0.5981466770 4292695697
-0.2835422754 -0.1152674928 0.5982484221 4293289373
-0.2835902274 -0.1146221906 0.5983496904 4294605233
-0.2832158804 -0.1138069481 0.5975598097 4294353354
-0.2828411460 -0.1129933074 0.5967691541 4294946262
-0.2828882337 -0.1123489514 0.5968684554 4292722900
-0.2825127542 -0.1115375534 0.5960762501 4292788693
-0.2825592458 -0.1108935177 0.5961743593 4292398298
-0.2826054990 -0.1102491692 0.5962719321 4292595677
-0.2822290063 -0.1094406694 0.5954775810 4292398296
-0.2822746634 -0.1087966561 0.5955739021 4292464089
-0.2818974555 -0.1079904214 0.5947780013 4292530395
-0.2819425464 -0.1073467508 0.5948731899 4292661981
-0.2819873691 -0.1067027673 0.5949677825 4292793567
-0.2816091180 -0.1058994755 0.5941696763 4292793567
-0.2812304795 -0.1050978079 0.5933707952 4292793567
-0.2808514535 -0.1042977720 0.5925710201 4292793567
-0.2808950543 -0.1036554724 0.5926630497 4292728288
-0.2805153131 -0.1028577387 0.5918618441 4292728288
-0.2805583477 -0.1022158191 0.5919526219 4292728288
-0.2801778913 -0.1014204025 0.5911499262 4292794081
-0.2797970772 -0.1006266251 0.5903463960 4292859874
-0.2798391879 -0.0999857634 0.5904353261 4292991460
-0.2798810899 -0.0993446186 0.5905236602 4293057253
-0.2799227238 -0.0987031832 0.5906115174 4293123046
-0.2795405388 -0.0979131013 0.5898051262 4293057507
-0.2795815766 -0.0972720683 0.5898917317 4293189093
-0.2791987062 -0.0964843407 0.5890839100 4293320679
-0.2792391777 -0.0958437175 0.5891693234 4293452265
-0.2792793810 -0.0952028185 0.5892541409 4293649644
-0.2793193460 -0.0945616439 0.5893384218 4293781230
-0.2793590426 -0.0939201936 0.5894222260 4293912815
-0.2789745033 -0.0931369215 0.5886108875 4294044401
-0.2790136039 -0.0924958959 0.5886933804 4294176500
-0.2790524662 -0.0918546095 0.5887753963 4294176500
-0.2790910602 -0.0912130550 0.5888568163 4294308086
-0.2787052095 -0.0904335827 0.5880426764 4294505465
-0.2787432075 -0.0897924751 0.5881229043 4294571258
-0.2783566415 -0.0890154094 0.5873072743 4294637051
-0.2783941031 -0.0883747563 0.5873862505 4294702844
-0.2784312665 -0.0877338424 0.5874647498 4294834430
-0.2780436873 -0.0869599134 0.5866469741 4294964987
-0.2780803144 -0.0863194689 0.5867242217 4294965501
-0.2781166434 -0.0856787711 0.5868008733 4294966271
-0.2781527340 -0.0850378200 0.5868769884 4294966271
-0.2781885564 -0.0843966231 0.5869525671 4294966271
-0.2782241106 -0.0837551877 0.5870276093 4294966015
-0.2782593966 -0.0831134990 0.5871020555 4294833917
-0.2778695524 -0.0823456571 0.5862795711 4294702331
-0.2779042721 -0.0817044601 0.5863527656 4293844713
-0.2779387236 -0.0810630322 0.5864254832 4293120990
-0.2779729068 -0.0804213658 0.5864976048 4292657105
-0.2780068517 -0.0797794610 0.5865691900 4291999175
-0.2780404985 -0.0791373178 0.5866402388 4292455876
-0.2780739069 -0.0784949511 0.5867106915 4292719048
-0.2776817977 -0.0777333081 0.5858833790 4293638094
-0.2781399190 -0.0772095174 0.5868499875 4294032852
-0.2781725228 -0.0765664577 0.5869187713 4293840862
-0.2777794600 -0.0758070871 0.5860894322 4294432999
-0.2773860395 -0.0750494525 0.5852593780 4294830067
-0.2774177492 -0.0744076967 0.5853263140 4294963452
-0.2774492204 -0.0737657174 0.5853926539 4294965246
-0.2770548165 -0.0730113685 0.5845605135 4294965503
-0.2770856619 -0.0723699406 0.5846256018 4294965758
-0.2771162689 -0.0717283040 0.5846902132 4294965758
-0.2811138034 -0.1607873291 0.5945178270 4294440700
-0.2815941870 -0.1604003906 0.5955337286 4294111735
-0.2816590667 -0.1597755402 0.5956709981 4293847023
-0.2817237675 -0.1591502428 0.5958077908 4293649644
-0.2817882299 -0.1585245132 0.5959441066 4293517288
-0.2818524539 -0.1578983665 0.5960799456 4293188323
-0.2823322713 -0.1575037539 0.5970947146 4292726232
-0.2823961377 -0.1568758190 0.5972297788 4292002509
-0.2824597955 -0.1562474519 0.5973643661 4291670721
-0.2825232148 -0.1556186825 0.5974985361 4291012791
-0.2825863957 -0.1549894810 0.5976321697 4290548390
-0.2826493680 -0.1543598473 0.5977653265 4289956253
-0.2827121019 -0.1537297964 0.5978980064 4290349214
-0.2831910551 -0.1533248127 0.5989109278 4289625491
-0.2832534313 -0.1526930034 0.5990428329 4291068574
-0.2837322056 -0.1522843987 0.6000553966 4291068574
-0.2837942243 -0.1516508162 0.6001865268 4291592861
-0.2838559747 -0.1510168314 0.6003171802 4291592861
-0.2839175165 -0.1503824294 0.6004472971 4292181148
-0.2843958437 -0.1499675214 0.6014588475 4292181148
-0.2844569981 -0.1493313611 0.6015881896 4292637338
-0.2845179141 -0.1486947984 0.6017170548 4292176787
-0.2845786214 -0.1480578184 0.6018453836 4292697999
-0.2846390605 -0.1474204361 0.6019732952 4292105862
-0.2846992910 -0.1467826515 0.6021006107 4292103039
-0.2847592831 -0.1461444646 0.6022275090 4291971453
-0.2848190367 -0.1455058604 0.6023538709 4291971196
-0.2844608128 -0.1446544528 0.6015962958 4292036989
-0.2845200300 -0.1440159976 0.6017214656 4291972736
-0.2845789790 -0.1433771402 0.6018461585 4291972736
-0.2846376896 -0.1427378953 0.6019703150 4292430727
-0.2842780948 -0.1418895870 0.6012098789 4292562313
-0.2843362391 -0.1412504911 0.6013328433 4292693899
-0.2839759290 -0.1404042095 0.6005708575 4292759692
-0.2840335369 -0.1397652775 0.6006926298 4292825485
-0.2840908766 -0.1391259432 0.6008139253 4292891278
-0.2841479778 -0.1384862363 0.6009346843 4292825485
-0.2842048407 -0.1378461272 0.6010549664 4292825485
-0.2842614651 -0.1372056454 0.6011747122 4292891276
-0.2843178511 -0.1365647912 0.6012939811 4293022862
-0.2843739986 -0.1359235346 0.6014127135 4293154448
-0.2844299078 -0.1352819204 0.6015309095 4293220241
-0.2844855487 -0.1346399188 0.6016486287 4293286034
-0.2845409811 -0.1339975297 0.6017658114 4293286034
-0.2845961452 -0.1333547831 0.6018825173 4293154448
-0.2846510708 -0.1327116489 0.6019986868 4293088655
-0.2847057581 -0.1320681572 0.6021143198 4293155218
-0.2843407989 -0.1312307268 0.6013424993 4293155218
-0.2843949199 -0.1305874437 0.6014569402 4293024145
-0.2844488025 -0.1299437881 0.6015708447 4292958352
-0.2845024168 -0.1292997748 0.6016842723 4293220241
-0.2845557928 -0.1286553890 0.6017971635 4293286034
-0.2846089005 -0.1280106455 0.6019095182 4293547413
-0.2846617997 -0.1273655444 0.6020213366 4293678999
-0.2842944860 -0.1265331805 0.6012445688 4293547413
-0.2843467891 -0.1258883029 0.6013551354 4293481620
-0.2848189473 -0.1254280806 0.6023536921 4293285524
-0.2848708332 -0.1247815564 0.6024634242 4293417110
-0.2845022380 -0.1239515841 0.6016838551 4293286553
-0.2845535278 -0.1233052984 0.6017923951 4293286553
-0.2846046090 -0.1226586774 0.6019003987 4293286812
-0.2842349410 -0.1218314767 0.6011186242 4293418398
-0.2842854261 -0.1211851090 0.6012253761 4293219220
-0.2843356729 -0.1205383986 0.6013316512 4293350806
-0.2843856514 -0.1198913530 0.6014373302 4293089172
-0.2840146124 -0.1190675646 0.6006526351 4293154965
-0.2840640247 -0.1184207946 0.6007571220 4293025174
-0.2841131985 -0.1177736819 0.6008610725 4293090967
-0.2837411165 -0.1169527248 0.6000741720 4293156247
-0.2833686173 -0.1161333472 0.5992864370 4293156247
-0.2834168673 -0.1154871583 0.5993885398 4292564623
-0.2834648788 -0.1148406416 0.5994900465 4292630416
-0.2830913663 -0.1140241176 0.5987001061 4292964259
-0.2831387818 -0.1133779064 0.5988003612 4294872256
-0.2827645540 -0.1125636175 0.5980089307 4293833170
-0.2823899090 -0.1117509305 0.5972166061 4294162135
-0.2824364305 -0.1111056805 0.5973150134 4291872979
-0.2820610702 -0.1102952436 0.5965211987 4291872979
-0.2821070254 -0.1096503288 0.5966183543 4292135637
-0.2817309499 -0.1088421568 0.5958229899 4292135637
-0.2821981311 -0.1083595455 0.5968110561 4292201430
-0.2818214297 -0.1075526774 0.5960143209 4292267223
-0.2814443409 -0.1067474335 0.5952168107 4292398809
-0.2810668349 -0.1059438139 0.5944184661 4292464602
-0.2806889713 -0.1051418260 0.5936193466 4292399323
-0.2807328403 -0.1044986099 0.5937121511 4292399323
-0.2803542614 -0.1036989242 0.5929114819 4292530909
-0.2803975642 -0.1030560732 0.5930030942 4292530909
-0.2800182700 -0.1022586897 0.5922009349 4292530909
-0.2796385884 -0.1014629528 0.5913979411 4292596702
-0.2796809971 -0.1008211523 0.5914876461 4292597215
-0.2797231674 -0.1001790687 0.5915768147 4292597215
-0.2797650695 -0.0995366871 0.5916653872 4292597215
-0.2793840468 -0.0987446383 0.5908595920 4292663008
-0.2794253528 -0.0981026590 0.5909469724 4292859874
-0.2790436447 -0.0973129496 0.5901396871 4292859874
-0.2795072198 -0.0968178511 0.5911201239 4292859874
-0.2795477808 -0.0961750224 0.5912058949 4292925667
-0.2791650891 -0.0953873917 0.5903965831 4293058020
-0.2792050540 -0.0947449803 0.5904811025 4293189606
-0.2788216770 -0.0939597189 0.5896703005 4293321192
-0.2788610756 -0.0933177397 0.5897535682 4293452778
-0.2789002061 -0.0926754847 0.5898363590 4293584364
-0.2789390981 -0.0920329615 0.5899185538 4293584364
-0.2785543501 -0.0912514850 0.5891049504 4293715949
-0.2785926461 -0.0906094015 0.5891859531 4293913328
-0.2782072425 -0.0898303315 0.5883708596 4294044914
-0.2778214514 -0.0890529454 0.5875549316 4294176500
-0.2778588533 -0.0884120315 0.5876340270 4294373879
-0.2778959870 -0.0877708569 0.5877125859 4294571258
-0.2779328823 -0.0871294290 0.5877906084 4294375417
-0.2779695094 -0.0864877477 0.5878680348 4294441210
-0.2780058682 -0.0858458132 0.5879449248 4294703612
-0.2780419588 -0.0852036253 0.5880212784 4294703612
-0.2780777812 -0.0845611840 0.5880970359 4294834428
-0.2776893973 -0.0837905779 0.5872756839 4294900221
-0.2777246833 -0.0831486285 0.5873502493 4294966268
-0.2777596712 -0.0825064331 0.5874242783 4294966268
-0.2773702741 -0.0817390159 0.5866007805 4294965758
-0.2774046957 -0.0810973197 0.5866735578 4294833401
-0.2774388492 -0.0804553926 0.5867457986 4294830581
-0.2774727345 -0.0798132196 0.5868174434 4294172651
-0.2775063813 -0.0791708231 0.5868885517 4293839839
-0.2775397301 -0.0785281882 0.5869591236 4292852944
-0.2775728405 -0.0778853223 0.5870291591 4292587205
-0.2776056528 -0.0772422254 0.5870985985 4292324033
-0.2776382267 -0.0765988976 0.5871674418 4292716740
-0.2772459686 -0.0758392140 0.5863378644 4293045705
-0.2768533230 -0.0750812665 0.5855075121 4293048526
-0.2768850029 -0.0744392425 0.5855745077 4293509077
-0.2769164145 -0.0737970024 0.5856409073 4293709279
-0.2765228152 -0.0730423406 0.5848084688 4294367209
-0.2765536308 -0.0724006519 0.5848736763 4294632435
-0.2765842080 -0.0717587397 0.5849383473 4294961914
-0.2770394087 -0.0712258667 0.5859010220 4294964735
-0.2770695090 -0.0705825537 0.5859646797 4294965759
-0.2802821100 -0.1593687683 0.5941544771 4294178040
-0.2803465128 -0.1587450951 0.5942910314 4293914868
-0.2804107070 -0.1581209898 0.5944271088 4293781743
-0.2804746628 -0.1574964523 0.5945627093 4293518571
-0.2805384099 -0.1568714976 0.5946978331 4293384932
-0.2810170352 -0.1564772576 0.5957124233 4292858588
-0.2810804248 -0.1558505148 0.5958468318 4292789204
-0.2811435759 -0.1552233696 0.5959807038 4292131274
-0.2812065184 -0.1545957923 0.5961140990 4291734463
-0.2812692225 -0.1539677829 0.5962470174 4290879154
-0.2813317180 -0.1533393711 0.5963795185 4290088868
-0.2818095982 -0.1529361010 0.5973925591 4289430938
-0.2818717360 -0.1523059160 0.5975242257 4290084497
-0.2819336057 -0.1516753286 0.5976554751 4289887118
-0.2824111879 -0.1512670964 0.5986678600 4290475407
-0.2824726999 -0.1506347358 0.5987982750 4290541200
-0.2825340033 -0.1500019580 0.5989281535 4291261075
-0.2830112576 -0.1495887637 0.5999398828 4291261075
-0.2834884524 -0.1491732895 0.6009514332 4291588498
-0.2835492194 -0.1485374272 0.6010802388 4291720084
-0.2836097479 -0.1479011476 0.6012085676 4292308630
-0.2836700380 -0.1472644657 0.6013364196 4291650700
-0.2837301195 -0.1466273814 0.6014637351 4291975046
-0.2837899327 -0.1459898949 0.6015905738 4291777667
-0.2838495374 -0.1453520060 0.6017168760 4292102012
-0.2839089036 -0.1447137147 0.6018427610 4291904633
-0.2835510373 -0.1438634545 0.6010841131 4291903607
-0.2836098373 -0.1432252973 0.6012087464 4291508849
-0.2836683989 -0.1425867528 0.6013329029 4291509621
-0.2837267220 -0.1419478059 0.6014565229 4291443828
-0.2833674848 -0.1411006600 0.6006950140 4291444598
-0.2834252417 -0.1404618621 0.6008174419 4291641977
-0.2830652595 -0.1396167576 0.6000543237 4291904379
-0.2831224501 -0.1389781386 0.6001756191 4292035965
-0.2831794024 -0.1383391321 0.6002963185 4291970942
-0.2836538851 -0.1379028261 0.6013021469 4291970942
-0.2837104499 -0.1372621059 0.6014220715 4292037248
-0.2837667763 -0.1366209984 0.6015414596 4292234627
-0.2838228643 -0.1359795034 0.6016603112 4292300420
-0.2838786840 -0.1353376359 0.6017786860 4292300420
-0.2839342952 -0.1346953958 0.6018965840 4292497286
-0.2839896381 -0.1340527833 0.6020138860 4292563079
-0.2840447426 -0.1334097832 0.6021307111 4292366983
-0.2840996087 -0.1327664107 0.6022470593 4292432776
-0.2841542363 -0.1321226656 0.6023628116 4292892046
-0.2837900519 -0.1312849224 0.6015908122 4292892046
-0.2838441133 -0.1306413859 0.6017053723 4293088142
-0.2838979065 -0.1299974918 0.6018194556 4293219728
-0.2839514613 -0.1293532252 0.6019330025 4293089938
-0.2840047777 -0.1287086010 0.6020460129 4293024145
-0.2840578556 -0.1280636042 0.6021584868 4293023632
-0.2841106653 -0.1274182498 0.6022704840 4293023632
-0.2845823765 -0.1269595176 0.6032704115 4293155218
-0.2842155695 -0.1261264682 0.6024928689 4293089425
-0.2842676640 -0.1254800409 0.6026032567 4292893073
-0.2843194902 -0.1248332709 0.6027131081 4292958866
-0.2839516401 -0.1240029708 0.6019333005 4293417107
-0.2840029001 -0.1233564392 0.6020419598 4293482900
-0.2840538919 -0.1227095649 0.6021500826 4293287317
-0.2841046453 -0.1220623404 0.6022576690 4293353110
-0.2837354243 -0.1212354228 0.6014750004 4292828823
-0.2837856114 -0.1205884665 0.6015813947 4292894616
-0.2838355303 -0.1199411675 0.6016871929 4293287066
-0.2838852108 -0.1192935184 0.6017925143 4293287066
-0.2835146189 -0.1184700280 0.6010069251 4293352859
-0.2835637033 -0.1178226694 0.6011109948 4293418652
-0.2836125493 -0.1171749756 0.6012145281 4293548953
-0.2832409143 -0.1163543090 0.6004267335 4293548953
-0.2828688920 -0.1155352369 0.5996380448 4293680794
-0.2829168141 -0.1148884669 0.5997397304 4293286036
-0.2829645276 -0.1142413691 0.5998408198 4292696466
-0.2825914323 -0.1134251580 0.5990499258 4293354396
-0.2826385498 -0.1127783731 0.5991498232 4293430199
-0.2822647393 -0.1119643971 0.5983573794 4294945751
-0.2818905711 -0.1111520305 0.5975641608 4292592856
-0.2819367647 -0.1105062068 0.5976621509 4292724442
-0.2824036181 -0.1100240424 0.5986517668 4292200915
-0.2820284367 -0.1092136130 0.5978564620 4292200915
-0.2816528976 -0.1084048077 0.5970603228 4292266708
-0.2816980183 -0.1077586934 0.5971559882 4292200915
-0.2813217342 -0.1069521606 0.5963583589 4292201428
-0.2809450924 -0.1061472595 0.5955598950 4292333014
-0.2805680335 -0.1053439751 0.5947606564 4292267991
-0.2801906168 -0.1045423299 0.5939605236 4292202198
-0.2802341878 -0.1038985550 0.5940529108 4292267991
-0.2798560560 -0.1030992121 0.5932513475 4292333784
-0.2798990607 -0.1024558097 0.5933424830 4292399577
-0.2795202136 -0.1016587839 0.5925394297 4292399577
-0.2795626521 -0.1010157615 0.5926293731 4292465629
-0.2791830897 -0.1002210602 0.5918247700 4292465629
-0.2792249322 -0.0995784253 0.5919134617 4292334813
-0.2792665362 -0.0989354998 0.5920016766 4292466399
-0.2788859606 -0.0981438160 0.5911949277 4292729054
-0.2789269984 -0.0975012928 0.5912818313 4292729054
-0.2789677382 -0.0968584940 0.5913682580 4292794848
-0.2790082395 -0.0962154046 0.5914541483 4292729055
-0.2790485024 -0.0955720469 0.5915394425 4292729569
-0.2786662579 -0.0947847888 0.5907291770 4292861155
-0.2787059247 -0.0941418484 0.5908132792 4292927461
-0.2787453532 -0.0934986323 0.5908967853 4292927461
-0.2783620954 -0.0927144513 0.5900843740 4292926948
-0.2784009278 -0.0920716673 0.5901666880 4293058534
-0.2784394920 -0.0914286152 0.5902484655 4293190122
-0.2780552506 -0.0906475335 0.5894339085 4293255915
-0.2780932486 -0.0900049284 0.5895144343 4293453294
-0.2777082920 -0.0892262533 0.5886983871 4293584880
-0.2773229480 -0.0884492695 0.5878815651 4293520111
-0.2773600519 -0.0878078341 0.5879601836 4293585904
-0.2773968875 -0.0871661454 0.5880382657 4293782770
-0.2778563797 -0.0866561010 0.5890123248 4293980149
-0.2774697840 -0.0858820081 0.5881928205 4294308601
-0.2775058448 -0.0852395594 0.5882692337 4294440187
-0.2775416374 -0.0845968574 0.5883451700 4294636539
-0.2775771916 -0.0839539096 0.5884204507 4294702332
-0.2771892548 -0.0831837207 0.5875981450 4294964990
-0.2772242129 -0.0825412646 0.5876722336 4294966015
-0.2772589028 -0.0818985701 0.5877457857 4294965759
-0.2768699825 -0.0811315775 0.5869213343 4294966015
-0.2769041061 -0.0804893821 0.5869936943 4294966783
-0.2769379616 -0.0798469484 0.5870654583 4294966527
-0.2773950696 -0.0793253928 0.5880343914 4294898681
-0.2774284482 -0.0786815137 0.5881051421 4294240751
-0.2770379484 -0.0779182538 0.5872773528 4293449695
-0.2770707309 -0.0772748962 0.5873469114 4292462800
-0.2771032751 -0.0766313076 0.5874158740 4293767890
-0.2767117918 -0.0758713111 0.5865859985 4293175753
-0.2763199508 -0.0751130506 0.5857553482 4293042885
-0.2763516009 -0.0744707659 0.5858224034 4293174471
-0.2763829827 -0.0738282502 0.5858889222 4293435849
-0.2759901285 -0.0730732828 0.5850561857 4293501642
-0.2760209441 -0.0724313259 0.5851214528 4293766608
-0.2760514617 -0.0717891529 0.5851861835 4294292952
-0.2765058279 -0.0712560564 0.5861493945 4294297569
-0.2765358686 -0.0706124753 0.5862131119 4294956270
-0.2769898474 -0.0700760037 0.5871754289 4294961911
-0.2774436474 -0.0695373416 0.5881373882 4294964223
-0.2789076865 -0.1589615345 0.5926362872 4294375419
-0.2789718211 -0.1583394855 0.5927726030 4294178040
-0.2790357769 -0.1577170044 0.5929084420 4294111222
-0.2790994644 -0.1570941061 0.5930438042 4293913843
-0.2791629434 -0.1564707756 0.5931786895 4293911533
-0.2796404958 -0.1560782343 0.5941933990 4293582568
-0.2797036171 -0.1554531306 0.5943275094 4293514208
-0.2797665298 -0.1548276097 0.5944612026 4293053657
-0.2798292041 -0.1542016566 0.5945943594 4292854484
-0.2798916698 -0.1535752863 0.5947270989 4292196554
-0.2803686261 -0.1531750858 0.5957405567 4291734976
-0.2804307342 -0.1525469571 0.5958725214 4291274425
-0.2809075117 -0.1521431357 0.5968856215 4290678176
-0.2809692323 -0.1515132338 0.5970167518 4290283418
-0.2810307443 -0.1508829296 0.5971474648 4290411669
-0.2810920179 -0.1502522081 0.5972776413 4290082704
-0.2815683484 -0.1498420686 0.5982897282 4290408846
-0.2816292346 -0.1492095888 0.5984191298 4290277260
-0.2821053565 -0.1487958431 0.5994308591 4290408076
-0.2821658850 -0.1481616199 0.5995594859 4290408076
-0.2826418281 -0.1477442384 0.6005707383 4290867344
-0.2827019691 -0.1471082717 0.6006985307 4290472586
-0.2831777036 -0.1466872841 0.6017094254 4291126154
-0.2832374871 -0.1460495591 0.6018363833 4291126154
-0.2832970023 -0.1454114169 0.6019629240 4291910023
-0.2829402089 -0.1445603073 0.6012047529 4291778437
-0.2829991579 -0.1439223140 0.6013300419 4292038528
-0.2830578983 -0.1432839185 0.6014548540 4291643770
-0.2831164002 -0.1426451355 0.6015791297 4291510904
-0.2827582359 -0.1417971253 0.6008180976 4291379318
-0.2823996544 -0.1409505904 0.6000561714 4291313012
-0.2824572623 -0.1403125077 0.6001785398 4291247219
-0.2825146317 -0.1396740377 0.6003004909 4291051123
-0.2825717628 -0.1390351653 0.6004218459 4291051123
-0.2826286554 -0.1383959204 0.6005427837 4291051123
-0.2826853096 -0.1377562732 0.6006631255 4291116916
-0.2831587493 -0.1373184919 0.6016691327 4291707000
-0.2832150161 -0.1366771460 0.6017886996 4291772793
-0.2832710147 -0.1360354125 0.6019077301 4291837816
-0.2833268046 -0.1353933066 0.6020262241 4291837816
-0.2833823264 -0.1347508281 0.6021442413 4291904379
-0.2834376395 -0.1341079623 0.6022617221 4292101758
-0.2834926844 -0.1334647238 0.6023786664 4292036735
-0.2835474908 -0.1328210980 0.6024951339 4292102528
-0.2836020291 -0.1321771145 0.6026110649 4292890506
-0.2832385898 -0.1313390434 0.6018388271 4292956299
-0.2832925916 -0.1306952685 0.6019535065 4293087115
-0.2833463252 -0.1300511211 0.6020677090 4293087115
-0.2833998501 -0.1294066161 0.6021814346 4292629901
-0.2838711739 -0.1289516538 0.6031829119 4292629901
-0.2839242518 -0.1283054650 0.6032957435 4292564621
-0.2839770913 -0.1276589036 0.6034079790 4292696207
-0.2840296924 -0.1270119995 0.6035197377 4292893586
-0.2840820253 -0.1263647228 0.6036309600 4292827793
-0.2837156653 -0.1255319566 0.6028525233 4292696720
-0.2837674320 -0.1248849258 0.6029624939 4292696720
-0.2834003568 -0.1240543053 0.6021825075 4293023632
-0.2834515572 -0.1234075278 0.6022912860 4293089425
-0.2835024893 -0.1227604002 0.6023995280 4293024145
-0.2835531831 -0.1221129224 0.6025072932 4293089938
-0.2836036384 -0.1214651018 0.6026144624 4292959638
-0.2832348645 -0.1206384748 0.6018308401 4293091224
-0.2832847238 -0.1199909225 0.6019368172 4293548953
-0.2833343446 -0.1193430275 0.6020422578 4293483160
-0.2833837271 -0.1186947972 0.6021471620 4293352344
-0.2834328413 -0.1180462241 0.6022515297 4293286551
-0.2830623686 -0.1172236502 0.6014643312 4293351827
-0.2831108868 -0.1165753677 0.6015674472 4293417620
-0.2827396989 -0.1157550067 0.6007786989 4293680279
-0.2827876508 -0.1151070222 0.6008806229 4293680279
-0.2824157178 -0.1142888889 0.6000903249 4293024659
-0.2824631035 -0.1136412174 0.6001909971 4293156245
-0.2820904851 -0.1128253117 0.5993992090 4292441762
-0.2817174494 -0.1120110229 0.5986065865 4294283966
-0.2817639112 -0.1113642976 0.5987053514 4292657107
-0.2822301388 -0.1108822599 0.5996959805 4292986072
-0.2822761834 -0.1102339402 0.5997938514 4292069842
-0.2819018662 -0.1094222292 0.5989984274 4292135635
-0.2815271318 -0.1086121276 0.5982022285 4292135635
-0.2811520100 -0.1078036502 0.5974051356 4292135635
-0.2811968327 -0.1071569771 0.5975003839 4292070612
-0.2808210254 -0.1063507795 0.5967018008 4292070612
-0.2804448009 -0.1055462137 0.5959024429 4292136405
-0.2800682187 -0.1047432795 0.5951021910 4292070612
-0.2796912193 -0.1039419770 0.5943011642 4292136664
-0.2797344923 -0.1032976434 0.5943931341 4292136664
-0.2793568075 -0.1024986506 0.5935906172 4292201944
-0.2793995142 -0.1018546969 0.5936813354 4292267737
-0.2794419527 -0.1012104526 0.5937715173 4292334043
-0.2794841528 -0.1005659103 0.5938611627 4292334043
-0.2791051269 -0.0997705981 0.5930557847 4292203227
-0.2787256837 -0.0989769325 0.5922495723 4292269020
-0.2787669897 -0.0983334705 0.5923373103 4292465883
-0.2788080275 -0.0976897180 0.5924245119 4292465883
-0.2788487971 -0.0970456824 0.5925111771 4292531676
-0.2788893282 -0.0964013711 0.5925972462 4292531676
-0.2785082459 -0.0956121236 0.5917875171 4292531422
-0.2785481811 -0.0949682221 0.5918723941 4292663008
-0.2785878778 -0.0943240523 0.5919567347 4292597983
-0.2786273062 -0.0936795995 0.5920404792 4292663776
-0.2782448828 -0.0928941295 0.5912279487 4292860641
-0.2782837451 -0.0922501087 0.5913105011 4292926434
-0.2779006362 -0.0914670229 0.5904964209 4292926180
-0.2779389024 -0.0908234492 0.5905777216 4292991973
-0.2775550783 -0.0900427625 0.5897622108 4293057766
-0.2775927782 -0.0893996358 0.5898423195 4293189352
-0.2772082984 -0.0886213556 0.5890253186 4293190120
-0.2772454023 -0.0879786834 0.5891041756 4293190120
-0.2772822678 -0.0873357579 0.5891824961 4293255913
-0.2773188651 -0.0866925716 0.5892602801 4293453292
-0.2773551941 -0.0860491320 0.5893374681 4293650926
-0.2769690454 -0.0852754489 0.5885170102 4293782512
-0.2770048082 -0.0846324936 0.5885929465 4293848305
-0.2770403028 -0.0839892849 0.5886684060 4293914098
-0.2770755589 -0.0833458304 0.5887432694 4294308086
-0.2771105170 -0.0827021301 0.5888175368 4294571258
-0.2767227590 -0.0819331035 0.5879936218 4294636538
-0.2767571509 -0.0812899023 0.5880666971 4294702331
-0.2763686776 -0.0805233344 0.5872412920 4294899964
-0.2764025033 -0.0798806399 0.5873131752 4294966014
-0.2768587470 -0.0793588683 0.5882825851 4294966015
-0.2768920958 -0.0787147284 0.5883534551 4294965758
-0.2765023708 -0.0779511556 0.5875253677 4294898681
-0.2765351534 -0.0773075372 0.5875949860 4294438130
-0.2765676379 -0.0766636804 0.5876640081 4294564077
-0.2761769295 -0.0759033635 0.5868338346 4293445596
-0.2757858932 -0.0751447976 0.5860028863 4293439952
-0.2758174837 -0.0745022446 0.5860700607 4293308366
-0.2758488357 -0.0738594681 0.5861366987 4293569745
-0.2754567862 -0.0731041878 0.5853036046 4293240780
-0.2754875422 -0.0724619627 0.5853689909 4292782282
-0.2755180597 -0.0718195289 0.5854338408 4292848075
-0.2759715617 -0.0712862164 0.5863974690 4293044682
-0.2760015726 -0.0706423670 0.5864612460 4293242061
-0.2764546871 -0.0701056719 0.5874240398 4293963216
-0.2769076228 -0.0695667937 0.5883864760 4294621146
-0.2765134871 -0.0688149631 0.5875489712 4294691298
-0.2765424848 -0.0681693032 0.5876106024 4294956526
-0.2765712142 -0.0675234422 0.5876716375 4294962681
-0.2770232558 -0.0669797957 0.5886321664 4294964991
-0.2775997221 -0.1579334289 0.5912524462 4294441212
-0.2776634097 -0.1573125720 0.5913880467 4294440699
-0.2777268291 -0.1566912979 0.5915231705 4294440699
-0.2782034278 -0.1563018411 0.5925382376 4294308087
-0.2782665491 -0.1556787789 0.5926726460 4294044915
-0.2779158354 -0.1548249125 0.5919256806 4293911276
-0.2783920467 -0.1544314027 0.5929399729 4293516518
-0.2784544826 -0.1538070887 0.5930728912 4293514721
-0.2785166800 -0.1531823426 0.5932053924 4293119963
-0.2785786390 -0.1525571942 0.5933373570 4292921560
-0.2790544033 -0.1521573663 0.5943506956 4292724181
-0.2791160345 -0.1515304446 0.5944819450 4292592592
-0.2795916200 -0.1511270106 0.5954948664 4292197834
-0.2796528637 -0.1504983306 0.5956253409 4292063939
-0.2801282704 -0.1500912756 0.5966379046 4291537595
-0.2801891565 -0.1494608372 0.5967675447 4291535028
-0.2806643546 -0.1490501612 0.5977796912 4291140270
-0.2807248533 -0.1484179646 0.5979085565 4290941863
-0.2807851434 -0.1477853656 0.5980369449 4290678691
-0.2812600136 -0.1473697275 0.5990483761 4290348443
-0.2813199162 -0.1467353851 0.5991759300 4289756306
-0.2817946076 -0.1463161260 0.6001869440 4289818507
-0.2818541229 -0.1456800401 0.6003137231 4289357956
-0.2819133997 -0.1450435519 0.6004400253 4290337664
-0.2819724679 -0.1444066614 0.6005657911 4290403457
-0.2820312679 -0.1437693685 0.6006910205 4291646850
-0.2816744149 -0.1429208815 0.5999309421 4291515264
-0.2817326486 -0.1422837377 0.6000550389 4291908231
-0.2817906737 -0.1416462064 0.6001785994 4291776645
-0.2814327478 -0.1408002973 0.5994162560 4292035967
-0.2814902067 -0.1401629150 0.5995386839 4291838588
-0.2815474272 -0.1395251453 0.5996605754 4291838588
-0.2816044390 -0.1388869733 0.5997819304 4291838588
-0.2816611826 -0.1382484287 0.5999028087 4291577213
-0.2817176878 -0.1376094967 0.6000231504 4291708799
-0.2821901739 -0.1371725053 0.6010294557 4291641979
-0.2822462618 -0.1365318596 0.6011489630 4291641979
-0.2823021412 -0.1358908266 0.6012679935 4291445627
-0.2823577821 -0.1352494359 0.6013864875 4291511420
-0.2824131548 -0.1346076429 0.6015044451 4291577213
-0.2824683189 -0.1339654922 0.6016218662 4291643006
-0.2825232148 -0.1333229542 0.6017388105 4292231293
-0.2825778723 -0.1326800436 0.6018552780 4292297086
-0.2826322913 -0.1320367604 0.6019711494 4291905151
-0.2822695374 -0.1311993152 0.6011984944 4292036737
-0.2823233902 -0.1305562407 0.6013132334 4292429955
-0.2823770046 -0.1299128085 0.6014273763 4292561541
-0.2824303508 -0.1292690039 0.6015410423 4292431495
-0.2829007208 -0.1288148165 0.6025428772 4292497288
-0.2829536796 -0.1281693429 0.6026556492 4292759177
-0.2830063701 -0.1275234967 0.6027678847 4292890763
-0.2830588222 -0.1268772781 0.6028796434 4293022351
-0.2831110358 -0.1262307167 0.6029908061 4293022351
-0.2831630111 -0.1255837977 0.6031014919 4292826512
-0.2827970088 -0.1247522533 0.6023219228 4292892305
-0.2828483880 -0.1241055802 0.6024314165 4293219730
-0.2828995287 -0.1234585494 0.6025403142 4293351316
-0.2829504311 -0.1228111759 0.6026487350 4293155477
-0.2830010653 -0.1221634522 0.6027565598 4293155477
-0.2830514610 -0.1215153784 0.6028639078 4292827282
-0.2826834321 -0.1206884235 0.6020800471 4292958868
-0.2827332318 -0.1200406253 0.6021861434 4293417109
-0.2827827930 -0.1193924770 0.6022917032 4293482902
-0.2824137211 -0.1185683385 0.6015056372 4293352599
-0.2824627161 -0.1179204732 0.6016100049 4293418392
-0.2825114727 -0.1172722727 0.6017137766 4293484183
-0.2825599611 -0.1166237369 0.6018170714 4293549976
-0.2821895182 -0.1158030555 0.6010280848 4293351827
-0.2822374105 -0.1151548177 0.6011301279 4293614999
-0.2822850645 -0.1145062521 0.6012316346 4293484183
-0.2819135785 -0.1136884317 0.6004403830 4293484183
-0.2819606662 -0.1130401716 0.6005406976 4292044950
-0.2815884650 -0.1122245938 0.5997479558 4293163431
-0.2816349566 -0.1115766540 0.5998469591 4292917710
-0.2816812098 -0.1109283939 0.5999454856 4293575640
-0.2817272246 -0.1102798134 0.6000434756 4291938772
-0.2813536525 -0.1094677821 0.5992478132 4291938772
-0.2809796929 -0.1086573601 0.5984513164 4292004565
-0.2810247838 -0.1080097705 0.5985473990 4292070358
-0.2806501389 -0.1072016284 0.5977493525 4292070358
-0.2802750766 -0.1063951105 0.5969505310 4292004565
-0.2803192735 -0.1057485268 0.5970447063 4291939285
-0.2799434960 -0.1049443036 0.5962443352 4292005078
-0.2795673609 -0.1041417122 0.5954431891 4292005078
-0.2796106339 -0.1034961566 0.5955353975 4292070871
-0.2792337835 -0.1026958749 0.5947327614 4292070871
-0.2792765200 -0.1020506993 0.5948237181 4292070871
-0.2793189585 -0.1014052182 0.5949141979 4292136664
-0.2793611884 -0.1007594541 0.5950040817 4292136664
-0.2789829671 -0.0999628454 0.5941985846 4292005848
-0.2790246010 -0.0993174687 0.5942872167 4292071641
-0.2790659666 -0.0986718014 0.5943753719 4292268504
-0.2786867619 -0.0978782177 0.5935676694 4292268504
-0.2783071399 -0.0970862955 0.5927591324 4292334043
-0.2783476114 -0.0964417234 0.5928453207 4292334043
-0.2783878446 -0.0957968682 0.5929309726 4292399836
-0.2780072093 -0.0950080007 0.5921202898 4292465629
-0.2780468464 -0.0943635702 0.5922047496 4292465629
-0.2780862451 -0.0937188566 0.5922886133 4292531422
-0.2781253755 -0.0930738747 0.5923719406 4292532192
-0.2777433991 -0.0922887921 0.5915584564 4292532192
-0.2777819633 -0.0916442424 0.5916405320 4292728801
-0.2773993015 -0.0908615515 0.5908255577 4292794594
-0.2774372697 -0.0902174488 0.5909063816 4292794594
-0.2778960466 -0.0897090062 0.5918834805 4292860387
-0.2770913243 -0.0887935087 0.5901695490 4292991973
-0.2775496244 -0.0882835686 0.5911456943 4292926180
-0.2771653235 -0.0875054374 0.5903272033 4292992227
-0.2767806649 -0.0867290050 0.5895078778 4293123813
-0.2768169343 -0.0860853046 0.5895851851 4293124840
-0.2768529654 -0.0854413509 0.5896619558 4293190633
-0.2768887579 -0.0847971514 0.5897381306 4293191146
-0.2765027583 -0.0840246156 0.5889160037 4293256939
-0.2765379548 -0.0833809003 0.5889909863 4293650671
-0.2765728831 -0.0827369392 0.5890653729 4293848050
-0.2766075730 -0.0820927396 0.5891392231 4294110194
-0.2762202621 -0.0813241303 0.5883143544 4294175987
-0.2762543559 -0.0806804299 0.5883869529 4294438389
-0.2758663595 -0.0799142942 0.5875605941 4294635768
-0.2763217688 -0.0793923140 0.5885304809 4294768124
-0.2763550580 -0.0787479058 0.5886014104 4294833917
-0.2763881087 -0.0781032667 0.5886718035 4294834430
-0.2759988606 -0.0773401335 0.5878427625 4294834430
-0.2760313153 -0.0766960233 0.5879119039 4294963966
-0.2756414115 -0.0759353936 0.5870814323 4294567923
-0.2752511203 -0.0751765072 0.5862501860 4294235623
-0.2752827108 -0.0745336935 0.5863174796 4293380314
-0.2753140032 -0.0738906562 0.5863841176 4293243856
-0.2753450572 -0.0732473955 0.5864502788 4292651719
-0.2749534845 -0.0724925697 0.5856162906 4293569229
-0.2754063606 -0.0719602406 0.5865808129 4294292952
-0.2754366100 -0.0713163391 0.5866452456 4294488280
-0.2754665911 -0.0706722289 0.5867091417 4294356694
-0.2759188712 -0.0701353103 0.5876723528 4294355413
-0.2763709426 -0.0695962086 0.5886352658 4294092241
-0.2759775817 -0.0688440725 0.5877974629 4293895889
-0.2760065496 -0.0681981444 0.5878591537 4294224854
-0.2760352492 -0.0675520077 0.5879203081 4294490333
-0.2760636806 -0.0669056773 0.5879808664 4294952169
-0.2760918438 -0.0662591532 0.5880408287 4294957549
-0.2761197388 -0.0656124204 0.5881002545 4294959862
-0.2765702605 -0.0650649890 0.5890597701 4294964732
-0.2765976787 -0.0644168854 0.5891181231 4294965503
-0.2768323123 -0.1559002995 0.5910160542 4294506492
-0.2768951654 -0.1552788764 0.5911501646 4294309113
-0.2765450180 -0.1544265449 0.5904026628 4294176501
-0.2770201564 -0.1540347636 0.5914170742 4293847536
-0.2766693830 -0.1531834453 0.5906681418 4293779690
-0.2771442533 -0.1527889669 0.5916820168 4293450725
-0.2772059739 -0.1521654427 0.5918137431 4293317856
-0.2776806951 -0.1517673433 0.5928272009 4293186270
-0.2777420282 -0.1511420608 0.5929582119 4292858847
-0.2782165706 -0.1507403404 0.5939713120 4292924640
-0.2782775462 -0.1501132995 0.5941014886 4292924127
-0.2787519097 -0.1497079730 0.5951141715 4292858334
-0.2788125277 -0.1490791738 0.5952436328 4293119709
-0.2792866826 -0.1486702114 0.5962558985 4292922330
-0.2793469429 -0.1480396688 0.5963845849 4292920788
-0.2794069648 -0.1474087089 0.5965127349 4292723409
-0.2794667780 -0.1467773467 0.5966403484 4292591823
-0.2799404562 -0.1463620961 0.5976516604 4292197065
-0.2804140747 -0.1459445655 0.5986627936 4292129475
-0.2804733515 -0.1453101188 0.5987893343 4291537338
-0.2805323899 -0.1446752697 0.5989153981 4291925423
-0.2805911899 -0.1440400183 0.5990409255 4291267493
-0.2806497812 -0.1434043646 0.5991659760 4291656091
-0.2807081044 -0.1427683234 0.5992905498 4291063954
-0.2803514898 -0.1419219375 0.5985292196 4291191179
-0.2804092765 -0.1412860453 0.5986525416 4290928007
-0.2804668248 -0.1406497508 0.5987754464 4291383168
-0.2805241346 -0.1400130838 0.5988977551 4291119996
-0.2805812061 -0.1393760145 0.5990196466 4291120509
-0.2806380391 -0.1387385577 0.5991409421 4291383681
-0.2806946337 -0.1381007135 0.5992618203 4291318915
-0.2807510197 -0.1374624819 0.5993821025 4291384708
-0.2808071375 -0.1368238777 0.5995019674 4291776386
