VERSION 0.7
FIELDS x y z rgba
SIZE 4 4 4 4
TYPE F F F U
COUNT 1 1 1 1
WIDTH 920
HEIGHT 1
VIEWPOINT 0.0 0.0 0.0 1.0 0.0 0.0 0.0
POINTS 920
DATA ascii
-0.2923646867 -0.1967140883 0.6013613343 4290435037
-0.2924436629 -0.1960988939 0.6015238166 4291812840
-0.2925224602 -0.1954832226 0.6016858816 4292010219
-0.2926010489 -0.1948670447 0.6018475294 4292273132
-0.2926794291 -0.1942503601 0.6020087600 4292470511
-0.2927576005 -0.1936331987 0.6021695733 4292995827
-0.2924154401 -0.1927386075 0.6014657617 4293390585
-0.2920728326 -0.1918452978 0.6007610559 4293719033
-0.2921501696 -0.1912284195 0.6009200811 4293784826
-0.2922272682 -0.1906110644 0.6010787487 4293981688
-0.2923041880 -0.1899932176 0.6012369394 4293981688
-0.2923808992 -0.1893748790 0.6013947129 4293981688
-0.2924573720 -0.1887560487 0.6015520096 4293850102
-0.2925336659 -0.1881367415 0.6017089486 4293719287
-0.2926097214 -0.1875169426 0.6018654108 4293719287
-0.2931067050 -0.1871655881 0.6028876305 4293719035
-0.2931824625 -0.1865439415 0.6030434370 4293653242
-0.2936793566 -0.1861889362 0.6040654778 4293586933
-0.2937547863 -0.1855654269 0.6042206287 4293652726
-0.2942515910 -0.1852067709 0.6052424908 4293652726
-0.2943266928 -0.1845814139 0.6053969860 4293652726
-0.2944015861 -0.1839555651 0.6055510044 4293652726
-0.2944762707 -0.1833292544 0.6057046652 4293652726
-0.2945507169 -0.1827024668 0.6058577895 4293652726
-0.2942028642 -0.1818143427 0.6051422954 4293718519
-0.2938545942 -0.1809275448 0.6044259071 4293784312
-0.2939281762 -0.1803011298 0.6045773029 4293850105
-0.2935791612 -0.1794160903 0.6038593650 4293719287
-0.2936522067 -0.1787896454 0.6040096283 4293719287
-0.2937250435 -0.1781627238 0.6041594744 4293785080
-0.2937976420 -0.1775353402 0.6043088436 4293850873
-0.2934472263 -0.1766529381 0.6035879850 4293850873
-0.2935192883 -0.1760255396 0.6037362218 4293916666
-0.2931680977 -0.1751449257 0.6030138731 4293982459
-0.2928164601 -0.1742656678 0.6022906303 4293982459
-0.2928876579 -0.1736387014 0.6024370790 4293982459
-0.2929586470 -0.1730112582 0.6025830507 4293982459
-0.2930293977 -0.1723833680 0.6027286053 4294113275
-0.2926763594 -0.1715068221 0.6020024419 4294179068
-0.2927465737 -0.1708789319 0.6021468639 4294244348
-0.2923927903 -0.1700042188 0.6014191508 4294310141
-0.2920385897 -0.1691308618 0.6006906033 4294310396
-0.2921079099 -0.1685034484 0.6008332372 4294310396
-0.2917529643 -0.1676319242 0.6001031399 4294441212
-0.2918217480 -0.1670045257 0.6002445817 4294572798
-0.2918902934 -0.1663766950 0.6003856063 4294572285
-0.2919586301 -0.1657484025 0.6005261540 4294506492
-0.2916022539 -0.1648796797 0.5997931361 4294638078
-0.2912454903 -0.1640123576 0.5990592837 4294638078
-0.2913129330 -0.1633845866 0.5991979837 4294377215
-0.2909553945 -0.1625191271 0.5984625816 4294245631
-0.2910223007 -0.1618914008 0.5986002088 4294832639
-0.2910889685 -0.1612632424 0.5987372994 4294043123
-0.2911553979 -0.1606346667 0.5988739729 4294948316
-0.2907964587 -0.1597720683 0.5981357098 4293434820
-0.2908623517 -0.1591435373 0.5982711911 4294217154
-0.2909280062 -0.1585145891 0.5984062552 4294217154
-0.2909934223 -0.1578852087 0.5985407829 4294151363
-0.2910585999 -0.1572554111 0.5986748934 4293953984
-0.2911235690 -0.1566251814 0.5988085270 4294086338
-0.2911882997 -0.1559945494 0.5989416242 4294941904
-0.2912527919 -0.1553634852 0.5990743041 4294947802
-0.2913170457 -0.1547319889 0.5992064476 4294950629
-0.2913810611 -0.1541000903 0.5993381739 4294954219
-0.2910187840 -0.1532434076 0.5985929370 4294955761
-0.2910822332 -0.1526115984 0.5987235308 4294893553
-0.2907191813 -0.1517568678 0.5979767442 4294960117
-0.2907820940 -0.1511251628 0.5981061459 4294896120
-0.2899918556 -0.1500517279 0.5964806676 4294896120
-0.2904806435 -0.1496407986 0.5974860787 4294503159
-0.2901161015 -0.1487899870 0.5967362523 4294568952
-0.2897511423 -0.1479406357 0.5959855914 4294765304
-0.2898125947 -0.1473096907 0.5961120129 4294765304
-0.2898738086 -0.1466783285 0.5962378979 4294894069
-0.2895077765 -0.1458314955 0.5954850316 4294696690
-0.2895684242 -0.1452002823 0.5956097841 4294957039
-0.2892016470 -0.1443554461 0.5948553681 4294759660
-0.2892617285 -0.1437243670 0.5949789286 4294953703
-0.2888942361 -0.1428815424 0.5942230225 4294821346
-0.2889537513 -0.1422506124 0.5943454504 4294949853
-0.2885854840 -0.1414097995 0.5935879946 4294883546
-0.2886444330 -0.1407790333 0.5937092304 4294226135
-0.2887031436 -0.1401478797 0.5938299894 4293897170
-0.2887616158 -0.1395163536 0.5939502716 4294222287
-0.2888198495 -0.1388844252 0.5940700173 4293959115
-0.2888778448 -0.1382521242 0.5941892862 4294743498
-0.2889356017 -0.1376194507 0.5943080783 4294743498
-0.2885649502 -0.1367834359 0.5935457349 4294939338
-0.2886221409 -0.1361509413 0.5936633348 4294939595
-0.2886790633 -0.1355180740 0.5937804580 4294938314
-0.2887357771 -0.1348848194 0.5938971043 4294938314
-0.2887922227 -0.1342512071 0.5940132141 4294938570
-0.2888484299 -0.1336172074 0.5941287875 4294938313
-0.2889043689 -0.1329828501 0.5942438841 4294938314
-0.2885313630 -0.1321517527 0.5934766531 4294938057
-0.2890155613 -0.1317130327 0.5944725871 4294938057
-0.2890707850 -0.1310775727 0.5945861936 4294938314
-0.2891257703 -0.1304417402 0.5946992636 4294937027
-0.2891805172 -0.1298055500 0.5948118567 4294937027
-0.2892349958 -0.1291690171 0.5949239135 4294937284
-0.2892892361 -0.1285321116 0.5950354934 4294937798
-0.2889139354 -0.1277050823 0.5942635536 4294938055
-0.2889675796 -0.1270684153 0.5943739414 4294938055
-0.2890210152 -0.1264313906 0.5944837928 4294937541
-0.2886446416 -0.1256070882 0.5937096477 4294871234
-0.2886974812 -0.1249703094 0.5938183069 4294871234
-0.2883203626 -0.1241481602 0.5930426717 4294871234
-0.2883726358 -0.1235116348 0.5931501389 4294870977
-0.2884246409 -0.1228747591 0.5932571292 4294805184
-0.2884764075 -0.1222375408 0.5933635831 4294805184
-0.2885279059 -0.1215999722 0.5934695601 4294739391
-0.2885791659 -0.1209620759 0.5935749412 4294804414
-0.2890603244 -0.1205031499 0.5945646763 4294804414
-0.2891111374 -0.1198636219 0.5946692228 4294934977
-0.2891617119 -0.1192237586 0.5947732329 4294934720
-0.2892120481 -0.1185835525 0.5948767662 4294934207
-0.2892621160 -0.1179430187 0.5949797034 4294933693
-0.2893119454 -0.1173021495 0.5950821638 4294868413
-0.2893615067 -0.1166609526 0.5951841474 4294802620
-0.2894107997 -0.1160194278 0.5952855349 4294541240
-0.2894598544 -0.1153775752 0.5953864455 4294475447
-0.2895086408 -0.1147353947 0.5954868197 4293953207
-0.2899880707 -0.1142626703 0.5964729190 4294150586
-0.2900364399 -0.1136188880 0.5965723991 4293629119
-0.2900845110 -0.1129747853 0.5966713428 4294089670
-0.2901323736 -0.1123303622 0.5967697501 4293765837
-0.2901799381 -0.1116856262 0.5968675613 4294357974
-0.2902272642 -0.1110405698 0.5969649553 4294557920
-0.2902743220 -0.1103951931 0.5970617533 4294952935
-0.2903211415 -0.1097495109 0.5971580148 4294169319
-0.2903676927 -0.1091035157 0.5972537398 4294432491
-0.2904139757 -0.1084572077 0.5973489285 4293321967
-0.2900283933 -0.1076503992 0.5965558887 4293190381
-0.2900741100 -0.1070044413 0.5966498852 4292797163
-0.2901195288 -0.1063581780 0.5967433453 4292797163
-0.2901647091 -0.1057116091 0.5968362689 4293190892
-0.2902096212 -0.1050647423 0.5969285965 4293322478
-0.2902542651 -0.1044175699 0.5970204473 4293517290
-0.2898666561 -0.1036156863 0.5962231755 4293583083
-0.2899107337 -0.1029688865 0.5963138342 4293517804
-0.2903866470 -0.1024742872 0.5972927213 4293517804
-0.2904302478 -0.1018259376 0.5973824263 4293060589
-0.2900413275 -0.1010267362 0.5965824723 4293126382
-0.2900843322 -0.1003787741 0.5966709256 4293387499
-0.2896946967 -0.0995818898 0.5958694816 4293321706
-0.2897371054 -0.0989343226 0.5959567428 4293190892
-0.2897792459 -0.0982864648 0.5960434079 4293256685
-0.2898211479 -0.0976383314 0.5961295962 4293256685
-0.2898627520 -0.0969899148 0.5962151885 4293256685
-0.2903368175 -0.0964850113 0.5971902609 4293256685
-0.2899452150 -0.0956922472 0.5963847637 4293322478
-0.2899860144 -0.0950430036 0.5964687467 4293191664
-0.2900265753 -0.0943934843 0.5965521336 4293191664
-0.2900668681 -0.0937436894 0.5966349840 4293125871
-0.2901068926 -0.0930936262 0.5967172980 4293191664
-0.2905797064 -0.0925812721 0.5976898670 4293257457
-0.2910523713 -0.0920667127 0.5986620188 4293257457
-0.2906585336 -0.0912778750 0.5978519917 4293257457
-0.2906975150 -0.0906257778 0.5979322195 4293191664
-0.2907362580 -0.0899734199 0.5980118513 4293191664
-0.2912080884 -0.0894539207 0.5989823341 4293257457
-0.2912463248 -0.0888000727 0.5990610123 4293191664
-0.2917177677 -0.0882771388 0.6000307202 4293191664
-0.2917555571 -0.0876218006 0.6001084447 4293191410
-0.2913594842 -0.0868369937 0.5992937684 4293388789
-0.2913966477 -0.0861821249 0.5993701816 4293322996
-0.2909998596 -0.0853997394 0.5985540748 4293125617
-0.2919039130 -0.0849979445 0.6004135609 4293191410
-0.2919403017 -0.0843413621 0.6004884839 4293322996
-0.2919764519 -0.0836845338 0.6005628109 4293126130
-0.2920123041 -0.0830274597 0.6006365418 4293126130
-0.2920478880 -0.0823701471 0.6007097363 4293126131
-0.2920832038 -0.0817125961 0.6007823944 4293126131
-0.2925522923 -0.0811752453 0.6017472148 4293126131
-0.2925871015 -0.0805162415 0.6018188596 4293191924
-0.2930558026 -0.0799754858 0.6027829051 4293323510
-0.2930901051 -0.0793150365 0.6028534770 4293455096
-0.2931241393 -0.0786543563 0.6029235125 4293323509
-0.2935922146 -0.0781089887 0.6038862467 4293323509
-0.2944944501 -0.0776760057 0.6057420373 4293388789
-0.2949622273 -0.0771252885 0.6067041755 4293388789
-0.2954297960 -0.0765723884 0.6076659560 4293520375
-0.2958971858 -0.0760173053 0.6086273193 4293586168
-0.2959298491 -0.0753493905 0.6086944938 4293586168
-0.2963968217 -0.0747909248 0.6096550226 4293520375
-0.2968636155 -0.0742302686 0.6106151342 4293651445
-0.2973302007 -0.0736674443 0.6115748882 4293651445
-0.2977966368 -0.0731024295 0.6125342250 4293717238
-0.2991324067 -0.0727467164 0.6152818203 4293717238
-0.2995985448 -0.0721753836 0.6162405610 4293782518
-0.3000644445 -0.0716018751 0.6171988845 4293782518
-0.3000952601 -0.0709234029 0.6172622442 4293782518
-0.3009957075 -0.0704483315 0.6191143990 4293782518
-0.3014610112 -0.0698682964 0.6200715303 4294437879
-0.3014910817 -0.0691862553 0.6201333404 4294437879
-0.3019559681 -0.0686028600 0.6210895777 4294961404
-0.3024206460 -0.0680172890 0.6220453382 4293184993
-0.3033202887 -0.0675264373 0.6238958240 4294084280
-0.3033493757 -0.0668396503 0.6239556074 4293886901
-0.3038134277 -0.0662475824 0.6249101162 4293755317
-0.3038419485 -0.0655594170 0.6249688268 4293623731
-0.3043055534 -0.0649640039 0.6259223819 4294018489
-0.3047689199 -0.0643664226 0.6268754601 4293623731
-0.3047966659 -0.0636757091 0.6269325614 4293033652
-0.3048241138 -0.0629848167 0.6269890070 4293362617
-0.3052867651 -0.0623827241 0.6279405951 4294155471
-0.3057491779 -0.0617784746 0.6288917661 4294948328
-0.3057758212 -0.0610850528 0.6289465427 4294950893
-0.3062377572 -0.0604774766 0.6298967600 4294095070
-0.3062638640 -0.0597827062 0.6299504042 4293827786
-0.3067253232 -0.0591718107 0.6308995485 4293630407
-0.3067508340 -0.0584757030 0.6309520602 4293175241
-0.3067760766 -0.0577794202 0.6310039759 4294162136
-0.3076725900 -0.0572451353 0.6328479648 4294954983
-0.3081331253 -0.0566266291 0.6337952614 4294960380
-0.2879269421 -0.2185740471 0.5935894847 4291614182
-0.2880127728 -0.2179794908 0.5937664509 4290956252
-0.2880984247 -0.2173843980 0.5939429998 4290364640
-0.2881838977 -0.2167887837 0.5941192508 4289377745
-0.2882691920 -0.2161926478 0.5942950845 4287864773
-0.2887691855 -0.2159061730 0.5953258872 4287075257
-0.2888542414 -0.2153081149 0.5955011845 4285036199
-0.2889390886 -0.2147095203 0.5956761241 4283588753
-0.2890237570 -0.2141104043 0.5958506465 4283787939
-0.2891082168 -0.2135107666 0.5960248113 4283458974
-0.2891925275 -0.2129105926 0.5961986184 4283590297
-0.2892766297 -0.2123098969 0.5963720083 4286814154
-0.2889447808 -0.2114045024 0.5956878662 4290431975
-0.2890284061 -0.2108036280 0.5958602428 4292537343
-0.2895278037 -0.2105046809 0.5968897939 4292080639
-0.2900272608 -0.2102034837 0.5979194641 4289185748
-0.2905267477 -0.2099000365 0.5989492536 4285506732
-0.2906099558 -0.2092944831 0.5991207361 4285375146
-0.2906929553 -0.2086883932 0.5992918611 4287021000
-0.2907757759 -0.2080818117 0.5994626284 4289389548
-0.2908583879 -0.2074746937 0.5996329188 4291426558
-0.2909407914 -0.2068670690 0.5998028517 4291426558
-0.2911050618 -0.2056502551 0.6001414657 4287412670
-0.2907697260 -0.2047473192 0.5994501710 4285048752
-0.2904339731 -0.2038456351 0.5987579226 4284522408
-0.2905151546 -0.2032371759 0.5989253521 4285312181
-0.2901786566 -0.2023370862 0.5982316136 4288404452
-0.2902593613 -0.2017284930 0.5983979702 4291358710
-0.2907575965 -0.2014087588 0.5994251370 4292279807
-0.2908380032 -0.2007982731 0.5995909572 4292343293
-0.2909182310 -0.2001872957 0.5997563004 4290566882
-0.2909982502 -0.1995757967 0.5999212861 4286822851
-0.2910780609 -0.1989637911 0.6000857949 4285835956
-0.2911576629 -0.1983512938 0.6002499461 4286164921
-0.2916555107 -0.1980223954 0.6012762785 4288665055
-0.2917348444 -0.1974080056 0.6014398336 4291288552
-0.2918139398 -0.1967931092 0.6016029119 4290762208
-0.2918928564 -0.1961777210 0.6017656326 4291352805
-0.2919715643 -0.1955618411 0.6019278765 4291681770
-0.2920500636 -0.1949454546 0.6020897031 4292010219
-0.2921283543 -0.1943285763 0.6022511125 4292010219
-0.2922064662 -0.1937111914 0.6024121046 4292338155
-0.2922843397 -0.1930933148 0.6025726795 4292667120
-0.2915230989 -0.1919226646 0.6010032892 4292929519
-0.2916003466 -0.1913055778 0.6011625528 4292863726
-0.2916773856 -0.1906880140 0.6013213992 4292994794
-0.2917542160 -0.1900699437 0.6014797688 4293060587
-0.2914109230 -0.1891788095 0.6007720232 4293126380
-0.2919072211 -0.1888323724 0.6017952561 4293126380
-0.2924035490 -0.1884836555 0.6028184295 4292929517
-0.2924796343 -0.1878627539 0.6029753089 4292929517
-0.2925555408 -0.1872413754 0.6031317711 4292863726
-0.2930516601 -0.1868876517 0.6041545868 4292732140
-0.2931272089 -0.1862644106 0.6043103337 4292928749
-0.2932025790 -0.1856406778 0.6044657230 4292928749
-0.2936984897 -0.1852819324 0.6054880619 4292928749
-0.2937735021 -0.1846563518 0.6056427360 4292928749
-0.2938483357 -0.1840302944 0.6057969928 4292928749
-0.2939229310 -0.1834037602 0.6059507728 4292994542
-0.2935761213 -0.1825148910 0.6052358150 4292994542
-0.2936501801 -0.1818882972 0.6053884625 4292994542
-0.2933025956 -0.1810011864 0.6046719551 4292862956
-0.2933761179 -0.1803745478 0.6048235297 4292928749
-0.2930277884 -0.1794891953 0.6041054130 4292797933
-0.2931007743 -0.1788625121 0.6042558551 4292863726
-0.2931735218 -0.1782353818 0.6044058204 4292929519
-0.2928241491 -0.1773522198 0.6036854982 4292929519
-0.2928963602 -0.1767250597 0.6038343906 4292929517
-0.2929683328 -0.1760974228 0.6039828062 4292929517
-0.2930401266 -0.1754693389 0.6041308045 4292929517
-0.2931116521 -0.1748407781 0.6042782664 4292929517
-0.2931829989 -0.1742117703 0.6044253707 4292995310
-0.2928315401 -0.1733321846 0.6037008166 4292995310
-0.2924796641 -0.1724539548 0.6029753685 4293192175
-0.2925501168 -0.1718253791 0.6031206250 4293192175
-0.2921974957 -0.1709489673 0.6023936272 4293323248
-0.2922673821 -0.1703204066 0.6025377512 4293257455
-0.2923370600 -0.1696913838 0.6026813984 4293389039
-0.2919833660 -0.1688172519 0.6019521952 4293389039
-0.2916292250 -0.1679445058 0.6012220979 4293388525
-0.2916980386 -0.1673159748 0.6013639569 4293454318
-0.2913431525 -0.1664450616 0.6006323099 4293519598
-0.2914113998 -0.1658165604 0.6007730365 4293519598
-0.2910557687 -0.1649475098 0.6000398993 4293651184
-0.2911234796 -0.1643190384 0.6001794338 4293782770
-0.2911909521 -0.1636901200 0.6003185511 4294043382
-0.2908342481 -0.1628234237 0.5995831490 4294174968
-0.2909011543 -0.1621945649 0.5997211337 4294957556
-0.2905437052 -0.1613297462 0.5989841819 4293904611
-0.2906100750 -0.1607009321 0.5991210341 4294744779
-0.2902518809 -0.1598380059 0.5983825326 4293626298
-0.2903176844 -0.1592092514 0.5985181928 4294475449
-0.2903832495 -0.1585800648 0.5986534357 4294343863
-0.2904486060 -0.1579504609 0.5987881422 4294408632
-0.2905137241 -0.1573204249 0.5989224315 4294211253
-0.2905786335 -0.1566899717 0.5990561843 4294669237
-0.2906432748 -0.1560591012 0.5991894603 4294800823
-0.2907077074 -0.1554277986 0.5993223190 4294212279
-0.2907719016 -0.1547960788 0.5994546413 4294278072
-0.2908358574 -0.1541639417 0.5995864868 4294281920
-0.2908995748 -0.1535314023 0.5997178555 4294939850
-0.2905376852 -0.1526748985 0.5989717841 4294092750
-0.2906008661 -0.1520424485 0.5991020203 4294553301
-0.2902382314 -0.1511878967 0.5983543992 4294294749
-0.2903008163 -0.1505555511 0.5984834433 4294426335
-0.2899374366 -0.1497029662 0.5977343321 4293837278
-0.2895736396 -0.1488518268 0.5969842672 4293639899
-0.2896353304 -0.1482201219 0.5971115232 4293573079
-0.2892707884 -0.1473709643 0.5963599682 4293375700
-0.2893319428 -0.1467393786 0.5964860320 4293897683
-0.2889666557 -0.1458922029 0.5957329273 4293634511
-0.2890272439 -0.1452607512 0.5958578587 4294155465
-0.2886612117 -0.1444155872 0.5951032043 4293826500
-0.2887212336 -0.1437842846 0.5952269435 4294544063
-0.2883544266 -0.1429411173 0.5944707990 4294280891
-0.2884138823 -0.1423099637 0.5945934057 4294868665
-0.2884730995 -0.1416784078 0.5947154760 4294934458
-0.2881052792 -0.1408378184 0.5939571261 4294870977
-0.2881639302 -0.1402064264 0.5940780640 4294936770
-0.2882223427 -0.1395746469 0.5941984653 4294936770
-0.2878534198 -0.1387366503 0.5934379101 4294937027
-0.2879112661 -0.1381050348 0.5935571790 4294936773
-0.2879688740 -0.1374730617 0.5936759114 4294936516
-0.2880262136 -0.1368406862 0.5937941670 4294936516
-0.2880833447 -0.1362079531 0.5939119458 4294936773
-0.2881402373 -0.1355748326 0.5940291882 4294871751
-0.2877692580 -0.1347411275 0.5932644010 4294937544
-0.2878255844 -0.1341082156 0.5933805108 4294741961
-0.2878816426 -0.1334749162 0.5934960842 4294741961
-0.2883653045 -0.1330386400 0.5944932103 4294611402
-0.2884209752 -0.1324036717 0.5946079493 4294611402
-0.2884763777 -0.1317683309 0.5947222114 4294611661
-0.2885315418 -0.1311326176 0.5948359370 4294611661
-0.2885864675 -0.1304965466 0.5949491858 4294938570
-0.2886411548 -0.1298601180 0.5950618982 4294938313
-0.2882672548 -0.1290315986 0.5942910314 4294937286
-0.2883213460 -0.1283953935 0.5944025517 4294673857
-0.2883751988 -0.1277588308 0.5945135951 4294607037
-0.2884288132 -0.1271219105 0.5946241021 4294475451
-0.2884821594 -0.1264846325 0.5947341323 4294606524
-0.2881065309 -0.1256600022 0.5939597487 4294738110
-0.2881593108 -0.1250229776 0.5940685868 4294802620
-0.2877829671 -0.1242005005 0.5932926536 4294736827
-0.2878351808 -0.1235637218 0.5934002995 4294736827
-0.2878871262 -0.1229265928 0.5935074091 4294802620
-0.2879388332 -0.1222891286 0.5936139822 4294802363
-0.2879903018 -0.1216513142 0.5937200785 4294802363
-0.2880415022 -0.1210131571 0.5938256383 4294802363
-0.2880924642 -0.1203746647 0.5939307213 4294736570
-0.2881431580 -0.1197358370 0.5940352082 4294475451
-0.2881936133 -0.1190966666 0.5941392183 4294343865
-0.2882438004 -0.1184571683 0.5942426920 4294277046
-0.2882937491 -0.1178173348 0.5943456888 4294145460
-0.2883434296 -0.1171771660 0.5944481492 4294406835
-0.2883928716 -0.1165366694 0.5945500731 4294472628
-0.2884420455 -0.1158958375 0.5946514606 4294734258
-0.2884909809 -0.1152546853 0.5947523117 4294800051
-0.2889696658 -0.1147840172 0.5957391858 4294799538
-0.2890181541 -0.1141412631 0.5958391428 4294667952
-0.2890664041 -0.1134981811 0.5959385633 4294471086
-0.2891143560 -0.1128547788 0.5960375071 4294339500
-0.2891620994 -0.1122110561 0.5961358547 4294209197
-0.2892095447 -0.1115670130 0.5962337255 4294406576
-0.2892567515 -0.1109226570 0.5963310003 4294801591
-0.2888731956 -0.1101138815 0.5955402851 4294933948
-0.2889198065 -0.1094698533 0.5956363678 4293959879
-0.2889661789 -0.1088255197 0.5957319736 4294617809
-0.2890122831 -0.1081808731 0.5958269835 4293903583
-0.2886273265 -0.1073756590 0.5950334072 4294561513
-0.2886728346 -0.1067313626 0.5951272249 4293975022
-0.2887181044 -0.1060867608 0.5952205062 4294106608
-0.2887630761 -0.1054418609 0.5953132510 4293452015
-0.2888078094 -0.1047966555 0.5954055190 4293452015
-0.2888523042 -0.1041511521 0.5954971910 4293320429
-0.2884653211 -0.1033508703 0.5946993828 4293320429
-0.2885091901 -0.1027057394 0.5947898626 4293320427
-0.2889841497 -0.1022128686 0.5957689881 4293320427
-0.2885961831 -0.1014145911 0.5949691534 4292797163
-0.2886392772 -0.1007685885 0.5950580239 4292862956
-0.2882505953 -0.0999726355 0.5942567587 4293125101
-0.2882930934 -0.0993270129 0.5943443775 4293059308
-0.2883353531 -0.0986811146 0.5944314599 4292993515
-0.2883773446 -0.0980349332 0.5945180058 4292993515
-0.2884190381 -0.0973884687 0.5946040154 4293125103
-0.2884604931 -0.0967417210 0.5946894884 4293125103
-0.2885017097 -0.0960946977 0.5947743654 4293059310
-0.2881106734 -0.0953045115 0.5939682722 4293125103
-0.2881512642 -0.0946579054 0.5940519571 4293059824
-0.2881916165 -0.0940110311 0.5941351056 4293059824
-0.2882316709 -0.0933638811 0.5942177176 4292928238
-0.2887036502 -0.0928554684 0.5951907635 4292928238
-0.2887432575 -0.0922068134 0.5952724218 4292994031
-0.2892149091 -0.0916949585 0.5962447524 4292994031
-0.2888216376 -0.0909087136 0.5954340100 4292928238
-0.2888604403 -0.0902592614 0.5955139995 4292994031
-0.2893314660 -0.0897436962 0.5964850187 4293059824
-0.2893697619 -0.0890927613 0.5965639949 4293059824
-0.2894078195 -0.0884415582 0.5966424346 4293060084
-0.2894455791 -0.0877901018 0.5967203379 4293125877
-0.2894831002 -0.0871383995 0.5967976451 4293060338
-0.2895203233 -0.0864864364 0.5968744159 4293126131
-0.2891244888 -0.0857059211 0.5960583091 4293125877
-0.2891611159 -0.0850544348 0.5961338878 4293060084
-0.2891975045 -0.0844027027 0.5962088704 4293060084
-0.2896665931 -0.0838761032 0.5971758962 4292928498
-0.2897024751 -0.0832229033 0.5972498655 4293257463
-0.2897380590 -0.0825694650 0.5973232985 4293191670
-0.2897734046 -0.0819157884 0.5973961353 4293257465
-0.2898084819 -0.0812618658 0.5974684358 4293257465
-0.2898432612 -0.0806077123 0.5975401998 4293323258
-0.2903110981 -0.0800728351 0.5985046625 4293257465
-0.2903454006 -0.0794172361 0.5985753536 4293191672
-0.2903794050 -0.0787614062 0.5986455083 4293257465
-0.2904131711 -0.0781053454 0.5987150669 4293126131
-0.2904466391 -0.0774490535 0.5987840891 4293257717
-0.2909134030 -0.0769071579 0.5997463465 4293257717
-0.2918135822 -0.0764767081 0.6016021371 4293126131
-0.2922800183 -0.0759294629 0.6025637984 4293191411
-0.2927462757 -0.0753800273 0.6035250425 4293454583
-0.2932123840 -0.0748284161 0.6044859290 4293586169
-0.2932444811 -0.0741649121 0.6045520902 4293520376
-0.2937101424 -0.0736099184 0.6055121422 4293585399
-0.2941756248 -0.0730527416 0.6064717770 4293585399
-0.2946409285 -0.0724933892 0.6074309945 4293585654
-0.2959739864 -0.0721434206 0.6101792455 4293585654
-0.2964389920 -0.0715777501 0.6111379266 4293585654
-0.2969038188 -0.0710099041 0.6120961905 4293585654
-0.2973684371 -0.0704398751 0.6130540371 4293650934
-0.2978328466 -0.0698676780 0.6140114665 4293650934
-0.2982970774 -0.0692933053 0.6149685383 4294568956
-0.2987610996 -0.0687167570 0.6159251928 4294305784
-0.2992249429 -0.0681380406 0.6168813705 4294764538
-0.2996885478 -0.0675571561 0.6178371906 4293382885
-0.3005863428 -0.0670710206 0.6196880937 4294018489
-0.3006151915 -0.0663888752 0.6197475195 4293886903
-0.3010782003 -0.0658014789 0.6207020879 4294017719
-0.3015410006 -0.0652119219 0.6216561794 4293886133
-0.3020035923 -0.0646202043 0.6226098537 4294147511
-0.3020313978 -0.0639343262 0.6226671934 4294344890
-0.3020589054 -0.0632482544 0.6227239370 4294149821
-0.3025207818 -0.0626520216 0.6236761212 4294149821
-0.3034171462 -0.0621426515 0.6255240440 4293693122
-0.3034438789 -0.0614530668 0.6255791783 4294943189
-0.3039051294 -0.0608503558 0.6265300512 4294949865
-0.3039313257 -0.0601594225 0.6265840530 4294950379
-0.3043920696 -0.0595533848 0.6275339723 4294556124
-0.3044177294 -0.0588611104 0.6275868416 4294621917
-0.3044430614 -0.0581686608 0.6276391149 4293907172
-0.3049030900 -0.0575581454 0.6285874248 4294894067
-0.3053628504 -0.0569454841 0.6295353174 4294964475
-0.2868811786 -0.2189386338 0.5927909017 4293061365
-0.2869669795 -0.2183452845 0.5929682255 4290299100
-0.2866389751 -0.2174376398 0.5922904611 4290035928
-0.2867242992 -0.2168440819 0.5924667120 4288983775
-0.2868094444 -0.2162499875 0.5926426053 4285891504
-0.2868943810 -0.2156553715 0.5928181410 4283194522
-0.2873932421 -0.2153705657 0.5938490033 4283128729
-0.2874779403 -0.2147740424 0.5940240026 4282866332
-0.2875624597 -0.2141769826 0.5941986442 4282339988
-0.2876468003 -0.2135794014 0.5943729281 4282604192
-0.2877309322 -0.2129812986 0.5945467949 4282538399
-0.2878148854 -0.2123826593 0.5947202444 4285235130
-0.2878986597 -0.2117835134 0.5948933363 4289380089
-0.2879822552 -0.2111838311 0.5950660706 4291880702
-0.2884807289 -0.2108870596 0.5960960388 4292538623
-0.2885640562 -0.2102854848 0.5962682366 4290831351
-0.2890625000 -0.2099850774 0.5972982049 4287804873
-0.2891455591 -0.2093815804 0.5974698067 4285243819
-0.2896439731 -0.2090775371 0.5984997749 4286296507
-0.2897267640 -0.2084721327 0.5986708403 4288994792
-0.2898093760 -0.2078662217 0.5988414884 4290508031
-0.2898917794 -0.2072597742 0.5990117788 4291491583
-0.2899740040 -0.2066528201 0.5991816521 4290965241
-0.2900560200 -0.2060453594 0.5993511677 4288862171
-0.2897215784 -0.2051426321 0.5986601114 4286756795
-0.2902194858 -0.2048288733 0.5996888876 4285837498
-0.2898844182 -0.2039268613 0.5989965200 4286232256
-0.2895489037 -0.2030260861 0.5983033180 4287679189
-0.2892129719 -0.2021265626 0.5976091623 4290310909
-0.2897103131 -0.2018090039 0.5986368060 4292147967
-0.2893737555 -0.2009102106 0.5979413986 4292279551
-0.2898709476 -0.2005898952 0.5989687443 4292081150
-0.2899509668 -0.1999795884 0.5991340280 4290567911
-0.2900307775 -0.1993687749 0.5992989540 4286954437
-0.2901103795 -0.1987574548 0.5994634628 4285967542
-0.2901897728 -0.1981456280 0.5996275544 4287743440
-0.2906866372 -0.1978175193 0.6006542444 4290375160
-0.2907657623 -0.1972038001 0.6008177400 4291945714
-0.2908446789 -0.1965896040 0.6009807587 4291156198
-0.2909233868 -0.1959748864 0.6011434197 4291286496
-0.2910019159 -0.1953596771 0.6013056636 4291747047
-0.2910802066 -0.1947439760 0.6014674306 4292141546
-0.2911582887 -0.1941277683 0.6016288400 4292141546
-0.2912361920 -0.1935110688 0.6017897725 4292337897
-0.2913138866 -0.1928938776 0.6019502878 4292535276
-0.2913913727 -0.1922761947 0.6021103859 4292797417
-0.2914686203 -0.1916580200 0.6022700667 4292665831
-0.2911268175 -0.1907648742 0.6015637517 4292665316
-0.2907845676 -0.1898730099 0.6008565426 4292731109
-0.2908609807 -0.1892551482 0.6010144353 4292731622
-0.2913564146 -0.1889086068 0.6020382047 4292731622
-0.2914325297 -0.1882888675 0.6021954417 4292600552
-0.2919278741 -0.1879386753 0.6032190323 4292666345
-0.2920036614 -0.1873170882 0.6033756137 4292600554
-0.2924989164 -0.1869632453 0.6043989658 4292600554
-0.2925744057 -0.1863397956 0.6045549512 4292534761
-0.2926496863 -0.1857158691 0.6047105193 4292534761
-0.2927247286 -0.1850914508 0.6048656106 4292468968
-0.2932196558 -0.1847312003 0.6058883071 4292468968
-0.2928742170 -0.1838411689 0.6051744819 4292468968
-0.2929486334 -0.1832153201 0.6053282022 4292468968
-0.2930228114 -0.1825889945 0.6054815054 4292599784
-0.2926762998 -0.1817011237 0.6047654748 4292533991
-0.2927499413 -0.1810747385 0.6049177051 4292534245
-0.2928233743 -0.1804478914 0.6050694585 4292534245
-0.2924757898 -0.1795622110 0.6043511629 4292599784
-0.2925486863 -0.1789353192 0.6045017838 4292599784
-0.2926213443 -0.1783079654 0.6046519876 4292599784
-0.2922726870 -0.1774244756 0.6039314866 4292599784
-0.2923448086 -0.1767970920 0.6040805578 4292600038
-0.2924167216 -0.1761692464 0.6042291522 4292600038
-0.2924884260 -0.1755409390 0.6043772697 4292468452
-0.2925598919 -0.1749121547 0.6045249701 4292468452
-0.2926311493 -0.1742829233 0.6046721935 4292534245
-0.2927021682 -0.1736532301 0.6048189998 4292600038
-0.2923511267 -0.1727737635 0.6040935516 4292600038
-0.2919996381 -0.1718956530 0.6033672690 4292600038
-0.2916477323 -0.1710189134 0.6026401520 4292731111
-0.2917175591 -0.1703901291 0.6027844548 4292665318
-0.2917871773 -0.1697608978 0.6029282808 4292731111
-0.2918565571 -0.1691312045 0.6030716300 4292731111
-0.2915032208 -0.1682572216 0.6023415923 4292796134
-0.2915720642 -0.1676275432 0.6024838090 4292796134
-0.2912180126 -0.1667553931 0.6017522216 4292861927
-0.2912862897 -0.1661257595 0.6018933058 4292796134
-0.2909314632 -0.1652554721 0.6011601090 4292993256
-0.2909992039 -0.1646258533 0.6013000607 4292993256
-0.2910667062 -0.1639957875 0.6014395952 4294956019
-0.2907108366 -0.1631278545 0.6007041931 4294494183
-0.2907777727 -0.1624978334 0.6008425355 4294486486
-0.2904211283 -0.1616317779 0.6001055837 4293302212
-0.2904875278 -0.1610018164 0.6002427936 4294081718
-0.2901301384 -0.1601376534 0.5995043516 4293884339
-0.2901959717 -0.1595077366 0.5996403694 4294603701
-0.2902615964 -0.1588774174 0.5997759104 4294274736
-0.2903269827 -0.1582466513 0.5999110341 4294339502
-0.2903921306 -0.1576154679 0.6000456214 4294405295
-0.2904570401 -0.1569838673 0.6001797915 4294405296
-0.2905217111 -0.1563518345 0.6003134251 4294339503
-0.2905861735 -0.1557193846 0.6004466414 4293815213
-0.2906503975 -0.1550865024 0.6005793214 4293683627
-0.2907143831 -0.1544532180 0.6007115245 4293683112
-0.2903536260 -0.1535949558 0.5999661088 4293485733
-0.2904170752 -0.1529617459 0.6000971794 4294205861
-0.2900555730 -0.1521054357 0.5993502140 4294403240
-0.2901184261 -0.1514723301 0.5994801521 4294338987
-0.2897562087 -0.1506179720 0.5987316370 4294470573
-0.2893935442 -0.1497650594 0.5979822874 4294143404
-0.2894555330 -0.1491325945 0.5981103182 4294209197
-0.2890921235 -0.1482816637 0.5973594189 4294340272
-0.2887283266 -0.1474321783 0.5966076851 4294274479
-0.2892147005 -0.1470165551 0.5976127386 4294208686
-0.2888502479 -0.1461681277 0.5968596339 4294208686
-0.2884853482 -0.1453211755 0.5961056352 4294012077
-0.2881200612 -0.1444756836 0.5953508019 4294012077
-0.2881800234 -0.1438441277 0.5954747200 4293947311
-0.2878139913 -0.1430006474 0.5947183371 4294078897
-0.2878733873 -0.1423692405 0.5948410630 4294145460
-0.2879325151 -0.1417374462 0.5949633121 4294408632
-0.2875654101 -0.1408965290 0.5942047834 4294214074
-0.2876240015 -0.1402648985 0.5943258405 4294543039
-0.2876823545 -0.1396328807 0.5944464207 4294676165
-0.2877404690 -0.1390004903 0.5945664644 4294939337
-0.2877983451 -0.1383676976 0.5946860313 4294743498
-0.2878559828 -0.1377345324 0.5948051214 4294677705
-0.2879133523 -0.1371009946 0.5949237347 4294546891
-0.2879705131 -0.1364670694 0.5950418115 4294612684
-0.2876006961 -0.1356315464 0.5942776203 4294810063
-0.2880840600 -0.1351981014 0.5952764153 4294810063
-0.2881404757 -0.1345630586 0.5953930020 4294744527
-0.2881966531 -0.1339276284 0.5955091119 4294810320
-0.2882525921 -0.1332918406 0.5956246853 4294876114
-0.2878811359 -0.1324591488 0.5948571563 4294941907
-0.2879365087 -0.1318235695 0.5949715376 4294942164
-0.2884188890 -0.1313822567 0.5959683061 4294942164
-0.2884738445 -0.1307449937 0.5960818529 4294811861
-0.2881011069 -0.1299146265 0.5953116417 4294746068
-0.2881554663 -0.1292775869 0.5954239964 4294942420
-0.2882095873 -0.1286401898 0.5955358148 4294876627
-0.2878357768 -0.1278125048 0.5947633982 4294940881
-0.2878893316 -0.1271753460 0.5948740840 4294611402
-0.2875148058 -0.1263497919 0.5941001177 4294476993
-0.2875677645 -0.1257128716 0.5942096114 4294082235
-0.2876204848 -0.1250755936 0.5943185687 4294540219
-0.2876729667 -0.1244379580 0.5944269896 4294342840
-0.2872970402 -0.1236157566 0.5936502218 4294473143
-0.2869206965 -0.1227951050 0.5928725600 4294407350
-0.2869722843 -0.1221583337 0.5929791331 4294472116
-0.2870236039 -0.1215212271 0.5930851698 4294537909
-0.2870746851 -0.1208837703 0.5931907296 4294668982
-0.2871254981 -0.1202459782 0.5932957530 4294603189
-0.2871760726 -0.1196078509 0.5934002399 4294144944
-0.2872264087 -0.1189693809 0.5935042500 4294210737
-0.2872764766 -0.1183305830 0.5936077237 4294276017
-0.2873263061 -0.1176914498 0.5937106609 4294210224
-0.2873758674 -0.1170519814 0.5938130617 4294341040
-0.2874251604 -0.1164121851 0.5939149261 4294275247
-0.2874742448 -0.1157720610 0.5940163136 4294340272
-0.2875230312 -0.1151316091 0.5941171646 4294340272
-0.2880007923 -0.1146617159 0.5951043963 4294340272
-0.2880491614 -0.1140196547 0.5952043533 4294274479
-0.2880972922 -0.1133772731 0.5953037739 4294208943
-0.2881451249 -0.1127345711 0.5954026580 4294274736
-0.2881927490 -0.1120915487 0.5955010056 4294274736
-0.2882400751 -0.1114482135 0.5955988169 4294208943
-0.2882871628 -0.1108045578 0.5956960917 4294077870
-0.2883339822 -0.1101605892 0.5957928896 4293946284
-0.2879507840 -0.1093530878 0.5950010419 4293029284
-0.2879970372 -0.1087094545 0.5950965881 4293489835
-0.2880430222 -0.1080655158 0.5951915979 4293691064
-0.2876587510 -0.1072609350 0.5943976045 4294743752
-0.2877041698 -0.1066173390 0.5944914222 4294684376
-0.2877492905 -0.1059734449 0.5945847034 4294949604
-0.2873640060 -0.1051717997 0.5937885642 4293711084
-0.2874085605 -0.1045282632 0.5938805938 4293908463
-0.2874528468 -0.1038844287 0.5939721465 4292796653
-0.2874968648 -0.1032402962 0.5940631032 4292796653
-0.2875406444 -0.1025958657 0.5941535830 4293058285
-0.2875841558 -0.1019511446 0.5942434669 4293058285
-0.2876273990 -0.1013061330 0.5943328738 4292730860
-0.2872397602 -0.1005101353 0.5935318470 4292730860
-0.2872824371 -0.0998655111 0.5936200023 4292731373
-0.2873248160 -0.0992205963 0.5937076211 4292731373
-0.2873669565 -0.0985754058 0.5937947035 4292993517
-0.2869779468 -0.0977831036 0.5929908156 4292927724
-0.2870194912 -0.0971383080 0.5930767059 4292993262
-0.2870607674 -0.0964932367 0.5931620002 4292993262
-0.2871018052 -0.0958478898 0.5932467580 4292862446
-0.2871425748 -0.0952022597 0.5933309793 4292862446
-0.2871830761 -0.0945563614 0.5934146643 4292928239
-0.2872233093 -0.0939101875 0.5934978127 4292862446
-0.2872632742 -0.0932637453 0.5935804248 4292994032
-0.2873029709 -0.0926170349 0.5936624408 4292928239
-0.2877738476 -0.0921081528 0.5946354270 4292928239
-0.2878130674 -0.0914599374 0.5947164893 4292994032
-0.2874204814 -0.0906753093 0.5939052701 4292928752
-0.2874591053 -0.0900275335 0.5939850807 4292928752
-0.2879291773 -0.0895137116 0.5949563980 4292994545
-0.2879673243 -0.0888644457 0.5950352550 4292928752
-0.2880052328 -0.0882149264 0.5951135159 4292862709
-0.2880428433 -0.0875651538 0.5951912999 4292994295
-0.2880802155 -0.0869151205 0.5952684879 4292796914
-0.2876853347 -0.0861355066 0.5944525599 4292665328
-0.2877221107 -0.0854859501 0.5945284963 4292862707
-0.2877585888 -0.0848361477 0.5946038961 4293191672
-0.2877948284 -0.0841860995 0.5946787596 4293191674
-0.2878307700 -0.0835357979 0.5947530866 4292665330
-0.2878664732 -0.0828852654 0.5948268175 4292270572
-0.2879018784 -0.0822344869 0.5949000120 4292007400
-0.2879370153 -0.0815834627 0.5949726105 4291547363
-0.2879719138 -0.0809322074 0.5950446725 4291349984
-0.2880065143 -0.0802807137 0.5951161981 4291284191
-0.2880408466 -0.0796289891 0.5951871276 4291349984
-0.2885074317 -0.0790956169 0.5961512923 4291481571
-0.2885412872 -0.0784424469 0.5962212086 4291547364
-0.2885748446 -0.0777890533 0.5962905288 4292138982
-0.2886081338 -0.0771354288 0.5963593721 4292599533
-0.2895066440 -0.0767109096 0.5982159376 4293060084
-0.2899722755 -0.0761685595 0.5991781354 4293257463
-0.2900049090 -0.0755113289 0.5992455482 4293454585
-0.2904701233 -0.0749655887 0.6002068520 4293586171
-0.2909351885 -0.0744176731 0.6011677980 4293651194
-0.2909670770 -0.0737578124 0.6012336612 4293453815
-0.2914317250 -0.0732065141 0.6021937728 4293519608
-0.2918961644 -0.0726530403 0.6031535268 4293519608
-0.2923604548 -0.0720973834 0.6041128635 4293585142
-0.2923913598 -0.0714337230 0.6041767001 4293650935
-0.2932884395 -0.0709795430 0.6060303450 4293650935
-0.2937521338 -0.0704173595 0.6069885492 4293585142
-0.2942156494 -0.0698530003 0.6079463363 4293650422
-0.2946789563 -0.0692864656 0.6089037061 4293650422
-0.2951420844 -0.0687177628 0.6098606586 4294436601
-0.2956050336 -0.0681468844 0.6108171940 4294370808
-0.2960677445 -0.0675738305 0.6117733717 4294764025
-0.2965302765 -0.0669986159 0.6127291322 4293250786
-0.2974261940 -0.0665181950 0.6145803332 4294280889
-0.2978883684 -0.0659376532 0.6155353189 4294149303
-0.2983503342 -0.0653549433 0.6164898872 4293952696
-0.2988120914 -0.0647700727 0.6174440384 4293623731
-0.2988398969 -0.0640900135 0.6175015569 4294476217
-0.2993012071 -0.0635017976 0.6184547544 4294344631
-0.2993285060 -0.0628203750 0.6185111403 4294018487
-0.2997893393 -0.0622288287 0.6194633842 4294281659
-0.3002499938 -0.0616351180 0.6204152107 4293629119
-0.3011443317 -0.0611273311 0.6222632527 4294484428
-0.3011706173 -0.0604412258 0.6223175526 4294949091
-0.3016305864 -0.0598410442 0.6232680082 4294952175
-0.3016563356 -0.0591535941 0.6233211756 4294959092
-0.3021158278 -0.0585500933 0.6242706776 4294960634
-0.2855097950 -0.2183932513 0.5913142562 4292798193
-0.2851825655 -0.2174866796 0.5906364918 4289970400
-0.2852677107 -0.2168951929 0.5908128619 4289115091
-0.2853526771 -0.2163031548 0.5909888148 4286550479
-0.2854374647 -0.2157106102 0.5911644101 4283524001
-0.2855220735 -0.2151175290 0.5913396478 4282076579
-0.2860198319 -0.2148343772 0.5923705101 4282602923
-0.2861041725 -0.2142393738 0.5925452709 4282538405
-0.2861883640 -0.2136438638 0.5927196145 4282275233
-0.2862723470 -0.2130478173 0.5928935409 4282669733
-0.2863561511 -0.2124512494 0.5930671096 4284248765
-0.2876815796 -0.2127725929 0.5958121419 4288590573
-0.2865232229 -0.2112565339 0.5934131145 4291090687
-0.2866064608 -0.2106584013 0.5935855508 4292078591
-0.2866895199 -0.2100597471 0.5937575698 4292012799
-0.2871868014 -0.2097632587 0.5947874784 4288989667
-0.2872696221 -0.2091626823 0.5949589610 4287147463
-0.2877668738 -0.2088625580 0.5959888101 4285968061
-0.2882641852 -0.2085601836 0.5970187783 4286494405
-0.2883466482 -0.2079563290 0.5971895456 4288533988
-0.2884289026 -0.2073519528 0.5973599553 4290047227
-0.2885110080 -0.2067470551 0.5975299478 4290899966
-0.2885928750 -0.2061416507 0.5976995826 4289386727
-0.2886745930 -0.2055357397 0.5978687406 4286757826
-0.2887560725 -0.2049292922 0.5980375409 4286297275
-0.2888373733 -0.2043223530 0.5982059240 4285179055
-0.2889184952 -0.2037148923 0.5983739495 4285705399
-0.2885835767 -0.2028146833 0.5976802707 4287480783
-0.2886641920 -0.2022070736 0.5978472233 4289586159
-0.2887445688 -0.2015989572 0.5980137587 4291622143
-0.2888247967 -0.2009903342 0.5981798172 4291885311
-0.2889047861 -0.2003812045 0.5983455181 4290700016
-0.2889845967 -0.1997715682 0.5985108614 4289318363
-0.2890641987 -0.1991614252 0.5986757278 4286888133
-0.2891436219 -0.1985507905 0.5988401771 4286230203
-0.2892228365 -0.1979396492 0.5990042090 4288137173
-0.2897186875 -0.1976123303 0.6000311971 4290637307
-0.2897976041 -0.1969992965 0.6001946330 4292340991
-0.2898763418 -0.1963857710 0.6003576517 4292143612
-0.2899548411 -0.1957717389 0.6005203128 4291878120
-0.2900331616 -0.1951572150 0.6006824970 4291812327
-0.2901112735 -0.1945421845 0.6008442640 4292074983
-0.2901891470 -0.1939266622 0.6010055542 4292206569
-0.2902668417 -0.1933106482 0.6011664867 4292271589
-0.2903443575 -0.1926941425 0.6013270020 4292337382
-0.2904216349 -0.1920771301 0.6014870405 4292600038
-0.2900807261 -0.1911841631 0.6007809639 4292600038
-0.2905755639 -0.1908416450 0.6018058658 4292731111
-0.2902340293 -0.1899494678 0.6010984778 4292665318
-0.2903103828 -0.1893313974 0.6012566090 4292534245
-0.2903864980 -0.1887128353 0.6014142632 4292534245
-0.2908809483 -0.1883648038 0.6024383307 4292468198
-0.2909567952 -0.1877443790 0.6025953889 4292468198
-0.2910324037 -0.1871234775 0.6027519703 4292337384
-0.2915266454 -0.1867704242 0.6037756205 4292337384
-0.2916019559 -0.1861476600 0.6039316058 4292665831
-0.2916770279 -0.1855244040 0.6040870547 4292665831
-0.2917518914 -0.1849006712 0.6042421460 4292599784
-0.2918265462 -0.1842764467 0.6043967605 4292533991
-0.2914816141 -0.1833878905 0.6036823392 4292533991
-0.2915557325 -0.1827636212 0.6038358212 4292533991
-0.2916296124 -0.1821388751 0.6039888859 4292534245
-0.2917033136 -0.1815136522 0.6041415334 4292534245
-0.2913569510 -0.1806276888 0.6034241915 4292402659
-0.2918500304 -0.1802617908 0.6044453979 4292336866
-0.2915030420 -0.1793766767 0.6037267447 4292336612
-0.2915757596 -0.1787504703 0.6038773656 4292336612
-0.2916482687 -0.1781238019 0.6040275097 4292402146
-0.2917205393 -0.1774966568 0.6041771770 4292402146
-0.2913721502 -0.1766141951 0.6034556031 4292402146
-0.2914438844 -0.1759870350 0.6036041975 4292402146
-0.2915153801 -0.1753594130 0.6037523150 4292402659
-0.2915866971 -0.1747313142 0.6038999557 4292402659
-0.2916577458 -0.1741027683 0.6040471792 4292533732
-0.2917286158 -0.1734737605 0.6041939259 4292467939
-0.2917992473 -0.1728442907 0.6043401957 4292467939
-0.2918696404 -0.1722143739 0.6044859886 4292533732
-0.2915185690 -0.1713363975 0.6037588716 4292533732
-0.2915884256 -0.1707064807 0.6039035320 4292467939
-0.2916580439 -0.1700761020 0.6040477753 4292664548
-0.2913058996 -0.1692004055 0.6033183932 4292664548
-0.2909533083 -0.1683260947 0.6025881767 4292664548
-0.2910220623 -0.1676962078 0.6027305722 4292730341
-0.2910905778 -0.1670658588 0.6028724909 4292730082
-0.2907369435 -0.1661938578 0.6021400690 4292664289
-0.2908049226 -0.1655635387 0.6022808552 4292730082
-0.2908726633 -0.1649327874 0.6024211645 4292532703
-0.2905179262 -0.1640631258 0.6016864777 4294229215
-0.2905851305 -0.1634324044 0.6018256545 4292584390
-0.2902296484 -0.1625646204 0.6010894179 4293361845
-0.2902962863 -0.1619339436 0.6012274623 4292901294
-0.2899400592 -0.1610680372 0.6004896760 4293816495
-0.2900061607 -0.1604374200 0.6006265879 4293882288
-0.2900720239 -0.1598063558 0.6007629633 4294143151
-0.2897147238 -0.1589428484 0.6000229716 4293748393
-0.2897800207 -0.1583118588 0.6001582146 4294404013
-0.2898451090 -0.1576804370 0.6002929807 4294272427
-0.2899099588 -0.1570485979 0.6004273295 4293944745
-0.2899745703 -0.1564163417 0.6005611420 4293813159
-0.2904623747 -0.1560110748 0.6015713811 4293813158
-0.2905265987 -0.1553770453 0.6017044783 4293944744
-0.2901670337 -0.1545170248 0.6009597182 4294468517
-0.2902306914 -0.1538830847 0.6010916233 4294271138
-0.2898703814 -0.1530250013 0.6003453135 4293616807
-0.2899335027 -0.1523911506 0.6004760861 4293616807
-0.2895724177 -0.1515350193 0.5997282267 4293878951
-0.2892109156 -0.1506803334 0.5989795327 4293878951
-0.2896972895 -0.1502671242 0.5999869108 4293944231
-0.2889108956 -0.1491943896 0.5983582139 4293944231
-0.2889725864 -0.1485612839 0.5984859467 4294075817
-0.2886095941 -0.1477105469 0.5977341533 4294075817
-0.2886706889 -0.1470775604 0.5978606939 4294141610
-0.2883069515 -0.1462288052 0.5971074104 4294273196
-0.2883675098 -0.1455959529 0.5972327590 4294340272
-0.2880030274 -0.1447491944 0.5964779258 4294603444
-0.2876381576 -0.1439039111 0.5957221985 4294801334
-0.2876977921 -0.1432717294 0.5958457589 4294933434
-0.2873321772 -0.1424284577 0.5950885415 4294933950
-0.2873912752 -0.1417964399 0.5952109098 4294934207
-0.2870249152 -0.1409551948 0.5944521427 4294739648
-0.2870834172 -0.1403233260 0.5945733786 4294937027
-0.2871417105 -0.1396910697 0.5946940780 4294938567
-0.2871997654 -0.1390584260 0.5948143005 4294938824
-0.2872575819 -0.1384253949 0.5949340463 4294807751
-0.2873151302 -0.1377919912 0.5950532556 4294676165
-0.2873724699 -0.1371582150 0.5951719880 4294806470
-0.2874295712 -0.1365240514 0.5952901840 4294740677
-0.2874864042 -0.1358895004 0.5954079628 4294937029
-0.2875429988 -0.1352545917 0.5955251455 4294805443
-0.2875993550 -0.1346192956 0.5956419110 4294870209
-0.2876554728 -0.1339836270 0.5957580805 4294738623
-0.2877113521 -0.1333476007 0.5958738327 4294738110
-0.2877669632 -0.1327111870 0.5959890485 4294738110
-0.2873959541 -0.1318787485 0.5952206254 4294868413
-0.2878775001 -0.1314372718 0.5962179303 4294868413
-0.2879323661 -0.1307997704 0.5963315964 4294345658
-0.2879870236 -0.1301618963 0.5964447856 4294477244
-0.2876147032 -0.1293317825 0.5956736207 4294608830
-0.2876687646 -0.1286941320 0.5957856178 4294674623
-0.2877225876 -0.1280561388 0.5958970785 4294739902
-0.2873491943 -0.1272287220 0.5951237679 4294542523
-0.2874024510 -0.1265909523 0.5952340364 4294607033
-0.2870283127 -0.1257656813 0.5944591761 4294541240
-0.2870809734 -0.1251281500 0.5945683122 4294211505
-0.2871334255 -0.1244902685 0.5946768522 4294079919
-0.2871855795 -0.1238520443 0.5947849154 4294144942
-0.2868100703 -0.1230301112 0.5940071940 4294079149
-0.2864341736 -0.1222097427 0.5932286382 4294012843
-0.2864854336 -0.1215723827 0.5933348536 4294078636
-0.2865364552 -0.1209346801 0.5934405327 4294275501
-0.2865872383 -0.1202966347 0.5935456753 4294275501
-0.2866377532 -0.1196582541 0.5936503410 4294209456
-0.2866880298 -0.1190195382 0.5937544107 4294209456
-0.2867380381 -0.1183804795 0.5938580036 4294143661
-0.2867878079 -0.1177410930 0.5939611197 4294077868
-0.2868373096 -0.1171013787 0.5940636396 4294077868
-0.2868865728 -0.1164613292 0.5941656828 4294077868
-0.2869355977 -0.1158209518 0.5942671895 4294077870
-0.2874126732 -0.1153521538 0.5952552557 4294209456
-0.2874612510 -0.1147101671 0.5953558683 4294012847
-0.2875095606 -0.1140678525 0.5954559445 4293947054
-0.2875576317 -0.1134252176 0.5955554843 4293815979
-0.2876054347 -0.1127822623 0.5956544876 4293750186
-0.2876529992 -0.1121389791 0.5957529545 4293750700
-0.2872715294 -0.1113292202 0.5949628949 4293816493
-0.2873184979 -0.1106862724 0.5950601697 4293816495
-0.2873651981 -0.1100430042 0.5951569080 4293750702
-0.2869826853 -0.1092361435 0.5943647027 4294013358
-0.2870288193 -0.1085932106 0.5944602489 4293815979
-0.2866455615 -0.1077886075 0.5936664939 4293880489
-0.2866911292 -0.1071460247 0.5937608480 4294012075
-0.2867363989 -0.1065031365 0.5938546062 4293623988
-0.2867814302 -0.1058599427 0.5939478874 4294939848
-0.2863968015 -0.1050589383 0.5931513309 4293511138
-0.2860118151 -0.1042595580 0.5923539400 4294695412
-0.2860559225 -0.1036173850 0.5924453139 4292469230
-0.2865293622 -0.1031295434 0.5934258103 4292469230
-0.2865730226 -0.1024858207 0.5935162902 4292926958
-0.2861867249 -0.1016891152 0.5927162170 4292992751
-0.2862297893 -0.1010457724 0.5928053856 4292795885
-0.2862726152 -0.1004021391 0.5928940773 4292795885
-0.2858852744 -0.0996084362 0.5920918584 4292665580
-0.2859275043 -0.0989651904 0.5921792984 4292665580
-0.2859694660 -0.0983216688 0.5922662616 4292796653
-0.2860111892 -0.0976778641 0.5923526287 4292796653
-0.2856224775 -0.0968878642 0.5915476084 4292796653
-0.2856636047 -0.0962444618 0.5916327238 4292796653
-0.2857044637 -0.0956007913 0.5917173624 4292862446
-0.2857450545 -0.0949568376 0.5918014646 4292862446
-0.2857853770 -0.0943126157 0.5918849707 4292862446
-0.2858254611 -0.0936681256 0.5919679999 4292796653
-0.2858652472 -0.0930233598 0.5920504332 4292797166
-0.2859047949 -0.0923783258 0.5921323299 4292731373
-0.2863747180 -0.0918711796 0.5931055546 4292796912
-0.2864137888 -0.0912246406 0.5931864977 4292862705
-0.2864525914 -0.0905778334 0.5932668447 4292862705
-0.2864911556 -0.0899307728 0.5933466554 4292862705
-0.2865294218 -0.0892834514 0.5934259295 4292862959
-0.2865674198 -0.0886358693 0.5935046673 4292797166
-0.2866051793 -0.0879880264 0.5935828090 4292731123
-0.2862116098 -0.0872085914 0.5927677155 4292928502
-0.2862487435 -0.0865612254 0.5928446651 4293125879
-0.2862856388 -0.0859135985 0.5929210782 4293125879
-0.2858910561 -0.0851373151 0.5921038389 4292665328
-0.2859273553 -0.0844901651 0.5921790004 4292073191
-0.2859633565 -0.0838427767 0.5922536254 4291481056
