VERSION 0.7
FIELDS x y z rgba
SIZE 4 4 4 4
TYPE F F F U
COUNT 1 1 1 1
WIDTH 920
HEIGHT 1
VIEWPOINT 0.0 0.0 0.0 1.0 0.0 0.0 0.0
POINTS 920
DATA ascii
-0.2805614769 -0.1633931100 0.5757681131 4291087575
-0.2806285024 -0.1627922654 0.5759056807 4291087575
-0.2806952894 -0.1621909887 0.5760427117 4291153368
-0.2807618678 -0.1615892798 0.5761793852 4291153368
-0.2808282375 -0.1609871536 0.5763155818 4291153623
-0.2808943987 -0.1603845954 0.5764513016 4291153623
-0.2809603214 -0.1597816050 0.5765866041 4291087830
-0.2810260355 -0.1591781974 0.5767214894 4291087830
-0.2810915112 -0.1585743725 0.5768558979 4291087830
-0.2811568081 -0.1579701155 0.5769898295 4291087830
-0.2812218666 -0.1573654413 0.5771233439 4291350747
-0.2812866867 -0.1567603499 0.5772564411 4291350747
-0.2813513279 -0.1561548412 0.5773890615 4291613919
-0.2814157009 -0.1555489153 0.5775212049 4291416540
-0.2814798951 -0.1549425721 0.5776528716 4291021269
-0.2815438509 -0.1543358266 0.5777841210 4291481820
-0.2816075683 -0.1537286490 0.5779149532 4290231753
-0.2816710770 -0.1531210691 0.5780452490 4286284173
-0.2817343771 -0.1525130868 0.5781751275 4280625461
-0.2817974389 -0.1519046873 0.5783045888 4279704359
-0.2818602622 -0.1512958854 0.5784335136 4280230449
-0.2819228768 -0.1506866664 0.5785620213 4280230449
-0.2819852829 -0.1500770450 0.5786900520 4280098863
-0.2820474505 -0.1494670212 0.5788176060 4279440933
-0.2821093798 -0.1488565952 0.5789447427 4279177504
-0.2821711004 -0.1482457668 0.5790714025 4279638055
-0.2822325826 -0.1476345360 0.5791975856 4279769898
-0.2818667591 -0.1468004882 0.5784468651 4280427828
-0.2819277048 -0.1461893916 0.5785719156 4280362035
-0.2824156582 -0.1457984746 0.5795732737 4280427828
-0.2824762464 -0.1451856494 0.5796976089 4287796644
-0.2825365663 -0.1445724517 0.5798214078 4291020501
-0.2821691632 -0.1437410563 0.5790674090 4291612892
-0.2822289467 -0.1431279927 0.5791901350 4291547099
-0.2822885215 -0.1425145417 0.5793123245 4291349720
-0.2823478580 -0.1419007033 0.5794340968 4291547099
-0.2819790542 -0.1410724074 0.5786772966 4291283926
-0.2820378244 -0.1404587179 0.5787978768 4291283926
-0.2820963860 -0.1398446560 0.5789180398 4291415512
-0.2821546793 -0.1392302215 0.5790377259 4288125862
-0.2822127640 -0.1386153996 0.5791569352 4283388766
-0.2822706103 -0.1380001903 0.5792756081 4280296495
-0.2823282182 -0.1373846084 0.5793938637 4279638563
-0.2828141153 -0.1369761825 0.5803909898 4279835942
-0.2828713357 -0.1363589168 0.5805084109 4280296493
-0.2829283476 -0.1357412785 0.5806254148 4279770149
-0.2829850912 -0.1351232678 0.5807418823 4279375391
-0.2834704816 -0.1347086728 0.5817379951 4282533455
-0.2835268378 -0.1340889782 0.5818536282 4287467932
-0.2835829854 -0.1334689260 0.5819688439 4291218133
-0.2832097709 -0.1326475143 0.5812029243 4292073442
-0.2832653522 -0.1320276558 0.5813170075 4291415512
-0.2828913927 -0.1312083304 0.5805495977 4291612891
-0.2829464078 -0.1305886954 0.5806624889 4291612891
-0.2830011845 -0.1299686879 0.5807749033 4291481305
-0.2830557227 -0.1293483227 0.5808867812 4290625996
-0.2831099927 -0.1287276000 0.5809982419 4288257449
-0.2831640542 -0.1281065196 0.5811091661 4286020487
-0.2832178771 -0.1274850965 0.5812195539 4284967798
-0.2837013006 -0.1270558089 0.5822116733 4284967798
-0.2837547064 -0.1264327317 0.5823212266 4286283658
-0.2842378616 -0.1259999275 0.5833128095 4290823375
-0.2842908800 -0.1253751963 0.5834215879 4291612891
-0.2843436301 -0.1247501150 0.5835298896 4291744477
-0.2843961418 -0.1241246909 0.5836376548 4291612891
-0.2840180993 -0.1233120859 0.5828617811 4291876063
-0.2840700448 -0.1226869226 0.5829683542 4292139235
-0.2841217220 -0.1220614165 0.5830745101 4291744477
-0.2841731906 -0.1214355603 0.5831800699 4291679199
-0.2842243910 -0.1208093762 0.5832851529 4291942371
-0.2842753530 -0.1201828495 0.5833897591 4291876578
-0.2847568691 -0.1197371334 0.5843778849 4291613406
-0.2843765318 -0.1189287901 0.5835974216 4291547613
-0.2844267488 -0.1183012575 0.5837004781 4291744992
-0.2844767272 -0.1176733971 0.5838029981 4291941343
-0.2845264673 -0.1170452014 0.5839050412 4291612378
-0.2845759392 -0.1164166853 0.5840066075 4291678171
-0.2846251428 -0.1157878339 0.5841076374 4291546585
-0.2846741378 -0.1151586622 0.5842081308 4290889168
-0.2847228646 -0.1145291626 0.5843080878 4290165445
-0.2847713232 -0.1138993427 0.5844075680 4288783792
-0.2848195434 -0.1132692024 0.5845065713 4287270553
-0.2848675251 -0.1126387417 0.5846049786 4285165177
-0.2849152386 -0.1120079681 0.5847029090 4283980903
-0.2853944898 -0.1115456223 0.5856863856 4282599250
-0.2854417562 -0.1109132618 0.5857834220 4281480769
-0.2854887843 -0.1102805808 0.5858799815 4280888632
-0.2859675586 -0.1098134741 0.5868624449 4280625460
-0.2860141397 -0.1091792136 0.5869581103 4284638833
-0.2860604823 -0.1085446402 0.5870531797 4290823375
-0.2861065865 -0.1079097688 0.5871477723 4291547099
-0.2861523926 -0.1072745845 0.5872418284 4291547099
-0.2861979902 -0.1066390947 0.5873353481 4291612892
-0.2862432897 -0.1060033068 0.5874283314 4291678685
-0.2862883508 -0.1053672209 0.5875208378 4291612892
-0.2863331735 -0.1047308296 0.5876127481 4291612892
-0.2863776982 -0.1040941402 0.5877041817 4291678684
-0.2868546546 -0.1036134362 0.5886830091 4291678684
-0.2868987620 -0.1029751971 0.5887734890 4291678684
-0.2869426012 -0.1023366600 0.5888634324 4291678684
-0.2869861722 -0.1016978323 0.5889528990 4291876063
-0.2870294750 -0.1010587141 0.5890417695 4292007649
-0.2875055373 -0.1005707681 0.5900186896 4292139235
-0.2875483930 -0.0999301150 0.5901066661 4292402407
-0.2875910103 -0.0992891714 0.5901941061 4292599786
-0.2880665064 -0.0987965092 0.5911699533 4292599786
-0.2885419130 -0.0983016342 0.5921455622 4292533991
-0.2885838449 -0.0976579115 0.5922316313 4292599784
-0.2886255085 -0.0970139056 0.5923171639 4292797417
-0.2886669338 -0.0963696241 0.5924021602 4292797417
-0.2887080908 -0.0957250670 0.5924865603 4293323501
-0.2884859741 -0.2053122967 0.5933832526 4292732655
-0.2885676622 -0.2047109455 0.5935512781 4285890183
-0.2886491418 -0.2041091025 0.5937188864 4281151545
-0.2887304425 -0.2035067379 0.5938861370 4282138440
-0.2883935869 -0.2026102245 0.5931932330 4281612096
-0.2876382172 -0.2014221847 0.5916395783 4281480510
-0.2868821919 -0.2002371401 0.5900844932 4281085752
-0.2857071757 -0.1987640858 0.5876676440 4281875268
-0.2845312953 -0.1972957700 0.5852489471 4281217338
-0.2829359472 -0.1955429465 0.5819675326 4281151545
-0.2805022001 -0.1932198703 0.5769615173 4281217338
-0.2797419429 -0.1920568794 0.5753977895 4281217338
-0.2793999314 -0.1911835372 0.5746942759 4281217336
-0.2786384821 -0.1900257170 0.5731281042 4281151543
-0.2782955170 -0.1891558170 0.5724226236 4281282359
-0.2783713639 -0.1885711849 0.5725786090 4281282359
-0.2776083052 -0.1874198616 0.5710091591 4281282359
-0.2776835263 -0.1868360490 0.5711638331 4281282359
-0.2777585685 -0.1862517595 0.5713182092 4281216566
-0.2782530785 -0.1859474480 0.5723353624 4281282359
-0.2779080272 -0.1850817502 0.5716256499 4281348152
-0.2775625587 -0.1842173487 0.5709150434 4281282359
-0.2776367068 -0.1836320460 0.5710675120 4281282359
-0.2772904932 -0.1827693731 0.5703554749 4281348152
-0.2773641348 -0.1821840256 0.5705068707 4281217336
-0.2774375677 -0.1815982163 0.5706579685 4281151543
-0.2770903409 -0.1807376891 0.5699437261 4281217336
-0.2771632671 -0.1801518351 0.5700936913 4281151543
-0.2768152952 -0.1792930514 0.5693780184 4281151543
-0.2768877149 -0.1787071675 0.5695269704 4281085750
-0.2769599259 -0.1781208217 0.5696755052 4281085750
-0.2770319581 -0.1775340289 0.5698236227 4281085750
-0.2771037519 -0.1769467741 0.5699713826 4281151543
-0.2775966227 -0.1766270846 0.5709850788 4281217336
-0.2772468030 -0.1757708937 0.5702655315 4280822578
-0.2781609297 -0.1757147461 0.5721458197 4281085750
-0.2782321572 -0.1751238853 0.5722923279 4280823091
-0.2791465223 -0.1750614494 0.5741730928 4281283642
-0.2804828882 -0.1752585322 0.5769218206 4281217595
-0.2805540264 -0.1746618301 0.5770681500 4288586411
-0.2802029848 -0.1738029122 0.5763460994 4290428615
-0.2802736163 -0.1732061952 0.5764913559 4290823373
-0.2799218297 -0.1723490804 0.5757678151 4290626766
-0.2799919248 -0.1717523634 0.5759119987 4290824145
-0.2800618410 -0.1711551994 0.5760557652 4290955476
-0.2797090113 -0.1703003496 0.5753300190 4291021269
-0.2797783911 -0.1697032005 0.5754727721 4290890196
-0.2794248164 -0.1688501537 0.5747454762 4290890196
-0.2794936597 -0.1682530195 0.5748871565 4290890196
-0.2795623243 -0.1676554382 0.5750283003 4290955989
-0.2796307504 -0.1670574248 0.5751690865 4290955989
-0.2796989679 -0.1664589792 0.5753093958 4290955989
-0.2797669768 -0.1658600867 0.5754492879 4291021782
-0.2798347771 -0.1652607620 0.5755887032 4291021782
-0.2799023390 -0.1646609902 0.5757277608 4291021782
-0.2799697220 -0.1640608013 0.5758662820 4290955989
-0.2800368667 -0.1634601653 0.5760044456 4290955989
-0.2801038325 -0.1628591120 0.5761421323 4290890196
-0.2801705599 -0.1622576118 0.5762794018 4291021782
-0.2802370489 -0.1616556942 0.5764161944 4290955989
-0.2803033590 -0.1610533446 0.5765525699 4290956244
-0.2803694308 -0.1604505777 0.5766884685 4290956244
-0.2804352939 -0.1598473787 0.5768239498 4290956244
-0.2805009484 -0.1592437476 0.5769589543 4290956244
-0.2805663645 -0.1586396992 0.5770935416 4290956244
-0.2806315720 -0.1580352336 0.5772276521 4290956244
-0.2806965709 -0.1574303359 0.5773613453 4291351002
-0.2807613313 -0.1568250209 0.5774945617 4291087830
-0.2808258832 -0.1562193036 0.5776273608 4291219416
-0.2808902264 -0.1556131542 0.5777596831 4290495693
-0.2809543312 -0.1550065875 0.5778915286 4291021269
-0.2810182273 -0.1543996036 0.5780229568 4290692304
-0.2810818851 -0.1537922174 0.5781539083 4288192170
-0.2811453342 -0.1531844139 0.5782843828 4281349698
-0.2812085450 -0.1525762081 0.5784144402 4279704359
-0.2812715471 -0.1519675851 0.5785440207 4280099117
-0.2813343108 -0.1513585448 0.5786731243 4281546563
-0.2813968658 -0.1507491171 0.5788018107 4282138700
-0.2814591825 -0.1501392722 0.5789299607 4283125084
-0.2815212905 -0.1495290250 0.5790576935 4284375151
-0.2815831602 -0.1489183605 0.5791850090 4285427839
-0.2816448212 -0.1483073086 0.5793117881 4286151562
-0.2817062438 -0.1476958543 0.5794380903 4286151562
-0.2817674279 -0.1470839977 0.5795639753 4285625218
-0.2818284035 -0.1464717537 0.5796893835 4283849064
-0.2818891406 -0.1458591074 0.5798143148 4280164656
-0.2819496393 -0.1452460587 0.5799387693 4284375408
-0.2820099294 -0.1446326226 0.5800627470 4290494157
-0.2820699811 -0.1440187842 0.5801863074 4291283927
-0.2817029655 -0.1431876123 0.5794314146 4291349720
-0.2817624509 -0.1425739378 0.5795537829 4291415513
-0.2818217278 -0.1419598609 0.5796756744 4290889169
-0.2818807662 -0.1413454115 0.5797971487 4290231238
-0.2819395661 -0.1407305598 0.5799180865 4290099652
-0.2815708816 -0.1399030387 0.5791597366 4290428617
-0.2816291451 -0.1392883658 0.5792795420 4285691521
-0.2816871703 -0.1386733055 0.5793988705 4280362286
-0.2817449570 -0.1380578727 0.5795177221 4280625458
-0.2818025053 -0.1374420524 0.5796360970 4280756787
-0.2822875381 -0.1370334923 0.5806337595 4280427822
-0.2823446989 -0.1364159882 0.5807513595 4280822580
-0.2828295231 -0.1360038668 0.5817486048 4280954166
-0.2828862965 -0.1353846788 0.5818653703 4280033064
-0.2829428613 -0.1347651184 0.5819817185 4279835685
-0.2829991579 -0.1341451854 0.5820975304 4282270285
-0.2830552459 -0.1335248798 0.5822128654 4287928483
-0.2831110656 -0.1329042166 0.5823277235 4291152340
-0.2827382982 -0.1320830584 0.5815609097 4291283926
-0.2827935517 -0.1314626038 0.5816746354 4291283927
-0.2824200392 -0.1306435317 0.5809063315 4290560204
-0.2824747562 -0.1300232857 0.5810188651 4287994277
-0.2829579711 -0.1295990497 0.5820127726 4283783525
-0.2830122709 -0.1289771497 0.5821245313 4281086012
-0.2830663621 -0.1283548921 0.5822357535 4280099117
-0.2835491598 -0.1279257983 0.5832288265 4279441186
-0.2836028337 -0.1273018867 0.5833392143 4280230702
-0.2836562693 -0.1266776174 0.5834491253 4281678148
-0.2837094665 -0.1260530055 0.5835585594 4289375929
-0.2837624252 -0.1254280210 0.5836674571 4291218133
-0.2838151157 -0.1248027086 0.5837758780 4291612891
-0.2838675678 -0.1241770387 0.5838837624 4291481305
-0.2834902704 -0.1233641133 0.5831076503 4291283926
-0.2835421562 -0.1227386966 0.5832144022 4291283926
-0.2835938036 -0.1221129447 0.5833206773 4291481305
-0.2836452127 -0.1214868501 0.5834263563 4291481306
-0.2836963534 -0.1208604127 0.5835316181 4291349720
-0.2837472856 -0.1202336401 0.5836363435 4291283927
-0.2837979496 -0.1196065322 0.5837405324 4291218134
-0.2838483453 -0.1189790890 0.5838442445 4290625997
-0.2838985324 -0.1183513105 0.5839474201 4289902274
-0.2839484513 -0.1177232042 0.5840501189 4289309623
-0.2839981318 -0.1170947626 0.5841522813 4287993763
-0.2840475440 -0.1164659932 0.5842539668 4286480524
-0.2845271826 -0.1160124019 0.5852404833 4285098871
-0.2841456532 -0.1152074710 0.5844557285 4283388766
-0.2841943204 -0.1145777181 0.5845558643 4282072906
-0.2842427492 -0.1139476523 0.5846554637 4281020218
-0.2842909098 -0.1133172587 0.5847545266 4280230702
-0.2843388617 -0.1126865447 0.5848531127 4279572772
-0.2848173976 -0.1122253016 0.5858374834 4279704358
-0.2848649025 -0.1115929931 0.5859351158 4279967530
-0.2853431702 -0.1111282483 0.5869188905 4280493874
-0.2862524390 -0.1108281761 0.5887891650 4280362288
-0.2862993777 -0.1101920605 0.5888857245 4279375393
-0.2859148383 -0.1093906313 0.5880947113 4283783524
-0.2859611809 -0.1087548509 0.5881900787 4291020754
-0.2860072851 -0.1081187576 0.5882849097 4291547099
-0.2860531509 -0.1074823663 0.5883792639 4291481306
-0.2860987484 -0.1068456620 0.5884730220 4291481306
-0.2861440778 -0.1062086523 0.5885663033 4291547099
-0.2861891687 -0.1055713445 0.5886590481 4291547099
-0.2862339914 -0.1049337387 0.5887512565 4291612892
-0.2862785757 -0.1042958274 0.5888429284 4291612891
-0.2863228917 -0.1036576256 0.5889340639 4291547098
-0.2863669395 -0.1030191258 0.5890246630 4291612891
-0.2864107192 -0.1023803279 0.5891147256 4291612891
-0.2864542603 -0.1017412394 0.5892042518 4291744477
-0.2869296670 -0.1012543589 0.5901821256 4291941856
-0.2869727314 -0.1006137282 0.5902706981 4292073442
-0.2874478102 -0.1001233682 0.5912479162 4292270821
-0.2879227400 -0.0996307954 0.5922247767 4292468200
-0.2879651785 -0.0989873707 0.5923120379 4292533993
-0.2880073190 -0.0983436704 0.5923987627 4292533734
-0.2880492210 -0.0976996794 0.5924849510 4292599527
-0.2880908549 -0.0970554128 0.5925706029 4292796904
-0.2881322205 -0.0964108706 0.5926556587 4292862697
-0.2881733477 -0.0957660452 0.5927402377 4293257708
-0.2875247598 -0.2050967664 0.5927603245 4292863728
-0.2876062393 -0.2044961005 0.5929283500 4287666081
-0.2872705758 -0.2035994232 0.5922363400 4281941061
-0.2873515487 -0.2029986084 0.5924032927 4280888373
-0.2874323428 -0.2023972869 0.5925698280 4280164650
-0.2870956361 -0.2015025765 0.5918756723 4280362029
-0.2863411009 -0.2003170997 0.5903201103 4280296236
-0.2855859101 -0.1991346180 0.5887631774 4281612096
-0.2848300338 -0.1979551464 0.5872049332 4281743682
-0.2836557627 -0.1964893043 0.5847840309 4281348924
-0.2824805975 -0.1950282156 0.5823613405 4281414717
-0.2808865607 -0.1932842731 0.5790750384 4281414717
-0.2797095180 -0.1918336302 0.5766484737 4281348924
-0.2793680131 -0.1909594983 0.5759444237 4281283131
-0.2786077559 -0.1898016632 0.5743771195 4281413947
-0.2782652974 -0.1889309734 0.5736711025 4281413947
-0.2783409953 -0.1883447915 0.5738270879 4281479740
-0.2775791287 -0.1871934533 0.5722564459 4281545533
-0.2772353888 -0.1863266230 0.5715478063 4281479740
-0.2777290642 -0.1860222369 0.5725655556 4281479740
-0.2778037190 -0.1854359210 0.5727195144 4281348924
-0.2774590850 -0.1845703274 0.5720089674 4281283131
-0.2775332332 -0.1839839518 0.5721618533 4281283131
-0.2767685354 -0.1828430295 0.5705853105 4281348924
-0.2768420875 -0.1822574884 0.5707369447 4281348924
-0.2769154310 -0.1816714853 0.5708881617 4281283131
-0.2769885957 -0.1810850203 0.5710390210 4281348922
-0.2766417563 -0.1802245975 0.5703239441 4281283129
-0.2767144144 -0.1796380877 0.5704737306 4281283129
-0.2763668597 -0.1787794232 0.5697572231 4281348922
-0.2768591046 -0.1784636974 0.5707720518 4281283129
-0.2769311666 -0.1778758019 0.5709205866 4281283129
-0.2765826583 -0.1770184338 0.5702021718 4281348922
-0.2774951160 -0.1769667864 0.5720832348 4281414715
-0.2771461010 -0.1761093885 0.5713637471 4281019957
-0.2776380181 -0.1757860184 0.5723778605 4281283129
-0.2777091563 -0.1751949489 0.5725245476 4281151543
-0.2786218822 -0.1751325279 0.5744061470 4281546301
-0.2799557745 -0.1753297150 0.5771561861 4281283388
-0.2800268531 -0.1747328043 0.5773026943 4288389032
-0.2796765268 -0.1738735884 0.5765804648 4290428615
-0.2797470689 -0.1732766628 0.5767259002 4290889166
-0.2798174322 -0.1726792902 0.5768709183 4290692559
-0.2794660628 -0.1718223095 0.5761465430 4290758352
-0.2795358598 -0.1712249368 0.5762904882 4290823890
-0.2791837752 -0.1703697592 0.5755645633 4290823890
-0.2792530656 -0.1697724015 0.5757074356 4290889683
-0.2793221474 -0.1691745967 0.5758498907 4290889683
-0.2793910503 -0.1685763448 0.5759918690 4290890196
-0.2794597149 -0.1679776609 0.5761334896 4290955989
-0.2791059315 -0.1671256870 0.5754041076 4290890196
-0.2791740894 -0.1665270329 0.5755445957 4290890196
-0.2792420089 -0.1659279317 0.5756846666 4290824403
-0.2793097496 -0.1653283834 0.5758242607 4290824403
-0.2793772519 -0.1647284031 0.5759634376 4290824403
-0.2794445455 -0.1641280055 0.5761021972 4290890196
-0.2795116305 -0.1635271609 0.5762404799 4290890196
-0.2795785069 -0.1629258841 0.5763783455 4290890196
-0.2796451449 -0.1623241752 0.5765157938 4290890196
-0.2797116041 -0.1617220342 0.5766527653 4290890196
-0.2797778249 -0.1611194760 0.5767892599 4290890196
-0.2798438370 -0.1605164856 0.5769253969 4290890196
-0.2799096406 -0.1599130630 0.5770609975 4290890196
-0.2799752057 -0.1593092233 0.5771961808 4290890196
-0.2800405622 -0.1587049514 0.5773309469 4290890196
-0.2801057100 -0.1581002623 0.5774652362 4290890196
-0.2801706195 -0.1574951559 0.5775991082 4291087830
-0.2802353203 -0.1568896323 0.5777324438 4290824658
-0.2802998126 -0.1562836766 0.5778654218 4291153110
-0.2803640664 -0.1556773186 0.5779978633 4290758352
-0.2804281116 -0.1550705284 0.5781299472 4290955731
-0.2804919481 -0.1544633359 0.5782614946 4289639871
-0.2805555463 -0.1538557261 0.5783926249 4284375661
-0.2806189060 -0.1532476991 0.5785232782 4280691253
-0.2806820571 -0.1526392549 0.5786534548 4281678149
-0.2807449996 -0.1520304084 0.5787832141 4282467665
-0.2808077037 -0.1514211595 0.5789124966 4285493630
-0.2808701992 -0.1508114934 0.5790413022 4287533213
-0.2809324563 -0.1502014250 0.5791696310 4288059557
-0.2809944749 -0.1495909542 0.5792975426 4288256936
-0.2810562849 -0.1489800662 0.5794249773 4288454315
-0.2811178863 -0.1483687907 0.5795519352 4288322729
-0.2811792195 -0.1477571130 0.5796784163 4288256938
-0.2808148861 -0.1469224244 0.5789272785 4287467422
-0.2808756828 -0.1463108659 0.5790526271 4282796119
-0.2813619375 -0.1459196806 0.5800551176 4280690743
-0.2814223766 -0.1453063935 0.5801796913 4281414464
-0.2814826071 -0.1446927339 0.5803038478 4287072662
-0.2811166644 -0.1438606977 0.5795494318 4290560204
-0.2811763287 -0.1432471722 0.5796723962 4291152341
-0.2812357545 -0.1426332593 0.5797949433 4290954961
-0.2812949717 -0.1420189589 0.5799170136 4289310136
-0.2813539505 -0.1414042711 0.5800386071 4286481037
-0.2814126909 -0.1407891959 0.5801597238 4285099384
-0.2814711928 -0.1401737481 0.5802803636 4288454825
-0.2811029255 -0.1393464506 0.5795211196 4287796895
-0.2815875411 -0.1389416754 0.5805201530 4281546560
-0.2816453576 -0.1383250654 0.5806393623 4280428079
-0.2817029357 -0.1377080828 0.5807580948 4281283131
-0.2817602754 -0.1370907277 0.5808762908 4281414717
-0.2818173766 -0.1364729851 0.5809940696 4282861909
-0.2823013365 -0.1360607147 0.5819917917 4282861909
-0.2823580801 -0.1354412884 0.5821087360 4281809221
-0.2824145555 -0.1348215044 0.5822252035 4280361775
-0.2824708223 -0.1342013329 0.5823411942 4279901224
-0.2825268507 -0.1335807890 0.5824566483 4283651425
-0.2825826108 -0.1329598874 0.5825716257 4289967554
-0.2826381624 -0.1323386133 0.5826861858 4290954449
-0.2822657824 -0.1315177083 0.5819184780 4290099140
-0.2823207676 -0.1308966428 0.5820318460 4285954181
-0.2823755145 -0.1302752197 0.5821446776 4281414977
-0.2824300230 -0.1296534389 0.5822570324 4279704359
-0.2829122841 -0.1292268038 0.5832512975 4280230449
-0.2829664052 -0.1286033541 0.5833628178 4280625207
-0.2830202579 -0.1279795468 0.5834738612 4280756533
-0.2830738723 -0.1273553967 0.5835844278 4280624947
-0.2835555971 -0.1269226074 0.5845775008 4280361775
-0.2836088240 -0.1262968034 0.5846872330 4286414731
-0.2832332850 -0.1254808158 0.5839130878 4290033346
-0.2832859457 -0.1248552427 0.5840216279 4291217620
-0.2833383381 -0.1242293343 0.5841296315 4290757069
-0.2833905220 -0.1236030757 0.5842372179 4291020241
-0.2830136120 -0.1227904260 0.5834602118 4290099652
-0.2830652297 -0.1221644282 0.5835665464 4289770687
-0.2831165791 -0.1215380877 0.5836724043 4288849585
-0.2831676602 -0.1209114045 0.5837777853 4287599518
-0.2832185328 -0.1202843860 0.5838826299 4286546831
-0.2832691371 -0.1196570322 0.5839869976 4285494143
-0.2833195031 -0.1190293357 0.5840908289 4284112490
-0.2833696306 -0.1184013113 0.5841941237 4282928216
-0.2834194899 -0.1177729517 0.5842969418 4281743428
-0.2834691107 -0.1171442643 0.5843992233 4280756533
-0.2839480639 -0.1166917831 0.5853866339 4279835431
-0.2839972675 -0.1160614863 0.5854880810 4279506466
-0.2840462029 -0.1154308617 0.5855889916 4279638565
-0.2836651206 -0.1146262288 0.5848033428 4279967530
-0.2837134898 -0.1139959097 0.5849030614 4280296495
-0.2841915786 -0.1135370359 0.5858886242 4280428081
-0.2842395008 -0.1129051149 0.5859875083 4280428081
-0.2847172916 -0.1124427319 0.5869724751 4280230702
-0.2851949632 -0.1119781137 0.5879572630 4280033321
-0.2856725454 -0.1115112677 0.5889418125 4280296493
-0.2861499786 -0.1110421866 0.5899261236 4280428079
-0.2861969471 -0.1104048565 0.5900229216 4279441184
-0.2862436771 -0.1097672135 0.5901192427 4283915108
-0.2858596146 -0.1089651510 0.5893274546 4290954959
-0.2859057486 -0.1083278432 0.5894225836 4291415513
-0.2859516144 -0.1076902300 0.5895171762 4291415513
-0.2859972417 -0.1070523113 0.5896112323 4291415513
-0.2856118083 -0.1062538251 0.5888166428 4291481306
-0.2856568396 -0.1056162640 0.5889094472 4291547099
-0.2857016325 -0.1049783975 0.5890017748 4291547099
-0.2857461572 -0.1043402329 0.5890935659 4291547098
-0.2857904136 -0.1037017629 0.5891848207 4291547098
-0.2858344316 -0.1030630097 0.5892755389 4291547098
-0.2858781815 -0.1024239510 0.5893657804 4291612891
-0.2859216630 -0.1017846093 0.5894554257 4291678684
-0.2863962054 -0.1012975276 0.5904337764 4291810270
-0.2868706286 -0.1008082330 0.5914118290 4292073442
-0.2869134843 -0.1001660824 0.5915001631 4292205028
-0.2869560719 -0.0995236561 0.5915879011 4292336614
-0.2874299586 -0.0990296304 0.5925648808 4292468200
-0.2874720693 -0.0983856618 0.5926517248 4292533734
-0.2875139415 -0.0977414101 0.5927380323 4292599527
-0.2875555158 -0.0970968828 0.5928237438 4292731111
-0.2875968516 -0.0964520723 0.5929089785 4292731111
-0.2880698144 -0.0959508419 0.5938839912 4293126122
-0.2861485779 -0.2045835406 0.5912770629 4293258486
-0.2862297297 -0.2039844245 0.5914447308 4290692559
-0.2858945429 -0.2030891776 0.5907521248 4287599259
-0.2855589092 -0.2021951675 0.5900586843 4286217606
-0.2856392562 -0.2015962750 0.5902246833 4285625469
-0.2853029072 -0.2007038742 0.5895296335 4285296504
-0.2841328979 -0.1992284805 0.5871120095 4284243816
-0.2833787203 -0.1980490685 0.5855536461 4282730577
-0.2826238871 -0.1968726814 0.5839939117 4281283131
-0.2818683982 -0.1956992894 0.5824328065 4281480510
-0.2806951702 -0.1942402869 0.5800085664 4281348924
-0.2799382508 -0.1930738240 0.5784445405 4281283131
-0.2791807055 -0.1919103712 0.5768791437 4281283131
-0.2788398862 -0.1910359412 0.5761749744 4281283131
-0.2780811489 -0.1898776740 0.5746071339 4281348154
-0.2781570554 -0.1892908961 0.5747639537 4281413947
-0.2769794464 -0.1878536344 0.5723306537 4281479740
-0.2774725258 -0.1875509918 0.5733494759 4281479740
-0.2771296203 -0.1866829693 0.5726409554 4281545533
-0.2776224911 -0.1863776296 0.5736594200 4281545533
-0.2776972055 -0.1857902259 0.5738137960 4281414717
-0.2773533762 -0.1849234402 0.5731033087 4281414717
-0.2774275839 -0.1843359768 0.5732566714 4281414717
-0.2770830393 -0.1834709048 0.5725446939 4281414717
-0.2767380476 -0.1826071441 0.5718318820 4281414717
-0.2768114507 -0.1820200533 0.5719835162 4281414717
-0.2768846452 -0.1814324856 0.5721347332 4281348922
-0.2765386105 -0.1805708706 0.5714197755 4281217336
-0.2761921883 -0.1797105819 0.5707039237 4281217336
-0.2762645781 -0.1791234016 0.5708534718 4281283129
-0.2767560780 -0.1788066924 0.5718690753 4281283129
-0.2768281400 -0.1782177091 0.5720180273 4281348922
-0.2769000232 -0.1776282787 0.5721665621 4281348922
-0.2769717276 -0.1770383716 0.5723146796 4281348922
-0.2774629593 -0.1767153591 0.5733297467 4281019957
-0.2779542208 -0.1763900965 0.5743448138 4281217336
-0.2784454823 -0.1760625988 0.5753599405 4281085750
-0.2780965865 -0.1752035171 0.5746390224 4281480508
-0.2794280350 -0.1754008383 0.5773902535 4281414715
-0.2794990540 -0.1748037189 0.5775369406 4288125601
-0.2795698345 -0.1742061377 0.5776832700 4290560201
-0.2796404064 -0.1736081094 0.5778290629 4290889166
-0.2797107995 -0.1730096340 0.5779744983 4290692559
-0.2793602347 -0.1721514463 0.5772501230 4290758352
-0.2794300914 -0.1715529561 0.5773944855 4290758352
-0.2790788114 -0.1706965715 0.5766686201 4290758352
-0.2791481316 -0.1700980961 0.5768119097 4290758610
-0.2792172730 -0.1694991738 0.5769547224 4290758610
-0.2792861760 -0.1688998193 0.5770971179 4290758610
-0.2793548703 -0.1683000177 0.5772390962 4290824403
-0.2794233859 -0.1676997691 0.5773805976 4290758610
-0.2794916630 -0.1670990735 0.5775216818 4290758610
-0.2795597315 -0.1664979458 0.5776623487 4290758610
-0.2792058289 -0.1656461656 0.5769310594 4290758610
-0.2792733610 -0.1650450677 0.5770706534 4290758610
-0.2793406844 -0.1644435376 0.5772097707 4290824403
-0.2794077992 -0.1638415754 0.5773484111 4290824403
-0.2794747055 -0.1632391661 0.5774866939 4290824403
-0.2795414031 -0.1626363397 0.5776244998 4290824403
-0.2796078622 -0.1620330811 0.5777618289 4290824403
-0.2796741128 -0.1614293903 0.5778987408 4290824403
-0.2797401547 -0.1608252674 0.5780351758 4290824403
-0.2798059881 -0.1602207124 0.5781711936 4290824403
-0.2798715830 -0.1596157402 0.5783067346 4290824403
-0.2795141041 -0.1587701440 0.5775681138 4290824403
-0.2795791924 -0.1581652462 0.5777025819 4290824403
-0.2800670862 -0.1577982754 0.5787107348 4291087317
-0.2797086537 -0.1569541693 0.5779700875 4290889938
-0.2797730863 -0.1563479900 0.5781032443 4290758352
-0.2798372805 -0.1557414085 0.5782358646 4291021524
-0.2799012363 -0.1551344097 0.5783680677 4290560203
-0.2803885639 -0.1547607630 0.5793749690 4286678416
-0.2804521918 -0.1541520059 0.5795064569 4280757046
-0.2805155814 -0.1535428464 0.5796374679 4281151804
-0.2805787623 -0.1529332548 0.5797680616 4281875527
-0.2806417346 -0.1523232758 0.5798981190 4282007113
-0.2807044685 -0.1517128646 0.5800277591 4282532944
-0.2807669640 -0.1511020660 0.5801569223 4282927702
-0.2808292806 -0.1504908502 0.5802856684 4282664531
-0.2808913291 -0.1498792171 0.5804138780 4281940808
-0.2809531689 -0.1492671967 0.5805416703 4281677636
-0.2810147703 -0.1486547589 0.5806689858 4281809222
-0.2806515694 -0.1478182971 0.5799185038 4282269775
-0.2807126343 -0.1472059935 0.5800446868 4285098874
-0.2807734907 -0.1465932876 0.5801703930 4281940808
-0.2808340788 -0.1459801793 0.5802956223 4281480257
-0.2813194394 -0.1455865949 0.5812984705 4281546050
-0.2813796699 -0.1449717730 0.5814229846 4282993496
-0.2810145617 -0.1441385001 0.5806685090 4288520108
-0.2810742557 -0.1435238123 0.5807918310 4290099140
-0.2811337113 -0.1429087371 0.5809147358 4287993763
-0.2811929584 -0.1422932744 0.5810371041 4283980390
-0.2812519670 -0.1416774243 0.5811590552 4281546049
-0.2813107371 -0.1410611868 0.5812804699 4281085498
-0.2813692689 -0.1404445618 0.5814014673 4285033332
-0.2814275622 -0.1398275495 0.5815219283 4288849326
-0.2814856470 -0.1392101645 0.5816419721 4285296761
-0.2815434933 -0.1385923922 0.5817614794 4283059799
-0.2816011012 -0.1379742324 0.5818805099 4282335565
-0.2816584706 -0.1373557001 0.5819990635 4281677635
-0.2817156315 -0.1367367953 0.5821171403 4283125081
-0.2817725241 -0.1361175179 0.5822347403 4285230457
-0.2818291783 -0.1354978532 0.5823518038 4284506734
-0.2818856239 -0.1348778158 0.5824684501 4281809221
-0.2819418311 -0.1342574209 0.5825845599 4280953913
-0.2819977701 -0.1336366385 0.5827001929 4281611843
-0.2820535004 -0.1330154985 0.5828153491 4288322729
-0.2825357914 -0.1325942874 0.5838118792 4289704382
-0.2821642458 -0.1317721158 0.5830441117 4285493630
-0.2826462090 -0.1313482821 0.5840400457 4281348671
-0.2827010453 -0.1307247430 0.5841533542 4280822329
-0.2827556729 -0.1301008314 0.5842661858 4281151294
-0.2828100324 -0.1294765621 0.5843785405 4281282880
-0.2828641534 -0.1288519353 0.5844904184 4281809224
-0.2829180658 -0.1282269508 0.5846017599 4281677635
-0.2829717100 -0.1276016086 0.5847126245 4282203979
-0.2830251157 -0.1269759089 0.5848229527 4280822326
-0.2835058868 -0.1265407205 0.5858163834 4281348670
-0.2831311822 -0.1257234514 0.5850421786 4286217352
-0.2831838727 -0.1250966936 0.5851510167 4289770174
-0.2832362950 -0.1244695932 0.5852593780 4286875282
-0.2832884789 -0.1238421425 0.5853672028 4285033078
-0.2829124331 -0.1230282187 0.5845901370 4283717218
-0.2829640508 -0.1224010289 0.5846967697 4282861909
-0.2830154300 -0.1217734963 0.5848029256 4281875014
-0.2830665410 -0.1211456209 0.5849086046 4281282877
-0.2831174433 -0.1205174029 0.5850137472 4280822326
-0.2835964561 -0.1200702265 0.5860036016 4280230189
-0.2836469114 -0.1194403842 0.5861078501 4279967017
-0.2836971581 -0.1188102067 0.5862116218 4280230189
-0.2837471068 -0.1181796938 0.5863148570 4280493361
-0.2837968469 -0.1175488532 0.5864176154 4280822326
-0.2838463187 -0.1169176772 0.5865198374 4280953912
-0.2838955224 -0.1162861735 0.5866215825 4280822326
-0.2839445174 -0.1156543419 0.5867227316 4280625460
-0.2839932442 -0.1150221899 0.5868234038 4280559667
-0.2840417027 -0.1143897101 0.5869235992 4280362288
-0.2840899229 -0.1137569025 0.5870232582 4280164909
-0.2845671177 -0.1132946610 0.5880092382 4280493872
-0.2850441933 -0.1128301769 0.5889950395 4280625458
-0.2850917876 -0.1121945009 0.5890934467 4280493872
-0.2855685651 -0.1117265150 0.5900785923 4280559665
-0.2860452533 -0.1112562940 0.5910635591 4280691251
-0.2860922515 -0.1106177494 0.5911606550 4279835942
-0.2861389816 -0.1099788919 0.5912572742 4284375659
-0.2857557535 -0.1091755480 0.5904653668 4291020752
-0.2853721082 -0.1083738133 0.5896726847 4291349720
-0.2854179442 -0.1077359393 0.5897673965 4291415513
-0.2854635119 -0.1070977673 0.5898615718 4291415513
-0.2855088413 -0.1064592823 0.5899552107 4291349720
-0.2851238549 -0.1056611314 0.5891596675 4291415513
-0.2851685882 -0.1050230116 0.5892521143 4291415513
-0.2852130532 -0.1043845862 0.5893440247 4291415512
-0.2856875360 -0.1039023474 0.5903244019 4291547098
-0.2857315540 -0.1032623649 0.5904154181 4291481305
-0.2857753336 -0.1026220843 0.5905058384 4291612891
-0.2858188450 -0.1019815207 0.5905957818 4291612891
-0.2862926126 -0.1014932767 0.5915747285 4291744477
-0.2867662609 -0.1010028198 0.5925534368 4292007649
-0.2868091166 -0.1003594473 0.5926419497 4292139235
-0.2868517041 -0.0997157916 0.5927299857 4292270821
-0.2868940532 -0.0990718454 0.5928174853 4292468200
-0.2869361341 -0.0984276161 0.5929044485 4292467941
-0.2869779468 -0.0977831036 0.5929908156 4292467941
-0.2870194912 -0.0971383080 0.5930767059 4292665318
-0.2870607674 -0.0964932367 0.5931620002 4292665318
-0.2875328958 -0.0959918052 0.5941375494 4293060329
-0.2847748697 -0.2040697634 0.5897921920 4292929521
-0.2848557234 -0.2034721971 0.5899595618 4292271591
-0.2849363387 -0.2028741241 0.5901265740 4292533734
-0.2846013308 -0.2019806802 0.5894327164 4292007390
-0.2846814394 -0.2013824582 0.5895986557 4291941597
-0.2847613990 -0.2007837445 0.5897642374 4291612632
-0.2844253182 -0.1998922825 0.5890681744 4290757323
-0.2836728692 -0.1987106949 0.5875098109 4286020227
-0.2829197645 -0.1975321174 0.5859500766 4281480510
-0.2821660042 -0.1963565499 0.5843889713 4281612096
-0.2814115882 -0.1951839924 0.5828264952 4281283131
-0.2806565166 -0.1940144598 0.5812627077 4281283131
-0.2803173065 -0.1931349337 0.5805601478 4281283131
-0.2787277699 -0.1913983822 0.5772681236 4281217338
-0.2783873975 -0.1905240417 0.5765631199 4281348154
-0.2780465782 -0.1896509677 0.5758572817 4281348154
-0.2764544189 -0.1879288256 0.5725597739 4281413947
-0.2773636878 -0.1879086941 0.5744429827 4281413947
-0.2770216167 -0.1870394796 0.5737344623 4281413947
-0.2770964205 -0.1864523590 0.5738894343 4281413947
-0.2775884569 -0.1861446798 0.5749084949 4281283131
-0.2776630223 -0.1855557263 0.5750628710 4281283131
-0.2773196995 -0.1846881658 0.5743518472 4281283131
-0.2773937285 -0.1840991527 0.5745052099 4281283131
-0.2770496905 -0.1832332909 0.5737926960 4281283129
-0.2771232128 -0.1826442331 0.5739449263 4281283129
-0.2767784595 -0.1817800999 0.5732309222 4281283129
-0.2768514752 -0.1811909974 0.5733821392 4281283129
-0.2769243121 -0.1806014180 0.5735329390 4281217849
-0.2765784860 -0.1797394603 0.5728167892 4281152056
-0.2762322724 -0.1788788140 0.5720997453 4281217849
-0.2767229378 -0.1785597652 0.5731158853 4281283642
-0.2772136033 -0.1782384813 0.5741320848 4281414715
-0.2772853971 -0.1776465774 0.5742808580 4281348922
-0.2777760029 -0.1773216873 0.5752968788 4281084980
-0.2782666087 -0.1769945472 0.5763129592 4281282359
-0.2783380151 -0.1763994843 0.5764608979 4281019957
-0.2788285315 -0.1760687381 0.5774767995 4281414715
-0.2797384560 -0.1759995967 0.5793613195 4281414715
-0.2802290916 -0.1756634563 0.5803774595 4287730843
-0.2794609070 -0.1745388359 0.5787864923 4290560201
-0.2795315087 -0.1739397049 0.5789327025 4290954959
-0.2796019316 -0.1733401120 0.5790785551 4290692559
-0.2788322568 -0.1722213328 0.5774845481 4290692559
-0.2793220878 -0.1718811095 0.5784989595 4290692559
-0.2789716125 -0.1710235178 0.5777731538 4290692559
-0.2790409923 -0.1704239249 0.5779168010 4290758610
-0.2791101336 -0.1698238999 0.5780600309 4290758610
-0.2791790664 -0.1692234129 0.5782027841 4290758612
-0.2792478204 -0.1686224937 0.5783451200 4290758612
-0.2793163359 -0.1680211425 0.5784870386 4290692817
-0.2793846428 -0.1674193293 0.5786285400 4290692817
-0.2790318727 -0.1665658504 0.5778979659 4290692817
-0.2790996730 -0.1659640670 0.5780383348 4290758610
-0.2791672349 -0.1653618515 0.5781782866 4290758610
-0.2792345881 -0.1647592038 0.5783177614 4290758610
-0.2788804770 -0.1639085114 0.5775843263 4290758610
-0.2789472938 -0.1633059084 0.5777227879 4290692817
-0.2790139019 -0.1627028584 0.5778607130 4290824658
-0.2790803015 -0.1620993763 0.5779982209 4290824658
-0.2791464925 -0.1614954770 0.5781353116 4290758865
-0.2792124748 -0.1608911306 0.5782719254 4290758865
-0.2792782187 -0.1602863669 0.5784081221 4290758865
-0.2793437541 -0.1596811861 0.5785438418 4290758865
-0.2794090807 -0.1590755731 0.5786791444 4290758865
-0.2790520191 -0.1582301408 0.5779396296 4290758865
-0.2795390487 -0.1578630656 0.5789483190 4290626766
-0.2796037197 -0.1572561711 0.5790822506 4290889938
-0.2792457044 -0.1564122438 0.5783407688 4290889168
-0.2793098390 -0.1558054388 0.5784735680 4290560203
-0.2793737352 -0.1551982164 0.5786059499 4288257448
-0.2798601687 -0.1548244506 0.5796133876 4282204492
-0.2799237370 -0.1542154700 0.5797450542 4281217597
-0.2799870670 -0.1536060870 0.5798761845 4281743941
-0.2800501883 -0.1529962718 0.5800068974 4281611843
-0.2801130712 -0.1523860693 0.5801371932 4281743429
-0.2801757455 -0.1517754346 0.5802669525 4281480257
-0.2806615233 -0.1513927579 0.5812730193 4281414464
-0.2807238400 -0.1507803798 0.5814021230 4281348671
-0.2807859182 -0.1501676142 0.5815306902 4281282878
-0.2808477879 -0.1495544314 0.5816588402 4281414464
-0.2809094191 -0.1489408463 0.5817865133 4281414464
-0.2805470526 -0.1481031477 0.5810359716 4281480259
-0.2801842690 -0.1472668946 0.5802845955 4285954183
-0.2806690037 -0.1468758285 0.5812885761 4285296251
-0.2807296515 -0.1462615579 0.5814141631 4281282878
-0.2807900608 -0.1456468999 0.5815392733 4281282878
-0.2808502316 -0.1450318545 0.5816639066 4281611843
-0.2809101939 -0.1444164068 0.5817880630 4284309356
-0.2809699178 -0.1438005567 0.5819117427 4286612111
-0.2810294032 -0.1431843191 0.5820350051 4283256668
-0.2810886800 -0.1425676942 0.5821577311 4281611843
-0.2811477184 -0.1419506818 0.5822799802 4281677635
-0.2816312909 -0.1415467858 0.5832815170 4280888119
-0.2816899419 -0.1409280598 0.5834029913 4282598737
-0.2813234031 -0.1400973201 0.5826438665 4288717486
-0.2813815176 -0.1394787580 0.5827642083 4287006868
-0.2814393640 -0.1388598233 0.5828840733 4282730323
-0.2814970016 -0.1382405013 0.5830034018 4281413949
-0.2815544009 -0.1376208067 0.5831223130 4281348156
-0.2811861932 -0.1367937773 0.5823596716 4283058774
-0.2812430263 -0.1361742467 0.5824773908 4286414217
-0.2812996507 -0.1355543584 0.5825946331 4285953666
-0.2813560069 -0.1349340826 0.5827113986 4282269258
-0.2814121544 -0.1343134493 0.5828276873 4281809222
-0.2814680636 -0.1336924434 0.5829434395 4281677636
-0.2815237343 -0.1330710500 0.5830587149 4286941076
-0.2820051312 -0.1326496899 0.5840557814 4286283146
-0.2820604146 -0.1320266277 0.5841702819 4281809222
-0.2825416028 -0.1316017061 0.5851668715 4281414464
-0.2825964689 -0.1309769750 0.5852804780 4281348671
-0.2826511264 -0.1303518862 0.5853936672 4281085499
-0.2827055156 -0.1297264248 0.5855063200 4282927703
-0.2827596664 -0.1291006207 0.5856184959 4284046184
-0.2828135788 -0.1284744442 0.5857301354 4285296250
-0.2828672528 -0.1278479099 0.5858412981 4284375148
-0.2829206884 -0.1272210330 0.5859519839 4281611842
-0.2829738557 -0.1265937835 0.5860621333 4280756533
-0.2830268145 -0.1259661913 0.5861717463 4284375148
-0.2830795050 -0.1253382564 0.5862809420 4289046451
-0.2831319571 -0.1247099563 0.5863895416 4283454046
-0.2831841707 -0.1240813136 0.5864977241 4281217084
-0.2828089595 -0.1232661232 0.5857205391 4281217084
-0.2828606069 -0.1226377338 0.5858275294 4281282877
-0.2829119861 -0.1220090017 0.5859339833 4281348670
-0.2829631567 -0.1213799343 0.5860399008 4281348670
-0.2830140591 -0.1207505241 0.5861453414 4281348670
-0.2834922969 -0.1203022227 0.5871358514 4281348670
-0.2835427821 -0.1196711808 0.5872403979 4281414463
-0.2835930288 -0.1190398037 0.5873444676 4281414463
-0.2836430371 -0.1184080914 0.5874480009 4281546049
-0.2836927772 -0.1177760512 0.5875510573 4281282877
-0.2837422788 -0.1171436682 0.5876535177 4281282877
-0.2837915123 -0.1165109649 0.5877555609 4281348670
-0.2838405073 -0.1158779263 0.5878570080 4281282877
-0.2838892639 -0.1152445674 0.5879579782 4281019705
-0.2839377522 -0.1146108806 0.5880584121 4281019705
-0.2839860022 -0.1139768660 0.5881583095 4281151291
-0.2840340137 -0.1133425310 0.5882577300 4281151545
-0.2849386930 -0.1130478680 0.5901314616 4281217338
-0.2849863470 -0.1124109849 0.5902301073 4280954166
-0.2854623199 -0.1119418517 0.5912159085 4281019959
-0.2859382331 -0.1114704907 0.5922015309 4281348924
-0.2859852314 -0.1108307317 0.5922989249 4280493615
-0.2856031656 -0.1100254580 0.5915076137 4284836210
-0.2852206826 -0.1092217863 0.5907154679 4290823373
-0.2848378122 -0.1084197238 0.5899225473 4291349720
-0.2848836184 -0.1077816039 0.5900173187 4291349720
-0.2849291265 -0.1071431711 0.5901116133 4291349720
-0.2849743962 -0.1065044329 0.5902053714 4291349720
-0.2850194275 -0.1058653891 0.5902985930 4291283927
-0.2846348584 -0.1050675735 0.5895021558 4291349720
-0.2846792936 -0.1044288948 0.5895941854 4291415512
-0.2851529121 -0.1039464623 0.5905750990 4291481305
-0.2851969004 -0.1033062264 0.5906661749 4291349719
-0.2852406204 -0.1026656926 0.5907567739 4291481305
-0.2852841020 -0.1020248607 0.5908467770 4291547098
-0.2861867249 -0.1016891152 0.5927162170 4291678684
-0.2862297893 -0.1010457724 0.5928053856 4291941856
-0.2862726152 -0.1004021391 0.5928940773 4292139235
-0.2863151729 -0.0997582227 0.5929822326 4292270821
-0.2863574624 -0.0991140157 0.5930698514 4292402407
-0.2863995135 -0.0984695256 0.5931568742 4292270819
-0.2864412665 -0.0978247449 0.5932433605 4292402405
-0.2864827812 -0.0971796960 0.5933293700 4292665318
-0.2865240276 -0.0965343565 0.5934147835 4292665318
-0.2869952917 -0.0960327238 0.5943908095 4293060329
-0.2836619020 -0.2083205879 0.5888416171 4293324279
-0.2833303511 -0.2074236125 0.5881533623 4293324279
-0.2829983532 -0.2065278441 0.5874642134 4292995314
-0.2830798030 -0.2059343755 0.5876332521 4292863728
-0.2831610739 -0.2053404003 0.5878019333 4292468970
-0.2832421362 -0.2047459185 0.5879702568 4292533993
-0.2837372422 -0.2044493854 0.5889979601 4292402407
-0.2838180661 -0.2038530111 0.5891657472 4291744477
-0.2834842205 -0.2029594034 0.5884727240 4291612891
-0.2835645378 -0.2023628801 0.5886394382 4291941597
-0.2836446464 -0.2017658502 0.5888057947 4291415253
-0.2833097875 -0.2008742094 0.5881106257 4291349460
-0.2833893895 -0.2002770454 0.5882759094 4291283667
-0.2830537856 -0.1993870288 0.5875792503 4291349460
-0.2823026180 -0.1982067674 0.5860198736 4286480778
-0.2815507650 -0.1970295161 0.5844591856 4281414717
-0.2812136412 -0.1961450130 0.5837593675 4281612096
-0.2787986398 -0.1938175112 0.5787461400 4281348924
-0.2805381715 -0.1943797767 0.5823571682 4281283131
-0.2797840536 -0.1932119727 0.5807917118 4281217338
-0.2790292799 -0.1920471787 0.5792249441 4281151545
-0.2786898315 -0.1911707669 0.5785202980 4281282361
-0.2779338956 -0.1900111884 0.5769510269 4281348154
-0.2775934637 -0.1891382188 0.5762444139 4281348154
-0.2768363357 -0.1879838407 0.5746726990 4281348154
-0.2773278058 -0.1876779199 0.5756928921 4281282359
-0.2774027586 -0.1870888323 0.5758484602 4281282359
-0.2774775028 -0.1864992827 0.5760036707 4281151543
-0.2775520682 -0.1859092414 0.5761584640 4281151543
-0.2772096097 -0.1850404739 0.5754475594 4281151543
-0.2772836685 -0.1844503880 0.5756012797 4281151543
-0.2773575187 -0.1838598102 0.5757545829 4281151543
-0.2774311900 -0.1832687706 0.5759075284 4281217336
-0.2770873606 -0.1824025661 0.5751937628 4281283129
-0.2771605253 -0.1818114668 0.5753456354 4281348922
-0.2768159807 -0.1809469908 0.5746303797 4281217849
-0.2764709890 -0.1800838262 0.5739142895 4281086263
-0.2765433192 -0.1794931293 0.5740644336 4281152056
-0.2774511576 -0.1794424504 0.5759490132 4281217849
-0.2775233388 -0.1788490266 0.5760987997 4281348922
-0.2775952816 -0.1782551557 0.5762481689 4281414715
-0.2780852318 -0.1779283732 0.5772652030 4280953394
-0.2785751522 -0.1775993407 0.5782822371 4281282359
-0.2786467373 -0.1770022810 0.5784308314 4281216566
-0.2791365683 -0.1766696423 0.5794476867 4281677117
-0.2800450623 -0.1765987277 0.5813335180 4281546301
-0.2801163197 -0.1759976000 0.5814814568 4287467671
-0.2797685564 -0.1751338392 0.5807595849 4290494408
-0.2794204056 -0.1742714196 0.5800368190 4290889166
-0.2794908285 -0.1736707240 0.5801830292 4290758352
-0.2791419327 -0.1728101075 0.5794587731 4290758352
-0.2787925899 -0.1719508320 0.5787336230 4290626766
-0.2788622081 -0.1713505834 0.5788781047 4290626766
-0.2789315879 -0.1707498878 0.5790221691 4290692817
-0.2790007889 -0.1701487452 0.5791657567 4290758610
-0.2790697515 -0.1695471555 0.5793089271 4290758610
-0.2791385055 -0.1689451188 0.5794516802 4290758610
-0.2792070508 -0.1683426350 0.5795939565 4290693072
-0.2792753875 -0.1677397192 0.5797358155 4290693072
-0.2793435156 -0.1671363413 0.5798772573 4290693072
-0.2794114351 -0.1665325463 0.5800182223 4290693072
-0.2794791460 -0.1659282893 0.5801587701 4290693072
-0.2795466185 -0.1653236002 0.5802989006 4290693072
-0.2787729502 -0.1642230898 0.5786928535 4290693072
-0.2788398266 -0.1636193544 0.5788316131 4290693072
-0.2789064646 -0.1630151868 0.5789699554 4290758865
-0.2789728940 -0.1624105722 0.5791078806 4290758865
-0.2790391147 -0.1618055403 0.5792453289 4290758865
-0.2791050971 -0.1612000763 0.5793823004 4290758865
-0.2791708708 -0.1605941802 0.5795188546 4290693072
-0.2792364359 -0.1599878520 0.5796549916 4290693072
-0.2793017924 -0.1593811065 0.5797906518 4290627279
-0.2789455652 -0.1585344523 0.5790511370 4290627279
-0.2790103555 -0.1579277813 0.5791856647 4291020755
-0.2790749669 -0.1573206782 0.5793197751 4290625997
-0.2791393399 -0.1567131430 0.5794534087 4290560204
-0.2792034745 -0.1561052054 0.5795865655 4289573309
-0.2792674303 -0.1554968357 0.5797193050 4283520353
-0.2793311477 -0.1548880637 0.5798515081 4280559668
-0.2793946266 -0.1542788595 0.5799833536 4281414977
-0.2798800468 -0.1539013833 0.5809909701 4281217598
-0.2799431980 -0.1532904357 0.5811220407 4281480257
-0.2800061107 -0.1526790708 0.5812526941 4282006601
-0.2800688148 -0.1520673037 0.5813828111 4282269773
-0.2805537879 -0.1516835690 0.5823895931 4283256668
-0.2806161344 -0.1510700434 0.5825190544 4283848805
-0.2806782722 -0.1504561305 0.5826479793 4283980391
-0.2807401419 -0.1498418003 0.5827764869 4284309356
-0.2808018327 -0.1492270678 0.5829044580 4284243563
-0.2804402709 -0.1483881176 0.5821539760 4284835702
-0.2800783217 -0.1475506127 0.5814025998 4288191145
-0.2801391184 -0.1469365209 0.5815287828 4288585903
-0.2806229591 -0.1465430558 0.5825331807 4284243565
-0.2806833982 -0.1459272504 0.5826586485 4281677636
-0.2807435989 -0.1453110427 0.5827835798 4282138187
-0.2808035910 -0.1446944326 0.5829080939 4281743429
-0.2808633149 -0.1440774202 0.5830321312 4282203980
-0.2809228599 -0.1434600353 0.5831556916 4282006601
-0.2809821367 -0.1428422481 0.5832787752 4281611843
-0.2810412049 -0.1422240585 0.5834013820 4281217085
-0.2811000049 -0.1416054964 0.5835235119 4282927703
-0.2811586261 -0.1409865469 0.5836451054 4286612111
-0.2812169790 -0.1403672099 0.5837662816 4288914866
-0.2812750936 -0.1397474706 0.5838869214 4283717218
-0.2813329995 -0.1391273737 0.5840071440 4280953912
-0.2813906670 -0.1385068744 0.5841268301 4281940293
-0.2814480960 -0.1378860027 0.5842460394 4282203465
-0.2810806930 -0.1370577216 0.5834833384 4285164150
-0.2811375558 -0.1364370286 0.5836014152 4286677389
-0.2811941803 -0.1358159631 0.5837189555 4284769392
-0.2812505960 -0.1351945102 0.5838360786 4281611328
-0.2813067436 -0.1345726997 0.5839526653 4281940293
-0.2813626826 -0.1339505166 0.5840687752 4282729809
-0.2818434834 -0.1335293502 0.5850667953 4285033078
-0.2818990052 -0.1329054832 0.5851820707 4282796116
-0.2823795974 -0.1324807703 0.5861796737 4281809221
-0.2824347317 -0.1318552196 0.5862941742 4281940807
-0.2824896276 -0.1312293112 0.5864081383 4281611843
-0.2825442851 -0.1306030452 0.5865215659 4285230458
-0.2825987041 -0.1299764067 0.5866345763 4287927971
-0.2826528847 -0.1293494105 0.5867470503 4288783280
-0.2827068269 -0.1287220418 0.5868589878 4288256421
-0.2827605307 -0.1280943304 0.5869704485 4284374634
-0.2828139961 -0.1274662614 0.5870814323 4281348156
-0.2828671932 -0.1268378347 0.5871918797 4281545535
-0.2824940681 -0.1260189712 0.5864173770 4284572527
-0.2825467288 -0.1253907830 0.5865266323 4288520107
-0.2825991213 -0.1247622445 0.5866354108 4283322460
-0.2830775976 -0.1243205890 0.5876286626 4282006600
-0.2827031910 -0.1235041246 0.5868514776 4281677635
-0.2831813395 -0.1230598763 0.5878440142 4281677635
-0.2832328379 -0.1224289984 0.5879509449 4281743428
-0.2832840979 -0.1217977777 0.5880573392 4281677635
-0.2833351195 -0.1211662218 0.5881631970 4281480256
-0.2838126421 -0.1207158417 0.5891545415 4281480256
-0.2838632464 -0.1200826541 0.5892595649 4281480510
-0.2839135826 -0.1194491237 0.5893640518 4281414717
-0.2839636803 -0.1188152581 0.5894680619 4281348156
-0.2840135098 -0.1181810573 0.5895714760 4281348156
-0.2840631306 -0.1175465211 0.5896744728 4281479742
-0.2841124535 -0.1169116572 0.5897768736 4281479742
