VERSION 0.7
FIELDS x y z rgba
SIZE 4 4 4 4
TYPE F F F U
COUNT 1 1 1 1
WIDTH 920
HEIGHT 1
VIEWPOINT 0.0 0.0 0.0 1.0 0.0 0.0 0.0
POINTS 920
DATA ascii
-0.2216602713 -0.1353010833 0.5107733011 4289836229
-0.2220989466 -0.1350002289 0.5117841363 4289704643
-0.2229246497 -0.1349313706 0.5136867762 4289836229
-0.2233634144 -0.1346250921 0.5146978498 4289967817
-0.2241893709 -0.1345489323 0.5166010857 4290230989
-0.2250155061 -0.1344686449 0.5185047984 4290691540
-0.2254544348 -0.1341537237 0.5195161700 4291152091
-0.2262808084 -0.1340661198 0.5214204192 4291481570
-0.2267198116 -0.1337457448 0.5224320292 4291876328
-0.2271587849 -0.1334231198 0.5234435797 4292140005
-0.2272100300 -0.1328715086 0.5235615969 4292534763
-0.2276488841 -0.1325453073 0.5245729089 4291942626
-0.2276998311 -0.1319920123 0.5246902704 4291284696
-0.2277505845 -0.1314383298 0.5248072147 4292863210
-0.2308855504 -0.1851492673 0.5333963037 4291283673
-0.2309535593 -0.1846109927 0.5335534215 4290889685
-0.2310214043 -0.1840722263 0.5337101221 4290758099
-0.2310891002 -0.1835329980 0.5338665247 4291086035
-0.2315355688 -0.1832932830 0.5348979831 4291086035
-0.2308449447 -0.1821540147 0.5333024859 4291086035
-0.2316703647 -0.1822106838 0.5352094173 4291086035
-0.2317375243 -0.1816686839 0.5353645682 4291151828
-0.2314251363 -0.1808297634 0.5346428752 4291415000
-0.2318713665 -0.1805832535 0.5356737375 4291481306
-0.2319380343 -0.1800398380 0.5358277559 4291547099
-0.2316248417 -0.1792021841 0.5351042151 4291612892
-0.2324507236 -0.1792444885 0.5370121598 4291612892
-0.2325170189 -0.1786987782 0.5371653438 4291612892
-0.2325831354 -0.1781525910 0.5373181105 4291678685
-0.2326491028 -0.1776059568 0.5374704599 4291876064
-0.2327148914 -0.1770588458 0.5376225114 4292139236
-0.2327805310 -0.1765112728 0.5377740860 4292336615
-0.2328459918 -0.1759632379 0.5379253626 4292533994
-0.2325307131 -0.1751281172 0.5371969938 4292337129
-0.2329764217 -0.1748657972 0.5382266641 4292073957
-0.2330413908 -0.1743163764 0.5383767486 4292402922
-0.2331061810 -0.1737664938 0.5385264158 4292534508
-0.2331708074 -0.1732161641 0.5386757255 4292468970
-0.2332352549 -0.1726653725 0.5388246179 4292468970
-0.2336807549 -0.1723953635 0.5398538113 4292007649
-0.2337449640 -0.1718427539 0.5400021672 4286875795
-0.2338090241 -0.1712896973 0.5401501656 4282598991
-0.2338728905 -0.1707361788 0.5402977467 4282927956
-0.2339366078 -0.1701822132 0.5404449105 4282730577
-0.2340001315 -0.1696278006 0.5405916572 4282927956
-0.2340634912 -0.1690729260 0.5407380462 4283058770
-0.2341266721 -0.1685176194 0.5408840179 4282927184
-0.2341896892 -0.1679618508 0.5410295725 4282992977
-0.2338703871 -0.1671325415 0.5402919054 4282795598
-0.2339329422 -0.1665767729 0.5404364467 4282335819
-0.2332306355 -0.1654780209 0.5388139486 4281743682
-0.2321453094 -0.1641121060 0.5363066196 4281283131
-0.2306766361 -0.1624817401 0.5329136848 4279901478
-0.2292069942 -0.1608582288 0.5295184255 4280690994
-0.2269708514 -0.1587063074 0.5243524909 4284441195
-0.2254990488 -0.1570983529 0.5209522843 4288256936
-0.2240262628 -0.1554972827 0.5175498128 4289901761
-0.2248508185 -0.1554924548 0.5194547176 4289704130
-0.2237598449 -0.1541636437 0.5169343352 4289572544
-0.2242010981 -0.1538921744 0.5179537535 4289375167
-0.2242590338 -0.1533563137 0.5180875659 4289177788
-0.2243167907 -0.1528200358 0.5182210207 4289177788
-0.2239908278 -0.1520230174 0.5174679756 4289111995
-0.2240481526 -0.1514868289 0.5176004171 4289111995
-0.2241052985 -0.1509502232 0.5177323818 4288980409
-0.2237784266 -0.1501556635 0.5169772506 4289308604
-0.2234511822 -0.1493625194 0.5162212849 4289440190
-0.2231235802 -0.1485708207 0.5154644251 4289308604
-0.2227956057 -0.1477805525 0.5147067308 4289308604
-0.2224672586 -0.1469917297 0.5139482021 4289440960
-0.2217542231 -0.1459514052 0.5123009086 4289506753
-0.2210406363 -0.1449143738 0.5106523633 4289506751
-0.2207110077 -0.1441317499 0.5098908544 4289835716
-0.2219194472 -0.1443512738 0.5126826167 4290164681
-0.2204353511 -0.1428200901 0.5092540383 4290888404
-0.2201047242 -0.1420409083 0.5084902048 4291875810
-0.2201586217 -0.1415105909 0.5086147189 4292796912
-0.2198273540 -0.1407334059 0.5078494549 4293389049
-0.2194957286 -0.1399576962 0.5070832968 4293125877
-0.2195489109 -0.1394280642 0.5072061419 4292007650
-0.2196019143 -0.1388980448 0.5073286295 4288125863
-0.2192693949 -0.1381248981 0.5065603852 4286743697
-0.2193219513 -0.1375950426 0.5066818595 4286809490
-0.2193743289 -0.1370648146 0.5068028569 4288191143
-0.2194265425 -0.1365341991 0.5069234967 4289507003
-0.2194785774 -0.1360032260 0.5070436597 4289441212
-0.2195304185 -0.1354718506 0.5071634650 4289704384
-0.2199680060 -0.1351772696 0.5081743598 4290099399
-0.2204055935 -0.1348804384 0.5091852546 4289507262
-0.2212292552 -0.1348166317 0.5110881329 4289638850
-0.2220531106 -0.1347487271 0.5129914284 4289902022
-0.2224908769 -0.1344432682 0.5140027404 4290099403
-0.2233149856 -0.1343680471 0.5159066319 4290362575
-0.2241392732 -0.1342886984 0.5178108811 4290757333
-0.2249637246 -0.1342052072 0.5197156072 4291086298
-0.2254017293 -0.1338879317 0.5207274556 4291284191
-0.2258397192 -0.1335684061 0.5217393041 4291744742
-0.2262776941 -0.1332466304 0.5227511525 4292074212
-0.2267156541 -0.1329225898 0.5237629414 4292205798
-0.2271535993 -0.1325962991 0.5247746706 4291745245
-0.2272044718 -0.1320427954 0.5248922110 4292403175
-0.2299320996 -0.1854507327 0.5325601101 4291481052
-0.2300000489 -0.1849136502 0.5327174664 4291283673
-0.2296900600 -0.1840733439 0.5319995284 4291086294
-0.2297575921 -0.1835361868 0.5321559310 4290954708
-0.2302029580 -0.1832995564 0.5331874490 4291020244
-0.2302702814 -0.1827605814 0.5333433747 4291086037
-0.2299592197 -0.1819219142 0.5326229334 4291020501
-0.2307827771 -0.1819795221 0.5345304012 4291020501
-0.2308497280 -0.1814382523 0.5346854925 4291086294
-0.2301594168 -0.1803033948 0.5330865979 4291217880
-0.2309831530 -0.1803542823 0.5349944830 4291349720
-0.2310496122 -0.1798115820 0.5351484418 4291415513
-0.2303581685 -0.1786806583 0.5335469246 4291481306
-0.2311820686 -0.1787248105 0.5354552269 4291481306
-0.2312480509 -0.1781807095 0.5356080532 4291547099
-0.2313138545 -0.1776361614 0.5357604623 4291744478
-0.2317588180 -0.1773814559 0.5367910862 4291941857
-0.2318244129 -0.1768350750 0.5369430184 4292139236
-0.2318898439 -0.1762882322 0.5370945334 4292336615
-0.2315754741 -0.1754532903 0.5363664031 4292402408
-0.2316404581 -0.1749064326 0.5365169644 4292469228
-0.2317052931 -0.1743590981 0.5366671085 4292271849
-0.2317699492 -0.1738113165 0.5368168354 4292468715
-0.2322144806 -0.1735471040 0.5378465056 4292468715
-0.2322789133 -0.1729975045 0.5379956961 4292600301
-0.2323431671 -0.1724474430 0.5381445289 4292600301
-0.2324072570 -0.1718969196 0.5382929444 4291547098
-0.2324711680 -0.1713459492 0.5384410024 4285625728
-0.2325349152 -0.1707945317 0.5385886431 4282664530
-0.2325984985 -0.1702426523 0.5387359262 4282664530
-0.2326619029 -0.1696903110 0.5388827920 4282467405
-0.2327251285 -0.1691375375 0.5390292406 4282664784
-0.2327881902 -0.1685843021 0.5391752720 4282927186
-0.2328510880 -0.1680306196 0.5393209457 4283058772
-0.2329138070 -0.1674764901 0.5394662023 4283058770
-0.2329763472 -0.1669219136 0.5396110415 4283190356
-0.2330387086 -0.1663669050 0.5397555232 4282664530
-0.2323378921 -0.1652686745 0.5381323099 4282730323
-0.2312548757 -0.1639031768 0.5356238484 4282664784
-0.2301710844 -0.1625427157 0.5331135988 4281677889
-0.2290865034 -0.1611872613 0.5306015611 4282138186
-0.2268554270 -0.1590336561 0.5254340172 4285888387
-0.2253869772 -0.1574242115 0.5220328569 4288322729
-0.2242996842 -0.1560875624 0.5195145011 4289770175
-0.2239760309 -0.1552859545 0.5187649131 4289704130
-0.2236520201 -0.1544857621 0.5180144310 4289704130
-0.2240924537 -0.1542132944 0.5190345049 4289638339
-0.2245329022 -0.1539385915 0.5200546980 4289572546
-0.2245907784 -0.1534003019 0.5201887488 4289506753
-0.2246484905 -0.1528615952 0.5203223825 4289309374
-0.2247060090 -0.1523224711 0.5204556584 4289177788
-0.2243804634 -0.1515243798 0.5197016001 4289046202
-0.2244375497 -0.1509853452 0.5198338032 4289177018
-0.2241113633 -0.1501891762 0.5190783143 4289242811
-0.2237848043 -0.1493944377 0.5183219910 4289242811
-0.2230745852 -0.1483462453 0.5166770220 4289308604
-0.2246641368 -0.1488251537 0.5203586221 4289505983
-0.2224194407 -0.1467658132 0.5151595473 4289637569
-0.2224749029 -0.1462298930 0.5152879953 4289506751
-0.2206118107 -0.1444375813 0.5109727979 4289572544
-0.2218177468 -0.1446562856 0.5137659311 4289704384
-0.2203370333 -0.1431236416 0.5103363991 4289901763
-0.2200072706 -0.1423432529 0.5095725656 4290888658
-0.2200611830 -0.1418118328 0.5096974373 4291875553
-0.2197307795 -0.1410334557 0.5089321733 4292599787
-0.2194000036 -0.1402565390 0.5081660748 4293060338
-0.2190688699 -0.1394810975 0.5073990822 4293126131
-0.2191217989 -0.1389508992 0.5075216889 4289968067
-0.2187900394 -0.1381774843 0.5067532659 4287335834
-0.2188425362 -0.1376474649 0.5068748593 4287335834
-0.2188948393 -0.1371170580 0.5069960356 4287664799
-0.2189469784 -0.1365862638 0.5071167946 4287796385
-0.2189989239 -0.1360550970 0.5072370768 4288651694
-0.2190507054 -0.1355235577 0.5073570013 4289572796
-0.2191023082 -0.1349916458 0.5074765086 4289572798
-0.2195388824 -0.1346956491 0.5084877014 4289901763
-0.2203607112 -0.1346327960 0.5103911757 4289638848
-0.2207973748 -0.1343313754 0.5114026070 4289967813
-0.2216194570 -0.1342612058 0.5133066773 4290165194
-0.2224417180 -0.1341869086 0.5152111650 4290428366
-0.2240353674 -0.1345717311 0.5189023018 4290823124
-0.2233153880 -0.1335645765 0.5172346830 4291020503
-0.2245237529 -0.1337095052 0.5200334787 4291349468
-0.2253466100 -0.1336196214 0.5219393373 4291744226
-0.2257836759 -0.1332977414 0.5229516625 4292074212
-0.2262207121 -0.1329736114 0.5239639282 4292271591
-0.2266577482 -0.1326472163 0.5249761939 4292732138
-0.2290479094 -0.1852140576 0.5318804383 4291481052
-0.2287388146 -0.1843739450 0.5311626792 4291217880
-0.2291832417 -0.1841408610 0.5321946740 4291020501
-0.2292506695 -0.1836035699 0.5323512554 4290888915
-0.2293179333 -0.1830657870 0.5325074792 4290691536
-0.2290077657 -0.1822273284 0.5317872167 4290691536
-0.2294519991 -0.1819888055 0.5328187943 4290691536
-0.2295187861 -0.1814496070 0.5329738855 4290757329
-0.2292078137 -0.1806124002 0.5322517753 4290823122
-0.2296518981 -0.1803698093 0.5332829952 4290888915
-0.2297182083 -0.1798292100 0.5334369540 4291020755
-0.2294064313 -0.1789932549 0.5327129364 4291152341
-0.2298503518 -0.1787465960 0.5337437987 4291218134
-0.2299161851 -0.1782045960 0.5338966846 4291218134
-0.2296035886 -0.1773699224 0.5331708193 4291349720
-0.2304257303 -0.1774104983 0.5350798965 4291612892
-0.2304911762 -0.1768662184 0.5352318883 4291941857
-0.2305564582 -0.1763214618 0.5353834629 4292139236
-0.2306215763 -0.1757762432 0.5355346799 4292336615
-0.2306865305 -0.1752305627 0.5356855392 4292336615
-0.2307513207 -0.1746844202 0.5358359814 4292469228
-0.2308159322 -0.1741378307 0.5359860063 4292403435
-0.2308803946 -0.1735907644 0.5361356735 4292468715
-0.2305654585 -0.1727591157 0.5354043841 4292402922
-0.2310087979 -0.1724952757 0.5364338756 4292666094
-0.2310727537 -0.1719468534 0.5365824103 4292534508
-0.2311365306 -0.1713979691 0.5367305279 4291218133
-0.2312001586 -0.1708486378 0.5368782282 4286415244
-0.2312635928 -0.1702988446 0.5370255709 4283651938
-0.2313268781 -0.1697486043 0.5371724963 4282862422
-0.2313899845 -0.1691979170 0.5373190641 4282533198
-0.2314529121 -0.1686467677 0.5374651551 4282138440
-0.2315156758 -0.1680951715 0.5376109481 4282335819
-0.2319585234 -0.1678182483 0.5386393070 4282796370
-0.2320210487 -0.1672648489 0.5387844443 4282993749
-0.2320833951 -0.1667110175 0.5389292240 4283125335
-0.2317650020 -0.1658843309 0.5381898880 4282927702
-0.2314462364 -0.1650590301 0.5374496579 4283322460
-0.2307463288 -0.1639645398 0.5358243585 4283256667
-0.2296649665 -0.1626035869 0.5333132744 4282993495
-0.2285828143 -0.1612476707 0.5308004022 4286348938
-0.2271188200 -0.1596289575 0.5274008512 4290493897
-0.2256538570 -0.1580171138 0.5239989758 4291217621
-0.2241879106 -0.1564121544 0.5205948949 4290493898
-0.2238651216 -0.1556093544 0.5198453069 4289967302
-0.2235419601 -0.1548079848 0.5190948844 4289901509
-0.2239815742 -0.1545345336 0.5201156735 4289769925
-0.2240395248 -0.1539964825 0.5202503204 4289638339
-0.2244790941 -0.1537194550 0.5212709904 4289506753
-0.2249186784 -0.1534401625 0.5222917795 4289375167
-0.2249763161 -0.1528990418 0.5224256516 4289243581
-0.2250337750 -0.1523574889 0.5225591063 4289177788
-0.2250910699 -0.1518155336 0.5226921439 4289374397
-0.2247659415 -0.1510163397 0.5219371319 4289308604
-0.2244404256 -0.1502185613 0.5211812258 4289308604
-0.2260267884 -0.1506971568 0.5248649716 4289308604
-0.2226406783 -0.1478651315 0.5170019865 4289440444
-0.2234617025 -0.1478338540 0.5189085007 4289572030
-0.2261966020 -0.1490595639 0.5252593160 4289506751
-0.2235730290 -0.1467538476 0.5191670060 4289572544
-0.2205650359 -0.1442103237 0.5121820569 4289704384
-0.2229176313 -0.1451733559 0.5176450610 4289704384
-0.2202906907 -0.1428942233 0.5115449429 4290493900
-0.2199615091 -0.1421131790 0.5107805729 4290822865
-0.2196319550 -0.1413336098 0.5100153089 4291875553
-0.2193020433 -0.1405555010 0.5092492104 4292796655
-0.2189717740 -0.1397788525 0.5084822774 4292928239
-0.2186411470 -0.1390036941 0.5077145100 4291743965
-0.2186938226 -0.1384729445 0.5078368187 4288059556
-0.2183625698 -0.1376997977 0.5070676208 4286743696
-0.2184147984 -0.1371692270 0.5071889162 4287730591
-0.2184668630 -0.1366382539 0.5073097944 4288125349
-0.2185187340 -0.1361069083 0.5074302554 4287730591
-0.2185704410 -0.1355751902 0.5075502992 4288520107
-0.2186219692 -0.1350430995 0.5076699853 4289178038
-0.2190576196 -0.1347470134 0.5086816549 4289835968
-0.2194932848 -0.1344486922 0.5096932650 4289770177
-0.2199289352 -0.1341481209 0.5107049346 4290099142
-0.2207491845 -0.1340788901 0.5126096606 4290230985
-0.2215695977 -0.1340055317 0.5145147443 4290428364
-0.2223901749 -0.1339280456 0.5164202452 4290823122
-0.2232109308 -0.1338464171 0.5183261633 4291152087
-0.2240318507 -0.1337606609 0.5202324390 4291546847
-0.2244679183 -0.1334418803 0.5212450624 4292073191
-0.2249039710 -0.1331208497 0.5222576261 4292336614
-0.2257252038 -0.1330245435 0.5241646767 4292928751
-0.2277889550 -0.1846723109 0.5303247571 4291350238
-0.2278563678 -0.1841375679 0.5304816961 4291087066
-0.2282997519 -0.1839053184 0.5315139294 4290954451
-0.2283669561 -0.1833687425 0.5316703916 4290757072
-0.2276813537 -0.1822292805 0.5300742388 4290560204
-0.2281244844 -0.1819938570 0.5311058760 4290494411
-0.2281911075 -0.1814567447 0.5312610269 4290428618
-0.2278809249 -0.1806206107 0.5305388570 4290494411
-0.2287006825 -0.1806787699 0.5324473381 4290560204
-0.2287669480 -0.1801393628 0.5326016545 4290560204
-0.2280790657 -0.1790077239 0.5310001373 4290691790
-0.2288989872 -0.1790591478 0.5329090953 4290823376
-0.2289647758 -0.1785183400 0.5330622196 4290954962
-0.2282757759 -0.1773906499 0.5314581394 4291086548
-0.2290958613 -0.1774353236 0.5333673954 4291283927
-0.2291611582 -0.1768931150 0.5335194468 4291547099
-0.2296039313 -0.1766409725 0.5345502496 4291941857
-0.2296690196 -0.1760969609 0.5347017646 4292139236
-0.2297339290 -0.1755524725 0.5348529220 4292336615
-0.2297986895 -0.1750075221 0.5350036621 4292468201
-0.2298632711 -0.1744621098 0.5351540446 4292271849
-0.2299276888 -0.1739162505 0.5353040099 4292337642
-0.2296136767 -0.1730847806 0.5345729589 4292468715
-0.2296776474 -0.1725388914 0.5347219110 4292468715
-0.2301199585 -0.1722759008 0.5357516408 4292666094
-0.2301837057 -0.1717282087 0.5359000564 4292468715
-0.2302473038 -0.1711800545 0.5360481143 4291547868
-0.2303107083 -0.1706314534 0.5361957550 4289047734
-0.2303739637 -0.1700823903 0.5363429785 4286481037
-0.2304370403 -0.1695328802 0.5364898443 4284770419
-0.2304999530 -0.1689829230 0.5366362929 4283520352
-0.2305626869 -0.1684325188 0.5367823839 4282270285
-0.2306252569 -0.1678816676 0.5369280577 4282072393
-0.2306876630 -0.1673303545 0.5370733142 4282269772
-0.2311294079 -0.1670529097 0.5381017923 4282861909
-0.2311915606 -0.1664998084 0.5382465124 4283059288
-0.2312535495 -0.1659462601 0.5383908153 4283322714
-0.2309355289 -0.1651206762 0.5376504064 4283651679
-0.2302372009 -0.1640258133 0.5360245705 4283256667
-0.2295382917 -0.1629341394 0.5343974233 4284177769
-0.2276984304 -0.1610391438 0.5301139951 4290164933
-0.2250969112 -0.1586169600 0.5240572691 4292467688
-0.2281987965 -0.1602124572 0.5312789083 4292730860
-0.2263565063 -0.1583334953 0.5269897580 4292072930
-0.2245130390 -0.1564632654 0.5226979256 4291349466
-0.2241909355 -0.1556588709 0.5219480395 4290954708
-0.2238684446 -0.1548558772 0.5211972594 4290559952
-0.2243072540 -0.1545791924 0.5222188234 4290099401
-0.2247460783 -0.1543002427 0.5232405066 4289770436
-0.2251849324 -0.1540190428 0.5242622495 4289638850
-0.2252426893 -0.1534759104 0.5243966579 4289573059
-0.2256814837 -0.1531911194 0.5254182816 4289441473
-0.2257389873 -0.1526462287 0.5255521536 4289506751
-0.2257963121 -0.1521009058 0.5256856084 4289375165
-0.2250904441 -0.1510431767 0.5240422487 4289309372
-0.2247656137 -0.1502438039 0.5232859850 4289309372
-0.2267306298 -0.1509708166 0.5278608203 4289375165
-0.2237330675 -0.1483961195 0.5208820701 4289440958
-0.2241708189 -0.1481066048 0.5219011903 4289572544
-0.2215526998 -0.1458037496 0.5158058405 4289638337
-0.2231359631 -0.1462685019 0.5194919109 4289638591
-0.2239554673 -0.1462263763 0.5213998556 4289770177
-0.2209524661 -0.1436940879 0.5144084096 4290099142
-0.2202419639 -0.1426623166 0.5127542615 4290296521
-0.2199133635 -0.1418806165 0.5119892359 4291086037
-0.2195844054 -0.1411003768 0.5112233758 4292007139
-0.2192550898 -0.1403216124 0.5104566813 4292401897
-0.2185426801 -0.1393003613 0.5087981224 4292599276
-0.2185953707 -0.1387685090 0.5089207888 4289638588
-0.2182649672 -0.1379941702 0.5081515908 4286217352
-0.2183172256 -0.1374624670 0.5082731843 4285954180
-0.2179861963 -0.1366901696 0.5075025558 4287467419
-0.2180379927 -0.1361586452 0.5076231360 4287928483
-0.2180896252 -0.1356267482 0.5077433586 4287994276
-0.2181410789 -0.1350944787 0.5078631043 4288059557
-0.2181923538 -0.1345618218 0.5079824924 4288783280
-0.2186270058 -0.1342643499 0.5089944005 4289572796
-0.2194453031 -0.1341992319 0.5108995438 4290099140
-0.2198800296 -0.1338963211 0.5119116306 4290297032
-0.2206985950 -0.1338239014 0.5138173699 4290494411
-0.2222851515 -0.1342109442 0.5175110698 4290823890
-0.2215682268 -0.1332049370 0.5158420205 4291218648
-0.2231552899 -0.1335818321 0.5195369124 4291810017
-0.2235903442 -0.1332638860 0.5205497742 4292336361
-0.2244096547 -0.1331717223 0.5224572420 4292665579
-0.2252291292 -0.1330754161 0.5243651271 4293323509
-0.2265998721 -0.1835968941 0.5289240479 4291087066
-0.2270420939 -0.1833663732 0.5299562812 4290822865
-0.2271089852 -0.1828314066 0.5301124454 4290625486
-0.2268002182 -0.1819946468 0.5293917060 4290297032
-0.2272423059 -0.1817600578 0.5304236412 4290099653
-0.2273087204 -0.1812236756 0.5305786729 4289968067
-0.2266233414 -0.1800895184 0.5289788246 4290033860
-0.2274411023 -0.1801495105 0.5308876634 4290033860
-0.2275070548 -0.1796117127 0.5310415626 4290033860
-0.2268205285 -0.1784814894 0.5294391513 4290099653
-0.2276384681 -0.1785347462 0.5313483477 4290165446
-0.2277039438 -0.1779955477 0.5315011740 4290297032
-0.2273927778 -0.1771625876 0.5307748318 4290625997
-0.2282109857 -0.1772082001 0.5326846838 4290954961
-0.2282760888 -0.1766667366 0.5328366756 4291283926
-0.2283410132 -0.1761247963 0.5329881907 4291612891
-0.2284057885 -0.1755823940 0.5331394076 4291810270
-0.2284704000 -0.1750395447 0.5332902074 4291941856
-0.2285348326 -0.1744962186 0.5334406495 4292205028
-0.2289763391 -0.1742395014 0.5344711542 4292402922
-0.2286632359 -0.1734082103 0.5337403417 4292402922
-0.2291046083 -0.1731487662 0.5347706079 4292534508
-0.2291685045 -0.1726027131 0.5349197388 4292534508
-0.2292322218 -0.1720562130 0.5350684524 4292600301
-0.2289180309 -0.1712266952 0.5343350768 4292534508
-0.2289813161 -0.1706801802 0.5344827771 4292402922
-0.2290444225 -0.1701332182 0.5346301198 4291942371
-0.2291073799 -0.1695857942 0.5347770452 4290757582
-0.2295483202 -0.1693168730 0.5358062983 4288191655
-0.2296110392 -0.1687676460 0.5359526873 4285888900
-0.2296735793 -0.1682179719 0.5360986590 4283783524
-0.2297359556 -0.1676678509 0.5362442136 4282533457
-0.2297981530 -0.1671172827 0.5363894105 4281743941
-0.2302388698 -0.1668406725 0.5374181271 4282335565
-0.2303008288 -0.1662883013 0.5375627875 4282467151
-0.2303626239 -0.1657354832 0.5377069712 4282665041
-0.2300452441 -0.1649105549 0.5369662046 4283059799
-0.2297275066 -0.1640869826 0.5362245440 4283257180
-0.2290301919 -0.1629949361 0.5345968604 4286875795
-0.2283323109 -0.1619061083 0.5329678655 4292073443
-0.2253575176 -0.1592122912 0.5260241628 4292994545
-0.2269348204 -0.1597380936 0.5297058821 4293191924
-0.2266148031 -0.1589251310 0.5289589167 4293126131
-0.2247756571 -0.1570523977 0.5246660113 4292994545
-0.2244545072 -0.1562458873 0.5239164233 4292402408
-0.2245128602 -0.1557042599 0.5240526199 4291875810
-0.2249510437 -0.1554247439 0.5250753760 4291283673
-0.2250091583 -0.1548813432 0.5252110362 4290757331
-0.2254472673 -0.1545982361 0.5262337327 4290362573
-0.2258854210 -0.1543128639 0.5272564292 4290099403
-0.2259432077 -0.1537663788 0.5273913145 4289770438
-0.2260008156 -0.1532194614 0.5275257826 4289440958
-0.2264388204 -0.1529291570 0.5285481215 4289440958
-0.2264961749 -0.1523804963 0.5286819935 4289375165
-0.2257918268 -0.1513210535 0.5270379186 4289440958
-0.2273720652 -0.1517904103 0.5307264924 4289440958
-0.2270481139 -0.1509853154 0.5299703479 4289440958
-0.2248185724 -0.1489196271 0.5247662067 4289440958
-0.2241122723 -0.1478705555 0.5231175423 4289638337
-0.2237866521 -0.1470753402 0.5223575234 4289638591
-0.2249860018 -0.1472800821 0.5251570344 4289967556
-0.2219900340 -0.1447431445 0.5181639194 4289835970
-0.2208999991 -0.1434595287 0.5156195760 4290099142
-0.2205724567 -0.1426747739 0.5148550272 4290362314
-0.2198628485 -0.1416455656 0.5131986737 4291020244
-0.2195344716 -0.1408646703 0.5124322176 4292007139
-0.2192057520 -0.1400852352 0.5116648674 4292467690
-0.2184946835 -0.1390641779 0.5100051165 4291612378
-0.2181651443 -0.1382886320 0.5092359185 4288191142
-0.2185995728 -0.1379970908 0.5102499723 4286152072
-0.2178872377 -0.1369823217 0.5085872412 4286152072
-0.2179390639 -0.1364496946 0.5087082386 4286875795
-0.2176082581 -0.1356782317 0.5079360604 4287599518
-0.2176596373 -0.1351457834 0.5080559850 4287731105
-0.2180934548 -0.1348495334 0.5090686083 4287796898
-0.2181445658 -0.1343153864 0.5091878772 4288586414
-0.2185782939 -0.1340155751 0.5102003217 4289441723
-0.2193949223 -0.1339472681 0.5121064186 4290034374
-0.2202116996 -0.1338748485 0.5140129924 4290494925
-0.2210286707 -0.1337982863 0.5159199238 4291087062
-0.2214626521 -0.1334866434 0.5169329047 4291481820
-0.2222798616 -0.1334027499 0.5188404322 4292073443
-0.2230972350 -0.1333147138 0.5207483172 4292599787
-0.2239147872 -0.1332225353 0.5226566195 4292863728
-0.2247324884 -0.1331262141 0.5245652795 4293390072
-0.2260278314 -0.1841971278 0.5289601684 4291481306
-0.2260948271 -0.1836638451 0.5291169286 4291020755
-0.2257872224 -0.1828268766 0.5283970833 4290691789
-0.2262283415 -0.1825958341 0.5294293761 4290428617
-0.2259202152 -0.1817597002 0.5287082791 4289968836
-0.2256117016 -0.1809248626 0.5279862881 4289639871
-0.2260525823 -0.1806906462 0.5290180445 4289310904
-0.2261185348 -0.1801554114 0.5291724205 4289179318
-0.2254341245 -0.1790239513 0.5275707245 4289047732
-0.2266251594 -0.1793805212 0.5303580761 4289047732
-0.2266907394 -0.1788430065 0.5305115581 4289310136
-0.2267561704 -0.1783050150 0.5306646228 4289573308
-0.2264458984 -0.1774722338 0.5299385190 4289902273
-0.2268865407 -0.1772276312 0.5309697390 4290099652
-0.2269514799 -0.1766882539 0.5311217308 4290428615
-0.2270162702 -0.1761483997 0.5312733054 4290691787
-0.2267049253 -0.1753173470 0.5305446982 4291020752
-0.2275214195 -0.1753571779 0.5324555039 4291415510
-0.2275858223 -0.1748150438 0.5326062441 4291678684
-0.2276500612 -0.1742724627 0.5327565670 4291810270
-0.2277141362 -0.1737294197 0.5329065323 4292073443
-0.2281545401 -0.1734721661 0.5339371562 4292336615
-0.2282183915 -0.1729273051 0.5340865850 4292533994
-0.2282820791 -0.1723819971 0.5342356563 4292599787
-0.2283456028 -0.1718362272 0.5343843102 4292731373
-0.2280320525 -0.1710073352 0.5336505175 4292862959
-0.2280951291 -0.1704615653 0.5337981582 4292928752
-0.2281580567 -0.1699153334 0.5339453816 4292994545
-0.2282208055 -0.1693686396 0.5340922475 4292533994
-0.2282833904 -0.1688215137 0.5342386961 4291744478
-0.2283457965 -0.1682739258 0.5343847871 4290033860
-0.2284080386 -0.1677259058 0.5345304608 4287270554
-0.2288477570 -0.1674537510 0.5355594754 4284573041
-0.2289097607 -0.1669039130 0.5357046127 4283125595
-0.2289716005 -0.1663536280 0.5358492732 4282401872
-0.2290332764 -0.1658029109 0.5359936357 4282007114
-0.2290947586 -0.1652517468 0.5361375213 4282994009
-0.2291560918 -0.1647001207 0.5362810493 4282928216
-0.2288389951 -0.1638772041 0.5355389714 4284178029
-0.2285215259 -0.1630556583 0.5347959995 4289704641
-0.2278252393 -0.1619664431 0.5331665277 4292796912
-0.2271283716 -0.1608804613 0.5315356851 4293060084
-0.2256736457 -0.1592632532 0.5281312466 4293060338
-0.2261116654 -0.1589844525 0.5291563869 4293257717
-0.2250343412 -0.1576418281 0.5266351700 4293324026
-0.2247141451 -0.1568332165 0.5258858204 4293389819
-0.2247726172 -0.1562895775 0.5260226727 4293258233
-0.2252100557 -0.1560081542 0.5270463824 4292863475
-0.2256475240 -0.1557244807 0.5280701518 4292402924
-0.2253263295 -0.1549169272 0.5273184776 4291810787
-0.2261430770 -0.1548904479 0.5292298794 4290955478
-0.2265805155 -0.1546009034 0.5302535295 4290297548
-0.2270179540 -0.1543090940 0.5312772989 4290164167
-0.2274554223 -0.1540150195 0.5323010683 4289966788
-0.2275130749 -0.1534624845 0.5324359536 4289769409
-0.2260508835 -0.1518884301 0.5290141106 4289703616
-0.2283878773 -0.1528648585 0.5344831944 4289703616
-0.2257844210 -0.1505352259 0.5283905268 4289769409
-0.2281221002 -0.1515006572 0.5338612795 4289769407
-0.2251365781 -0.1489325166 0.5268744230 4289966786
-0.2270944566 -0.1496372074 0.5314562917 4289900993
-0.2252482325 -0.1478350013 0.5271357298 4290164165
-0.2226397246 -0.1455440819 0.5210311413 4290164681
-0.2211717516 -0.1440093517 0.5175957680 4290164681
-0.2219874561 -0.1439632773 0.5195047259 4290296267
-0.2205182016 -0.1424370408 0.5160663128 4290625232
-0.2201908827 -0.1416530907 0.5153002739 4291546588
-0.2194821537 -0.1406264603 0.5136417150 4292336104
-0.2191540301 -0.1398463696 0.5128737688 4292467690
-0.2188255340 -0.1390677691 0.5121049881 4290033349
-0.2184966654 -0.1382906437 0.5113354325 4288520108
-0.2181674540 -0.1375150084 0.5105649829 4287533213
-0.2178378850 -0.1367408484 0.5097936988 4286217863
-0.2175079435 -0.1359681785 0.5090215802 4286086277
-0.2175593376 -0.1354346126 0.5091418028 4287270805
-0.2176105529 -0.1349006742 0.5092616677 4288520872
-0.2180434465 -0.1346020848 0.5102747679 4288257700
-0.2184763551 -0.1343012452 0.5112878680 4288389286
-0.2189092487 -0.1339981407 0.5123009086 4288783792
-0.2197242677 -0.1339257061 0.5142082572 4289902273
-0.2209216803 -0.1340811253 0.5170105100 4290757329
-0.2202078998 -0.1330753416 0.5153400898 4291152087
-0.2217879593 -0.1334535033 0.5190378428 4291876328
-0.2226035744 -0.1333654672 0.5209465623 4292665844
-0.2238019109 -0.1335014850 0.5237509608 4293192172
-0.2242352664 -0.1331769377 0.5247651339 4293718516
-0.2247755677 -0.1836539805 0.5274003744 4291284441
-0.2248422354 -0.1831223071 0.5275568366 4290889683
-0.2237879485 -0.1816802323 0.5250830650 4290429387
-0.2249751091 -0.1820575297 0.5278685689 4290166215
-0.2246675044 -0.1812229007 0.5271468163 4289837250
-0.2247334421 -0.1806902140 0.5273015499 4289508285
-0.2251732647 -0.1804568321 0.5283335447 4289113525
-0.2252390087 -0.1799223274 0.5284878016 4288916146
-0.2238075584 -0.1781954169 0.5251290798 4288849583
-0.2253700197 -0.1788519174 0.5287951827 4288717997
-0.2254352868 -0.1783160269 0.5289483070 4288783792
-0.2251258194 -0.1774843335 0.5282222033 4288981171
-0.2251906544 -0.1769483984 0.5283743143 4289244343
-0.2252553403 -0.1764120013 0.5285261273 4289573308
-0.2253198624 -0.1758751273 0.5286775231 4289902271
-0.2257592380 -0.1756295413 0.5297084451 4290231236
-0.2258235514 -0.1750908643 0.5298593044 4290560201
-0.2266381681 -0.1751316339 0.5317707062 4290954959
-0.2259517014 -0.1740121245 0.5301600099 4291283926
-0.2267664075 -0.1740483940 0.5320715904 4291547098
-0.2268302739 -0.1735060811 0.5322214365 4291810271
-0.2268939912 -0.1729633063 0.5323709249 4292073443
-0.2269575298 -0.1724200845 0.5325200558 4292270822
-0.2273967862 -0.1721609682 0.5335506797 4292402408
-0.2270841449 -0.1713322699 0.5328170657 4292599787
-0.2275232673 -0.1710704416 0.5338474512 4292862959
-0.2272100747 -0.1702426374 0.5331125855 4293060338
-0.2272727937 -0.1696971357 0.5332597494 4293060338
-0.2273353487 -0.1691511869 0.5334064960 4293323510
-0.2273977399 -0.1686047912 0.5335528851 4292994545
-0.2274599522 -0.1680579484 0.5336988568 4292796912
-0.2275220007 -0.1675106585 0.5338444710 4291875810
-0.2275838852 -0.1669629067 0.5339896679 4289178297
-0.2276455909 -0.1664147228 0.5341344476 4285888647
-0.2277071327 -0.1658660918 0.5342788696 4283717478
-0.2281456143 -0.1655907184 0.5353076458 4282796376
-0.2282069176 -0.1650402844 0.5354514718 4282072907
-0.2282680422 -0.1644894183 0.5355949402 4282599251
-0.2275741994 -0.1633961499 0.5339669585 4286414991
-0.2280122787 -0.1631162763 0.5349948406 4291875810
-0.2265623808 -0.1614883989 0.5315928459 4293454842
-0.2262446135 -0.1606720984 0.5308473110 4293718014
-0.2270599008 -0.1606591493 0.5327602029 4293784061
-0.2256079763 -0.1590436846 0.5293534994 4293586682
-0.2252891064 -0.1582315713 0.5286053419 4293455612
-0.2249698639 -0.1574208587 0.5278562903 4293521405
-0.2250284404 -0.1568752080 0.5279937387 4293389819
-0.2250868529 -0.1563291401 0.5281307697 4293060854
-0.2255234867 -0.1560444683 0.5291552544 4292600303
-0.2255816460 -0.1554966271 0.5292916894 4292139752
-0.2260182202 -0.1552083492 0.5303160548 4291416029
-0.2264548093 -0.1549178064 0.5313404799 4290758099
-0.2268914282 -0.1546249837 0.5323649049 4290362314
-0.2273280472 -0.1543299109 0.5333893895 4289967556
-0.2273857147 -0.1537762731 0.5335246921 4289769923
-0.2270641327 -0.1529668570 0.5327701569 4289835716
-0.2282588482 -0.1531766355 0.5355733633 4290229960
-0.2267991155 -0.1516058147 0.5321483016 4290229960
-0.2283733040 -0.1520627290 0.5358419418 4290098372
-0.2257740945 -0.1497434676 0.5297433138 4289966786
-0.2277279496 -0.1504456699 0.5343276858 4290229958
-0.2236083150 -0.1471411437 0.5246616006 4289900993
-0.2259419113 -0.1480877101 0.5301370621 4289900995
-0.2221992165 -0.1450553834 0.5213553905 4290295753
-0.2230135202 -0.1450055987 0.5232660174 4290558925
-0.2211679369 -0.1432289928 0.5189356208 4290558925
-0.2208416611 -0.1424419731 0.5181701183 4291151060
-0.2201348245 -0.1414121985 0.5165116191 4291940576
-0.2194274366 -0.1403857470 0.5148518682 4292401897
-0.2190998942 -0.1396050006 0.5140833259 4291020244
-0.2187719941 -0.1388257444 0.5133139491 4289572796
-0.2184437364 -0.1380479634 0.5125437379 4288849073
-0.2181151211 -0.1372716725 0.5117726922 4288059556
-0.2177861333 -0.1364968717 0.5110008121 4287006868
-0.2178376317 -0.1359612495 0.5111216307 4286546828
-0.2178889513 -0.1354252547 0.5112420321 4286612621
-0.2179400921 -0.1348888874 0.5113620162 4287665309
-0.2183721513 -0.1345870048 0.5123757720 4288257446
-0.2188042104 -0.1342828870 0.5133895278 4288125862
-0.2196175456 -0.1342095137 0.5152978897 4288389034
-0.2208124250 -0.1343640536 0.5181015134 4289310137
-0.2204818279 -0.1335881054 0.5173258185 4289704895
-0.2216770351 -0.1337343752 0.5201301575 4290626515
-0.2224909663 -0.1336453706 0.5220399499 4292402926
-0.2233050466 -0.1335522234 0.5239500403 4293126379
-0.2241192907 -0.1334549338 0.5258605480 4293586930
-0.2238986343 -0.1834154725 0.5267154574 4291218648
-0.2239650935 -0.1828845292 0.5268718004 4290823890
-0.2240314037 -0.1823531091 0.5270277858 4290429387
-0.2240975648 -0.1818212122 0.5271834135 4290166215
-0.2241635621 -0.1812888384 0.5273386240 4289771457
-0.2242293954 -0.1807560176 0.5274935365 4289376699
-0.2242950797 -0.1802227050 0.5276480913 4289046964
-0.2236139923 -0.1790909767 0.5260457993 4288783792
-0.2240525782 -0.1788566113 0.5270775557 4288520620
-0.2241176814 -0.1783227921 0.5272307396 4288323241
-0.2238090038 -0.1774922013 0.5265045762 4288454827
-0.2238736898 -0.1769583374 0.5266567469 4288652206
-0.2239382118 -0.1764240265 0.5268085599 4288849585
-0.2243765444 -0.1761828810 0.5278397202 4289046964
-0.2244408727 -0.1756467521 0.5279909968 4289310136
-0.2252533734 -0.1756938696 0.5299023986 4289573308
-0.2245690227 -0.1745731086 0.5282925367 4289836480
-0.2246328741 -0.1740356088 0.5284426808 4290231238
-0.2254455388 -0.1740759611 0.5303544998 4290691789
-0.2258838713 -0.1738240123 0.5313856602 4290954961
-0.2259475440 -0.1732824296 0.5315354466 4291218134
-0.2260110527 -0.1727403998 0.5316848159 4291547099
-0.2260743976 -0.1721979082 0.5318338275 4291876064
-0.2261375785 -0.1716549695 0.5319824815 4292139236
-0.2262005955 -0.1711115688 0.5321307182 4292336615
-0.2262634486 -0.1705677062 0.5322785974 4292731373
-0.2263261378 -0.1700234115 0.5324260592 4292994545
-0.2263886631 -0.1694786400 0.5325731635 4292994545
-0.2264510244 -0.1689334363 0.5327198505 4293257463
-0.2261375636 -0.1681085229 0.5319824219 4293323256
-0.2265752256 -0.1678416729 0.5330120325 4293389049
-0.2266370803 -0.1672951132 0.5331575274 4293257463
-0.2266987711 -0.1667481065 0.5333026648 4292533740
-0.2267602831 -0.1662006676 0.5334473848 4290954708
-0.2268216312 -0.1656527668 0.5335916877 4288125609
-0.2268828154 -0.1651044339 0.5337356329 4285033338
-0.2273201793 -0.1648285389 0.5347645283 4283455074
-0.2273811102 -0.1642784029 0.5349078774 4284113004
-0.2270653248 -0.1634567529 0.5341649652 4289310653
-0.2271258235 -0.1629066467 0.5343073010 4293258233
-0.2268093824 -0.1620868593 0.5335628986 4293587198
-0.2261157185 -0.1610001177 0.5319310427 4293850367
-0.2261753976 -0.1604514420 0.5320714712 4293784575
-0.2254807800 -0.1593693346 0.5304374099 4293587196
-0.2259170711 -0.1590872109 0.5314637423 4293783807
-0.2248443663 -0.1577441394 0.5289402604 4293652221
-0.2252803147 -0.1574611515 0.5299658179 4293257463
-0.2253388464 -0.1569130719 0.5301035047 4292731119
-0.2257747352 -0.1566264778 0.5311288834 4292270568
-0.2258329988 -0.1560766250 0.5312659740 4291875810
-0.2262688428 -0.1557864249 0.5322912931 4291283673
-0.2267047018 -0.1554939598 0.5333166122 4290757329
-0.2267626226 -0.1549409926 0.5334529281 4290428107
-0.2271984220 -0.1546449214 0.5344780684 4290099142
-0.2272560894 -0.1540901810 0.5346137881 4290098888
-0.2273135930 -0.1535350233 0.5347490311 4290296267
-0.2273709178 -0.1529794484 0.5348838568 4290362060
-0.2270496339 -0.1521698236 0.5341280699 4290164681
-0.2274850160 -0.1518670321 0.5351523161 4290164165
-0.2264059782 -0.1505548954 0.5326138735 4290032579
-0.2268409878 -0.1502512693 0.5336372256 4289966786
-0.2261396348 -0.1491956413 0.5319873095 4289966786
-0.2243010700 -0.1473963708 0.5276621580 4290032581
-0.2262511849 -0.1480865031 0.5322497487 4290164167
-0.2236531824 -0.1458014697 0.5261380076 4290295753
-0.2221911848 -0.1442676187 0.5226987004 4290493132
-0.2214867920 -0.1432313472 0.5210416317 4290953681
-0.2207818478 -0.1421983987 0.5193832517 4291480025
-0.2200763673 -0.1411688030 0.5177236199 4292138471
-0.2193703353 -0.1401425302 0.5160627365 4290954197
-0.2190433741 -0.1393611282 0.5152935982 4289770177
-0.2187160701 -0.1385812163 0.5145235658 4289770177
-0.2183884084 -0.1378027797 0.5137527585 4289441210
-0.2184402645 -0.1372645646 0.5138747692 4288585901
-0.2181119770 -0.1364881694 0.5131024718 4287994017
-0.2181634009 -0.1359501183 0.5132234097 4286875536
-0.2182146311 -0.1354116946 0.5133439898 4286415242
-0.2186459601 -0.1351078600 0.5143586397 4287073172
-0.2190772742 -0.1348017603 0.5153732896 4288586411
-0.2198890150 -0.1347264946 0.5172829032 4289178548
-0.2203204036 -0.1344149411 0.5182977319 4288915378
-0.2207517922 -0.1341011375 0.5193125606 4289770687
-0.2215638608 -0.1340153366 0.5212229490 4291678685
-0.2223760933 -0.1339253783 0.5231336951 4292994545
-0.2228076309 -0.1336029023 0.5241488814 4293323759
-0.2236201018 -0.1335055977 0.5260601640 4293718517
-0.2230228484 -0.1831766367 0.5260295868 4291152855
-0.2227172852 -0.1823420078 0.5253088474 4290823890
-0.2227832675 -0.1818121970 0.5254644752 4290429387
-0.2221050262 -0.1806766391 0.5238648057 4290232008
-0.2229147702 -0.1807511747 0.5257746577 4289902273
-0.2229802907 -0.1802199632 0.5259292126 4289573308
-0.2219285816 -0.1787883490 0.5234485865 4289178550
-0.2227384150 -0.1788570434 0.5253586769 4288915378
-0.2220581919 -0.1777289063 0.5237542987 4288652206
-0.2221227735 -0.1771984994 0.5239066482 4288520620
-0.2225599885 -0.1769640446 0.5249378681 4288586413
-0.2229972780 -0.1767273545 0.5259692669 4288783792
-0.2230615914 -0.1761937737 0.5261209607 4288849585
-0.2238720059 -0.1762472093 0.5280324221 4288915378
-0.2235630006 -0.1754180789 0.5273035765 4289046964
-0.2236269563 -0.1748822182 0.5274544358 4289244343
-0.2240641862 -0.1746369600 0.5284857154 4289507515
-0.2237543911 -0.1738091260 0.5277550220 4289770687
-0.2241915166 -0.1735611707 0.5287860632 4290165445
-0.2246287018 -0.1733109504 0.5298172235 4290362824
-0.2246920615 -0.1727710068 0.5299666524 4290428617
-0.2247552723 -0.1722306162 0.5301157236 4290823375
-0.2248183042 -0.1716897637 0.5302644372 4291218133
-0.2248811871 -0.1711484492 0.5304127336 4291415512
-0.2253181785 -0.1708905548 0.5314434171 4291678685
-0.2253808379 -0.1703474373 0.5315912366 4292073443
-0.2254433334 -0.1698038727 0.5317386389 4292402408
-0.2251310498 -0.1689786911 0.5310021043 4292533994
-0.2251931131 -0.1684351265 0.5311484337 4292665326
-0.2256298065 -0.1681704670 0.5321784616 4293191670
-0.2256916314 -0.1676250845 0.5323242545 4293257463
-0.2257532775 -0.1670792699 0.5324696898 4293191670
-0.2254396677 -0.1662563831 0.5317299962 4293191670
-0.2255008817 -0.1657105684 0.5318743587 4293060084
-0.2259372473 -0.1654391438 0.5329036117 4291941605
-0.2259982377 -0.1648915410 0.5330474377 4289836229
-0.2260590494 -0.1643435061 0.5331909060 4287468447
-0.2261196971 -0.1637950242 0.5333338976 4287928998
-0.2261801660 -0.1632460952 0.5334765911 4291481822
-0.2262404710 -0.1626967341 0.5336188078 4293192440
-0.2259247005 -0.1618775874 0.5328739882 4293324026
-0.2259845585 -0.1613282561 0.5330151916 4293389819
-0.2256681323 -0.1605109721 0.5322688222 4293192440
-0.2249751240 -0.1594284922 0.5306342840 4293324026
-0.2250341773 -0.1588806063 0.5307735801 4292994291
-0.2250930518 -0.1583322883 0.5309123993 4292796912
-0.2251517475 -0.1577835530 0.5310508609 4292402154
-0.2252102792 -0.1572343707 0.5311889052 4291941603
-0.2252686322 -0.1566847712 0.5313265920 4291678431
-0.2257036120 -0.1563958377 0.5323525071 4291481052
-0.2261386067 -0.1561046392 0.5333785415 4290888915
-0.2258196473 -0.1552926749 0.5326262116 4290362571
-0.2268615812 -0.1530366093 0.5350837708 4290033349
-0.2272962034 -0.1527341455 0.5361088514 4290164935
-0.2269755006 -0.1519238353 0.5353524685 4290296521
-0.2266544402 -0.1511149555 0.5345951915 4290362314
-0.2270887196 -0.1508093923 0.5356194973 4290099142
-0.2248773873 -0.1487515271 0.5304037333 4290033349
-0.2268231660 -0.1494442075 0.5349931717 4290361546
-0.2265009135 -0.1486383229 0.5342330933 4290624718
-0.2242871672 -0.1465978026 0.5290116668 4290690511
-0.2235854119 -0.1455531865 0.5273564458 4290624718
-0.2228830904 -0.1445118934 0.5256999731 4290953683
-0.2221802324 -0.1434739232 0.5240421295 4291480027
-0.2214768231 -0.1424392909 0.5223830938 4291874785
-0.2203941792 -0.1411654353 0.5198295116 4291216855
-0.2196895927 -0.1401384175 0.5181676149 4290164165
-0.2193633169 -0.1393554360 0.5173981190 4289966786
-0.2190366983 -0.1385739297 0.5166277289 4289835968
-0.2187097073 -0.1377938986 0.5158564448 4289572796
-0.2183823735 -0.1370153725 0.5150843859 4289572795
-0.2184338868 -0.1364752650 0.5152059197 4289375416
-0.2184852362 -0.1359347850 0.5153270364 4288322728
-0.2192952037 -0.1358640343 0.5172374249 4287993763
-0.2189668715 -0.1350867897 0.5164630413 4288586154
-0.2197769284 -0.1350105852 0.5183736682 4289375670
-0.2202074826 -0.1346980035 0.5193891525 4290231236
-0.2210177928 -0.1346144527 0.5213003755 4291941854
-0.2222080976 -0.1347571015 0.5241078734 4293257714
-0.2226388901 -0.1344349086 0.5251239538 4293652472
-0.2234496772 -0.1343389004 0.5270363092 4293784309
-0.2217773199 -0.1826320738 0.5244657397 4291087062
-0.2211012989 -0.1814944297 0.5228670835 4290823890
-0.2211668491 -0.1809671223 0.5230221152 4290429387
-0.2212322503 -0.1804393530 0.5231767893 4290100422
-0.2212975025 -0.1799111217 0.5233310461 4289968066
-0.2221054286 -0.1799843609 0.5252416730 4289704894
-0.2221705765 -0.1794534177 0.5253957510 4289507515
-0.2222355902 -0.1789219975 0.5255494714 4289310136
-0.2223004401 -0.1783901155 0.5257028341 4289178550
-0.2223651260 -0.1778577715 0.5258558393 4288981171
-0.2216857523 -0.1767318994 0.5242492557 4288981171
-0.2221219838 -0.1764960438 0.5252808332 4289046964
-0.2218139321 -0.1756684482 0.5245523453 4289046964
-0.2222500741 -0.1754298806 0.5255837440 4289112757
-0.2230586410 -0.1754820347 0.5274958611 4289244343
-0.2231225073 -0.1749460250 0.5276468992 4289375929
-0.2224410027 -0.1738272160 0.5260352492 4289573308
-0.2232497483 -0.1738726199 0.5279477835 4289770687
-0.2233131230 -0.1733352244 0.5280976892 4289902273
-0.2233763337 -0.1727973670 0.5282471776 4290033859
-0.2234393954 -0.1722590625 0.5283963084 4290033859
-0.2235022932 -0.1717203110 0.5285450220 4290362824
-0.2235650271 -0.1711810827 0.5286933780 4290625996
-0.2232542634 -0.1703565419 0.5279585123 4290691789
-0.2240634561 -0.1703852713 0.5298720598 4290954961
-0.2241258025 -0.1698437929 0.5300195217 4291349719
-0.2241880000 -0.1693018675 0.5301666260 4291612892
-0.2242500186 -0.1687594950 0.5303132534 4291744478
-0.2243118733 -0.1682166606 0.5304595232 4292007650
-0.2247475237 -0.1679528505 0.5314897895 4292139236
-0.2248091549 -0.1674082130 0.5316355228 4292204775
-0.2248706073 -0.1668631434 0.5317808986 4292533740
-0.2245576531 -0.1660408825 0.5310407877 4292533740
-0.2246186733 -0.1654958129 0.5311850905 4292336361
-0.2246795297 -0.1649503112 0.5313289762 4292270568
-0.2251147926 -0.1646783650 0.5323582888 4291875810
-0.2251754105 -0.1641310751 0.5325016975 4290494927
-0.2252358645 -0.1635833234 0.5326446295 4290626513
-0.2252961397 -0.1630351394 0.5327872038 4292139750
-0.2253562510 -0.1624865234 0.5329293609 4292271336
-0.2254161984 -0.1619374603 0.5330711007 4292600301
-0.2251008004 -0.1611194313 0.5323252082 4292600301
-0.2251603007 -0.1605704129 0.5324659348 4292402924
-0.2244689018 -0.1594875604 0.5308308601 4292402924
-0.2252787799 -0.1594710648 0.5327461362 4292073189
-0.2249622047 -0.1586558819 0.5319975019 4292073189
-0.2246452570 -0.1578420997 0.5312479734 4291875810
-0.2250794619 -0.1575557888 0.5322747827 4291612638
-0.2251378149 -0.1570050865 0.5324127674 4291415259
-0.2255719602 -0.1567151546 0.5334394574 4291020501
-0.2252540290 -0.1559024155 0.5326876044 4290296778
-0.2262371927 -0.1542051435 0.5350126028 4288388781
-0.2262945175 -0.1536496282 0.5351482034 4288454574
-0.2263516784 -0.1530936956 0.5352833271 4288586160
-0.2264086455 -0.1525373310 0.5354180336 4288915125
-0.2264654338 -0.1519805640 0.5355523229 4289573057
-0.2265220433 -0.1514233649 0.5356861949 4290230987
-0.2262014747 -0.1506147236 0.5349281430 4290625232
-0.2255034298 -0.1495574415 0.5332773924 4290493646
-0.2263136059 -0.1495001167 0.5351933241 4290427853
-0.2252375484 -0.1481974721 0.5326486230 4290493646
-0.2249155045 -0.1473946273 0.5318870544 4290691025
-0.2242156416 -0.1463468522 0.5302319527 4290888404
-0.2235152125 -0.1453024000 0.5285755992 4291085783
-0.2228142470 -0.1442612708 0.5269179344 4291217369
-0.2224904746 -0.1434670389 0.5261522532 4291874785
-0.2210328430 -0.1419463605 0.5227051973 4290887890
-0.2203301489 -0.1409161836 0.5210434198 4290295753
-0.2200049162 -0.1401301175 0.5202743411 4290098374
-0.2219479680 -0.1407845616 0.5248693228 4290032579
-0.2197315842 -0.1388013363 0.5196279883 4290098372
-0.2194053829 -0.1380187869 0.5188565254 4290033349
-0.2187004387 -0.1370006949 0.5171894431 4290099142
-0.2195088118 -0.1369303316 0.5191011429 4290230725
-0.2199387997 -0.1366206706 0.5201179981 4290230725
-0.2196115106 -0.1358403414 0.5193439722 4290494151
-0.2200413197 -0.1355280429 0.5203604102 4291217874
-0.2204711288 -0.1352134794 0.5213768482 4292665318
-0.2197945565 -0.1814759523 0.5211457014 4291217122
-0.2198599428 -0.1809507310 0.5213007331 4290888912
-0.2199251801 -0.1804250330 0.5214554071 4290560203
-0.2207309604 -0.1805046052 0.5233659744 4290231238
-0.2200551927 -0.1793722659 0.5217636228 4290165445
-0.2212316841 -0.1797484308 0.5245531797 4289968066
-0.2201845944 -0.1783176214 0.5220704675 4289836480
-0.2202490568 -0.1777896136 0.5222233534 4289704894
-0.2199424803 -0.1769627184 0.5214964151 4289573308
-0.2203775346 -0.1767321974 0.5225279331 4289375929
-0.2204415500 -0.1762027889 0.5226797462 4289310136
-0.2205054015 -0.1756729335 0.5228311419 4289375929
-0.2209404260 -0.1754374504 0.5238626003 4289310136
-0.2217469513 -0.1754937023 0.5257748961 4289441722
-0.2218106538 -0.1749597788 0.5259259343 4289573308
-0.2207592577 -0.1735488772 0.5234330297 4289704894
-0.2219375968 -0.1738905460 0.5262269378 4289901760
-0.2216289639 -0.1730648726 0.5254951715 4290033346
-0.2216919214 -0.1725300103 0.5256444216 4290164932
-0.2217547297 -0.1719947010 0.5257933736 4290362311
-0.2218173742 -0.1714589298 0.5259419084 4290231238
-0.2218798697 -0.1709226966 0.5260900855 4290494410
-0.2219421864 -0.1703860313 0.5262378454 4290560203
-0.2220043540 -0.1698489040 0.5263852477 4290625996
-0.2224389464 -0.1695954055 0.5274156928 4290823375
-0.2232462913 -0.1696228236 0.5293299556 4291152340
-0.2233082801 -0.1690816283 0.5294769406 4291283927
-0.2233701050 -0.1685400009 0.5296235085 4291283927
-0.2234317660 -0.1679979116 0.5297697186 4291481306
-0.2234932631 -0.1674553752 0.5299155116 4291612892
-0.2239278108 -0.1671910435 0.5309458375 4291744478
-0.2239890695 -0.1666467041 0.5310910940 4291941857
-0.2240501791 -0.1661019176 0.5312359929 4291875810
-0.2241111100 -0.1655566841 0.5313804746 4291744224
-0.2241718769 -0.1650110185 0.5315245390 4291941603
-0.2242324650 -0.1644649059 0.5316682458 4291875810
-0.2246667147 -0.1641915441 0.5326978564 4291350236
-0.2243531644 -0.1633713394 0.5319544077 4291416029
-0.2244132459 -0.1628239006 0.5320968628 4291942371
-0.2244731635 -0.1622760296 0.5322389603 4291942371
-0.2245329171 -0.1617277116 0.5323806405 4292073957
-0.2245925069 -0.1611789465 0.5325219035 4292139750
-0.2246519178 -0.1606297642 0.5326627493 4292337131
-0.2243366241 -0.1598133296 0.5319151878 4291942373
-0.2243956029 -0.1592641920 0.5320550203 4291941603
-0.2244543880 -0.1587146074 0.5321944356 4291810017
-0.2245130092 -0.1581646055 0.5323334336 4291481052
-0.2245714664 -0.1576141715 0.5324720144 4290954708
-0.2246297449 -0.1570633054 0.5326101780 4290494157
-0.2246878445 -0.1565120071 0.5327479243 4289967813
-0.2249184996 -0.1543025672 0.5332948565 4288060588
-0.2257269025 -0.1542624980 0.5352116227 4287731621
-0.2250327766 -0.1531952918 0.5335658193 4287665828
-0.2258411944 -0.1531506926 0.5354825854 4287862437
-0.2258980721 -0.1525941491 0.5356174707 4287928230
-0.2252028584 -0.1515312493 0.5339690447 4288059818
-0.2260113060 -0.1514798254 0.5358859301 4288322990
-0.2256914973 -0.1506709158 0.5351276994 4289375678
