VERSION 0.7
FIELDS x y z rgba
SIZE 4 4 4 4
TYPE F F F U
COUNT 1 1 1 1
WIDTH 920
HEIGHT 1
VIEWPOINT 0.0 0.0 0.0 1.0 0.0 0.0 0.0
POINTS 920
DATA ascii
-0.2537832260 -0.0795587301 0.5367172956 4290428107
-0.2529692054 -0.0787091255 0.5349957347 4290559693
-0.2525784969 -0.0779940560 0.5341694951 4290559441
-0.2526112795 -0.0774106085 0.5342388153 4290559441
-0.2526438534 -0.0768269300 0.5343077183 4290756821
-0.2526761591 -0.0762430280 0.5343760252 4290888407
-0.2522842288 -0.0755319595 0.5335471630 4290954200
-0.2523160279 -0.0749485940 0.5336143970 4291151579
-0.2531958222 -0.0746149719 0.5354750156 4291019992
-0.2528030574 -0.0739052072 0.5346444249 4291019992
-0.2536826134 -0.0735662431 0.5365045667 4291283162
-0.2541378736 -0.0731011033 0.5374673605 4291348955
-0.2541686893 -0.0725127235 0.5375325084 4291283162
-0.2541992366 -0.0719241351 0.5375971198 4291414748
-0.2542295456 -0.0713353306 0.5376612544 4291546334
-0.2542596161 -0.0707463175 0.5377248526 4291612127
-0.2542894483 -0.0701570958 0.5377879143 4291546586
-0.2543190420 -0.0695676729 0.5378504992 4291546586
-0.2543483973 -0.0689780414 0.5379125476 4291480793
-0.2543774843 -0.0683882013 0.5379741192 4291480793
-0.2548310757 -0.0679113492 0.5389333963 4291480793
-0.2548597455 -0.0673201308 0.5389940143 4291349207
-0.2553129494 -0.0668399259 0.5399525166 4291283416
-0.2553411722 -0.0662473217 0.5400121808 4291349209
-0.2553691566 -0.0656545162 0.5400713682 4291151576
-0.2553969026 -0.0650615245 0.5401300192 4291085783
-0.2558493614 -0.0645756051 0.5410869718 4291085783
-0.2558766603 -0.0639812425 0.5411446691 4291085783
-0.2559036911 -0.0633866936 0.5412018299 4291019990
-0.2559304833 -0.0627919510 0.5412585139 4291151576
-0.2563821971 -0.0623003393 0.5422137976 4291283164
-0.2564085424 -0.0617042407 0.5422695279 4291348957
-0.2564346492 -0.0611079596 0.5423247218 4291678425
-0.2568857968 -0.0606118441 0.5432788134 4291875804
-0.2569114268 -0.0600142106 0.5433330536 4292138976
-0.2569368184 -0.0594164021 0.5433867574 4292665320
-0.2569619715 -0.0588184148 0.5434399247 4293389041
-0.2774283588 -0.1989120096 0.5881050229 4283129408
-0.2775062621 -0.1983142495 0.5882701278 4282997820
-0.2779921591 -0.1980067343 0.5893001556 4282800441
-0.2780697644 -0.1974070817 0.5894647241 4283063867
-0.2781471908 -0.1968069226 0.5896288157 4282932281
-0.2782244384 -0.1962062716 0.5897925496 4282603826
-0.2783014774 -0.1956051141 0.5899558663 4282340654
-0.2783783078 -0.1950034648 0.5901187658 4282143529
-0.2784549594 -0.1944013089 0.5902812481 4281946150
-0.2785314322 -0.1937986612 0.5904433131 4281945637
-0.2786076963 -0.1931955218 0.5906049609 4281879844
-0.2778652906 -0.1920262724 0.5890312195 4282011165
-0.2779409289 -0.1914239079 0.5891915560 4281945372
-0.2780163884 -0.1908210665 0.5893515348 4281551382
-0.2780916393 -0.1902177185 0.5895110369 4281288210
-0.2781666815 -0.1896138936 0.5896701217 4281156370
-0.2782415450 -0.1890095770 0.5898287892 4281024784
-0.2779062986 -0.1881272942 0.5891181827 4281090577
-0.2779806554 -0.1875228882 0.5892757773 4281353749
-0.2780548036 -0.1869180053 0.5894329548 4281551380
-0.2777185142 -0.1860378385 0.5887200832 4281551380
-0.2773818374 -0.1851589829 0.5880063772 4281617927
-0.2774551511 -0.1845544428 0.5881617665 4281683720
-0.2767071724 -0.1834051907 0.5865762234 4282145024
-0.2771905363 -0.1830727011 0.5876008868 4282539779
-0.2764416337 -0.1819269806 0.5860133171 4283132418
-0.2761029601 -0.1810537875 0.5852953792 4283461383
-0.2761748433 -0.1804504544 0.5854477882 4283856652
-0.2758354545 -0.1795790195 0.5847283006 4284317203
-0.2759068310 -0.1789756417 0.5848795772 4284909591
-0.2755666971 -0.1781059653 0.5841585994 4285370142
-0.2748147547 -0.1769727021 0.5825645924 4285633566
-0.2748852074 -0.1763706356 0.5827139020 4285765152
-0.2741322219 -0.1752418429 0.5811177492 4285765152
-0.2742020488 -0.1746406555 0.5812657475 4285699359
-0.2738598585 -0.1737776846 0.5805403590 4285896479
-0.2731053233 -0.1726556569 0.5789408684 4285896479
-0.2735862434 -0.1723153144 0.5799603462 4285764892
-0.2724186480 -0.1709382832 0.5774852037 4285896478
-0.2720746994 -0.1700816453 0.5767561197 4285896478
-0.2717303336 -0.1692263633 0.5760260820 4285764892
-0.2713855803 -0.1683724523 0.5752952099 4285962018
-0.2710403800 -0.1675199121 0.5745635033 4286290983
-0.2706947923 -0.1666687429 0.5738308430 4286159910
-0.2703487873 -0.1658189595 0.5730974078 4285896738
-0.2700023651 -0.1649705470 0.5723630190 4285830945
-0.2696555257 -0.1641235203 0.5716277957 4286028324
-0.2693082988 -0.1632778794 0.5708917379 4286357287
-0.2689606547 -0.1624336243 0.5701547861 4286291494
-0.2690258622 -0.1618393660 0.5702930093 4285896991
-0.2686775029 -0.1609969735 0.5695545673 4285436440
-0.2683287263 -0.1601559967 0.5688152313 4284910094
-0.2679795623 -0.1593164206 0.5680750012 4284778508
-0.2680436373 -0.1587231904 0.5682108402 4284449543
-0.2676937580 -0.1578855067 0.5674691200 4284449543
-0.2677572966 -0.1572923362 0.5676038861 4284778508
-0.2674067020 -0.1564565599 0.5668606758 4285173266
-0.2670556903 -0.1556221992 0.5661165714 4285436690
-0.2667042911 -0.1547892541 0.5653716326 4285699862
-0.2667667270 -0.1541971564 0.5655039549 4285371164
-0.2664146125 -0.1533661485 0.5647575259 4285502750
-0.2664765120 -0.1527741551 0.5648887753 4285502747
-0.2661236823 -0.1519450694 0.5641408563 4285173782
-0.2657704353 -0.1511174142 0.5633920431 4284647692
-0.2654168308 -0.1502912045 0.5626423955 4284318727
-0.2654775977 -0.1497003436 0.5627712011 4284251911
-0.2655381560 -0.1491090655 0.5628995895 4284054532
-0.2651835084 -0.1482853442 0.5621477962 4283988490
-0.2656586468 -0.1479253173 0.5631550550 4283856904
-0.2653033733 -0.1471026391 0.5624019504 4283527436
-0.2653630078 -0.1465106755 0.5625283122 4283395850
-0.2654224038 -0.1459183246 0.5626542568 4283658262
-0.2658970654 -0.1455530077 0.5636604428 4283658262
-0.2663716674 -0.1451854259 0.5646665692 4283460631
-0.2668462694 -0.1448156089 0.5656726360 4283460631
-0.2669050992 -0.1442188770 0.5657973289 4283131417
-0.2677953541 -0.1440691948 0.5676845312 4282999831
-0.2682698369 -0.1436925977 0.5686903596 4283655236
-0.2691603005 -0.1435355991 0.5705779791 4289642399
-0.2749807239 -0.1421058327 0.5829163790 4292007901
-0.2758721709 -0.1419167519 0.5848060846 4290560455
-0.2763469219 -0.1415100992 0.5858125091 4288981941
-0.2768216133 -0.1411011815 0.5868187547 4287731874
-0.2768792510 -0.1404784322 0.5869409442 4286482570
-0.2773537338 -0.1400659084 0.5879468322 4285693054
-0.2769938409 -0.1392317712 0.5871838927 4285099903
-0.2766335607 -0.1383991092 0.5864201188 4284705145
-0.2762728631 -0.1375679523 0.5856555104 4284770936
-0.2759117484 -0.1367382854 0.5848900080 4285165694
-0.2759677470 -0.1361160427 0.5850087404 4286020487
-0.2756059170 -0.1352884471 0.5842417479 4287073175
-0.2748260498 -0.1342583299 0.5825884938 4287862691
-0.2748810947 -0.1336377859 0.5827051997 4288520621
-0.2745180726 -0.1328147352 0.5819356441 4288914866
-0.2741546333 -0.1319931895 0.5811652541 4289112245
-0.2737908363 -0.1311731637 0.5803939700 4289243833
-0.2734265924 -0.1303546727 0.5796219110 4289441212
-0.2730619907 -0.1295377016 0.5788489580 4289506751
-0.2726969719 -0.1287222505 0.5780752301 4289440958
-0.2723315656 -0.1279083490 0.5773006082 4289572030
-0.2719657719 -0.1270959675 0.5765251517 4289703616
-0.2715995610 -0.1262851357 0.5757488608 4289769155
-0.2712329626 -0.1254758537 0.5749717355 4290032327
-0.2708659768 -0.1246681064 0.5741937757 4289966534
-0.2704986036 -0.1238619089 0.5734149814 4289769155
-0.2697120011 -0.1228664815 0.5717475414 4289834948
-0.2693437636 -0.1220643446 0.5709668994 4289900741
-0.2685561776 -0.1210748777 0.5692973137 4289900741
-0.2681870759 -0.1202768162 0.5685148835 4289900741
-0.2678175867 -0.1194803119 0.5677316189 4289835718
-0.2674476802 -0.1186853796 0.5669475198 4289769925
-0.2666581571 -0.1177069470 0.5652738214 4289835718
-0.2662874162 -0.1169161126 0.5644879341 4289835718
-0.2659162879 -0.1161268577 0.5637012124 4289769925
-0.2655448020 -0.1153391823 0.5629137158 4289769925
-0.2655924857 -0.1147343516 0.5630148053 4289769925
-0.2652202845 -0.1139488891 0.5622258186 4289638339
-0.2648477256 -0.1131650209 0.5614359975 4289572546
-0.2644747496 -0.1123827398 0.5606453419 4289440960
-0.2636815310 -0.1114246324 0.5589638352 4289506753
-0.2633077204 -0.1106465086 0.5581714511 4289572546
-0.2629335523 -0.1098699793 0.5573782921 4289375167
-0.2625589967 -0.1090950668 0.5565842390 4289375167
-0.2621840537 -0.1083217561 0.5557894707 4289440960
-0.2618087530 -0.1075500548 0.5549938679 4289440960
-0.2614330649 -0.1067799702 0.5541974306 4289375167
-0.2614773512 -0.1061822101 0.5542913675 4289375167
-0.2611009777 -0.1054143980 0.5534934998 4289375167
-0.2611447573 -0.1048169956 0.5535863042 4289375167
-0.2603471279 -0.1038836464 0.5518954396 4289375167
-0.2603902817 -0.1032875776 0.5519869328 4289309374
-0.2600124776 -0.1025253087 0.5511860847 4289309374
-0.2600551248 -0.1019296050 0.5512764454 4289375167
-0.2596766353 -0.1011696458 0.5504741073 4289046200
-0.2597187161 -0.1005743295 0.5505633354 4288848821
-0.2593395710 -0.0998166874 0.5497595668 4288783028
-0.2593811452 -0.0992217585 0.5498476624 4288783028
-0.2590013146 -0.0984664336 0.5490425229 4288783028
-0.2590423226 -0.0978719071 0.5491294861 4288848821
-0.2590830922 -0.0972770974 0.5492159128 4288914614
-0.2587023079 -0.0965247974 0.5484086871 4289046200
-0.2587425411 -0.0959303975 0.5484939814 4289111993
-0.2587825656 -0.0953357220 0.5485787988 4289309372
-0.2584007978 -0.0945864692 0.5477694869 4289440958
-0.2584402561 -0.0939922109 0.5478531718 4289506751
-0.2580578327 -0.0932453200 0.5470424891 4289638337
-0.2580967546 -0.0926514938 0.5471249819 4289572544
-0.2577136457 -0.0919069722 0.5463128686 4289309372
-0.2573302090 -0.0911641344 0.5455000401 4289111993
-0.2569463849 -0.0904229730 0.5446863770 4288651696
-0.2565622032 -0.0896834880 0.5438719392 4288322731
-0.2557556033 -0.0887991637 0.5421621203 4288191145
-0.2562148273 -0.0883551463 0.5431356430 4288322731
-0.2549853027 -0.0873305798 0.5405292511 4288651442
-0.2554440796 -0.0868860558 0.5415017605 4289111993
-0.2546358705 -0.0860114172 0.5397884846 4289572544
-0.2550942302 -0.0855654106 0.5407600999 4289835716
-0.2551300526 -0.0849765241 0.5408360362 4290164683
-0.2543207407 -0.0841079578 0.5391204357 4290164683
-0.2547784746 -0.0836592615 0.5400907993 4290164683
-0.2543909550 -0.0829328522 0.5392693281 4290230476
-0.2544257343 -0.0823449343 0.5393429995 4290427855
-0.2536148727 -0.0814851597 0.5376241207 4290427855
-0.2532262802 -0.0807638913 0.5368003845 4290362063
-0.2528373599 -0.0800443366 0.5359759331 4290362063
-0.2528709471 -0.0794593841 0.5360471010 4290427855
-0.2524813712 -0.0787423030 0.5352212787 4290559441
-0.2516684830 -0.0778960288 0.5334980488 4290691027
-0.2521242201 -0.0774432570 0.5344641209 4290756820
-0.2517336607 -0.0767303854 0.5336362123 4290822613
-0.2517658770 -0.0761472210 0.5337045193 4290822613
-0.2517978847 -0.0755638406 0.5337723494 4290954199
-0.2522528768 -0.0751062557 0.5347368717 4291217371
-0.2522844374 -0.0745214447 0.5348038077 4291085785
-0.2527391315 -0.0740604773 0.5357676744 4291151578
-0.2527702749 -0.0734742507 0.5358336568 4291283162
-0.2532246113 -0.0730099007 0.5367968082 4291283162
-0.2536788285 -0.0725433752 0.5377597213 4291283675
-0.2537093759 -0.0719545409 0.5378243923 4291349468
-0.2537396550 -0.0713654980 0.5378885865 4291349468
-0.2537696958 -0.0707762465 0.5379523039 4291349468
-0.2537994981 -0.0701867789 0.5380154848 4291546334
-0.2538290322 -0.0695971102 0.5380781293 4291612127
-0.2538583577 -0.0690072328 0.5381402373 4291612127
-0.2538874149 -0.0684171543 0.5382018685 4291612127
-0.2543401420 -0.0679401085 0.5391616225 4291612127
-0.2543687820 -0.0673486441 0.5392223001 4291546334
-0.2548211813 -0.0668682382 0.5401812792 4291414748
-0.2548493743 -0.0662753955 0.5402410626 4291283162
-0.2548772991 -0.0656823441 0.5403002501 4291348955
-0.2549050152 -0.0650891066 0.5403590202 4291283162
-0.2549324632 -0.0644956753 0.5404171944 4291217369
-0.2553839087 -0.0640083775 0.5413741469 4291217369
-0.2554109097 -0.0634135827 0.5414314270 4291151576
-0.2554376721 -0.0628185943 0.5414881706 4291019990
-0.2558885515 -0.0623267815 0.5424439311 4291151576
-0.2559148669 -0.0617304333 0.5424997211 4291348955
-0.2559409142 -0.0611339025 0.5425549746 4291546334
-0.2563912272 -0.0606375858 0.5435095429 4291743713
-0.2564168274 -0.0600397028 0.5435638428 4291743713
-0.2564421892 -0.0594416447 0.5436176062 4291809506
-0.2564673126 -0.0588434078 0.5436708331 4292138723
-0.2564921677 -0.0582449958 0.5437235236 4292665067
-0.2560921013 -0.0575509705 0.5428754091 4293323248
-0.2772706449 -0.1959951073 0.5891578197 4283195966
-0.2777553499 -0.1956819892 0.5901877284 4282998587
-0.2774241269 -0.1947936863 0.5894839168 4282866999
-0.2775005698 -0.1941922158 0.5896463394 4282735413
-0.2775768042 -0.1935902536 0.5898084044 4282669107
-0.2780611813 -0.1932716072 0.5908375978 4282734900
-0.2777287364 -0.1923848540 0.5901311636 4282669109
-0.2778044045 -0.1917814165 0.5902919769 4282669109
-0.2774712145 -0.1908963323 0.5895839930 4282471979
-0.2775463760 -0.1902928054 0.5897437334 4282274600
-0.2776213586 -0.1896887720 0.5899029970 4282143519
-0.2776961029 -0.1890842617 0.5900618434 4281880347
-0.2773616016 -0.1882016659 0.5893510580 4281617426
-0.2774358392 -0.1875970662 0.5895088315 4281551633
-0.2775098979 -0.1869919896 0.5896661878 4281485836
-0.2775837779 -0.1863864213 0.5898231268 4281485836
-0.2776574194 -0.1857803613 0.5899796486 4281485836
-0.2773212492 -0.1849007159 0.5892653465 4281222664
-0.2773944139 -0.1842945963 0.5894207954 4281420045
-0.2770574987 -0.1834166795 0.5887048841 4281420045
-0.2767201662 -0.1825400591 0.5879881382 4281682964
-0.2767924964 -0.1819343120 0.5881418586 4281880343
-0.2764544487 -0.1810594350 0.5874235630 4282144530
-0.2761159837 -0.1801858991 0.5867043734 4282539288
-0.2761875093 -0.1795805246 0.5868563056 4283000591
-0.2758482993 -0.1787087321 0.5861355662 4283395349
-0.2759192884 -0.1781033278 0.5862864256 4283856906
-0.2755793929 -0.1772333086 0.5855641365 4284317457
-0.2752390504 -0.1763646305 0.5848410130 4284844048
-0.2744874060 -0.1752349734 0.5832438469 4285370392
-0.2741461396 -0.1743698865 0.5825186968 4285567513
-0.2733933330 -0.1732456237 0.5809191465 4285896478
-0.2738735974 -0.1729033738 0.5819395781 4286159650
-0.2731198668 -0.1717827320 0.5803380609 4286291236
-0.2727769613 -0.1709230691 0.5796093941 4286225444
-0.2720220983 -0.1698078662 0.5780054331 4286159651
-0.2716782391 -0.1689518243 0.5772747993 4286225190
-0.2713339925 -0.1680971533 0.5765433311 4286225190
-0.2709893286 -0.1672438681 0.5758109689 4285962529
-0.2706442475 -0.1663919538 0.5750777125 4285830943
-0.2702987790 -0.1655414104 0.5743436217 4285896738
-0.2695407271 -0.1644408107 0.5727329254 4285962531
-0.2691943347 -0.1635939479 0.5719968677 4285962529
-0.2692598701 -0.1629980952 0.5721361041 4285962529
-0.2689127624 -0.1621530950 0.5713985562 4285962782
-0.2689777613 -0.1615572870 0.5715367198 4285896989
-0.2686299384 -0.1607141644 0.5707976222 4285896987
-0.2682816982 -0.1598724425 0.5700576305 4285896987
-0.2679330409 -0.1590321362 0.5693168640 4285633817
-0.2675839961 -0.1581932306 0.5685751438 4285304852
-0.2676475644 -0.1575989425 0.5687102675 4285173268
-0.2672978044 -0.1567619294 0.5679670572 4284975889
-0.2673608661 -0.1561677158 0.5681010485 4284975889
-0.2665970623 -0.1550921649 0.5664780736 4285173268
-0.2662460804 -0.1542594284 0.5657323003 4285633564
-0.2663082182 -0.1536667049 0.5658643842 4285699357
-0.2659565508 -0.1528358907 0.5651170611 4285568026
-0.2660181820 -0.1522432715 0.5652480125 4285304854
-0.2652519643 -0.1511785537 0.5636199713 4284975887
-0.2653129697 -0.1505869627 0.5637496114 4284712715
-0.2649597824 -0.1497609615 0.5629990697 4284449545
-0.2650202811 -0.1491694748 0.5631276369 4284317959
-0.2646663487 -0.1483454257 0.5623756051 4283988489
-0.2651406229 -0.1479852945 0.5633833408 4283856903
-0.2647860944 -0.1471623033 0.5626300573 4283658763
-0.2648456395 -0.1465701312 0.5627565980 4283592970
-0.2649049759 -0.1459775716 0.5628826618 4283724052
-0.2653787732 -0.1456121206 0.5638893843 4283789845
-0.2654377520 -0.1450178325 0.5640147328 4283723801
-0.2659113705 -0.1446488202 0.5650210977 4283723801
-0.2663849592 -0.1442775428 0.5660274029 4283065624
-0.2668585181 -0.1439040005 0.5670336485 4282999831
-0.2677471638 -0.1437510848 0.5689218640 4283523648
-0.2682207227 -0.1433721185 0.5699281096 4287997572
-0.2766988873 -0.1413714737 0.5879428983 4292666347
-0.2775889039 -0.1411708593 0.5898340344 4291285459
-0.2772302330 -0.1403339654 0.5890719295 4290298564
-0.2772875428 -0.1397083253 0.5891937017 4288521390
-0.2769281566 -0.1388734728 0.5884300470 4287271323
-0.2765683830 -0.1380401105 0.5876656175 4286086794
-0.2766247988 -0.1374152005 0.5877854824 4285428864
-0.2762643099 -0.1365838945 0.5870195031 4285165178
-0.2759034038 -0.1357540935 0.5862526298 4285099385
-0.2755421102 -0.1349258125 0.5854849219 4285296510
-0.2751803994 -0.1340990365 0.5847163200 4285691268
-0.2752353251 -0.1334760040 0.5848330259 4286480786
-0.2748728991 -0.1326513141 0.5840629339 4287599267
-0.2745100558 -0.1318281442 0.5832920074 4288454576
-0.2741468549 -0.1310064793 0.5825202465 4288980920
-0.2737832367 -0.1301863641 0.5817475915 4289309372
-0.2734192014 -0.1293677688 0.5809741020 4289375165
-0.2730548084 -0.1285506934 0.5801997781 4289375165
-0.2731075883 -0.1279307753 0.5803119540 4289440958
-0.2727424502 -0.1271158457 0.5795361400 4289900995
-0.2719591856 -0.1261087209 0.5778717995 4289900995
-0.2715931833 -0.1252978146 0.5770940781 4289966534
-0.2712267935 -0.1244884655 0.5763155818 4290098120
-0.2708600163 -0.1236806586 0.5755362511 4290163913
-0.2700747848 -0.1226844862 0.5738676786 4290032327
-0.2697071433 -0.1218807399 0.5730865002 4289966534
-0.2693391144 -0.1210785508 0.5723044872 4290098120
-0.2685523629 -0.1200908720 0.5706328154 4289966534
-0.2681834698 -0.1192927733 0.5698489547 4289966534
-0.2682326734 -0.1186813861 0.5699535012 4290032327
-0.2678630650 -0.1178854778 0.5691681504 4290032327
-0.2674930990 -0.1170911342 0.5683820248 4289966534
-0.2667040527 -0.1161160916 0.5667054057 4289966534
-0.2663332224 -0.1153258681 0.5659174323 4289966534
-0.2659620047 -0.1145372316 0.5651286840 4289900741
-0.2655904293 -0.1137501821 0.5643391013 4289638339
-0.2647994459 -0.1127862632 0.5626584291 4289572546
-0.2644270062 -0.1120033562 0.5618670583 4289572546
-0.2640542090 -0.1112220511 0.5610749125 4289638339
-0.2636809945 -0.1104423478 0.5602819324 4289572546
-0.2633074224 -0.1096642390 0.5594881177 4289572546
-0.2629334629 -0.1088877469 0.5586935282 4289506753
-0.2621397078 -0.1079401523 0.5570068955 4289440960
-0.2617649436 -0.1071678400 0.5562105179 4289440960
-0.2618093491 -0.1065679267 0.5563049316 4289440960
-0.2614338696 -0.1057978868 0.5555071235 4289375167
-0.2614777386 -0.1051983312 0.5556002855 4289375167
-0.2606818080 -0.1042626798 0.5539090633 4289375167
-0.2603052258 -0.1034975126 0.5531088710 4289309374
-0.2603481710 -0.1028999463 0.5532001853 4289243581
-0.2599709332 -0.1021370813 0.5523985028 4289309374
-0.2595932782 -0.1013758555 0.5515961051 4289046454
-0.2596353889 -0.1007793397 0.5516855717 4288980661
-0.2592570782 -0.1000204235 0.5508817434 4288914868
-0.2588784099 -0.0992631540 0.5500770807 4288914868
-0.2589196563 -0.0986677036 0.5501647592 4288914868
-0.2585403025 -0.0979127660 0.5493587255 4288849075
-0.2590014935 -0.0974759609 0.5503386855 4288914868
-0.2586215436 -0.0967223942 0.5495313406 4288980661
-0.2586618066 -0.0961267874 0.5496168733 4289046454
-0.2582811713 -0.0953755677 0.5488080978 4289178040
-0.2583208978 -0.0947803780 0.5488924980 4289309626
-0.2583603859 -0.0941849202 0.5489764214 4289309626
-0.2583996356 -0.0935891792 0.5490598083 4289506235
-0.2580177486 -0.0928417221 0.5482483506 4289572028
-0.2576355040 -0.0920959339 0.5474361181 4289637821
-0.2572528720 -0.0913518220 0.5466231108 4289637821
-0.2568698823 -0.0906093866 0.5458093286 4289572798
-0.2564865351 -0.0898686349 0.5449947715 4289572798
-0.2561028302 -0.0891295671 0.5441794395 4289507005
-0.2557187676 -0.0883921906 0.5433633327 4289178040
-0.2553343475 -0.0876564980 0.5425465107 4288519856
-0.2553709745 -0.0870661810 0.5426242948 4288125098
-0.2545644045 -0.0861902013 0.5409105420 4288125098
-0.2541789114 -0.0854596049 0.5400913954 4288256684
-0.2550578117 -0.0851529464 0.5419589281 4288848821
-0.2538284957 -0.0841432810 0.5393468142 4289572544
-0.2538636923 -0.0835556090 0.5394216180 4290164683
-0.2534768879 -0.0828298777 0.5385997295 4290296269
-0.2539333701 -0.0823795497 0.5395696759 4290296269
-0.2535459995 -0.0816552863 0.5387465358 4290362062
-0.2531582415 -0.0809327438 0.5379226804 4290362062
-0.2527701557 -0.0802119225 0.5370980501 4290296269
-0.2523817122 -0.0794928223 0.5362726450 4290164684
-0.2524150312 -0.0789073929 0.5363434553 4290427856
-0.2520259619 -0.0781907663 0.5355166793 4290625234
-0.2516365349 -0.0774758682 0.5346891880 4290625234
-0.2512467504 -0.0767627060 0.5338609815 4290625234
-0.2512789369 -0.0761793032 0.5339294076 4290756820
-0.2517332733 -0.0757227391 0.5348947644 4290954199
-0.2517650425 -0.0751379132 0.5349622965 4291085785
-0.2522190511 -0.0746779591 0.5359269977 4290756820
-0.2522504032 -0.0740917102 0.5359936357 4290954199
-0.2527040839 -0.0736283734 0.5369576216 4291151576
-0.2531576455 -0.0731628537 0.5379213691 4291217369
-0.2531883717 -0.0725739896 0.5379866958 4291217369
-0.2532188594 -0.0719849169 0.5380514860 4291348955
-0.2532491088 -0.0713956282 0.5381157398 4291612127
-0.2532791197 -0.0708061382 0.5381795168 4291743713
-0.2533088923 -0.0702164322 0.5382427573 4291480541
-0.2533384264 -0.0696265176 0.5383054614 4291546334
-0.2533676922 -0.0690364018 0.5383676887 4291612127
-0.2538197637 -0.0685603470 0.5393282771 4291612127
-0.2538486123 -0.0679688379 0.5393895507 4291612127
-0.2538772225 -0.0673771277 0.5394503474 4291612127
-0.2539055645 -0.0667852163 0.5395106077 4291612127
-0.2543569207 -0.0663034320 0.5404696465 4291612127
-0.2543848157 -0.0657101423 0.5405289531 4291414748
-0.2544125021 -0.0651166588 0.5405877233 4291283162
-0.2544399202 -0.0645229816 0.5406460166 4291217369
-0.2544670999 -0.0639291182 0.5407037735 4291151576
-0.2549175024 -0.0634404421 0.5416607857 4291151576
-0.2549442351 -0.0628452078 0.5417175889 4291085783
-0.2549706995 -0.0622497872 0.5417738557 4291151576
-0.2554205358 -0.0617565960 0.5427296758 4291283162
-0.2554465532 -0.0611598194 0.5427849889 4291415002
-0.2558960319 -0.0606632978 0.5437399745 4291480795
-0.2559216022 -0.0600651652 0.5437943339 4291480795
-0.2559469342 -0.0594668575 0.5438482165 4291415002
-0.2555482388 -0.0587709099 0.5430009961 4291612379
-0.2555730343 -0.0581732392 0.5430536866 4291875551
-0.2555975616 -0.0575753972 0.5431058407 4292270308
-0.2556218803 -0.0569773838 0.5431574583 4292665066
-0.2556459308 -0.0563791990 0.5432085395 4293125869
-0.2765471339 -0.1939828098 0.5890104771 4283393093
-0.2766231596 -0.1933815330 0.5891724825 4283260992
-0.2766990364 -0.1927797794 0.5893340111 4283326785
-0.2767746747 -0.1921775192 0.5894951820 4283326785
-0.2764424086 -0.1912926286 0.5887874961 4283260992
-0.2765175700 -0.1906902641 0.5889475942 4283195451
-0.2765925527 -0.1900874227 0.5891072154 4282998072
-0.2770753801 -0.1897635609 0.5901355743 4282800946
-0.2767418623 -0.1888802648 0.5894253254 4282603567
-0.2768162489 -0.1882759482 0.5895836949 4282406439
-0.2768904269 -0.1876711547 0.5897416472 4282209060
-0.2769643962 -0.1870658696 0.5898992419 4282275105
-0.2770381570 -0.1864601076 0.5900563598 4282143519
-0.2771117389 -0.1858538538 0.5902130604 4282011933
-0.2767762840 -0.1849738955 0.5894985795 4281551382
-0.2764404118 -0.1840952486 0.5887832046 4281485084
-0.2765131593 -0.1834893376 0.5889381170 4281221912
-0.2765856981 -0.1828829646 0.5890926719 4281287454
-0.2762487829 -0.1820064634 0.5883750916 4281221661
-0.2763208449 -0.1814000309 0.5885285139 4281683477
-0.2763926685 -0.1807931215 0.5886815190 4281880856
-0.2760547101 -0.1799187958 0.5879617333 4282012695
-0.2757163644 -0.1790457964 0.5872410536 4282078488
-0.2757873833 -0.1784392893 0.5873923302 4282210321
-0.2758581936 -0.1778322905 0.5875431299 4282473493
-0.2755187750 -0.1769614965 0.5868202448 4283065873
-0.2751789689 -0.1760920584 0.5860965252 4283658010
-0.2752489448 -0.1754854769 0.5862455368 4284382486
-0.2744981050 -0.1743571907 0.5846463442 4284974623
-0.2737466395 -0.1732320637 0.5830458403 4285435674
-0.2734050751 -0.1723689139 0.5823183060 4285633053
-0.2730630934 -0.1715071201 0.5815899372 4285699099
-0.2727206945 -0.1706466824 0.5808606744 4285962271
-0.2723778784 -0.1697876155 0.5801305771 4286225444
-0.2716237307 -0.1686747372 0.5785242915 4286159651
-0.2712800205 -0.1678193212 0.5777922273 4286160161
-0.2709358633 -0.1669652760 0.5770592093 4285765403
-0.2705913186 -0.1661126018 0.5763253570 4285699357
-0.2702463567 -0.1652613133 0.5755906701 4285830943
-0.2699009776 -0.1644114107 0.5748550892 4286093604
-0.2695552111 -0.1635628790 0.5741186142 4286159397
-0.2692090273 -0.1627157629 0.5733812451 4286159397
-0.2692741752 -0.1621179134 0.5735200047 4285962018
-0.2689272761 -0.1612726599 0.5727811456 4285699099
-0.2685799599 -0.1604287922 0.5720414519 4285962271
-0.2682322264 -0.1595863402 0.5713008642 4285962271
-0.2678841352 -0.1587452888 0.5705593824 4285896478
-0.2675355971 -0.1579056531 0.5698170662 4286028064
-0.2675989866 -0.1573098153 0.5699521303 4285962271
-0.2672497630 -0.1564720869 0.5692082644 4286028064
-0.2669001222 -0.1556357592 0.5684635639 4286357029
-0.2665500641 -0.1548008770 0.5677180290 4286028064
-0.2661996186 -0.1539673954 0.5669716001 4285896478
-0.2658487558 -0.1531353593 0.5662243366 4285633306
-0.2659104168 -0.1525416076 0.5663556457 4285435927
-0.2655588388 -0.1517114937 0.5656068325 4285238546
-0.2652068734 -0.1508828253 0.5648572445 4284975374
-0.2648545206 -0.1500555873 0.5641067028 4284646411
-0.2645017505 -0.1492298096 0.5633553863 4284514825
-0.2645619512 -0.1486376971 0.5634836555 4284382986
-0.2646219730 -0.1480451971 0.5636114478 4284185607
-0.2642681897 -0.1472219080 0.5628579259 4283856395
-0.2643276751 -0.1466295272 0.5629845858 4283790602
-0.2643869519 -0.1460367441 0.5631108284 4283790099
-0.2648598254 -0.1456711739 0.5641180277 4283790099
-0.2653326988 -0.1453033537 0.5651252270 4283789848
-0.2653914988 -0.1447075307 0.5652504563 4283789848
-0.2658642232 -0.1443361342 0.5662572980 4283657759
-0.2663368881 -0.1439624727 0.5672640204 4283855138
-0.2672238350 -0.1438095123 0.5691530704 4284642127
-0.2676965296 -0.1434304118 0.5701598525 4287339640
-0.2768032253 -0.1391391903 0.5895559788 4291942108
-0.2768599987 -0.1385125518 0.5896768570 4290494408
-0.2765007317 -0.1376784891 0.5889117122 4289244341
-0.2765569389 -0.1370520145 0.5890313983 4288125863
-0.2761969566 -0.1362200230 0.5882647038 4286941589
-0.2758365571 -0.1353895217 0.5874971151 4286020235
-0.2754757702 -0.1345605403 0.5867286921 4285428098
-0.2751145959 -0.1337330788 0.5859593749 4285296514
-0.2751693130 -0.1331084967 0.5860759020 4285822858
-0.2748073936 -0.1322831064 0.5853050947 4286217616
-0.2744450867 -0.1314592510 0.5845334530 4286875546
-0.2744989395 -0.1308354586 0.5846481323 4287730853
-0.2741359174 -0.1300137043 0.5838749409 4288388783
-0.2737725079 -0.1291934848 0.5831009150 4288980920
-0.2738254666 -0.1285704821 0.5832137465 4289309885
-0.2730444670 -0.1275576353 0.5815503001 4289967302
-0.2730968297 -0.1269358248 0.5816617608 4289901509
-0.2727319002 -0.1261208057 0.5808845758 4289901509
-0.2723665833 -0.1253073215 0.5801064968 4289967302
-0.2715837061 -0.1243044585 0.5784389973 4289835716
-0.2712175250 -0.1234950349 0.5776591301 4289704130
-0.2708509266 -0.1226871684 0.5768783689 4289900741
-0.2704839706 -0.1218808591 0.5760967731 4290098120
-0.2701166272 -0.1210761145 0.5753143430 4289966534
-0.2697488666 -0.1202729270 0.5745310783 4289966534
-0.2689630985 -0.1192860901 0.5728574991 4290032327
-0.2685945034 -0.1184870005 0.5720723867 4290032327
-0.2682254910 -0.1176894829 0.5712864995 4289966534
-0.2678561211 -0.1168935448 0.5704997778 4289966534
-0.2674863636 -0.1160991862 0.5697122216 4289966534
-0.2666981816 -0.1151259691 0.5680335164 4289834948
-0.2663275898 -0.1143357381 0.5672441721 4289704132
-0.2655384243 -0.1133685634 0.5655633807 4289704132
-0.2651669681 -0.1125824749 0.5647722483 4289704132
-0.2647951543 -0.1117979884 0.5639802814 4289638339
-0.2644229233 -0.1110150963 0.5631874800 4289704132
-0.2640503347 -0.1102338061 0.5623939037 4289704132
-0.2632588148 -0.1092803851 0.5607081056 4289638339
-0.2628853917 -0.1085032746 0.5599127412 4289638339
-0.2625116110 -0.1077277660 0.5591166019 4289572546
-0.2621374130 -0.1069538817 0.5583196282 4289638339
-0.2617628574 -0.1061816141 0.5575218797 4289441473
-0.2618068159 -0.1055798978 0.5576155186 4289375680
-0.2614315748 -0.1048099101 0.5568163395 4289375680
-0.2610559762 -0.1040415466 0.5560163260 4289309887
-0.2602608800 -0.1031087786 0.5543228984 4289178301
-0.2598844469 -0.1023446470 0.5535211563 4289244094
-0.2595076561 -0.1015821546 0.5527185798 4289177786
-0.2595497966 -0.1009844318 0.5528083444 4289243579
-0.2591723204 -0.1002242491 0.5520043373 4289177786
-0.2587944865 -0.0994657129 0.5511996150 4289177786
-0.2588357627 -0.0988690630 0.5512875319 4289111993
-0.2592963874 -0.0984314010 0.5522686243 4289111993
-0.2589176297 -0.0976749137 0.5514619350 4289046454
-0.2585385144 -0.0969200730 0.5506544709 4289046454
-0.2585788071 -0.0963232666 0.5507402420 4289111477
-0.2581990063 -0.0955707803 0.5499313474 4289111477
-0.2582387626 -0.0949743837 0.5500159860 4289308856
-0.2582782805 -0.0943777114 0.5501001477 4289374649
-0.2583175600 -0.0937807709 0.5501837730 4289374649
-0.2579364777 -0.0930320323 0.5493721962 4289506235
-0.2575550675 -0.0922849774 0.5485598445 4289637821
-0.2571732700 -0.0915395916 0.5477466583 4289703614
-0.2563708425 -0.0906472877 0.5460376143 4289835970
-0.2559882700 -0.0899062380 0.5452227592 4289704384
-0.2556053400 -0.0891668722 0.5444071889 4289769923
-0.2552220523 -0.0884291902 0.5435908437 4289967302
-0.2548384070 -0.0876932070 0.5427737236 4290164681
-0.2548750043 -0.0871026441 0.5428516269 4290164681
-0.2540700436 -0.0862263143 0.5411371589 4289769923
-0.2541060448 -0.0856372043 0.5412138104 4289375165
-0.2541417778 -0.0850478411 0.5412899852 4288914614
-0.2537564635 -0.0843183994 0.5404692888 4288322477
-0.2537916899 -0.0837295130 0.5405443311 4288190891
-0.2529847920 -0.0828646347 0.5388256907 4288783028
-0.2534404099 -0.0824141204 0.5397961140 4289506751
-0.2530538142 -0.0816895664 0.5389727354 4290033095
-0.2526668608 -0.0809667259 0.5381485224 4290362060
-0.2527007163 -0.0803795755 0.5382206440 4290493646
-0.2523131073 -0.0796592012 0.5373951197 4290756051
-0.2519251704 -0.0789405555 0.5365688205 4290887637
-0.2515368462 -0.0782236308 0.5357418060 4290953430
-0.2511482239 -0.0775084421 0.5349140167 4290821844
-0.2511806786 -0.0769240558 0.5349831581 4290690257
-0.2512128651 -0.0763394386 0.5350517631 4290887636
-0.2516663969 -0.0758817047 0.5360177159 4290954199
-0.2516981959 -0.0752956569 0.5360854268 4290888406
-0.2517297566 -0.0747093931 0.5361526012 4290954199
-0.2517610788 -0.0741229132 0.5362192988 4291019992
-0.2522138953 -0.0736593828 0.5371838212 4291019992
-0.2526972890 -0.0726045743 0.5382133722 4291085783
-0.2527277470 -0.0720152631 0.5382782817 4291151576
-0.2527579665 -0.0714257360 0.5383425951 4291414748
-0.2527879477 -0.0708359927 0.5384064317 4291612127
-0.2528176904 -0.0702460483 0.5384697914 4291612127
-0.2528471649 -0.0696558952 0.5385326147 4291677920
-0.2532985806 -0.0691808388 0.5394940376 4291743713
-0.2533276379 -0.0685892850 0.5395559669 4291743713
-0.2537787259 -0.0681108609 0.5405166745 4291743713
-0.2538073361 -0.0675179213 0.5405776501 4291743713
-0.2538357079 -0.0669247881 0.5406380296 4291677920
-0.2538638413 -0.0663314462 0.5406979918 4291677920
-0.2538917363 -0.0657379106 0.5407573581 4291612127
-0.2539193630 -0.0651441813 0.5408162475 4291546334
-0.2539467514 -0.0645502657 0.5408746004 4291348955
-0.2539739013 -0.0639561489 0.5409324169 4291217369
-0.2544234395 -0.0634672716 0.5418898463 4291085783
-0.2544501424 -0.0628717914 0.5419467092 4291085783
-0.2548993230 -0.0623795763 0.5429034233 4291217369
-0.2553483546 -0.0618851930 0.5438597798 4291283162
-0.2553744018 -0.0612871759 0.5439152718 4291415002
-0.2554001808 -0.0606889799 0.5439702272 4291415002
-0.2554257512 -0.0600906014 0.5440246463 4291415002
-0.2554510534 -0.0594920442 0.5440785289 4291480795
-0.2554761171 -0.0588933118 0.5441319346 4291546588
-0.2555009127 -0.0582944006 0.5441847444 4291678174
-0.2551024258 -0.0575997978 0.5433360338 4291875553
-0.2551266849 -0.0570015348 0.5433877110 4291941346
-0.2555738688 -0.0564966388 0.5443400741 4292138723
-0.2555976808 -0.0558970459 0.5443907976 4292665067
-0.2560444474 -0.0553888381 0.5453423858 4293257457
-0.2757142186 -0.1892790943 0.5886290073 4283392580
-0.2757886052 -0.1886759698 0.5887877345 4283326787
-0.2758627534 -0.1880723536 0.5889461040 4283260992
-0.2759367526 -0.1874682456 0.5891040564 4283195199
-0.2760105133 -0.1868636608 0.5892615318 4282998325
-0.2760840952 -0.1862585843 0.5894186497 4282800946
-0.2761574686 -0.1856530309 0.5895752907 4282669611
-0.2762306333 -0.1850469857 0.5897315145 4282274853
-0.2758954763 -0.1841680259 0.5890159607 4282340646
-0.2759681642 -0.1835619211 0.5891711116 4282143267
-0.2760406137 -0.1829553396 0.5893258452 4282011681
-0.2761128843 -0.1823482811 0.5894801021 4281748509
-0.2757763863 -0.1814718992 0.5887616873 4281551633
-0.2758481503 -0.1808647811 0.5889148712 4281617426
-0.2759196758 -0.1802572012 0.5890676379 4281616921
-0.2755821645 -0.1793829948 0.5883470178 4281616921
-0.2756531835 -0.1787753701 0.5884986520 4281616670
-0.2757240236 -0.1781672686 0.5886498690 4281682463
-0.2757946253 -0.1775587052 0.5888006687 4281880347
-0.2754557729 -0.1766871363 0.5880771875 4282143519
-0.2751164734 -0.1758169234 0.5873528123 4282604820
-0.2755957842 -0.1754694879 0.5883761048 4283131164
-0.2740270495 -0.1738206893 0.5850269794 4283526927
-0.2736864090 -0.1729554087 0.5842997432 4283855892
-0.2733453512 -0.1720914990 0.5835716128 4284185358
-0.2730038762 -0.1712289453 0.5828426480 4284711702
-0.2726620138 -0.1703677475 0.5821127295 4285369630
-0.2723197341 -0.1695079207 0.5813819766 4285632802
-0.2715668082 -0.1683950871 0.5797745585 4285765403
-0.2708132863 -0.1672854573 0.5781658292 4285896989
-0.2712904215 -0.1669366658 0.5791844726 4286159908
-0.2705359459 -0.1658307016 0.5775737762 4286291494
-0.2706021369 -0.1652293801 0.5777150989 4286159910
-0.2698466778 -0.1641280055 0.5761021972 4285962531
-0.2703230679 -0.1637765467 0.5771192908 4285896740
-0.2695666850 -0.1626788527 0.5755044818 4285896740
-0.2692207098 -0.1618314683 0.5747658610 4285830945
-0.2688743472 -0.1609854698 0.5740263462 4285830945
-0.2685275674 -0.1601408720 0.5732859969 4285764893
-0.2685917020 -0.1595420092 0.5734229088 4285764893
-0.2678327858 -0.1584559083 0.5718026757 4285962269
-0.2674847841 -0.1576155275 0.5710597634 4285962269
-0.2679595947 -0.1572597027 0.5720734596 4285962523
-0.2671992779 -0.1561796814 0.5704502463 4286225695
-0.2668501735 -0.1553426385 0.5697048903 4286159650
-0.2665006518 -0.1545070112 0.5689586997 4286028064
-0.2661507130 -0.1536728144 0.5682116151 4285896478
-0.2658003867 -0.1528400481 0.5674636960 4285830685
-0.2654496729 -0.1520087123 0.5667149425 4285699097
-0.2650985420 -0.1511788070 0.5659652948 4285370132
-0.2647470236 -0.1503503472 0.5652148128 4284909583
-0.2648075521 -0.1497565955 0.5653440952 4284646411
-0.2644553185 -0.1489300877 0.5645920634 4284448779
-0.2641026974 -0.1481050402 0.5638391972 4284251400
-0.2641623914 -0.1475119144 0.5639666915 4283856393
-0.2642219067 -0.1469184011 0.5640937686 4283724807
-0.2642812133 -0.1463244855 0.5642203689 4283855890
-0.2643402815 -0.1457301676 0.5643464923 4283855890
-0.2648122609 -0.1453622133 0.5653541088 4283789846
-0.2652842104 -0.1449920237 0.5663617253 4283855639
-0.2653428316 -0.1443946511 0.5664868355 4283724065
-0.2658146322 -0.1440208703 0.5674940944 4284447788
-0.2666998804 -0.1438678801 0.5693840384 4285497436
-0.2671717107 -0.1434886456 0.5703913569 4287339640
-0.2764306068 -0.1373142302 0.5901584029 4292731372
-0.2764866054 -0.1366862059 0.5902779102 4291678684
-0.2761271298 -0.1358535141 0.5895105004 4290297032
-0.2757672668 -0.1350223273 0.5887421966 4288981172
-0.2754069865 -0.1341926455 0.5879730582 4287796646
-0.2754617929 -0.1335659474 0.5880900621 4287138716
-0.2751007974 -0.1327383518 0.5873193741 4286284177
-0.2751550674 -0.1321118474 0.5874352455 4286284177
-0.2747933567 -0.1312863678 0.5866630077 4286613142
-0.2744312584 -0.1304623932 0.5858899355 4286876314
-0.2744846642 -0.1298366785 0.5860039592 4287402658
-0.2741218209 -0.1290148348 0.5852293372 4287994795
-0.2737586200 -0.1281945109 0.5844539404 4288520369
-0.2733950019 -0.1273757368 0.5836776495 4288980920
-0.2734472156 -0.1267514229 0.5837891102 4289441471
-0.2730828822 -0.1259347945 0.5830112696 4289507264
-0.2727181911 -0.1251196861 0.5822326541 4289441471
-0.2723530531 -0.1243061498 0.5814531446 4289573057
-0.2724040747 -0.1236832812 0.5815621018 4289769923
-0.2716216743 -0.1226837263 0.5798916817 4289769923
-0.2712553740 -0.1218748540 0.5791096687 4289835716
-0.2708887160 -0.1210675389 0.5783268809 4289835716
-0.2701047957 -0.1200764924 0.5766533017 4290032327
-0.2697372735 -0.1192732751 0.5758686662 4289966534
-0.2689523697 -0.1182882339 0.5741929412 4290032327
-0.2685839832 -0.1174891144 0.5734064579 4290098120
-0.2682152092 -0.1166915745 0.5726191401 4290098120
-0.2678460479 -0.1158956215 0.5718309879 4289966534
-0.2674764991 -0.1151012480 0.5710420609 4289900741
-0.2666892111 -0.1141298637 0.5693612695 4289966534
-0.2659013867 -0.1131619811 0.5676793456 4289966534
-0.2655305564 -0.1123743057 0.5668876171 4289900741
-0.2651593089 -0.1115882248 0.5660950541 4289769925
-0.2647877038 -0.1108037531 0.5653017163 4289769925
-0.2644157112 -0.1100208759 0.5645075440 4289835718
-0.2640433311 -0.1092396155 0.5637125373 4289835718
-0.2632527351 -0.1082880720 0.5620246530 4289769925
-0.2628795207 -0.1075109914 0.5612278581 4289769925
-0.2625059485 -0.1067355350 0.5604303479 4289704132
-0.2621319890 -0.1059616879 0.5596319437 4289638339
-0.2617576718 -0.1051894724 0.5588328242 4289507266
-0.2613829672 -0.1044188812 0.5580328107 4289441473
-0.2610078752 -0.1036499143 0.5572320819 4289375680
-0.2606324255 -0.1028825864 0.5564305186 4289375680
-0.2598381937 -0.1019527167 0.5547348261 4289375678
-0.2598804235 -0.1013528332 0.5548250079 4289441471
-0.2595038414 -0.1005904153 0.5540210605 4289506751
-0.2595455348 -0.0999909118 0.5541100502 4289440958
-0.2591682971 -0.0992308185 0.5533046722 4289440958
-0.2587906718 -0.0984723717 0.5524984598 4289440958
-0.2588315308 -0.0978739485 0.5525856614 4289375165
-0.2588721216 -0.0972752497 0.5526723862 4289375165
-0.2584935427 -0.0965198278 0.5518641472 4289178040
-0.2585335970 -0.0959215313 0.5519496799 4289112247
-0.2581543624 -0.0951684639 0.5511400104 4289243063
-0.2581938803 -0.0945705920 0.5512244105 4289308856
-0.2582331896 -0.0939724371 0.5513082743 4289374649
-0.2578529716 -0.0932224318 0.5504965186 4289374649
-0.2574723661 -0.0924741030 0.5496839881 4289440442
-0.2566720247 -0.0915778130 0.5479753613 4289506235
-0.2562906742 -0.0908338055 0.5471611619 4289375165
-0.2559089363 -0.0900914818 0.5463461876 4289506751
-0.2551072538 -0.0892041326 0.5446346402 4289704130
-0.2547247410 -0.0884661525 0.5438179970 4289704130
-0.2547615767 -0.0878746435 0.5438966751 4289704130
-0.2547981739 -0.0872828662 0.5439748168 4289901509
-0.2544147074 -0.0865480229 0.5431561470 4290164681
-0.2540308833 -0.0858148783 0.5423367023 4290296267
-0.2532267869 -0.0849425718 0.5406199694 4290164681
-0.2532621920 -0.0843537003 0.5406956077 4290230474
-0.2528772950 -0.0836256668 0.5398738980 4290033095
-0.2533323169 -0.0831752196 0.5408452749 4289440958
-0.2529468238 -0.0824486539 0.5400223136 4288783028
-0.2525610030 -0.0817238092 0.5391986370 4288585649
-0.2521748245 -0.0810006782 0.5383741856 4288848823
-0.2517883182 -0.0802792609 0.5375489593 4289177788
-0.2514014244 -0.0795595795 0.5367230177 4290098120
-0.2510142028 -0.0788416117 0.5358963013 4290492878
-0.2506266236 -0.0781253800 0.5350688696 4290822613
-0.2506592870 -0.0775409862 0.5351386070 4290888406
-0.2506917119 -0.0769563541 0.5352078080 4290625234
-0.2511445582 -0.0764996409 0.5361745954 4290625234
-0.2511765659 -0.0759135857 0.5362429023 4290822613
-0.2512083054 -0.0753273070 0.5363107324 4291019992
-0.2512398362 -0.0747407973 0.5363780260 4290888404
-0.2512710989 -0.0741540790 0.5364447832 4290822611
-0.2513021529 -0.0735671371 0.5365110636 4290888404
-0.2517539561 -0.0731022209 0.5374755859 4291085783
-0.2522056103 -0.0726351216 0.5384398699 4291283162
-0.2522360384 -0.0720455721 0.5385047793 4291414748
-0.2522661984 -0.0714557990 0.5385692716 4291546334
-0.2522961497 -0.0708658248 0.5386331677 4291612127
-0.2523258626 -0.0702756345 0.5386965871 4291612127
-0.2527765930 -0.0698015764 0.5396589041 4291677920
-0.2528058589 -0.0692099854 0.5397213697 4291743713
-0.2528348863 -0.0686181933 0.5397833586 4291809506
-0.2532851100 -0.0681395754 0.5407445431 4291875299
-0.2533136904 -0.0675463974 0.5408055782 4291941092
-0.2533420324 -0.0669530109 0.5408660769 4291875299
-0.2537917197 -0.0664698407 0.5418261290 4291809506
-0.2533980012 -0.0657656491 0.5409855247 4291875299
-0.2538472712 -0.0652801171 0.5419446826 4291875299
-0.2534529567 -0.0645775124 0.5411028862 4291743713
-0.2539018393 -0.0640896112 0.5420612097 4291480541
-0.2539287806 -0.0634940788 0.5421186686 4291217369
-0.2543773055 -0.0630028322 0.5430762768 4291151576
-0.2544037700 -0.0624059290 0.5431327820 4291217369
-0.2544299960 -0.0618088394 0.5431887507 4291348955
-0.2548779547 -0.0613130815 0.5441451669 4291348955
-0.2549037337 -0.0607146360 0.5442001820 4291348955
-0.2549292743 -0.0601160079 0.5442546606 4291348955
-0.2549545467 -0.0595172048 0.5443086028 4291414748
-0.2545574307 -0.0588206761 0.5434607863 4291480795
-0.2545821667 -0.0582225099 0.5435136557 4291546588
-0.2546066642 -0.0576241724 0.5435659289 4291546588
-0.2550531626 -0.0571202300 0.5445191860 4291546588
-0.2550772130 -0.0565205552 0.5445705056 4291678174
-0.2551009953 -0.0559207126 0.5446212888 4291941346
-0.2551245391 -0.0553207025 0.5446715355 4292138723
-0.2555702627 -0.0548111275 0.5456231236 4292533481
-0.2555933297 -0.0542097948 0.5456723571 4293125871
-0.2749102712 -0.1878684461 0.5883075595 4283590209
-0.2749840319 -0.1872650385 0.5884654522 4283458623
-0.2750576138 -0.1866611391 0.5886229277 4283524669
-0.2751309872 -0.1860567629 0.5887799263 4283261497
-0.2752041817 -0.1854518950 0.5889365673 4283195702
-0.2752771676 -0.1848465502 0.5890927315 4283064116
-0.2749426067 -0.1839681864 0.5883768201 4283195702
-0.2750150859 -0.1833627671 0.5885319114 4283064116
-0.2750873566 -0.1827568859 0.5886865854 4282932530
-0.2751594186 -0.1821505278 0.5888407826 4282603565
-0.2752313018 -0.1815436780 0.5889945626 4282340393
-0.2753029764 -0.1809363663 0.5891479254 4282208807
-0.2753744125 -0.1803285778 0.5893008709 4282011681
-0.2750376165 -0.1794540584 0.5885801315 4281880095
-0.2751085758 -0.1788462400 0.5887319446 4281682968
-0.2751792967 -0.1782379299 0.5888833404 4281551382
-0.2752498388 -0.1776291579 0.5890343189 4281551380
-0.2749117017 -0.1767572910 0.5883106589 4281485587
-0.2749817371 -0.1761484891 0.5884605050 4281617171
-0.2750515342 -0.1755392253 0.5886099339 4281748757
-0.2747123539 -0.1746695787 0.5878840685 4281880848
-0.2743727565 -0.1738012731 0.5871573091 4282209813
-0.2736237347 -0.1726762205 0.5855544209 4282605073
-0.2732832134 -0.1718115360 0.5848256946 4282999831
-0.2725330591 -0.1706919223 0.5832203627 4283658008
-0.2721916139 -0.1698308736 0.5824896693 4284052766
-0.2722591460 -0.1692256778 0.5826342106 4284382999
-0.2719169855 -0.1683664620 0.5819019675 4284777757
-0.2711647749 -0.1672559679 0.5802922845 4285238557
-0.2708216906 -0.1664004028 0.5795580149 4285699108
-0.2704781890 -0.1655462384 0.5788229108 4285962529
-0.2705442011 -0.1649433672 0.5789641738 4285962529
-0.2701999545 -0.1640910506 0.5782275796 4285962784
-0.2698553503 -0.1632401198 0.5774900317 4286028577
-0.2695102990 -0.1623905897 0.5767516494 4285962784
-0.2691648602 -0.1615424603 0.5760124326 4285831198
-0.2692294121 -0.1609410644 0.5761505961 4285699612
-0.2688832581 -0.1600948125 0.5754098296 4285699612
-0.2685366869 -0.1592499614 0.5746681690 4285962782
-0.2681897283 -0.1584065259 0.5739256144 4286028575
-0.2678423524 -0.1575645059 0.5731822848 4286028062
-0.2674945593 -0.1567239016 0.5724380016 4286028062
-0.2671463788 -0.1558847129 0.5716928840 4286093857
-0.2667978108 -0.1550469398 0.5709469318 4286028064
-0.2664487958 -0.1542105973 0.5702000856 4286028577
-0.2660994232 -0.1533756703 0.5694523454 4286225956
-0.2657496035 -0.1525421888 0.5687038302 4286094370
-0.2653994262 -0.1517101377 0.5679543614 4285699612
-0.2650488317 -0.1508795172 0.5672041178 4285239061
-0.2646978199 -0.1500503421 0.5664529800 4284844303
-0.2643464208 -0.1492225975 0.5657009482 4284383499
-0.2639946342 -0.1483963132 0.5649481416 4284186120
-0.2640543580 -0.1478020549 0.5650759935 4283659527
-0.2641139030 -0.1472073942 0.5652033687 4283527941
-0.2641732097 -0.1466123313 0.5653302670 4283790610
-0.2642323077 -0.1460168660 0.5654567480 4283856403
-0.2642911971 -0.1454210132 0.5655828118 4283855898
-0.2647622824 -0.1450506896 0.5665909052 4284053277
-0.2652333081 -0.1446781009 0.5675989389 4283789858
-0.2657043338 -0.1443032622 0.5686068535 4284513581
-0.2661752999 -0.1439261734 0.5696147680 4285629022
-0.2666462362 -0.1435468048 0.5706225634 4287734398
-0.2756954730 -0.1346524954 0.5899878740 4292270821
-0.2757503688 -0.1340236664 0.5901054144 4291349719
-0.2753902972 -0.1331938654 0.5893348455 4290165192
-0.2754446566 -0.1325652301 0.5894511938 4289244090
-0.2750838697 -0.1317375302 0.5886790752 4287994795
-0.2747226954 -0.1309113503 0.5879061818 4287073693
-0.2747761607 -0.1302835047 0.5880206227 4286941853
-0.2744142711 -0.1294594407 0.5872461796 4287007646
-0.2744672000 -0.1288318187 0.5873594284 4286942107
-0.2741045952 -0.1280098706 0.5865834355 4287402658
-0.2741569877 -0.1273824722 0.5866955519 4287994795
-0.2742091119 -0.1267547160 0.5868071318 4288323760
-0.2738454640 -0.1259354949 0.5860289335 4288783541
-0.2734814286 -0.1251178384 0.5852499008 4289112506
-0.2731170058 -0.1243017167 0.5844700336 4289309885
-0.2727521658 -0.1234871522 0.5836892724 4289309885
-0.2723869681 -0.1226741523 0.5829077363 4289704130
-0.2720213532 -0.1218627095 0.5821253061 4289704130
-0.2712393403 -0.1208674535 0.5804517865 4289769923
-0.2704567611 -0.1198756695 0.5787771344 4289769923
-0.2700898349 -0.1190708429 0.5779919028 4289769923
-0.2697225213 -0.1182675883 0.5772057772 4289835716
-0.2693547904 -0.1174659133 0.5764188766 4289900995
-0.2685703039 -0.1164852232 0.5747401118 4289900995
-0.2682017684 -0.1156876683 0.5739513636 4290032327
-0.2674162686 -0.1147130206 0.5722704530 4290098120
-0.2670468688 -0.1139196008 0.5714799166 4290098120
-0.2666770816 -0.1131277755 0.5706885457 4290098120
-0.2663069069 -0.1123375446 0.5698964000 4290032327
-0.2655195296 -0.1113740802 0.5682113767 4290032327
-0.2651485205 -0.1105880141 0.5674174428 4290032327
-0.2647771239 -0.1098035574 0.5666226745 4289966534
-0.2644053400 -0.1090207100 0.5658270717 4289901511
-0.2640331984 -0.1082394719 0.5650306940 4289835718
-0.2636606693 -0.1074598581 0.5642334819 4289835718
-0.2628705204 -0.1065127850 0.5625425577 4289835718
-0.2624971569 -0.1057373732 0.5617435575 4289704132
-0.2621234357 -0.1049635783 0.5609437823 4289704132
-0.2617493272 -0.1041914150 0.5601432323 4289704132
-0.2613748610 -0.1034208834 0.5593418479 4289638339
-0.2605824172 -0.1024877429 0.5576459765 4289573059
-0.2606247962 -0.1018847227 0.5577366948 4289573059
