VERSION 0.7
FIELDS x y z rgba
SIZE 4 4 4 4
TYPE F F F U
COUNT 1 1 1 1
WIDTH 920
HEIGHT 1
VIEWPOINT 0.0 0.0 0.0 1.0 0.0 0.0 0.0
POINTS 920
DATA ascii
-0.2940274179 -0.1041386798 0.5770953298 4292731123
-0.2945212126 -0.1036712974 0.5780644417 4292599537
-0.2954632044 -0.1033585519 0.5799133778 4292533744
-0.2955083847 -0.1027299315 0.5800020099 4292533744
-0.2960017920 -0.1022559628 0.5809704661 4292599537
-0.2964950502 -0.1017797887 0.5819386244 4292665845
-0.2974368334 -0.1014544517 0.5837870836 4292600052
-0.2979299128 -0.1009729356 0.5847548246 4292600052
-0.2997691333 -0.1009425595 0.5883647203 4292534259
-0.3007109761 -0.1006039381 0.5902132988 4292402673
-0.3016528189 -0.1002612114 0.5920618773 4292468466
-0.3030436039 -0.1000626162 0.5947915912 4292665845
-0.3039854765 -0.0997107029 0.5966402888 4292731638
-0.3049273491 -0.0993546844 0.5984888673 4292731121
-0.3045217693 -0.0985584557 0.5976928473 4292731121
-0.3059126139 -0.0983414948 0.6004226804 4292665844
-0.3068543077 -0.0979750454 0.6022709608 4292665844
-0.3077959716 -0.0976044908 0.6041191816 4292797433
-0.3087376058 -0.0972298160 0.6059673429 4292994812
-0.3096792102 -0.0968510285 0.6078155041 4292994812
-0.3110702932 -0.0966077298 0.6105458140 4292863226
-0.3124614954 -0.0963583887 0.6132763624 4292468466
-0.3134030998 -0.0959653258 0.6151245236 4292336880
-0.3143447042 -0.0955681428 0.6169725657 4292205293
-0.3157359958 -0.0953025967 0.6197032928 4292205293
-0.3171273768 -0.0950310007 0.6224341989 4292402926
-0.3185188174 -0.0947533622 0.6251652241 4292731891
-0.2725711763 -0.1420235932 0.5361513495 4292008417
-0.2651318610 -0.1375678927 0.5215181112 4289046962
-0.2647490203 -0.1367906481 0.5207650661 4286678414
-0.2665725052 -0.1371502131 0.5243518949 4285757053
-0.2657479048 -0.1361451745 0.5227298737 4285757053
-0.2635980844 -0.1344677061 0.5185011625 4284703595
-0.2649801970 -0.1345936358 0.5212197900 4283585114
-0.2650374472 -0.1340434849 0.5213324428 4282270026
-0.2633272111 -0.1326030195 0.5179683566 4282335819
-0.2642675042 -0.1324989796 0.5198179483 4283585118
-0.2634399533 -0.1315082908 0.5181900859 4283519325
-0.2617275715 -0.1300814748 0.5148218274 4283585116
-0.2613408267 -0.1293181032 0.5140610933 4283321944
-0.2609536946 -0.1285562366 0.5132995844 4282992977
-0.2610085309 -0.1280128211 0.5134074688 4283256149
-0.2606207132 -0.1272530258 0.5126446486 4283387989
-0.2602324784 -0.1264947355 0.5118809938 4282993231
-0.2598438561 -0.1257379353 0.5111165643 4283124817
-0.2581265867 -0.1243428141 0.5077386498 4284177505
-0.2577368915 -0.1235918254 0.5069721341 4286085250
-0.2591185868 -0.1236880720 0.5096899271 4288782763
-0.2587284744 -0.1229364127 0.5089225769 4291546071
-0.2578948736 -0.1219766885 0.5072828531 4293519861
-0.2588335276 -0.1218549684 0.5091292262 4293980157
-0.2588857412 -0.1213137582 0.5092319250 4293453813
-0.2584943473 -0.1205654144 0.5084620714 4292926958
-0.2594330013 -0.1204362214 0.5103083849 4292992751
-0.2585975230 -0.1194832101 0.5086650252 4293256438
-0.2599797547 -0.1195536703 0.5113838315 4293716989
-0.2609185576 -0.1194151491 0.5132305026 4293914879
-0.2605260015 -0.1186661124 0.5124583244 4294507007
-0.2614648044 -0.1185223013 0.5143049955 4294770687
-0.2624037564 -0.1183744371 0.5161519051 4294770687
-0.2620105445 -0.1176244393 0.5153784752 4294507773
-0.2633936405 -0.1176697090 0.5180990696 4294573566
-0.2630000114 -0.1169190705 0.5173247457 4294574079
-0.2648277283 -0.1171528101 0.5209198594 4294442493
-0.2657670081 -0.1169874966 0.5227674842 4293916414
-0.2693734765 -0.1179863065 0.5298614502 4293719035
-0.2676459551 -0.1166447029 0.5264633298 4293784061
-0.2721430063 -0.1180098355 0.5353091359 4293586682
-0.2744176984 -0.1183964759 0.5397834778 4293849343
-0.2758032978 -0.1183915213 0.5425089598 4293783550
-0.2776340842 -0.1185706407 0.5461101532 4293717503
-0.2759052217 -0.1172292978 0.5427094698 4293520126
-0.2790714800 -0.1179646999 0.5489375591 4293322748
-0.2813482881 -0.1183122322 0.5534160733 4293256955
-0.2822899222 -0.1180912629 0.5552682877 4293191162
-0.2827863097 -0.1176808849 0.5562446713 4293256955
-0.2828371823 -0.1170839220 0.5563447475 4293125620
-0.2828878462 -0.1164866388 0.5564443469 4293191413
-0.2829382420 -0.1158890352 0.5565435290 4293191670
-0.2829883993 -0.1152911112 0.5566421747 4293257463
-0.2830383182 -0.1146928668 0.5567404032 4293060086
-0.2830879986 -0.1140943170 0.5568380952 4292862707
-0.2831374407 -0.1134954467 0.5569353700 4293059833
-0.2831866443 -0.1128962561 0.5570321083 4293388798
-0.2827895284 -0.1121199206 0.5562510490 4293455614
-0.2832842767 -0.1116969585 0.5572242141 4293324028
-0.2838272452 -0.1106704324 0.5582921505 4293586430
-0.2843216360 -0.1102418229 0.5592646599 4293520637
-0.2834766507 -0.1092946678 0.5576025844 4293586430
-0.2848636210 -0.1092068404 0.5603307486 4293718014
-0.2840179503 -0.1082619205 0.5586673021 4293783807
-0.2858515680 -0.1083361357 0.5622740984 4293520124
-0.2863453925 -0.1078974903 0.5632454753 4293520124
-0.2868391275 -0.1074566394 0.5642166138 4293716735
-0.2877795994 -0.1071800292 0.5660665631 4293650942
-0.2882731855 -0.1067338362 0.5670374632 4293585149
-0.2887666523 -0.1062854528 0.5680081248 4293453563
-0.2897071242 -0.1059984416 0.5698579550 4293257204
-0.2910947502 -0.1058699638 0.5725874901 4293125618
-0.2920353115 -0.1055738106 0.5744376183 4292994295
-0.2925286293 -0.1051128283 0.5754079223 4292796916
-0.2930218279 -0.1046496481 0.5763780475 4292665330
-0.2935148776 -0.1041842699 0.5773479342 4292599537
-0.2940078378 -0.1037166938 0.5783175826 4292533744
-0.2945006788 -0.1032469198 0.5792869925 4292599537
-0.2954410315 -0.1029309034 0.5811366439 4292796661
-0.2959336638 -0.1024557799 0.5821056962 4292862454
-0.2959784269 -0.1018244103 0.5821937323 4292665845
-0.2973664403 -0.1016520336 0.5849239826 4292468466
-0.2983066738 -0.1013214961 0.5867734551 4292468466
-0.2992469072 -0.1009868532 0.5886229277 4292534259
-0.3001871407 -0.1006480977 0.5904724002 4292534259
-0.3011274040 -0.1003052369 0.5923218131 4292665845
-0.3020676076 -0.0999582559 0.5941712856 4292797431
-0.3030078411 -0.0996071622 0.5960206985 4292731638
-0.3048446476 -0.0995447338 0.5996336937 4292863728
-0.3057849407 -0.0991834998 0.6014833450 4292797935
-0.3067252636 -0.0988181457 0.6033328772 4292731891
-0.3063200414 -0.0980181396 0.6025358438 4292797684
-0.3081572056 -0.0979325324 0.6061496139 4292797431
-0.3090973794 -0.0975557864 0.6079989076 4292731638
-0.3100374937 -0.0971749201 0.6098481417 4292336879
-0.3114263415 -0.0969296023 0.6125800014 4291810535
-0.3128152788 -0.0966782421 0.6153120399 4291481824
-0.3137554228 -0.0962830931 0.6171613336 4291613410
-0.3151444495 -0.0960206017 0.6198935509 4291876582
-0.3160845637 -0.0956162363 0.6217427850 4292073961
-0.3174736500 -0.0953426138 0.6244751811 4292337131
-0.3188628554 -0.0950629339 0.6272076964 4292797682
-0.2649879158 -0.1389550418 0.5223761797 4293060589
-0.2681287229 -0.1400147527 0.5285677314 4289573560
-0.2659861743 -0.1383133531 0.5243441463 4286020225
-0.2638424635 -0.1366207302 0.5201181769 4285164916
-0.2612570226 -0.1347097158 0.5150214434 4285954432
-0.2604328692 -0.1337143481 0.5133967400 4286414983
-0.2596080899 -0.1327222735 0.5117709041 4284835181
-0.2623096108 -0.1335288733 0.5170964003 4284308837
-0.2606025338 -0.1320890933 0.5137312412 4284572263
-0.2615408003 -0.1319918036 0.5155808330 4284901228
-0.2589500844 -0.1301171780 0.5104736686 4284835181
-0.2607703805 -0.1304606795 0.5140621066 4284769388
-0.2586192489 -0.1288180500 0.5098215342 4283585114
-0.2599983811 -0.1289355159 0.5125402212 4282992977
-0.2596117854 -0.1281751841 0.5117781162 4282795598
-0.2592248023 -0.1274163425 0.5110152364 4282466633
-0.2592791021 -0.1268751472 0.5111223459 4282071877
-0.2588914335 -0.1261183918 0.5103580952 4282861393
-0.2585033476 -0.1253631562 0.5095930696 4285887871
-0.2585568726 -0.1248227879 0.5096985698 4289111728
-0.2577260435 -0.1238572001 0.5080606937 4291677655
-0.2582210898 -0.1235295385 0.5090366602 4293322480
-0.2582738996 -0.1229891032 0.5091407299 4294309375
-0.2578841448 -0.1222386658 0.5083723664 4293848824
-0.2583788335 -0.1219072416 0.5093476176 4293059824
-0.2584310174 -0.1213658154 0.5094504356 4292862445
-0.2580403388 -0.1206171736 0.5086803436 4292928492
-0.2585346997 -0.1202819794 0.5096548200 4293125871
-0.2585862279 -0.1197395772 0.5097563863 4293322997
-0.2581946552 -0.1189927459 0.5089845061 4293520376
-0.2591315806 -0.1188569739 0.5108315349 4293915134
-0.2596256137 -0.1185149178 0.5118054152 4294178303
-0.2592333257 -0.1177680492 0.5110320449 4294309887
-0.2606135309 -0.1178242490 0.5137528777 4294309887
-0.2611074150 -0.1174756438 0.5147265196 4294376191
-0.2602711022 -0.1165293008 0.5130778551 4294441983
-0.2634254992 -0.1173646301 0.5192962289 4294244351
-0.2643630803 -0.1172033176 0.5211444497 4293915391
-0.2657444179 -0.1172336712 0.5238674879 4293783807
-0.2640199065 -0.1158946306 0.5204679966 4293652221
-0.2662888765 -0.1163073629 0.5249407887 4293652475
-0.2690023184 -0.1169033349 0.5302898884 4293652475
-0.2703846097 -0.1169118285 0.5330148339 4293520124
-0.2735434175 -0.1176785305 0.5392418504 4293520124
-0.2687085271 -0.1150100082 0.5297107100 4293388538
-0.2767542005 -0.1178474799 0.5455713272 4293191159
-0.2763607204 -0.1170746163 0.5447956324 4293125366
-0.2781887650 -0.1172397286 0.5483993292 4293125366
-0.2791283131 -0.1170243174 0.5502514839 4293059575
-0.2800679505 -0.1168048307 0.5521037579 4292927989
-0.2805629969 -0.1163967922 0.5530797243 4293059575
-0.2806133032 -0.1158030331 0.5531788468 4293125368
-0.2806633413 -0.1152089536 0.5532774925 4293125368
-0.2807131410 -0.1146145537 0.5533756614 4292993782
-0.2807627022 -0.1140198410 0.5534733534 4292993782
-0.2808120251 -0.1134248152 0.5535706282 4293059575
-0.2813062072 -0.1130082831 0.5545448065 4293256954
-0.2813551128 -0.1124116927 0.5546412468 4293454333
-0.2814038098 -0.1118147895 0.5547372103 4293585917
-0.2814522386 -0.1112175733 0.5548326969 4293585917
-0.2819458246 -0.1107950807 0.5558057427 4293717503
-0.2819938660 -0.1101963073 0.5559003949 4293783295
-0.2824872136 -0.1097703651 0.5568729043 4293651710
-0.2825348079 -0.1091700420 0.5569667816 4293651710
-0.2839193046 -0.1090831384 0.5596960783 4293586431
-0.2848582268 -0.1088199615 0.5615469813 4293520639
-0.2853513360 -0.1083833352 0.5625190139 4293454846
-0.2862902582 -0.1081129089 0.5643699765 4293454846
-0.2867832482 -0.1076709330 0.5653417706 4293520637
-0.2877222002 -0.1073932648 0.5671927333 4293454844
-0.2882150114 -0.1069459468 0.5681642890 4293257467
-0.2896001935 -0.1068256274 0.5708948970 4293257467
-0.2892003655 -0.1060447097 0.5701067448 4293191674
-0.2905856073 -0.1059161946 0.5728374720 4292928502
-0.2901852727 -0.1051346809 0.5720482469 4292796663
-0.2911240458 -0.1048371643 0.5738989115 4292665077
-0.2920628488 -0.1045355424 0.5757496357 4292599284
-0.2925550342 -0.1040709242 0.5767198801 4292599284
-0.2930471003 -0.1036041155 0.5776898861 4292665075
-0.2944326103 -0.1034490615 0.5804211497 4292796661
-0.2949245572 -0.1029759422 0.5813909769 4292862454
-0.2958633304 -0.1026556939 0.5832415223 4292862454
-0.2968020737 -0.1023313329 0.5850921273 4292994040
-0.2977408469 -0.1020028666 0.5869427323 4292665075
-0.2986796200 -0.1016702875 0.5887933969 4292599537
-0.2996183932 -0.1013335958 0.5906440020 4292731123
-0.3010044098 -0.1011430770 0.5933762789 4292928502
-0.3019432425 -0.1007972062 0.5952270031 4292994295
-0.3028820455 -0.1004472151 0.5970777273 4292796916
-0.3038208783 -0.1000931039 0.5989283919 4292862709
-0.3052071631 -0.0998813286 0.6016612649 4293125881
-0.3056984246 -0.0993725359 0.6026297212 4293191674
-0.3070848286 -0.0991506055 0.6053627729 4293125879
-0.3080236316 -0.0987790674 0.6072134376 4292928500
-0.3089624047 -0.0984034017 0.6090640426 4292731121
-0.3094533086 -0.0978819653 0.6100317836 4291875812
-0.3108398616 -0.0976397172 0.6127650738 4291020503
-0.3117785454 -0.0972516835 0.6146155596 4290954710
-0.3131651878 -0.0969982967 0.6173490882 4290494927
-0.3145519197 -0.0967388675 0.6200827956 4290889685
-0.3159387410 -0.0964733809 0.6228166819 4291218650
-0.3173256516 -0.0962018445 0.6255506873 4291416029
-0.3182643354 -0.0957893357 0.6274011731 4291942373
-0.3196513057 -0.0955066532 0.6301352978 4292534510
-0.2684145570 -0.1416499615 0.5302922726 4292666349
-0.2632016242 -0.1383212060 0.5199934244 4291810268
-0.2606231570 -0.1363940388 0.5148992538 4289375927
-0.2624392807 -0.1367684007 0.5184872746 4288191394
-0.2602987289 -0.1350814849 0.5142582655 4288125601
-0.2621151209 -0.1354487240 0.5178468227 4288059810
-0.2617326379 -0.1346765608 0.5170911551 4287730845
-0.2587098479 -0.1325532794 0.5111191869 4285953662
-0.2609664500 -0.1331366301 0.5155774951 4285164146
-0.2605827749 -0.1323688924 0.5148194432 4285295986
-0.2588779032 -0.1309345961 0.5114512444 4286414467
-0.2593738735 -0.1306160986 0.5124310851 4286743180
-0.2589889169 -0.1298537403 0.5116705298 4286414215
-0.2572818995 -0.1284331083 0.5082980990 4283848288
-0.2577771544 -0.1281145066 0.5092765689 4281874498
-0.2578316629 -0.1275756210 0.5093842149 4281808705
-0.2574451268 -0.1268192530 0.5086205602 4282532428
-0.2574991286 -0.1262806207 0.5087272525 4284835185
-0.2575528920 -0.1257416457 0.5088335276 4288585386
-0.2562831640 -0.1245591715 0.5063249469 4291349206
-0.2563362718 -0.1240222976 0.5064298511 4293191410
-0.2568304539 -0.1236976311 0.5074061751 4294112511
-0.2564418316 -0.1229475513 0.5066384077 4293980926
-0.2560528219 -0.1221989989 0.5058699250 4293520376
-0.2574296892 -0.1222910061 0.5085901022 4292928239
-0.2570402622 -0.1215417907 0.5078207254 4292796653
-0.2570922077 -0.1210020110 0.5079233050 4292994032
-0.2580792904 -0.1203335673 0.5098734498 4293257204
-0.2576887608 -0.1195858344 0.5091018677 4293323256
-0.2581820190 -0.1192480177 0.5100764036 4293389049
-0.2591174245 -0.1191112772 0.5119244456 4293586430
-0.2587261796 -0.1183634996 0.5111514926 4293652223
-0.2596616149 -0.1182214618 0.5129995346 4293718014
-0.2605971694 -0.1180753708 0.5148478746 4293718014
-0.2602052689 -0.1173266321 0.5140736103 4293783807
-0.2602555752 -0.1167780459 0.5141730309 4293718014
-0.2611910999 -0.1166244745 0.5160212517 4293652223
-0.2625694871 -0.1166635826 0.5187445283 4293520637
-0.2643910646 -0.1168925688 0.5223432779 4293454844
-0.2635553777 -0.1159445718 0.5206922293 4293520637
-0.2667064369 -0.1167453602 0.5269176364 4293586428
-0.2694153190 -0.1173397303 0.5322694778 4293520635
-0.2668065727 -0.1156178713 0.5271155238 4293520124
-0.2695160210 -0.1162003651 0.5324683785 4293454331
-0.2713394761 -0.1163909286 0.5360709429 4293388538
-0.2731633782 -0.1165736765 0.5396742821 4293322745
-0.2745441794 -0.1165602803 0.5424022675 4293256952
-0.2768124342 -0.1169156730 0.5468835235 4293256952
-0.2777501941 -0.1167020649 0.5487362146 4293125366
-0.2786880732 -0.1164843738 0.5505890846 4292862194
-0.2787382901 -0.1158935204 0.5506883264 4293059575
-0.2787882984 -0.1153023466 0.5507871509 4293059575
-0.2788380384 -0.1147108525 0.5508854389 4293125368
-0.2788875699 -0.1141190454 0.5509832501 4293191161
-0.2793810368 -0.1137076914 0.5519581437 4293322747
-0.2794301510 -0.1131143123 0.5520551801 4293454333
-0.2799233496 -0.1126995087 0.5530295968 4293585919
-0.2799720764 -0.1121045575 0.5531258583 4293651711
-0.2800205350 -0.1115093008 0.5532216430 4293717503
-0.2796242237 -0.1107376814 0.5524386168 4293651710
-0.2805614173 -0.1104929745 0.5542901754 4293717757
-0.2810539305 -0.1100700051 0.5552632213 4293717757
-0.2815463841 -0.1096448451 0.5562361479 4293651710
-0.2815938890 -0.1090452224 0.5563299656 4293651710
-0.2825309932 -0.1087879315 0.5581813455 4293520639
-0.2834681571 -0.1085265428 0.5600328445 4293520639
-0.2839602828 -0.1080916375 0.5610051155 4293389053
-0.2848974466 -0.1078230143 0.5628566742 4293389053
-0.2853894532 -0.1073827595 0.5638287067 4293389053
-0.2863266468 -0.1071068868 0.5656802654 4293323260
-0.2868185341 -0.1066612899 0.5666520000 4293257467
-0.2877557278 -0.1063781604 0.5685036182 4293125881
-0.2882474363 -0.1059272140 0.5694750547 4292928247
-0.2891846299 -0.1056368351 0.5713266134 4292665075
-0.2905675173 -0.1055041701 0.5740587115 4292467696
-0.2897219360 -0.1045611799 0.5723881125 4292533489
-0.2915505767 -0.1045811698 0.5760009289 4292730868
-0.2920419276 -0.1041163653 0.5769716501 4292796661
-0.2929791212 -0.1038073599 0.5788231492 4292796661
-0.2934702933 -0.1033372059 0.5797935724 4292730868
-0.2948535085 -0.1031770334 0.5825263262 4292730868
-0.2948984504 -0.1025454327 0.5826150775 4292599282
-0.2958355248 -0.1022218987 0.5844664574 4292796661
-0.2967726290 -0.1018942595 0.5863177776 4292730868
-0.2977097332 -0.1015625075 0.5881691575 4292796661
-0.2986468077 -0.1012266353 0.5900205374 4292862454
-0.2995839119 -0.1008866578 0.5918719172 4292994295
-0.3009675443 -0.1006919518 0.5946055055 4292928502
-0.3019046783 -0.1003427804 0.5964569449 4292796916
-0.3028418124 -0.0999894887 0.5983083844 4292796916
-0.3042256832 -0.0997785926 0.6010423899 4292928502
-0.3060564399 -0.0997072160 0.6046593189 4293257467
-0.3069937229 -0.0993386880 0.6065110564 4293125881
-0.3097186685 -0.0995405838 0.6118946075 4292007400
-0.3097621799 -0.0988746136 0.6119805574 4290757331
-0.3115935922 -0.0987752154 0.6155987978 4289770436
-0.3125309944 -0.0983863473 0.6174508333 4289573057
-0.3139155507 -0.0981331393 0.6201862097 4290165194
-0.3153001964 -0.0978738815 0.6229217649 4289705411
-0.3162376285 -0.0974707007 0.6247737408 4290165962
-0.3176223338 -0.0972002894 0.6275094748 4290494927
-0.3190071583 -0.0969238281 0.6302453876 4290758099
-0.3203920126 -0.0966413021 0.6329813600 4291284443
-0.3208818734 -0.0960846990 0.6339491606 4291810787
-0.2630561888 -0.1397061795 0.5208489299 4292862958
-0.2648692727 -0.1400863975 0.5244387984 4292007649
-0.2614194453 -0.1376867145 0.5176081657 4291218131
-0.2619163394 -0.1373722404 0.5185920596 4290033857
-0.2610967755 -0.1363679916 0.5169693232 4289704635
-0.2580820322 -0.1342256665 0.5110001564 4288125603
-0.2572607696 -0.1332325935 0.5093740821 4287401110
-0.2568780780 -0.1324692816 0.5086163282 4287006352
-0.2564949393 -0.1317074448 0.5078577399 4285822078
-0.2578686476 -0.1318455338 0.5105776191 4286019457
-0.2566063404 -0.1306356192 0.5080782771 4285427318
-0.2553432286 -0.1294308603 0.5055773854 4285953662
-0.2571564615 -0.1297842413 0.5091675520 4284637806
-0.2572115362 -0.1292461902 0.5092765689 4283914083
-0.2559470832 -0.1280477643 0.5067729950 4282598223
-0.2564413249 -0.1277308762 0.5077515841 4282137672
-0.2560556233 -0.1269754618 0.5069879293 4284308841
-0.2561095953 -0.1264388114 0.5070947409 4287532698
-0.2561633587 -0.1259018183 0.5072011948 4290756300
-0.2562169135 -0.1253644824 0.5073072314 4292795883
-0.2562702596 -0.1248268113 0.5074128509 4293586171
-0.2563233972 -0.1242888048 0.5075181127 4293783550
-0.2559358180 -0.1235378385 0.5067507029 4293586171
-0.2559884489 -0.1230000854 0.5068548918 4293059827
-0.2560408711 -0.1224620119 0.5069587231 4292730608
-0.2560931146 -0.1219236031 0.5070620775 4292796401
-0.2565859854 -0.1215937883 0.5080379844 4292993780
-0.2566378713 -0.1210538000 0.5081407428 4293059573
-0.2562485039 -0.1203064099 0.5073697567 4292994293
-0.2567410171 -0.1199728325 0.5083449483 4293125879
-0.2572335005 -0.1196370721 0.5093200207 4293257467
-0.2572846115 -0.1190948561 0.5094212890 4293323260
-0.2577769458 -0.1187556535 0.5103960633 4293323260
-0.2578277290 -0.1182118580 0.5104966164 4293257467
-0.2587614655 -0.1180707142 0.5123454332 4293191672
-0.2596953213 -0.1179255173 0.5141944289 4293257465
-0.2579788268 -0.1165785417 0.5107958317 4293257465
-0.2602379322 -0.1170269102 0.5152688026 4293191672
-0.2611719072 -0.1168723553 0.5171180367 4293257467
-0.2621060014 -0.1167137474 0.5189675689 4293323260
-0.2612718940 -0.1157675460 0.5173160434 4293389053
-0.2630902231 -0.1159944609 0.5209163427 4293454846
-0.2640244961 -0.1158255488 0.5227661729 4293520637
-0.2654012442 -0.1158456579 0.5254921317 4293454844
-0.2641237378 -0.1147069857 0.5229626894 4293585919
-0.2677130103 -0.1156768426 0.5300694108 4293454333
-0.2708608210 -0.1164411157 0.5363020301 4293388540
-0.2722388804 -0.1164346263 0.5390306115 4293322747
-0.2736172080 -0.1164221913 0.5417596102 4293256954
-0.2723388076 -0.1152791232 0.5392284393 4293322747
-0.2746029496 -0.1156334206 0.5437114239 4293191161
-0.2759816945 -0.1156068668 0.5464413762 4292927989
-0.2764745653 -0.1152051017 0.5474172235 4293059573
-0.2774105072 -0.1149848178 0.5492703319 4293059573
-0.2770168185 -0.1142122298 0.5484908819 4293191159
-0.2775093615 -0.1138048097 0.5494661331 4293454331
-0.2775584459 -0.1132143363 0.5495632887 4293651710
-0.2780507505 -0.1128034592 0.5505380630 4293717503
-0.2785429955 -0.1123903766 0.5515126586 4293783295
-0.2785915136 -0.1117970794 0.5516087413 4293783295
-0.2790834904 -0.1113805473 0.5525828600 4293783295
-0.2795753777 -0.1109618172 0.5535567403 4293717503
-0.2800671756 -0.1105408818 0.5545305014 4293717757
-0.2814467251 -0.1104662269 0.5572620034 4293717757
-0.2810504735 -0.1096924245 0.5564774871 4293651710
-0.2819860876 -0.1094372347 0.5583299398 4293585917
-0.2829217315 -0.1091779545 0.5601825118 4293520639
-0.2838574350 -0.1089145690 0.5620352030 4293454846
-0.2834602892 -0.1081386060 0.5612488985 4293323260
-0.2848402262 -0.1080384180 0.5639811754 4293323260
-0.2844426036 -0.1072618514 0.5631938577 4293257467
-0.2853780985 -0.1069868207 0.5650461316 4293191674
-0.2863136530 -0.1067076921 0.5668985248 4293060088
-0.2872492671 -0.1064244583 0.5687509775 4292796916
-0.2877401412 -0.1059733331 0.5697229505 4292533489
-0.2886757255 -0.1056828424 0.5715754032 4292401903
-0.2900562286 -0.1055501327 0.5743087530 4292401903
-0.2909919322 -0.1052504778 0.5761614442 4292533489
-0.2919276655 -0.1049467102 0.5780141950 4292796661
-0.2924183309 -0.1044798121 0.5789857507 4292862454
-0.2933540344 -0.1041687801 0.5808384418 4292796661
-0.2938445508 -0.1036965251 0.5818095803 4292665075
-0.2947801948 -0.1033782214 0.5836622119 4292599282
-0.2943798006 -0.1025901958 0.5828694105 4292533489
-0.2957607210 -0.1024207920 0.5856035948 4292665075
-0.2966962755 -0.1020920649 0.5874559879 4292928247
-0.2976318300 -0.1017592177 0.5893083811 4292928247
-0.2985673547 -0.1014222577 0.5911607742 4292928247
-0.2995029092 -0.1010811850 0.5930131674 4292994040
-0.3004384637 -0.1007359847 0.5948655009 4292928247
-0.3018198311 -0.1005351767 0.5976005793 4292862454
-0.3032012880 -0.1003283262 0.6003358960 4292862454
-0.3041369319 -0.0999688506 0.6021884680 4292994295
-0.3050725758 -0.0996052548 0.6040409803 4292731123
-0.3064542413 -0.0993821919 0.6067767143 4291810021
-0.3078360260 -0.0991530940 0.6095126271 4290033610
-0.3110027313 -0.0994888917 0.6157826185 4288849334
-0.3123849332 -0.0992438495 0.6185194254 4288849334
-0.3124282956 -0.0985703021 0.6186052561 4289046713
-0.3138104975 -0.0983160287 0.6213420630 4289178299
-0.3147463500 -0.0979168192 0.6231949925 4289179067
-0.3161286712 -0.0976513997 0.6259319782 4289573825
-0.3175110817 -0.0973799229 0.6286691427 4289968583
-0.3188935220 -0.0971023813 0.6314064264 4290363341
-0.3216161430 -0.0972238779 0.6367971301 4290889683
-0.3229989111 -0.0969313234 0.6395350099 4291350234
-0.3239349425 -0.0964995921 0.6413882971 4291942371
-0.2642796636 -0.1412479728 0.5244246721 4292336615
-0.2639015317 -0.1404640377 0.5236743689 4291810270
-0.2587078214 -0.1371292323 0.5133681297 4291020754
-0.2596413195 -0.1370515972 0.5152205825 4290362311
-0.2583853304 -0.1358189434 0.5127282143 4289638588
-0.2588807046 -0.1355085671 0.5137112141 4287994017
-0.2571853697 -0.1340541393 0.5103471279 4285559676
-0.2581184804 -0.1339714080 0.5121986866 4285887871
-0.2572984397 -0.1329784989 0.5105714798 4286216836
-0.2556009889 -0.1315376759 0.5072031021 4284440425
-0.2565336525 -0.1314520538 0.5090538859 4285295734
-0.2561506927 -0.1306910515 0.5082938671 4285032562
-0.2548898757 -0.1294858158 0.5057920218 4285690492
-0.2558223307 -0.1293954700 0.5076423287 4286150790
-0.2558771670 -0.1288590580 0.5077511668 4284374379
-0.2550538182 -0.1278820932 0.5061172843 4284769137
-0.2551080287 -0.1273468286 0.5062249303 4287269271
-0.2551620603 -0.1268112212 0.5063321590 4290427335
-0.2552158833 -0.1262752861 0.5064389110 4292466918
-0.2548834682 -0.1249868944 0.5057792664 4293191413
-0.2553761303 -0.1246654391 0.5067569017 4292993780
-0.2549895048 -0.1239145026 0.5059896708 4292599022
-0.2550421953 -0.1233778074 0.5060942769 4292467438
-0.2555344999 -0.1230525747 0.5070711970 4292533231
-0.2551469803 -0.1223034188 0.5063021779 4292731123
-0.2556390464 -0.1219756752 0.5072786212 4293125881
-0.2561310828 -0.1216457412 0.5082550049 4293257467
-0.2561829388 -0.1211055368 0.5083578825 4293125881
-0.2562345564 -0.1205650121 0.5084603429 4292928500
-0.2562859952 -0.1200241521 0.5085623860 4292928500
-0.2563371956 -0.1194829717 0.5086640120 4293060086
-0.2563881874 -0.1189414710 0.5087652206 4293125879
-0.2568795979 -0.1186030805 0.5097402930 4293191672
-0.2573709488 -0.1182625070 0.5107153654 4293125879
-0.2574214935 -0.1177181751 0.5108156204 4293060086
-0.2579126954 -0.1173741594 0.5117903352 4293060086
-0.2588447928 -0.1172276661 0.5136399865 4293125879
-0.2584539056 -0.1164808050 0.5128642917 4293125879
-0.2598271668 -0.1165268496 0.5155892968 4293191672
-0.2603182495 -0.1161731556 0.5165638328 4293323258
-0.2599267066 -0.1154253408 0.5157868862 4293389051
-0.2617416978 -0.1156542525 0.5193884373 4293389051
-0.2648815513 -0.1164576337 0.5256190300 4293454844
-0.2627237141 -0.1149296835 0.5213371515 4293454844
-0.2649811804 -0.1153330058 0.5258167386 4293520126
-0.2663558424 -0.1153440624 0.5285445452 4293454333
-0.2677307427 -0.1153491735 0.5312728286 4293388540
-0.2691059113 -0.1153483391 0.5340016484 4293322747
-0.2678295672 -0.1142107546 0.5314689279 4293256954
-0.2705309093 -0.1147662327 0.5368293524 4293256954
-0.2732329667 -0.1153101102 0.5421912074 4293191159
-0.2741669714 -0.1150998026 0.5440446138 4293059573
-0.2751010358 -0.1148854047 0.5458981395 4293059573
-0.2755928338 -0.1144831702 0.5468740463 4293125366
-0.2760845423 -0.1140787303 0.5478497744 4293256952
-0.2761336565 -0.1134902239 0.5479472280 4293520124
-0.2766251564 -0.1130823269 0.5489224792 4293717503
-0.2766738832 -0.1124922410 0.5490191579 4293783295
-0.2771651149 -0.1120808944 0.5499939919 4293717503
-0.2776562572 -0.1116673425 0.5509685874 4293717503
-0.2781473398 -0.1112515926 0.5519430637 4293783550
-0.2786383033 -0.1108336374 0.5529173613 4293717757
-0.2791292071 -0.1104134917 0.5538914800 4293717757
-0.2791768909 -0.1098168269 0.5539860129 4293651964
-0.2801107168 -0.1095665917 0.5558391213 4293651710
-0.2814879119 -0.1094846725 0.5585719943 4293585917
-0.2819786072 -0.1090538278 0.5595456362 4293454844
-0.2824691832 -0.1086207777 0.5605190992 4293389051
-0.2834031582 -0.1083550975 0.5623725057 4293191674
-0.2834500372 -0.1077480763 0.5624654889 4293191674
-0.2848276198 -0.1076437607 0.5651991367 4293191674
-0.2848742008 -0.1070332900 0.5652915835 4292994295
-0.2858081460 -0.1067540571 0.5671448708 4292730868
-0.2867421210 -0.1064707115 0.5689982176 4292401903
-0.2872321904 -0.1060194001 0.5699706674 4292271087
-0.2881661654 -0.1057288051 0.5718240142 4292336880
-0.2891001701 -0.1054340899 0.5736773610 4292665075
-0.2895900607 -0.1049742699 0.5746494532 4292665075
-0.2905240357 -0.1046722978 0.5765028000 4292796661
-0.2914580405 -0.1043662131 0.5783562064 4292796661
-0.2923920453 -0.1040560156 0.5802096725 4292730868
-0.2928816676 -0.1035845205 0.5811811686 4292665075
-0.2933711410 -0.1031108275 0.5821524858 4292665075
-0.2947496474 -0.1029454693 0.5848879218 4292730868
-0.2956836522 -0.1026197746 0.5867413282 4292928247
-0.2966176569 -0.1022899598 0.5885947347 4293125626
-0.2975516617 -0.1019560248 0.5904481411 4292928247
-0.2984856665 -0.1016179696 0.5923015475 4292862454
-0.2998645604 -0.1014262885 0.5950377584 4292928247
-0.3007986248 -0.1010790393 0.5968912840 4292928247
-0.3021777272 -0.1008762270 0.5996279120 4292928247
-0.3035569191 -0.1006673798 0.6023647189 4292730868
-0.3044911027 -0.1003058404 0.6042184234 4292205293
-0.3058704734 -0.1000858620 0.6069555879 4290560468
-0.3072499335 -0.0998598412 0.6096929312 4289310401
-0.3081841469 -0.0994839966 0.6115467548 4288784057
-0.3100091815 -0.0993896350 0.6151682734 4288586932
-0.3131708503 -0.0997128114 0.6214421391 4288652725
-0.3132143319 -0.0990360901 0.6215284467 4288850104
-0.3145943582 -0.0987788364 0.6242668629 4288981690
-0.3159744442 -0.0985155180 0.6270054579 4289047481
-0.3173545897 -0.0982461348 0.6297441721 4289508032
-0.3187348247 -0.0979706943 0.6324830651 4289968581
-0.3201151490 -0.0976891890 0.6352220774 4290494925
-0.3210496306 -0.0972665250 0.6370764375 4291021269
-0.3224299848 -0.0969738439 0.6398155689 4291481820
-0.3238104284 -0.0966750979 0.6425548196 4292073957
-0.2609502971 -0.1420830190 0.5189617872 4292732142
-0.2605735064 -0.1413020939 0.5182124972 4292862959
-0.2623791695 -0.1417014897 0.5218034387 4292797166
-0.2602553964 -0.1399794519 0.5175798535 4292468201
-0.2590039670 -0.1387340575 0.5150910616 4291612892
-0.2612466812 -0.1393581033 0.5195512176 4291151828
-0.2599944472 -0.1381156296 0.5170608759 4290493898
-0.2578673065 -0.1364158392 0.5128305554 4289704382
-0.2587991059 -0.1363369226 0.5146836638 4288783280
-0.2571075559 -0.1348776817 0.5113195777 4287401112
-0.2545402944 -0.1329684854 0.5062140226 4285295736
-0.2541589439 -0.1322076768 0.5054556131 4284966771
-0.2542147636 -0.1316749752 0.5055665970 4285493115
-0.2547079921 -0.1313676536 0.5065475106 4283847775
-0.2538880110 -0.1303837448 0.5049167871 4284176740
-0.2535052896 -0.1296270341 0.5041556358 4284571498
-0.2539980114 -0.1293177456 0.5051355362 4285953151
-0.2540527284 -0.1287842393 0.5052443147 4287729822
-0.2541072071 -0.1282503754 0.5053527355 4288979889
-0.2541615069 -0.1277161837 0.5054606795 4290756302
-0.2537772954 -0.1269623488 0.5046966076 4292006369
-0.2538310885 -0.1264283955 0.5048035383 4293190643
-0.2538846731 -0.1258940995 0.5049101114 4293388022
-0.2539380491 -0.1253594607 0.5050163269 4293191159
-0.2544299066 -0.1250400692 0.5059944391 4292796401
-0.2544829845 -0.1245038360 0.5060999990 4292401643
-0.2545358241 -0.1239672676 0.5062051415 4292335850
-0.2541495562 -0.1232175529 0.5054368973 4292467951
-0.2546409369 -0.1228931248 0.5064141154 4292533744
-0.2551322877 -0.1225665137 0.5073913336 4292533489
-0.2551844120 -0.1220276952 0.5074949861 4292730868
-0.2556756437 -0.1216976419 0.5084719062 4292928247
-0.2548486292 -0.1207408831 0.5068271756 4292994040
-0.2557789981 -0.1206164882 0.5086774826 4292993780
-0.2558303773 -0.1200754270 0.5087796450 4292993780
-0.2558815479 -0.1195340306 0.5088813901 4293125366
-0.2563722432 -0.1191967726 0.5098572373 4293256952
-0.2564230561 -0.1186538041 0.5099583268 4293322745
-0.2569136024 -0.1183131039 0.5109338760 4293256952
-0.2574040890 -0.1179702133 0.5119093060 4293191159
-0.2583346367 -0.1178258657 0.5137599707 4293191159
-0.2579447627 -0.1170780882 0.5129846334 4293125879
-0.2588753104 -0.1169284359 0.5148352385 4293060086
-0.2589252889 -0.1163788810 0.5149345994 4293125879
-0.2598559260 -0.1162229776 0.5167853832 4293125879
-0.2594650984 -0.1154748648 0.5160081387 4293191672
-0.2608363330 -0.1155087724 0.5187351108 4293257465
-0.2617671192 -0.1153425574 0.5205862522 4293323258
-0.2635795772 -0.1155587733 0.5241907835 4293454844
-0.2627473772 -0.1146133393 0.5225357413 4293454333
-0.2658830285 -0.1153936386 0.5287716985 4293520126
-0.2685785890 -0.1159700528 0.5341324806 4293454333
-0.2664228082 -0.1144505218 0.5298452377 4293322747
-0.2677954435 -0.1144484505 0.5325750113 4293322745
-0.2700508535 -0.1148156375 0.5370604396 4293256952
-0.2714241445 -0.1147997677 0.5397915840 4293191159
-0.2727977037 -0.1147779301 0.5425232053 4293125366
-0.2732885182 -0.1143805683 0.5434992909 4293059573
-0.2742208242 -0.1141648442 0.5453534126 4293125366
-0.2747115493 -0.1137621328 0.5463293195 4293322745
-0.2752022147 -0.1133572236 0.5473051071 4293520124
-0.2752509713 -0.1127691045 0.5474020839 4293717503
-0.2757413685 -0.1123607382 0.5483773947 4293783295
-0.2762317061 -0.1119501740 0.5493525267 4293717503
-0.2767219543 -0.1115374044 0.5503274798 4293651710
-0.2772121131 -0.1111224368 0.5513023138 4293717757
-0.2777022123 -0.1107052714 0.5522769690 4293717757
-0.2781921923 -0.1102859005 0.5532513857 4293586430
-0.2786820829 -0.1098643318 0.5542256832 4293586430
-0.2791718841 -0.1094405651 0.5551998019 4293586430
-0.2805466056 -0.1093595773 0.5579337478 4293520637
-0.2810363770 -0.1089295074 0.5589078069 4293389051
-0.2815260589 -0.1084972322 0.5598816276 4293323258
-0.2820156515 -0.1080627590 0.5608552694 4293060088
-0.2833907008 -0.1079634726 0.5635899305 4292928502
-0.2838802338 -0.1075226963 0.5645634532 4292796661
-0.2852555513 -0.1074132994 0.5672985911 4292599282
-0.2861880064 -0.1071320549 0.5691530108 4292336880
-0.2866774201 -0.1066818088 0.5701263547 4292271087
-0.2876099050 -0.1063933000 0.5719807744 4292402673
-0.2885423899 -0.1061006859 0.5738352537 4292600052
-0.2890316248 -0.1056419238 0.5748082399 4292731123
-0.2895207405 -0.1051809639 0.5757809281 4292731123
-0.2904531956 -0.1048779190 0.5776353478 4292665330
-0.2913856506 -0.1045707613 0.5794897676 4292665330
-0.2923181355 -0.1042594910 0.5813441873 4292731123
-0.2936942577 -0.1041013524 0.5840809941 4292796916
-0.2950705588 -0.1039371863 0.5868180394 4292862709
-0.2955594063 -0.1034563109 0.5877903104 4292862709
-0.2964920104 -0.1031276137 0.5896449685 4292994295
-0.2978685200 -0.1029482186 0.5923824906 4292928502
-0.2979132235 -0.1023053899 0.5924713612 4292796916
-0.2988457382 -0.1019652858 0.5943259001 4292928502
-0.3002223969 -0.1017716154 0.5970637202 4293125626
-0.3011549711 -0.1014223024 0.5989183784 4292994040
-0.3025317788 -0.1012175009 0.6016564965 4292533489
-0.3039087057 -0.1010066569 0.6043948531 4291743973
-0.3052857816 -0.1007897630 0.6071334481 4290099917
-0.3062184751 -0.1004210711 0.6089884043 4288784057
-0.3075957000 -0.1001930311 0.6117272973 4288389299
-0.3089729846 -0.0999589413 0.6144663692 4288718264
-0.3107950091 -0.0998616666 0.6180899143 4288718518
-0.3139513135 -0.1001821011 0.6243669987 4288652725
-0.3153292239 -0.0999250263 0.6271072030 4288784311
-0.3167071939 -0.0996618867 0.6298476458 4288981690
-0.3180852234 -0.0993926823 0.6325882077 4288981688
-0.3194633722 -0.0991174132 0.6353289485 4289508032
-0.3208415508 -0.0988360792 0.6380698681 4290100167
-0.3217747808 -0.0984125510 0.6399257779 4290692304
-0.3231530488 -0.0981200337 0.6426667571 4291284441
-0.3245313764 -0.0978214517 0.6454079151 4291810785
-0.2626009881 -0.1438798457 0.5234007239 4292271591
-0.2626613081 -0.1433312297 0.5235209465 4292074212
-0.2601073086 -0.1413615197 0.5184304118 4292467947
-0.2623455822 -0.1419969946 0.5228916407 4292204775
-0.2610975206 -0.1407432705 0.5204041004 4291809758
-0.2594127059 -0.1392605901 0.5170459747 4291151828
-0.2564186156 -0.1370854378 0.5110783577 4290493898
-0.2547315061 -0.1356193721 0.5077157021 4289375417
-0.2560973763 -0.1357794404 0.5104381442 4287795615
-0.2544090152 -0.1343208849 0.5070729256 4285624446
-0.2553384900 -0.1342461854 0.5089255571 4286216583
-0.2545219064 -0.1332532018 0.5072979331 4285624446
-0.2550147176 -0.1329464763 0.5082801580 4283847777
-0.2541972101 -0.1319573671 0.5066508055 4284505707
-0.2533791363 -0.1309715807 0.5050202608 4284439914
-0.2534343898 -0.1304388940 0.5051304102 4284571500
-0.2534894347 -0.1299058795 0.5052400827 4285821567
-0.2526699901 -0.1289263964 0.5036068559 4287992736
-0.2531616986 -0.1286166459 0.5045868754 4290362312
-0.2532160580 -0.1280835122 0.5046951771 4292138723
-0.2532702088 -0.1275500357 0.5048031211 4293191413
-0.2533241510 -0.1270162016 0.5049106479 4293125620
-0.2533778846 -0.1264820397 0.5050177574 4293388792
-0.2529937327 -0.1257300079 0.5042520761 4293059827
-0.2534847558 -0.1254126877 0.5052307844 4292599022
-0.2535378933 -0.1248775125 0.5053366423 4292599022
-0.2535908222 -0.1243420020 0.5054421425 4292270570
-0.2540816069 -0.1240199804 0.5064203739 4292336363
-0.2536960542 -0.1232699677 0.5056518912 4292402158
-0.2541866004 -0.1229454279 0.5066296458 4292467951
-0.2542387843 -0.1224076524 0.5067336559 4292599282
-0.2542907596 -0.1218695417 0.5068372488 4292730868
-0.2547810674 -0.1215403005 0.5078144670 4292994040
-0.2548327148 -0.1210006103 0.5079174638 4293257212
-0.2548841536 -0.1204605922 0.5080199838 4293256954
-0.2553741932 -0.1201266497 0.5089966655 4293322747
-0.2554253042 -0.1195850447 0.5090985298 4293520124
-0.2550372481 -0.1188385785 0.5083250999 4293585917
-0.2559659481 -0.1187044829 0.5101761222 4293520124
-0.2564556599 -0.1183636561 0.5111521482 4293388538
-0.2565060854 -0.1178188995 0.5112527013 4293256954
-0.2569956183 -0.1174746305 0.5122284293 4293125368
-0.2570457160 -0.1169282943 0.5123282671 4293060088
-0.2570956051 -0.1163816452 0.5124276876 4293060088
-0.2580244243 -0.1162306964 0.5142789483 4292994293
-0.2585136890 -0.1158786118 0.5152541399 4293060086
-0.2598823905 -0.1159166098 0.5179821253 4293191672
-0.2603717148 -0.1155582741 0.5189574361 4293257465
-0.2613009214 -0.1153920144 0.5208094716 4293257467
-0.2609102726 -0.1146417111 0.5200308561 4293389053
-0.2618394494 -0.1144701317 0.5218828321 4293585917
-0.2632088661 -0.1144859344 0.5246123075 4293717503
-0.2645785809 -0.1144957840 0.5273423195 4293585917
-0.2637469769 -0.1135518402 0.5256848335 4293388538
-0.2686399519 -0.1150635183 0.5354371667 4293322745
-0.2700106800 -0.1150526777 0.5381692052 4293322745
-0.2722627521 -0.1154093742 0.5426579714 4293256952
-0.2714309692 -0.1144556999 0.5410001278 4293191159
-0.2732429206 -0.1146146506 0.5446115732 4293125366
-0.2724105120 -0.1136622354 0.5429524779 4293125366
-0.2737819254 -0.1136281490 0.5456858873 4293125366
-0.2742716670 -0.1132240295 0.5466620326 4293388538
-0.2747613490 -0.1128177047 0.5476379991 4293651710
-0.2752509117 -0.1124091819 0.5486137867 4293783295
-0.2757404149 -0.1119984537 0.5495894551 4293783295
-0.2762298584 -0.1115855277 0.5505649447 4293651710
-0.2767191827 -0.1111703962 0.5515402555 4293717503
-0.2772084177 -0.1107530668 0.5525153875 4293651710
-0.2776975930 -0.1103335321 0.5534903407 4293520637
-0.2781866491 -0.1099117994 0.5544651151 4293520637
-0.2786756456 -0.1094878614 0.5554397106 4293520637
-0.2800479531 -0.1094068512 0.5581749678 4293454844
-0.2805368900 -0.1089766100 0.5591495037 4293191674
-0.2810257375 -0.1085441709 0.5601238012 4293060088
-0.2815144956 -0.1081095263 0.5610979795 4292862709
-0.2824451327 -0.1078414470 0.5629528761 4292665330
-0.2833758593 -0.1075692549 0.5648078918 4292271087
-0.2843065858 -0.1072929651 0.5666630268 4292271087
-0.2847951353 -0.1068466529 0.5676367879 4292402673
-0.2857258916 -0.1065630987 0.5694919229 4292534259
-0.2866566777 -0.1062754318 0.5713470578 4292665845
-0.2875874937 -0.1059836522 0.5732023120 4292731638
-0.2894033492 -0.1060119569 0.5768216252 4292599282
-0.2898917794 -0.1055489033 0.5777950883 4292599282
-0.2903800905 -0.1050836369 0.5787683725 4292665330
-0.2913109958 -0.1047754064 0.5806238055 4292731123
-0.2922419310 -0.1044630557 0.5824792981 4292862709
-0.2931728959 -0.1041465923 0.5843347907 4292928502
-0.2949897051 -0.1041387320 0.5879559517 4292928502
-0.2963638008 -0.1039675176 0.5906947255 4292928502
-0.2981810868 -0.1039447188 0.5943168402 4292862709
-0.2973398864 -0.1029930115 0.5926402211 4292796916
-0.2991573215 -0.1029600501 0.5962626338 4292928502
-0.2992019653 -0.1023128256 0.5963516235 4293191674
-0.3005763590 -0.1021171585 0.5990909338 4293060088
-0.3019508421 -0.1019154489 0.6018304825 4292270572
-0.3033254445 -0.1017076969 0.6045702696 4291020505
-0.3047001660 -0.1014938876 0.6073102951 4289770438
-0.3060750067 -0.1012740284 0.6100505590 4288718264
-0.3074499667 -0.1010481119 0.6127910018 4288520885
-0.3088250160 -0.1008161455 0.6155316830 4288718518
-0.3106439114 -0.1007220075 0.6191570163 4288718518
-0.3120192289 -0.1004769579 0.6218982339 4288455346
-0.3133946359 -0.1002258435 0.6246395707 4288586932
-0.3152140677 -0.1001096666 0.6282659769 4288784309
-0.3165897131 -0.0998454615 0.6310077906 4288784309
-0.3179654181 -0.0995751843 0.6337497830 4289047481
-0.3188970387 -0.0991607383 0.6356066465 4289639618
-0.3202728331 -0.0988792852 0.6383488178 4290231753
-0.3212044239 -0.0984555855 0.6402056217 4290823890
-0.3225802779 -0.0981629565 0.6429479122 4291481820
-0.3248449862 -0.0981327370 0.6474617124 4292073957
-0.2568538487 -0.1416132748 0.5130816698 4291876833
-0.2569131255 -0.1410757452 0.5132000446 4291218903
-0.2569721937 -0.1405378431 0.5133180618 4291482075
-0.2565961480 -0.1397626996 0.5125668645 4292138984
-0.2562197149 -0.1389889866 0.5118149519 4292665328
-0.2549726665 -0.1377466172 0.5093238950 4292401897
-0.2563360631 -0.1379142702 0.5120473504 4290822865
-0.2576998472 -0.1380760670 0.5147715807 4288059557
-0.2555808127 -0.1363734305 0.5105386972 4285362044
-0.2543315887 -0.1351424009 0.5080432892 4284505967
-0.2552595735 -0.1350689679 0.5098969936 4283190107
-0.2540092766 -0.1338436157 0.5073994398 4284308586
-0.2531939745 -0.1328520775 0.5057708621 4284703344
-0.2523781061 -0.1318638474 0.5041410923 4283124054
-0.2524335980 -0.1313325763 0.5042519569 4283453019
-0.2521078289 -0.1300440282 0.5036011934 4285689468
-0.2521626651 -0.1295126379 0.5037106872 4288452774
-0.2522172630 -0.1289809048 0.5038197637 4291347666
-0.2522716820 -0.1284488291 0.5039284825 4292665069
-0.2523258626 -0.1279164106 0.5040367246 4292994034
-0.2523798645 -0.1273836493 0.5041446090 4292730608
-0.2524336874 -0.1268505454 0.5042520761 4292401643
-0.2524872720 -0.1263170987 0.5043591857 4292335850
-0.2525406778 -0.1257833093 0.5044658184 4292664815
-0.2530839443 -0.1249304935 0.5055510402 4292664815
-0.2531368434 -0.1243947744 0.5056566596 4292138984
-0.2531895041 -0.1238587201 0.5057619214 4292204777
-0.2532419562 -0.1233223304 0.5058667064 4292007400
-0.2532942295 -0.1227856055 0.5059710741 4292204779
-0.2537838221 -0.1224596947 0.5069491267 4292599282
-0.2538357675 -0.1219213828 0.5070528388 4292796661
-0.2543252110 -0.1215920150 0.5080305934 4293060088
-0.2543768287 -0.1210521162 0.5081336498 4293191674
-0.2544282377 -0.1205118895 0.5082363486 4293520124
-0.2549174130 -0.1201778278 0.5092135072 4293651710
-0.2549684942 -0.1196360141 0.5093154907 4293980927
-0.2550193369 -0.1190938801 0.5094171166 4294112511
-0.2559465170 -0.1189588085 0.5112692118 4293980927
-0.2555587590 -0.1182113960 0.5104946494 4293717757
-0.2560475171 -0.1178691909 0.5114709735 4293323260
-0.2565362155 -0.1175247952 0.5124471784 4293060088
-0.2565862536 -0.1169782504 0.5125471354 4292994295
-0.2566361129 -0.1164313853 0.5126466751 4292994295
-0.2571245134 -0.1160822958 0.5136223435 4292994293
-0.2576128542 -0.1157310158 0.5145978332 4293060086
-0.2576622367 -0.1151813269 0.5146964788 4293125879
-0.2590284646 -0.1152171716 0.5174255967 4293191672
-0.2595167756 -0.1148583889 0.5184010267 4293257467
-0.2591266036 -0.1141105965 0.5176216364 4293323260
-0.2622503042 -0.1149041206 0.5238614678 4293717503
-0.2644962370 -0.1153011322 0.5283477902 4293980671
-0.2641060650 -0.1145448834 0.5275684595 4293849087
-0.2659131587 -0.1147384569 0.5311781764 4293520124
-0.2650830150 -0.1137919277 0.5295199752 4293322745
-0.2673301697 -0.1141632274 0.5340087414 4293322745
-0.2686983347 -0.1141511500 0.5367417336 4293256952
-0.2700667679 -0.1141331047 0.5394752622 4293191159
-0.2709954977 -0.1139241457 0.5413305163 4293125366
-0.2728043497 -0.1140790954 0.5449438095 4293059573
-0.2732933462 -0.1136770174 0.5459206104 4292993780
-0.2737822533 -0.1132727414 0.5468972325 4293125366
-0.2729503512 -0.1123227626 0.5452354550 4293454331
-0.2743195295 -0.1122773588 0.5479704142 4293783295
-0.2748081088 -0.1118674204 0.5489464402 4293783295
-0.2752966285 -0.1114552766 0.5499222875 4293651710
-0.2757850587 -0.1110409275 0.5508978963 4293718015
-0.2762733996 -0.1106243804 0.5518733859 4293586430
-0.2767616510 -0.1102056280 0.5528486967 4293323260
-0.2781313658 -0.1101337522 0.5555848479 4293257467
-0.2786195874 -0.1097087041 0.5565600991 4293323260
-0.2795486450 -0.1094540879 0.5584159493 4293191674
-0.2800367475 -0.1090236753 0.5593909621 4292862709
-0.2805247605 -0.1085910648 0.5603657961 4292665330
-0.2810126841 -0.1081562489 0.5613404512 4292599537
-0.2819417119 -0.1078880653 0.5631962419 4292533744
-0.2828707993 -0.1076157764 0.5650521517 4292336880
-0.2837999463 -0.1073393747 0.5669081807 4292402673
-0.2847290933 -0.1070588678 0.5687642097 4292534259
-0.2856582999 -0.1067742556 0.5706203580 4292600052
-0.2865875363 -0.1064855233 0.5724765658 4292600052
-0.2875168025 -0.1061926782 0.5743328333 4292600052
-0.2884460986 -0.1058957204 0.5761891603 4292599282
-0.2902590036 -0.1059170738 0.5798105597 4292665075
-0.2911884785 -0.1056099758 0.5816672444 4292730868
-0.2921179831 -0.1052987576 0.5835239887 4292862454
-0.2921634912 -0.1046667248 0.5836148858 4292994040
-0.2935349643 -0.1045065671 0.5863544941 4292994040
-0.2944644392 -0.1041839421 0.5882111788 4292862709
-0.2953939140 -0.1038571894 0.5900678635 4292862709
-0.2976502478 -0.1039898694 0.5945749879 4292994295
-0.2999069691 -0.1041126698 0.5990829468 4292928502
-0.2990672290 -0.1031573936 0.5974054933 4292994295
-0.3008818030 -0.1031155065 0.6010302305 4292665330
-0.3026966155 -0.1030656546 0.6046554446 4291744228
-0.3040691018 -0.1028581113 0.6073970795 4290494161
-0.3054416776 -0.1026445106 0.6101388931 4289244094
-0.3068143725 -0.1024248600 0.6128809452 4288454578
-0.3081871867 -0.1021991447 0.6156232357 4288850104
-0.3095601201 -0.1019673795 0.6183657646 4288652725
-0.3100472987 -0.1014397219 0.6193388700 4288652725
-0.3118632734 -0.1013417020 0.6229664087 4288718518
-0.3132364154 -0.1010927036 0.6257093549 4288652725
-0.3150527477 -0.1009796709 0.6293376684 4288521139
-0.3164261580 -0.1007175744 0.6320810318 4288586930
-0.3177995980 -0.1004494056 0.6348246336 4288981688
-0.3187298477 -0.1000360399 0.6366828680 4289179067
-0.3201034069 -0.0997566879 0.6394266486 4289705411
-0.3210336268 -0.0993340686 0.6412847638 4290297546
-0.3224072456 -0.0990435332 0.6440286636 4290823890
-0.3233374059 -0.0986116454 0.6458867192 4291481820
-0.3242675066 -0.0981756225 0.6477446556 4292073957
-0.2571993768 -0.1426911801 0.5149142742 4291876833
-0.2581266463 -0.1426314563 0.5167706609 4290100422
-0.2577523291 -0.1418512762 0.5160212517 4290034629
-0.2582456470 -0.1415483505 0.5170089602 4291021524
-0.2570025027 -0.1402952820 0.5145201087 4292467949
-0.2574954331 -0.1399916112 0.5155069828 4293191672
-0.2562510669 -0.1387450993 0.5130157471 4292862705
-0.2537026703 -0.1368009448 0.5079138279 4291020501
-0.2537599802 -0.1362674087 0.5080286264 4287270043
-0.2529478669 -0.1352686584 0.5064027905 4284046186
-0.2525699139 -0.1345047206 0.5056460500 4283979623
-0.2521915138 -0.1337422580 0.5048885345 4283519072
-0.2518127561 -0.1329812557 0.5041302443 4282597457
-0.2518686056 -0.1324505061 0.5042420626 4282794836
-0.2523593605 -0.1321472377 0.5052245855 4283584092
-0.2519797087 -0.1313879341 0.5044645071 4285492089
-0.2515996695 -0.1306301355 0.5037036538 4287663258
-0.2516546249 -0.1300988942 0.5038136840 4290294978
-0.2517094016 -0.1295672953 0.5039232969 4291610839
-0.2513283789 -0.1288121194 0.5031604767 4292071390
-0.2518182993 -0.1285030842 0.5041413307 4292204518
-0.2518724501 -0.1279704720 0.5042497516 4292270311
-0.2519264221 -0.1274375021 0.5043577552 4292138471
-0.2519801557 -0.1269041896 0.5044654012 4292335850
-0.2520337105 -0.1263705492 0.5045725703 4292073191
-0.2520870566 -0.1258365512 0.5046793818 4292204777
-0.2521401942 -0.1253022254 0.5047857761 4292204777
-0.2526294589 -0.1249834299 0.5057652593 4292467949
-0.2522458732 -0.1242325678 0.5049973130 4291744226
-0.2527348995 -0.1239112392 0.5059763789 4292138984
-0.2527872920 -0.1233746484 0.5060812831 4292073193
-0.2528395057 -0.1228377223 0.5061858296 4292270572
-0.2528915107 -0.1223004609 0.5062898993 4292665075
-0.2533801794 -0.1219731644 0.5072681904 4292796661
-0.2534318566 -0.1214343160 0.5073716640 4293257467
