VERSION 0.7
FIELDS x y z rgba
SIZE 4 4 4 4
TYPE F F F U
COUNT 1 1 1 1
WIDTH 920
HEIGHT 1
VIEWPOINT 0.0 0.0 0.0 1.0 0.0 0.0 0.0
POINTS 920
DATA ascii
-0.2812864184 -0.0959456116 0.5520882010 4291805785
-0.2813284099 -0.0953464285 0.5521706343 4291871578
-0.2813701332 -0.0947469845 0.5522525311 4291871578
-0.2814116180 -0.0941472724 0.5523339510 4291871578
-0.2814528644 -0.0935472921 0.5524148941 4291805785
-0.2819427848 -0.0930952877 0.5533764958 4291805786
-0.2824325860 -0.0926411152 0.5543378592 4291739993
-0.2824732065 -0.0920384377 0.5544175506 4291872606
-0.2825135589 -0.0914354995 0.5544967651 4291938399
-0.2825536430 -0.0908323005 0.5545754433 4292004455
-0.2830427587 -0.0903723016 0.5555354357 4292070248
-0.2830824256 -0.0897676349 0.5556132793 4292070767
-0.2835712135 -0.0893042460 0.5565726757 4292202353
-0.2836104333 -0.0886981115 0.5566496253 4292333436
-0.2836493552 -0.0880917311 0.5567260385 4292333436
-0.2841376364 -0.0876237452 0.5576843619 4292332933
-0.2846257687 -0.0871535838 0.5586424470 4292332933
-0.2851137817 -0.0866812617 0.5596002936 4292530572
-0.2856016457 -0.0862067640 0.5605578423 4292793744
-0.2865391970 -0.0858648941 0.5623980165 4292597921
-0.2874767184 -0.0855189264 0.5642381310 4293124265
-0.3255695701 -0.1689269692 0.6403999925 4291676055
-0.3256413043 -0.1682524979 0.6405410767 4291149711
-0.3257127702 -0.1675775796 0.6406816244 4291280256
-0.3253425360 -0.1666760594 0.6399533749 4290819705
-0.3254134059 -0.1660011709 0.6400927305 4290556784
-0.3246007264 -0.1648772061 0.6384942532 4290162026
-0.3237874210 -0.1637564600 0.6368944645 4290161248
-0.3220898211 -0.1621939689 0.6335552335 4289898076
-0.3181816339 -0.1595305353 0.6258677840 4290290516
-0.3120613992 -0.1557799578 0.6138291955 4290290516
-0.3050540686 -0.1516152322 0.6000456810 4290356558
-0.3002545238 -0.1485735923 0.5906049013 4290290765
-0.2967795432 -0.1462054700 0.5837695599 4290225222
-0.2941876054 -0.1442856342 0.5786711574 4290225222
-0.2924792767 -0.1428085715 0.5753108859 4290159429
-0.2907699645 -0.1413384974 0.5719486475 4290027843
-0.2895023525 -0.1400896311 0.5694552660 4290291017
-0.2886767387 -0.1390592009 0.5678312182 4290488396
-0.2874076366 -0.1378197521 0.5653349161 4290487883
-0.2865807414 -0.1367968917 0.5637083650 4290487883
-0.2861962318 -0.1359878778 0.5629520416 4290356295
-0.2858113348 -0.1351803541 0.5621949434 4290290502
-0.2854260206 -0.1343743205 0.5614370108 4290487881
-0.2850402892 -0.1335697621 0.5606783032 4290553674
-0.2846541703 -0.1327667087 0.5599187613 4290684746
-0.2842676044 -0.1319651604 0.5591583848 4290618953
-0.2838806510 -0.1311651021 0.5583972335 4290750539
-0.2839369476 -0.1305705607 0.5585079789 4290816332
-0.2835492492 -0.1297725886 0.5577453971 4290684745
-0.2836049795 -0.1291782707 0.5578550100 4290618952
-0.2836604714 -0.1285836101 0.5579641461 4290553159
-0.2832717299 -0.1277883053 0.5571994781 4290553159
-0.2833266556 -0.1271938831 0.5573075414 4290553159
-0.2829371989 -0.1264006793 0.5565414429 4290618952
-0.2829915881 -0.1258064955 0.5566484332 4290684743
-0.2826013863 -0.1250154078 0.5558809042 4290684743
-0.2830996513 -0.1246171147 0.5568609834 4290750536
-0.2831533253 -0.1240219101 0.5569666028 4290750536
-0.2827621698 -0.1232326105 0.5561971664 4290750536
-0.2828152776 -0.1226376668 0.5563016534 4290684743
-0.2824234068 -0.1218505055 0.5555307865 4290553157
-0.2820311189 -0.1210648790 0.5547592044 4290618950
-0.2816384137 -0.1202807948 0.5539867878 4290553157
-0.2812453210 -0.1194982529 0.5532135367 4290487364
-0.2808518410 -0.1187172607 0.5524395704 4290553157
-0.2804579437 -0.1179378256 0.5516647696 4290684743
-0.2800636590 -0.1171599403 0.5508891940 4290816329
-0.2796689868 -0.1163836122 0.5501128435 4290882122
-0.2797192931 -0.1157932356 0.5502117872 4290619718
-0.2793239057 -0.1150190905 0.5494340658 4290685511
-0.2793736756 -0.1144290119 0.5495319366 4290685511
-0.2794232070 -0.1138386205 0.5496293902 4290619718
-0.2790267467 -0.1130672991 0.5488495827 4290619972
-0.2790757418 -0.1124772280 0.5489459038 4290554179
-0.2791244686 -0.1118868440 0.5490417480 4290554179
-0.2791729569 -0.1112961546 0.5491371751 4290619972
-0.2792212069 -0.1107051596 0.5492320657 4290882890
-0.2792692184 -0.1101138517 0.5493265390 4290817097
-0.2793169916 -0.1095222458 0.5494204760 4290686024
-0.2793645263 -0.1089303344 0.5495139956 4290686024
-0.2789654732 -0.1081650555 0.5487290621 4290817608
-0.2790124714 -0.1075734869 0.5488214493 4290883401
-0.2790592015 -0.1069816276 0.5489133596 4291014476
-0.2791056931 -0.1063894629 0.5490048528 4290948683
-0.2791519165 -0.1057970077 0.5490958095 4290949196
-0.2796446383 -0.1053725854 0.5500649810 4291080782
-0.2796904743 -0.1047785953 0.5501551628 4291080780
-0.2797360718 -0.1041843146 0.5502448082 4291014987
-0.2797814310 -0.1035897434 0.5503340364 4290884426
-0.2798265219 -0.1029948816 0.5504227281 4290818633
-0.2803184390 -0.1025633067 0.5513903499 4291080780
-0.2803631425 -0.1019669250 0.5514782667 4291278159
-0.2804075778 -0.1013702601 0.5515656471 4291344977
-0.2804517448 -0.1007733047 0.5516525507 4291344977
-0.2804957032 -0.1001760736 0.5517389774 4291410768
-0.2805393934 -0.0995785594 0.5518249273 4291344975
-0.2805828154 -0.0989807695 0.5519104004 4291410770
-0.2806260288 -0.0983826965 0.5519953370 4291542356
-0.2806689739 -0.0977843553 0.5520798564 4291674199
-0.2807116807 -0.0971857384 0.5521638393 4291871578
-0.2807541192 -0.0965868458 0.5522473454 4292003165
-0.2807963192 -0.0959876850 0.5523303151 4291871579
-0.2808382809 -0.0953882560 0.5524128675 4291871578
-0.2808799744 -0.0947885588 0.5524948835 4291805785
-0.2809213996 -0.0941885933 0.5525763631 4291805785
-0.2809626162 -0.0935883671 0.5526574254 4291937371
-0.2818998992 -0.0932844877 0.5545010567 4292135264
-0.2819407284 -0.0926818103 0.5545814037 4292266850
-0.2824296057 -0.0922252685 0.5555430055 4292004453
-0.2824699581 -0.0916211233 0.5556224585 4292136039
-0.2825101018 -0.0910167098 0.5557013750 4291939179
-0.2829984725 -0.0905555561 0.5566619635 4291939179
-0.2830381393 -0.0899496749 0.5567400455 4292005234
-0.2830775678 -0.0893435404 0.5568175912 4292202613
-0.2835654318 -0.0888777822 0.5577771664 4292267903
-0.2836043835 -0.0882701874 0.5578538775 4292333696
-0.2840919197 -0.0878010392 0.5588127971 4292267402
-0.2845793068 -0.0873297229 0.5597714782 4292333195
-0.2850665450 -0.0868562385 0.5607299209 4292662419
-0.2855536640 -0.0863805786 0.5616880655 4292925591
-0.2864896655 -0.0860376060 0.5635292530 4292729768
-0.3242582977 -0.1671945304 0.6392171383 4291149434
-0.3238885701 -0.1662944853 0.6384882927 4290820469
-0.3235184252 -0.1653958410 0.6377586126 4290884987
-0.3231478035 -0.1644985825 0.6370280385 4290358643
-0.3223358095 -0.1633792371 0.6354272962 4290096484
-0.3206410706 -0.1618179381 0.6320864558 4289899105
-0.3167396188 -0.1591552496 0.6243954301 4290159955
-0.3115125000 -0.1558464319 0.6140910983 4290094162
-0.3049588799 -0.1518997699 0.6011717916 4290094156
-0.3001678884 -0.1488559395 0.5917272568 4290159949
-0.2966991663 -0.1464859247 0.5848892927 4290291015
-0.2936703265 -0.1443472952 0.5789184570 4290159429
-0.2919650674 -0.1428696364 0.5755568147 4290093635
-0.2907006145 -0.1416141689 0.5730642080 4290159428
-0.2889935076 -0.1401495785 0.5696989298 4290291015
-0.2881693542 -0.1391187310 0.5680742860 4290488394
-0.2873446345 -0.1380912215 0.5664484501 4290487883
-0.2860771418 -0.1368554980 0.5639498830 4290422090
-0.2856933773 -0.1360461712 0.5631933212 4290750539
-0.2853091955 -0.1352383196 0.5624359846 4290684746
-0.2849246264 -0.1344319582 0.5616778731 4290421573
-0.2845396101 -0.1336270869 0.5609188676 4290421573
-0.2841542065 -0.1328237057 0.5601591468 4290488393
-0.2842110693 -0.1322277933 0.5602712631 4290488393
-0.2838249505 -0.1314264834 0.5595100522 4290553929
-0.2834383845 -0.1306266785 0.5587480068 4290619722
-0.2834943831 -0.1300315559 0.5588583946 4290685515
-0.2831071019 -0.1292338371 0.5580949783 4290685515
-0.2831625640 -0.1286389530 0.5582042336 4290553929
-0.2832177579 -0.1280436963 0.5583130717 4290553929
-0.2828294337 -0.1272486597 0.5575475693 4290488136
-0.2824406922 -0.1264551431 0.5567812324 4290619722
-0.2829385102 -0.1260583103 0.5577625632 4290619720
-0.2829926908 -0.1254626215 0.5578693748 4290553927
-0.2826029956 -0.1246708632 0.5571011901 4290619720
-0.2826566100 -0.1240754277 0.5572068691 4290553927
-0.2822661996 -0.1232858002 0.5564372540 4290488134
-0.2823192775 -0.1226906255 0.5565418601 4290488134
-0.2819281220 -0.1219031364 0.5557707548 4290356546
-0.2815365493 -0.1211171895 0.5549989343 4290356546
-0.2811446190 -0.1203327850 0.5542262197 4290488132
-0.2807522416 -0.1195499301 0.5534527898 4290553925
-0.2808037996 -0.1189568415 0.5535544157 4290553925
-0.2799663544 -0.1179888621 0.5519034863 4290619718
-0.2795727849 -0.1172106639 0.5511276722 4290685511
-0.2796233892 -0.1166194230 0.5512274504 4290685511
-0.2792291045 -0.1158434004 0.5504502058 4290751304
-0.2792791426 -0.1152524576 0.5505488515 4290685511
-0.2793289721 -0.1146612093 0.5506470203 4290685511
-0.2793785334 -0.1140696332 0.5507447124 4290619718
-0.2789829075 -0.1132970527 0.5499648452 4290488132
-0.2790319026 -0.1127057970 0.5500614643 4290488132
-0.2790806890 -0.1121142358 0.5501576066 4290553925
-0.2791292071 -0.1115223616 0.5502532721 4290553925
-0.2791775167 -0.1109301746 0.5503484607 4290881863
-0.2792255580 -0.1103376895 0.5504431725 4291013449
-0.2792733610 -0.1097448915 0.5505374074 4290882376
-0.2788754404 -0.1089777052 0.5497530103 4290948169
-0.2789227068 -0.1083852500 0.5498461127 4291079755
-0.2789697051 -0.1077924967 0.5499387980 4291013962
-0.2790164649 -0.1071994454 0.5500310063 4291079755
-0.2790629864 -0.1066060960 0.5501226783 4291145548
-0.2791092694 -0.1060124487 0.5502139330 4291211341
-0.2796012461 -0.1055869013 0.5511837602 4291079755
-0.2796471119 -0.1049917191 0.5512741804 4291014476
-0.2796927392 -0.1043962464 0.5513641238 4291146062
-0.2797380984 -0.1038004756 0.5514535904 4291080269
-0.2797832489 -0.1032044217 0.5515425801 4290948683
-0.2798281312 -0.1026080772 0.5516310334 4291080269
-0.2803191245 -0.1021741480 0.5525989532 4291211855
-0.2803635895 -0.1015762761 0.5526866317 4291279442
-0.2804078162 -0.1009781286 0.5527737737 4291279442
-0.2804518044 -0.1003796905 0.5528604984 4291214161
-0.2804955244 -0.0997809768 0.5529466867 4291214161
-0.2805390060 -0.0991819873 0.5530323982 4291345747
-0.2805822194 -0.0985827148 0.5531175733 4291543126
-0.2806251943 -0.0979831666 0.5532023311 4291739995
-0.2806679308 -0.0973833501 0.5532865524 4291805788
-0.2807103992 -0.0967832506 0.5533702970 4291937120
-0.2807526290 -0.0961828828 0.5534535050 4291871327
-0.2807946205 -0.0955822468 0.5535362959 4291871840
-0.2808363438 -0.0949813426 0.5536185503 4291871840
-0.2813250721 -0.0945304558 0.5545819998 4291740254
-0.2813663781 -0.0939280614 0.5546634197 4292003426
-0.2814074159 -0.0933253989 0.5547443032 4292331880
-0.2818956375 -0.0928698927 0.5557067990 4292266087
-0.2819362581 -0.0922657475 0.5557867885 4292070500
-0.2824241817 -0.0918068364 0.5567486882 4292070500
-0.2824643254 -0.0912012160 0.5568278432 4292135531
-0.2829519510 -0.0907389075 0.5577890873 4292201324
-0.2829916477 -0.0901318118 0.5578673482 4292332658
-0.2830311060 -0.0895244628 0.5579451323 4292464244
-0.2830702960 -0.0889168605 0.5580223799 4292333183
-0.2835572064 -0.0884487331 0.5589822531 4292333183
-0.2840439677 -0.0879784301 0.5599418283 4292136329
-0.2845305800 -0.0875059515 0.5609011054 4292202122
-0.2845689356 -0.0868944675 0.5609766841 4292334737
-0.2859516442 -0.0866903588 0.5637024641 4292663702
-0.2864378989 -0.0862104073 0.5646610260 4292730028
-0.3223663867 -0.1665837616 0.6368820667 4291018364
-0.3224369884 -0.1659124643 0.6370215416 4290689399
-0.3220673501 -0.1650152951 0.6362912655 4290753654
-0.3216972649 -0.1641195267 0.6355600953 4290293103
-0.3208865821 -0.1630015522 0.6339584589 4290162790
-0.3191947043 -0.1614414752 0.6306158900 4290096997
-0.3152999878 -0.1587795168 0.6229213476 4290423127
-0.3105224073 -0.1556919813 0.6134825349 4290225748
-0.3048614264 -0.1521844417 0.6022984385 4290225742
-0.2961132526 -0.1471674293 0.5850151181 4290225742
-0.3001424968 -0.1485111117 0.5929754972 4290356808
-0.2935932279 -0.1446260661 0.5800364614 4290225222
-0.2918911278 -0.1431468725 0.5766736865 4290028612
-0.2901880443 -0.1416746676 0.5733090043 4290094405
-0.2889250815 -0.1404238492 0.5708138347 4290291015
-0.2876613438 -0.1391782016 0.5683171153 4290422601
-0.2868381143 -0.1381502748 0.5666907430 4290488396
-0.2860142887 -0.1371256709 0.5650631785 4290554189
-0.2851898670 -0.1361044049 0.5634344220 4290553676
-0.2848064303 -0.1352962255 0.5626768470 4290356297
-0.2844225764 -0.1344895512 0.5619184375 4290422343
-0.2840383053 -0.1336843520 0.5611592531 4290751308
-0.2840954363 -0.1330876350 0.5612722039 4290554187
-0.2837104499 -0.1322845072 0.5605115294 4290554187
-0.2833250165 -0.1314828843 0.5597500801 4290554187
-0.2833812833 -0.1308869421 0.5598613024 4290554187
-0.2829951644 -0.1300874054 0.5590983629 4290554187
-0.2830508649 -0.1294916868 0.5592084527 4290619980
-0.2831063569 -0.1288956255 0.5593180656 4290554186
-0.2827191651 -0.1280987561 0.5585530996 4290488393
-0.2827740908 -0.1275029182 0.5586616397 4290553929
-0.2823861539 -0.1267081499 0.5578952432 4290619722
-0.2824405432 -0.1261125654 0.5580026507 4290619722
-0.2824946642 -0.1255166382 0.5581095815 4290619722
-0.2821057141 -0.1247245669 0.5573411584 4290685515
-0.2821592689 -0.1241288930 0.5574470162 4290619722
-0.2817695737 -0.1233389452 0.5566771030 4290553929
-0.2818226218 -0.1227435321 0.5567818880 4290619722
-0.2814321816 -0.1219557300 0.5560105443 4290488134
-0.2814846635 -0.1213605776 0.5561141968 4290488134
-0.2806501687 -0.1203847378 0.5544655323 4290553927
-0.2802585363 -0.1196015626 0.5536918044 4290619720
-0.2803100348 -0.1190082356 0.5537935495 4290619720
-0.2799177170 -0.1182272211 0.5530184507 4290685513
-0.2795249522 -0.1174477637 0.5522425175 4290817097
-0.2791318297 -0.1166698635 0.5514658093 4290751304
-0.2791821361 -0.1160780638 0.5515652299 4290882890
-0.2787882984 -0.1153023466 0.5507871509 4290817097
-0.2788380384 -0.1147108525 0.5508854389 4290685511
-0.2788875699 -0.1141190454 0.5509832501 4290619718
-0.2784926891 -0.1133461446 0.5502031446 4290684997
-0.2785416543 -0.1127546504 0.5502998829 4290684997
-0.2785903811 -0.1121628433 0.5503961444 4290684997
-0.2786388695 -0.1115707308 0.5504919291 4290750790
-0.2786871195 -0.1109783053 0.5505872369 4290750790
-0.2787351310 -0.1103855744 0.5506820679 4291013962
-0.2787829041 -0.1097925380 0.5507764220 4290948169
-0.2788304090 -0.1091992036 0.5508703589 4290948169
-0.2784329057 -0.1084323451 0.5500850081 4291079755
-0.2784798741 -0.1078393459 0.5501778126 4291013962
-0.2785266042 -0.1072460487 0.5502701402 4291079755
-0.2785730958 -0.1066524610 0.5503619313 4291211341
-0.2786193192 -0.1060585678 0.5504533052 4291211341
-0.2791104913 -0.1056328565 0.5514236689 4291145548
-0.2791562974 -0.1050374284 0.5515142083 4291080269
-0.2792018950 -0.1044417098 0.5516042113 4291146062
-0.2792472243 -0.1038456932 0.5516937971 4291014476
-0.2792923152 -0.1032493934 0.5517829061 4290882890
-0.2793371677 -0.1026528031 0.5518714786 4291014476
-0.2798273563 -0.1022186950 0.5528399348 4291211855
-0.2798717618 -0.1016205847 0.5529277325 4291147858
-0.2799159586 -0.1010221839 0.5530149937 4291213651
-0.2799598873 -0.1004235074 0.5531017780 4291345235
-0.2800035775 -0.0998245403 0.5531880856 4291542614
-0.2800469995 -0.0992253050 0.5532739162 4291608920
-0.2800901830 -0.0986257866 0.5533592105 4291740506
-0.2801331282 -0.0980259851 0.5534440875 4291805534
-0.2801758349 -0.0974259153 0.5535284281 4291871327
-0.2802182734 -0.0968255699 0.5536122322 4291937122
-0.2807067335 -0.0963781774 0.5545772910 4291871329
-0.2807487547 -0.0957763344 0.5546602607 4291937635
-0.2807905078 -0.0951742232 0.5547428131 4292003428
-0.2812784910 -0.0947221965 0.5557068586 4291806049
-0.2813197970 -0.0941185877 0.5557885170 4292003428
-0.2813608646 -0.0935147181 0.5558696389 4292200552
-0.2818483710 -0.0930580571 0.5568327308 4292134759
-0.2818889916 -0.0924527049 0.5569130182 4292004456
-0.2819293737 -0.0918470845 0.5569927692 4292070249
-0.2824163437 -0.0913858116 0.5579548478 4292135531
-0.2824562788 -0.0907787159 0.5580337644 4292201324
-0.2829429507 -0.0903140381 0.5589952469 4292267378
-0.2829824090 -0.0897054672 0.5590732098 4292464757
-0.2830216289 -0.0890966505 0.5591507554 4292398976
-0.2835077941 -0.0886273682 0.5601111650 4292398976
-0.2839937806 -0.0881559029 0.5610713363 4292070282
-0.2844796777 -0.0876822695 0.5620312691 4292333454
-0.2845180333 -0.0870695561 0.5621070862 4292400793
-0.2854509950 -0.0867284760 0.5639502406 4292729758
-0.3209174573 -0.1661997139 0.6354137659 4291084159
-0.3209877908 -0.1655299962 0.6355530024 4290755194
-0.3206186891 -0.1646343023 0.6348221898 4290754165
-0.3202491403 -0.1637400240 0.6340904236 4290293614
-0.3194397390 -0.1626234502 0.6324878335 4290294376
-0.3181901872 -0.1612873375 0.6300138235 4290228583
-0.3143023551 -0.1586251855 0.6223158836 4290751835
-0.3104125559 -0.1559791714 0.6146141291 4290488663
-0.3047617376 -0.1524692327 0.6034255624 4290291535
-0.2960291803 -0.1474491954 0.5861352086 4290291535
-0.3000514507 -0.1487925500 0.5940992236 4290291785
-0.2935139239 -0.1449049562 0.5811550021 4290225992
-0.2913748324 -0.1432079077 0.5769196153 4290160198
-0.2901150286 -0.1419505030 0.5744252205 4290225991
-0.2888544500 -0.1406982541 0.5719292760 4290423371
-0.2871526778 -0.1392376274 0.5685597658 4290357578
-0.2863309681 -0.1382092834 0.5669327974 4290619728
-0.2855086327 -0.1371842623 0.5653045774 4290619728
-0.2851264179 -0.1363733560 0.5645478368 4290159431
-0.2843030095 -0.1353540868 0.5629174709 4289567294
-0.2839198709 -0.1345470846 0.5621588826 4289633085
-0.2839772999 -0.1339495629 0.5622725487 4290159429
-0.2835934162 -0.1331446171 0.5615124702 4290488394
-0.2836502790 -0.1325473040 0.5616250634 4290554187
-0.2832656801 -0.1317444295 0.5608635545 4290619980
-0.2828806937 -0.1309430599 0.5601012707 4290619980
-0.2829366624 -0.1303465366 0.5602121353 4290619980
-0.2825509310 -0.1295472383 0.5594483614 4290619980
-0.2830479443 -0.1291524321 0.5604324341 4290619980
-0.2826615572 -0.1283542961 0.5596674085 4290554187
-0.2822747827 -0.1275576949 0.5589016080 4290488394
-0.2818875909 -0.1267625988 0.5581349730 4290554187
-0.2819419205 -0.1261667758 0.5582424998 4290619979
-0.2819960117 -0.1255706102 0.5583496094 4290619979
-0.2816077769 -0.1247782186 0.5575808883 4290685772
-0.2816613019 -0.1241823062 0.5576868653 4290685772
-0.2812723517 -0.1233920455 0.5569167733 4290619979
-0.2813253105 -0.1227963939 0.5570216179 4290619979
-0.2809356451 -0.1220082715 0.5562500954 4290619722
-0.2805455625 -0.1212216839 0.5554777384 4290619722
-0.2805976570 -0.1206269041 0.5555808544 4290685513
-0.2802068591 -0.1198424697 0.5548070669 4290685513
-0.2798156440 -0.1190595850 0.5540325046 4290751306
-0.2794240415 -0.1182782501 0.5532571673 4290817099
-0.2790320218 -0.1174984723 0.5524809957 4290882892
-0.2790826261 -0.1169058233 0.5525811315 4290817099
-0.2786898911 -0.1161282212 0.5518035889 4290947915
-0.2787399292 -0.1155358627 0.5519026518 4290947915
-0.2783465087 -0.1147604510 0.5511236191 4290816329
-0.2783959806 -0.1141684055 0.5512216091 4290750536
-0.2784452140 -0.1135760397 0.5513190627 4290816329
-0.2784942091 -0.1129833683 0.5514160991 4290750536
-0.2785429955 -0.1123903766 0.5515126586 4290618950
-0.2785915136 -0.1117970794 0.5516087413 4290684743
-0.2786397934 -0.1112034693 0.5517043471 4290553411
-0.2786878347 -0.1106095538 0.5517994165 4290948169
-0.2787356377 -0.1100153327 0.5518940687 4290882890
-0.2783392668 -0.1092465669 0.5511093140 4290948683
-0.2783865035 -0.1086526811 0.5512028337 4291080269
-0.2784335017 -0.1080584973 0.5512958765 4290948683
-0.2784802616 -0.1074640080 0.5513884425 4291079755
-0.2785267830 -0.1068692282 0.5514805317 4291277134
-0.2790173292 -0.1064436436 0.5524518490 4291277134
-0.2790634334 -0.1058473140 0.5525431633 4291211341
-0.2791092992 -0.1052506939 0.5526339412 4291080269
-0.2791549265 -0.1046537757 0.5527243018 4291146062
-0.2792002857 -0.1040565670 0.5528141260 4291014476
-0.2792454064 -0.1034590751 0.5529034734 4290948683
-0.2792902887 -0.1028612852 0.5529922843 4291014476
-0.2793349028 -0.1022632122 0.5530806780 4291211855
-0.2793793082 -0.1016648486 0.5531685948 4291213651
-0.2798683941 -0.1012271419 0.5541369319 4291345237
-0.2799123526 -0.1006272584 0.5542240143 4291476569
-0.2799560726 -0.1000270918 0.5543105602 4291673948
-0.2799995244 -0.0994266495 0.5543966293 4291871327
-0.2800427377 -0.0988259315 0.5544821620 4291937120
-0.2800857127 -0.0982249305 0.5545672774 4291937122
-0.2801284492 -0.0976236537 0.5546518564 4291937122
-0.2801709175 -0.0970221013 0.5547359586 4291936867
-0.2802131474 -0.0964202806 0.5548195243 4291805281
-0.2807006538 -0.0959705189 0.5557848215 4292003173
-0.2807424664 -0.0953672007 0.5558676124 4292134759
-0.2812296748 -0.0949140266 0.5568323135 4291937380
-0.2812710404 -0.0943092108 0.5569141507 4292003173
-0.2813121378 -0.0937041268 0.5569955111 4292266347
-0.2817988396 -0.0932463259 0.5579592586 4292200554
-0.2818395197 -0.0926397517 0.5580397248 4292069997
-0.2818799019 -0.0920329243 0.5581197739 4292069997
-0.2819200754 -0.0914258361 0.5581992269 4292135792
-0.2824060917 -0.0909621865 0.5591616035 4292201585
-0.2824457884 -0.0903536156 0.5592402220 4292332916
-0.2829315066 -0.0898865685 0.5602018833 4292398709
-0.2829707563 -0.0892765298 0.5602796078 4292333698
-0.2834561467 -0.0888060853 0.5612406731 4292333698
-0.2839413881 -0.0883334652 0.5622014403 4292070799
-0.2844265103 -0.0878586695 0.5631619692 4292399764
-0.2844649255 -0.0872447416 0.5632380247 4292532641
-0.2853963077 -0.0869025514 0.5650821924 4292861606
-0.3194709122 -0.1658152044 0.6339437366 4291149952
-0.3195410073 -0.1651470661 0.6340827942 4290820987
-0.3191724122 -0.1642528772 0.6333513856 4290885490
-0.3188033700 -0.1633600742 0.6326190829 4290490732
-0.3179952800 -0.1622448862 0.6310155392 4290359914
-0.3167478442 -0.1609100848 0.6285401583 4290228328
-0.3133055568 -0.1584706157 0.6217094660 4290817628
-0.3094226420 -0.1558244228 0.6140043736 4290488663
-0.3046597838 -0.1527541578 0.6045532227 4290291535
-0.2959429026 -0.1477310807 0.5872557759 4290357328
-0.2999581695 -0.1490741223 0.5952234864 4290357835
-0.2929931283 -0.1449666321 0.5814023614 4290226249
-0.2912972271 -0.1434853077 0.5780370831 4290291784
-0.2900398076 -0.1422264725 0.5755419731 4290357577
-0.2883420587 -0.1407582164 0.5721730590 4290554189
-0.2870829999 -0.1395106465 0.5696746111 4290488396
-0.2862628698 -0.1384809464 0.5680471659 4290619728
-0.2854421437 -0.1374545991 0.5664185882 4290619728
-0.2846208513 -0.1364315748 0.5647888184 4290093384
-0.2842389345 -0.1356218308 0.5640310049 4289501247
-0.2838566303 -0.1348135769 0.5632722974 4289436222
-0.2839140892 -0.1342148930 0.5633863211 4289896773
-0.2835310400 -0.1334087104 0.5626262426 4290487881
-0.2831475735 -0.1326040030 0.5618653297 4290619467
-0.2832041383 -0.1320061088 0.5619775653 4290685773
-0.2832604945 -0.1314078420 0.5620893836 4290685773
-0.2824353576 -0.1304023564 0.5604520440 4290619980
-0.2820503712 -0.1296027452 0.5596880317 4290685773
-0.2825465202 -0.1292077899 0.5606726408 4290685773
-0.2821608782 -0.1284093410 0.5599073768 4290619980
-0.2817748487 -0.1276123971 0.5591413379 4290554187
-0.2813883722 -0.1268169880 0.5583744645 4290554187
-0.2814426422 -0.1262209266 0.5584821701 4290619979
-0.2814967036 -0.1256245375 0.5585893989 4290685772
-0.2811091840 -0.1248318255 0.5578204393 4290685772
-0.2811626792 -0.1242356747 0.5579265356 4290685772
-0.2807744443 -0.1234450936 0.5571562052 4290685772
-0.2808273733 -0.1228492036 0.5572612286 4290685772
-0.2804384232 -0.1220607609 0.5564894080 4290685772
-0.2800490856 -0.1212738603 0.5557168126 4290685772
-0.2801011205 -0.1206788421 0.5558201075 4290685772
-0.2797110677 -0.1198940873 0.5550460815 4290751565
-0.2793205976 -0.1191108897 0.5542712212 4290817101
-0.2789297402 -0.1183292344 0.5534956455 4290882894
-0.2789805830 -0.1177357286 0.5535965562 4290882892
-0.2785890102 -0.1169562489 0.5528194904 4290882892
-0.2786393166 -0.1163630337 0.5529193282 4290882892
-0.2782470286 -0.1155857369 0.5521408916 4290817099
-0.2782967687 -0.1149928272 0.5522395968 4290882122
-0.2779037654 -0.1142177209 0.5514597297 4290816329
-0.2779529393 -0.1136251241 0.5515573025 4290882122
-0.2780019045 -0.1130322069 0.5516544580 4290816329
-0.2780506313 -0.1124389768 0.5517511368 4290750790
-0.2780990899 -0.1118454412 0.5518473387 4290750790
-0.2781473398 -0.1112515926 0.5519430637 4290422341
-0.2781953216 -0.1106574386 0.5520383120 4290882892
-0.2782430947 -0.1100629717 0.5521330833 4290948685
-0.2782905996 -0.1094681993 0.5522273779 4291014478
-0.2783378661 -0.1088731289 0.5523211360 4291080271
-0.2783848941 -0.1082777530 0.5524144769 4291014478
-0.2784316838 -0.1076820791 0.5525073409 4291014478
-0.2784782350 -0.1070860997 0.5525997281 4291146064
-0.2785245478 -0.1064898297 0.5526915789 4291146064
-0.2785706222 -0.1058932543 0.5527830124 4291080271
-0.2786164284 -0.1052963883 0.5528739095 4291080271
-0.2786619961 -0.1046992317 0.5529643297 4291211857
-0.2787073255 -0.1041017771 0.5530542731 4291211857
-0.2787524164 -0.1035040393 0.5531437397 4291146064
-0.2787972391 -0.1029060036 0.5532327294 4291211857
-0.2788418531 -0.1023076847 0.5533212423 4291409236
-0.2788861990 -0.1017090753 0.5534092188 4291279190
-0.2793744504 -0.1012711897 0.5543780923 4291410776
-0.2794183791 -0.1006710604 0.5544652343 4291608157
-0.2794620395 -0.1000706479 0.5545518994 4291805536
-0.2795054615 -0.0994699597 0.5546380877 4291871074
-0.2795486450 -0.0988689885 0.5547237992 4291936867
-0.2795915902 -0.0982677415 0.5548089743 4291936867
-0.2796342671 -0.0976662189 0.5548936725 4291936867
-0.2796767056 -0.0970644131 0.5549778938 4291936867
-0.2801635861 -0.0966157019 0.5559440255 4291805281
-0.2806503773 -0.0961648002 0.5569099784 4292003173
-0.2806921899 -0.0955602676 0.5569929481 4292134759
-0.2807337344 -0.0949554667 0.5570754409 4292003177
-0.2807750702 -0.0943504050 0.5571573973 4292068970
-0.2812611461 -0.0938936323 0.5581219792 4292266095
-0.2813020349 -0.0932870731 0.5582031012 4292266095
-0.2813426554 -0.0926802531 0.5582836866 4292135280
-0.2813830078 -0.0920731649 0.5583637953 4292201073
-0.2818684280 -0.0916105434 0.5593270063 4292266866
-0.2819083333 -0.0910019800 0.5594062209 4292266866
-0.2823934257 -0.0905359611 0.5603687763 4292267127
-0.2824328840 -0.0899259150 0.5604471564 4292332920
-0.2829176486 -0.0894564986 0.5614090562 4292201860
-0.2834022641 -0.0889848992 0.5623707175 4292333446
-0.2838867605 -0.0885111168 0.5633321404 4292137105
-0.2848168314 -0.0881731510 0.5651777387 4292466070
-0.2848553360 -0.0875570253 0.5652540922 4292598695
-0.2853394151 -0.0870767161 0.5662146807 4292993453
-0.3184642196 -0.1656578034 0.6333419681 4291280769
-0.3180966079 -0.1647637039 0.6326108575 4291017597
-0.3177285194 -0.1638709903 0.6318788528 4290951281
-0.3173600137 -0.1629796773 0.6311459541 4290556523
-0.3165532351 -0.1618658900 0.6295415163 4290425709
-0.3153078854 -0.1605323851 0.6270648241 4290294123
-0.3123096526 -0.1583157927 0.6211020947 4290817628
-0.3084335923 -0.1556694210 0.6133936644 4290554456
-0.3041173816 -0.1528190076 0.6048098803 4290423121
-0.2993607819 -0.1497673392 0.5953502059 4290488914
-0.2959170640 -0.1473906189 0.5885015726 4290489421
-0.2933486104 -0.1454631239 0.5833935738 4290357835
-0.2907788157 -0.1435463279 0.5782828927 4290423370
-0.2895236909 -0.1422869712 0.5757868290 4290489163
-0.2882677913 -0.1410327852 0.5732891560 4290619982
-0.2865722477 -0.1395700425 0.5699171424 4290619982
-0.2857536376 -0.1385399401 0.5682891607 4290685521
-0.2853734493 -0.1377250552 0.5675330758 4290751314
-0.2849928737 -0.1369116455 0.5667762160 4290619728
-0.2837334573 -0.1356796771 0.5642715096 4290422349
-0.2842304707 -0.1352892965 0.5652599931 4290291531
-0.2838486433 -0.1344803572 0.5645006299 4290488910
-0.2834664285 -0.1336729079 0.5637404919 4290619467
-0.2830837965 -0.1328669637 0.5629795194 4290751053
-0.2827007473 -0.1320625097 0.5622177124 4290882639
-0.2823172808 -0.1312595755 0.5614551306 4290816846
-0.2823732495 -0.1306616515 0.5615664721 4290685260
-0.2819890678 -0.1298607886 0.5608024001 4290685260
-0.2820444703 -0.1292630881 0.5609126091 4290685773
-0.2816595733 -0.1284643263 0.5601471066 4290751566
-0.2812742591 -0.1276670694 0.5593808293 4290619980
-0.2808885276 -0.1268713325 0.5586137176 4290619980
-0.2809427381 -0.1262750477 0.5587215424 4290685772
-0.2809967399 -0.1256784052 0.5588289499 4290751565
-0.2806099653 -0.1248853803 0.5580597520 4290751565
-0.2806634009 -0.1242889985 0.5581660271 4290751565
-0.2802759111 -0.1234980971 0.5573953986 4290685772
-0.2803287804 -0.1229019687 0.5575005412 4290685772
-0.2799405754 -0.1221132055 0.5567284822 4290685772
-0.2795519829 -0.1213259846 0.5559556484 4290751565
-0.2796039879 -0.1207307354 0.5560590625 4290751565
-0.2792146504 -0.1199456602 0.5552847981 4290751565
-0.2792660892 -0.1193506867 0.5553871393 4290817358
-0.2788760364 -0.1185677797 0.5546114445 4290817358
-0.2784855962 -0.1177864224 0.5538349152 4290817612
-0.2785361707 -0.1171923578 0.5539355278 4290883405
-0.2781450152 -0.1164131761 0.5531575680 4291014478
-0.2781950235 -0.1158194020 0.5532570481 4290948685
-0.2778031528 -0.1150424182 0.5524777174 4290882892
-0.2778526247 -0.1144489497 0.5525761247 4290817099
-0.2779018581 -0.1138551682 0.5526739955 4290751306
-0.2779508531 -0.1132610664 0.5527714491 4290751306
-0.2779995799 -0.1126666591 0.5528683662 4290817099
-0.2780480981 -0.1120719314 0.5529648662 4290817099
-0.2780963778 -0.1114768982 0.5530608296 4290751306
-0.2781443894 -0.1108815521 0.5531563759 4290948685
-0.2781921923 -0.1102859005 0.5532513857 4290948685
-0.2782397270 -0.1096899435 0.5533459783 4290948685
-0.2782870531 -0.1090936810 0.5534400344 4291014478
-0.2787766159 -0.1086696088 0.5544136763 4291014478
-0.2783809304 -0.1079002544 0.5536267757 4291014478
-0.2784275115 -0.1073030829 0.5537194014 4291080271
-0.2784738541 -0.1067056134 0.5538115501 4291146064
-0.2785199285 -0.1061078534 0.5539032221 4291146064
-0.2785657942 -0.1055097878 0.5539944172 4291146064
-0.2786113918 -0.1049114391 0.5540850759 4291277650
-0.2786567509 -0.1043127850 0.5541753173 4291277650
-0.2787018716 -0.1037138477 0.5542650223 4291277650
-0.2787467241 -0.1031146199 0.5543542504 4291343443
-0.2787913680 -0.1025151014 0.5544430017 4291540822
-0.2788357437 -0.1019152924 0.5545312762 4291410778
-0.2788798511 -0.1013152003 0.5546190143 4291542364
-0.2789237499 -0.1007148251 0.5547062755 4291739488
-0.2794108987 -0.1002733335 0.5556750894 4291871074
-0.2794543505 -0.0996714383 0.5557615161 4291936869
-0.2794975638 -0.0990692601 0.5558474660 4291936869
-0.2795405090 -0.0984668061 0.5559328794 4291936869
-0.2795832455 -0.0978640765 0.5560178161 4291936869
-0.2796256840 -0.0972610712 0.5561022758 4291937382
-0.2801118195 -0.0968112200 0.5570690632 4291871589
-0.2805978358 -0.0963591784 0.5580356121 4292003177
-0.2806396782 -0.0957534388 0.5581188202 4292134763
-0.2806812823 -0.0951474234 0.5582015514 4292002923
-0.2807226181 -0.0945411474 0.5582838058 4292068716
-0.2807637155 -0.0939346030 0.5583655238 4292266095
-0.2812488675 -0.0934754610 0.5593303442 4292331888
-0.2812895179 -0.0928674191 0.5594111681 4292331889
-0.2813299000 -0.0922591239 0.5594915152 4292397682
-0.2813700438 -0.0916505605 0.5595713258 4292332659
-0.2818544805 -0.0911855698 0.5605347753 4292332659
-0.2818941772 -0.0905755311 0.5606136918 4292201082
-0.2823783159 -0.0901071355 0.5615765452 4292266875
-0.2824175656 -0.0894956142 0.5616545677 4292267143
-0.2829013467 -0.0890238211 0.5626167059 4292464522
-0.2833850384 -0.0885498449 0.5635786057 4292268691
-0.2843134999 -0.0882117376 0.5654250979 4292466070
-0.2847969532 -0.0877324417 0.5663865209 4292533419
-0.3165850341 -0.1650448442 0.6309984922 4291346310
-0.3166545928 -0.1643798798 0.6311371326 4291083138
-0.3162870705 -0.1634886563 0.6304045916 4290951281
-0.3159190714 -0.1625988334 0.6296711564 4290688109
-0.3155506551 -0.1617104113 0.6289368272 4290359914
-0.3143074811 -0.1603772938 0.6264590621 4290359914
-0.3117518127 -0.1583828479 0.6213651896 4290883167
-0.3074454069 -0.1555141807 0.6127818823 4290685788
-0.3035742939 -0.1528837979 0.6050662398 4290489172
-0.2992637455 -0.1500502378 0.5964747667 4290554965
-0.2953887284 -0.1474531591 0.5887512565 4290621009
-0.2932626009 -0.1457424015 0.5845136642 4290489423
-0.2906975448 -0.1438238770 0.5794010758 4290489164
-0.2890069187 -0.1423474252 0.5760314465 4290554957
-0.2877533138 -0.1410927325 0.5735328197 4290817361
-0.2864989042 -0.1398432106 0.5710326433 4290751568
-0.2856819034 -0.1388117820 0.5694041848 4290751314
-0.2848643064 -0.1377836615 0.5677745938 4290751314
-0.2844844460 -0.1369699389 0.5670174956 4290817107
-0.2841041684 -0.1361577064 0.5662595630 4290817107
-0.2837235034 -0.1353469491 0.5655007958 4290751568
-0.2837810218 -0.1347459406 0.5656154752 4290685775
-0.2833996117 -0.1339372545 0.5648552775 4290751053
-0.2830177844 -0.1331300437 0.5640942454 4290948432
-0.2826355696 -0.1323243529 0.5633324385 4291014225
-0.2822529078 -0.1315201521 0.5625697374 4290948432
-0.2818698883 -0.1307174563 0.5618063211 4290685773
-0.2819255590 -0.1301189512 0.5619173050 4290554187
-0.2815417945 -0.1293183416 0.5611523986 4290619980
-0.2811576128 -0.1285192519 0.5603866577 4290685773
-0.2803336382 -0.1275217980 0.5587443709 4290685773
-0.2803880274 -0.1269256175 0.5588527918 4290685773
-0.2804422081 -0.1263290942 0.5589607358 4290751565
-0.2800565064 -0.1255351603 0.5581919551 4290751565
-0.2801101208 -0.1249388829 0.5582988262 4290751565
-0.2801634967 -0.1243422702 0.5584052205 4290751565
-0.2797767520 -0.1235510483 0.5576344132 4290751565
-0.2793895900 -0.1227613613 0.5568627119 4290685772
-0.2794421017 -0.1221656054 0.5569673777 4290685772
-0.2794943750 -0.1215695143 0.5570715666 4290685772
-0.2791061699 -0.1207825765 0.5562978387 4290751565
-0.2791579068 -0.1201867536 0.5564009547 4290751565
-0.2787689865 -0.1194019765 0.5556257963 4290817358
-0.2788201571 -0.1188064367 0.5557277799 4290817358
-0.2784305215 -0.1180238277 0.5549511909 4290883151
-0.2780404985 -0.1172427684 0.5541738272 4290948944
-0.2780907750 -0.1166481376 0.5542740226 4290883405
-0.2777000368 -0.1158692688 0.5534952283 4290817612
-0.2777497768 -0.1152749360 0.5535944104 4290817612
-0.2773583233 -0.1144982576 0.5528141856 4290751819
-0.2774075270 -0.1139042303 0.5529121757 4290686026
-0.2774564624 -0.1133098975 0.5530097485 4290686026
-0.2775051594 -0.1127152443 0.5531068444 4290882892
-0.2775536180 -0.1121202856 0.5532034039 4290882892
-0.2776018679 -0.1115250066 0.5532995462 4290948685
-0.2776498497 -0.1109294221 0.5533952117 4291080271
-0.2776975930 -0.1103335321 0.5534903407 4291014478
-0.2777450979 -0.1097373366 0.5535850525 4291014478
-0.2777923644 -0.1091408283 0.5536792278 4291014478
-0.2782810926 -0.1087165922 0.5546533465 4290948685
-0.2783279419 -0.1081185266 0.5547467470 4290883405
-0.2783745527 -0.1075201705 0.5548396111 4290883405
-0.2779789865 -0.1067517921 0.5540512204 4291080784
-0.2780250311 -0.1061537862 0.5541430116 4291080784
-0.2780708373 -0.1055554822 0.5542342663 4291211857
-0.2781164050 -0.1049568802 0.5543251038 4291277650
-0.2781617343 -0.1043579876 0.5544154048 4291277650
-0.2782067955 -0.1037588045 0.5545052886 4291277650
-0.2782516181 -0.1031593308 0.5545946360 4291343956
-0.2782962024 -0.1025595665 0.5546834469 4291541335
-0.2783405483 -0.1019595116 0.5547718406 4291542109
-0.2783846259 -0.1013591737 0.5548596978 4291607902
-0.2788711190 -0.1009187400 0.5558294058 4291739490
-0.2789148092 -0.1003168821 0.5559164286 4291871076
-0.2789582014 -0.0997147337 0.5560029745 4291936871
-0.2790013850 -0.0991123170 0.5560889840 4291936871
-0.2790443003 -0.0985096097 0.5561745763 4291937384
-0.2795299888 -0.0980620384 0.5571425557 4292003177
-0.2795724571 -0.0974578261 0.5572272539 4292003177
-0.2800578475 -0.0970068276 0.5581946373 4292003177
-0.2800998986 -0.0964011103 0.5582785010 4292133996
-0.2801417112 -0.0957951173 0.5583618283 4292133996
-0.2801832557 -0.0951888561 0.5584446192 4292002924
-0.2802245617 -0.0945823267 0.5585269928 4292068717
-0.2802656293 -0.0939755291 0.5586087704 4292200303
-0.2807499468 -0.0935162008 0.5595741272 4292331889
-0.2812341452 -0.0930546820 0.5605391860 4292265842
-0.2812745571 -0.0924451724 0.5606197715 4292397428
-0.2813147306 -0.0918353945 0.5606998205 4292332659
-0.2813546360 -0.0912253559 0.5607793927 4292332659
-0.2818381488 -0.0907579884 0.5617430210 4292201083
-0.2823215127 -0.0902884379 0.5627064705 4292266876
-0.2823607624 -0.0896757022 0.5627847314 4292398988
-0.2828438282 -0.0892027467 0.5637475252 4292596367
-0.2837707996 -0.0888666809 0.5655951500 4292531865
-0.2842536271 -0.0883883983 0.5665574670 4292663451
-0.3130384684 -0.1913487315 0.6253139973 4293456380
-0.3151457012 -0.1646589935 0.6295233369 4291477643
-0.3147790432 -0.1637687832 0.6287908554 4291148678
-0.3148480058 -0.1631058753 0.6289286017 4290951281
-0.3144805431 -0.1622175425 0.6281945705 4290753902
-0.3141126335 -0.1613306254 0.6274597049 4290097765
-0.3133079410 -0.1602219492 0.6258522868 4290229351
-0.3107568026 -0.1582276225 0.6207561493 4290883680
-0.3073311746 -0.1558012962 0.6139132977 4290752094
-0.3030305207 -0.1529485285 0.6053224206 4290621271
-0.2991644740 -0.1503332555 0.5975998044 4290621271
-0.2957333624 -0.1479527205 0.5907459259 4290686802
-0.2927374542 -0.1458041817 0.5847614408 4290621009
-0.2910510600 -0.1443182677 0.5813927650 4290620750
-0.2893636823 -0.1428393573 0.5780221224 4290620750
-0.2881125510 -0.1415823102 0.5755228996 4290686289
-0.2864233553 -0.1401165128 0.5721486211 4290554703
-0.2856079340 -0.1390837282 0.5705198050 4290620498
-0.2852294147 -0.1382663548 0.5697636604 4290554705
-0.2848504782 -0.1374504417 0.5690066814 4290357326
-0.2844711244 -0.1366360337 0.5682488680 4290357326
-0.2836536169 -0.1356138140 0.5666158795 4290685262
-0.2832733393 -0.1348033100 0.5658562183 4290685262
-0.2828926444 -0.1339942813 0.5650957823 4290751568
-0.2829495668 -0.1333932579 0.5652095079 4290883154
-0.2825681567 -0.1325863004 0.5644476414 4291014740
-0.2817481756 -0.1315762252 0.5628096461 4290948947
-0.2818041146 -0.1309769154 0.5629214048 4290751568
-0.2814214826 -0.1301744729 0.5621570349 4290554189
-0.2810384333 -0.1293735504 0.5613918900 4290554187
-0.2806549966 -0.1285741329 0.5606259704 4290685773
-0.2798325419 -0.1275762767 0.5589830279 4290685773
-0.2798869014 -0.1269798726 0.5590916276 4290685773
-0.2799410224 -0.1263831109 0.5591997504 4290751566
-0.2799949050 -0.1257860065 0.5593073964 4290817359
-0.2796096206 -0.1249923408 0.5585377216 4290751566
-0.2796629369 -0.1243954897 0.5586442351 4290817359
-0.2792769372 -0.1236039475 0.5578731894 4290817359
-0.2788905203 -0.1228139475 0.5571012497 4290751566
-0.2789429724 -0.1222179532 0.5572060347 4290751565
-0.2789951861 -0.1216216236 0.5573104024 4290751565
-0.2790471911 -0.1210249588 0.5574142337 4290751565
-0.2786594033 -0.1202383116 0.5566396117 4290751565
-0.2787108421 -0.1196419224 0.5567423701 4290817358
-0.2783223391 -0.1188574433 0.5559663177 4290817358
-0.2779334784 -0.1180745140 0.5551894903 4290817358
-0.2779840231 -0.1174790263 0.5552905202 4290883151
-0.2775944173 -0.1166982725 0.5545122623 4290883151
-0.2776444256 -0.1161030829 0.5546121597 4290817358
-0.2772541046 -0.1153245121 0.5538324714 4290817358
-0.2773035765 -0.1147296280 0.5539312363 4290751565
-0.2773527801 -0.1141344234 0.5540295839 4290751565
-0.2769614458 -0.1133586839 0.5532478094 4290685772
-0.2770101130 -0.1127637923 0.5533450246 4290751565
-0.2770585120 -0.1121685877 0.5534417629 4290751565
-0.2771067023 -0.1115730777 0.5535380244 4290882894
-0.2771546543 -0.1109772474 0.5536337495 4291080273
-0.2772023380 -0.1103811190 0.5537290573 4291014480
-0.2776905894 -0.1099592149 0.5547043681 4291014480
-0.2781787217 -0.1095351130 0.5556794405 4291080273
-0.2782258689 -0.1089361683 0.5557736158 4290882894
-0.2782727480 -0.1083369106 0.5558672547 4290817358
-0.2783193886 -0.1077373624 0.5559604168 4290883151
-0.2783657908 -0.1071375087 0.5560531020 4291146323
-0.2779707015 -0.1063685119 0.5552639365 4291146323
-0.2780165374 -0.1057690158 0.5553554893 4291212116
-0.2780621350 -0.1051692218 0.5554465652 4291277909
-0.2781074941 -0.1045691296 0.5555371642 4291277909
-0.2781525850 -0.1039687470 0.5556272268 4291212116
-0.2781974673 -0.1033680737 0.5557168722 4291343702
-0.2782420814 -0.1027671099 0.5558059812 4291606874
-0.2782864273 -0.1021658555 0.5558946133 4291673699
-0.2783305645 -0.1015643179 0.5559827089 4291673699
-0.2783744335 -0.1009624973 0.5560703874 4291739492
-0.2788599730 -0.1005196869 0.5570402741 4291805285
-0.2789034247 -0.0999163389 0.5571271181 4291870824
-0.2789466381 -0.0993127152 0.5572133660 4292002410
-0.2789895833 -0.0987088084 0.5572991967 4292002923
-0.2790322900 -0.0981046185 0.5573844910 4292068716
-0.2795170248 -0.0976546779 0.5583527684 4292002924
-0.2800016403 -0.0972025394 0.5593208075 4292002924
-0.2800437212 -0.0965956077 0.5594048500 4292199792
-0.2800855339 -0.0959884077 0.5594884157 4292199792
-0.2801271379 -0.0953809321 0.5595715046 4292133999
-0.2801684737 -0.0947731957 0.5596540570 4292265585
-0.2802095413 -0.0941651836 0.5597361326 4292397428
-0.2802503705 -0.0935569033 0.5598176718 4292463221
-0.2807337344 -0.0930951983 0.5607832670 4292396919
-0.2812169790 -0.0926313102 0.5617485642 4292462712
-0.2812571824 -0.0920203179 0.5618288517 4292332658
-0.2812971175 -0.0914090648 0.5619086623 4292332658
-0.2817798555 -0.0909405351 0.5628729463 4292266875
-0.2822624743 -0.0904698297 0.5638369322 4292398461
-0.2823017538 -0.0898558721 0.5639154315 4292530576
-0.2827840447 -0.0893817618 0.5648788214 4292859541
-0.2837094665 -0.0890445933 0.5667274594 4292597921
-0.2841915190 -0.0885651484 0.5676903725 4292861093
-0.3111800849 -0.1906357259 0.6229839325 4293653244
-0.3137088120 -0.1642726958 0.6280463934 4291412370
-0.3133426607 -0.1633839607 0.6273133755 4290951819
-0.3134113550 -0.1627226472 0.6274509430 4290951281
-0.3130444288 -0.1618358195 0.6267163157 4290819695
-0.3126770556 -0.1609503925 0.6259808540 4290097763
-0.3118736744 -0.1598431170 0.6243724823 4290229349
-0.3097626567 -0.1580721438 0.6201462150 4290883939
-0.3067789078 -0.1558671445 0.6141726971 4290752353
-0.3029218912 -0.1532336771 0.6064509749 4290621017
-0.2986270189 -0.1503968388 0.5978525877 4290686810
-0.2956381440 -0.1482339650 0.5918688774 4290752595
-0.2926477790 -0.1460836232 0.5858821273 4290752595
-0.2905283272 -0.1443793923 0.5816389918 4290752336
-0.2892803550 -0.1431157440 0.5791405439 4290752336
-0.2875951827 -0.1416423172 0.5757668614 4290817875
-0.2863455713 -0.1403899342 0.5732650757 4290686289
-0.2859683633 -0.1395688951 0.5725099444 4290686804
-0.2851540744 -0.1385371834 0.5708796978 4290555218
-0.2843391597 -0.1375088096 0.5692482591 4290094154
-0.2839605212 -0.1366940588 0.5684902072 4290028361
-0.2835814953 -0.1358808130 0.5677313805 4290619467
-0.2832020521 -0.1350690424 0.5669717193 4290816846
-0.2828221917 -0.1342587769 0.5662112832 4290620496
-0.2824419141 -0.1334500015 0.5654499531 4290686289
-0.2820612490 -0.1326427311 0.5646878481 4290817875
-0.2816801667 -0.1318369657 0.5639249086 4290752082
-0.2812986672 -0.1310326904 0.5631611347 4290620496
-0.2813543379 -0.1304327846 0.5632725954 4290423117
-0.2805344760 -0.1294286996 0.5616312027 4290554189
-0.2805894911 -0.1288299412 0.5617414117 4290751568
-0.2802064717 -0.1280308068 0.5609745383 4290619982
-0.2793851197 -0.1270340681 0.5593302250 4290619982
-0.2794391811 -0.1264370680 0.5594384670 4290751566
-0.2794930339 -0.1258397400 0.5595462322 4290817359
-0.2795466185 -0.1252420545 0.5596535802 4290751566
-0.2791617513 -0.1244486570 0.5588830113 4290817359
-0.2792147994 -0.1238512322 0.5589892268 4290817359
-0.2788291872 -0.1230599731 0.5582172871 4290817359
-0.2784431875 -0.1222702563 0.5574445128 4290817358
-0.2784953713 -0.1216736883 0.5575489402 4290817358
-0.2785473168 -0.1210767850 0.5576529503 4290817358
-0.2785990238 -0.1204795539 0.5577564836 4290817358
-0.2782116532 -0.1196931973 0.5569809675 4290883152
-0.2782628238 -0.1190962493 0.5570833683 4290817359
-0.2778747380 -0.1183120534 0.5563064814 4290751566
-0.2774862945 -0.1175294295 0.5555287600 4290817359
-0.2775365710 -0.1169333756 0.5556294322 4291014738
-0.2771473825 -0.1161529273 0.5548502803 4291014738
-0.2771970928 -0.1155571789 0.5549498200 4290948945
-0.2768072188 -0.1147789210 0.5541692376 4290883152
-0.2768563926 -0.1141834781 0.5542677045 4290883152
-0.2769053280 -0.1135877147 0.5543656349 4290883152
-0.2765144110 -0.1128122881 0.5535830259 4290817359
-0.2765627801 -0.1122168526 0.5536798835 4290883152
-0.2766109109 -0.1116210967 0.5537762642 4290817101
-0.2766588032 -0.1110250354 0.5538721681 4291014480
-0.2771463692 -0.1106042191 0.5548482537 4290948687
-0.2771938741 -0.1100065932 0.5549433231 4290948687
-0.2776811719 -0.1095823199 0.5559189320 4291080273
-0.2777282596 -0.1089831293 0.5560132265 4290882894
-0.2777751088 -0.1083836406 0.5561069846 4290817358
-0.2778217196 -0.1077838391 0.5562002659 4291080530
-0.2778680623 -0.1071837470 0.5562930703 4291146323
-0.2779141665 -0.1065833494 0.5563853979 4291212116
-0.2779600322 -0.1059826538 0.5564771891 4291212116
-0.2775650918 -0.1052146554 0.5556865335 4291277909
-0.2776103914 -0.1046143174 0.5557771921 4291343702
-0.2776554525 -0.1040136889 0.5558674335 4291343702
-0.2777002752 -0.1034127697 0.5559571385 4291278679
-0.2777448297 -0.1028115600 0.5560463667 4291541851
-0.2777891755 -0.1022100672 0.5561351180 4291739238
-0.2778332531 -0.1016082764 0.5562233925 4291739238
-0.2783181667 -0.1011665389 0.5571941733 4291739238
-0.2783617973 -0.1005632281 0.5572815537 4291805031
-0.2784052193 -0.0999596268 0.5573684573 4291936617
-0.2784483731 -0.0993557572 0.5574548841 4292068203
-0.2784912884 -0.0987515971 0.5575407743 4292002923
-0.2794167995 -0.0984582454 0.5593936443 4292002923
-0.2794593275 -0.0978516191 0.5594788194 4292002670
-0.2795016468 -0.0972447172 0.5595635176 4292002670
-0.2795436680 -0.0966375396 0.5596476793 4292199538
-0.2795854807 -0.0960300863 0.5597313643 4292265331
-0.2796270251 -0.0954223573 0.5598145127 4292199538
-0.2796683311 -0.0948143676 0.5598971844 4292396917
-0.2797093689 -0.0942061022 0.5599793792 4292594807
-0.2801920772 -0.0937454328 0.5609458089 4292594807
-0.2802326977 -0.0931356773 0.5610270500 4292397179
-0.2807151079 -0.0926715955 0.5619928837 4292462972
-0.2811973989 -0.0922053307 0.5629584193 4292332658
-0.2812373638 -0.0915928558 0.5630384684 4292332658
-0.2812770903 -0.0909801275 0.5631179214 4292266873
-0.2817588449 -0.0905092210 0.5640824437 4292464252
-0.2822405100 -0.0900361314 0.5650467277 4292662160
-0.2827219963 -0.0895608589 0.5660107136 4292991125
-0.2836458981 -0.0892225951 0.5678603053 4292663716
-0.2841271758 -0.0887419805 0.5688238740 4293124267
-0.3118399978 -0.1636579931 0.6256963015 4290952857
-0.3119086921 -0.1629987061 0.6258341670 4290821271
-0.3119771481 -0.1623389721 0.6259714961 4291016557
-0.3116107583 -0.1614536345 0.6252363324 4290621799
-0.3112438917 -0.1605697125 0.6245002747 4291080810
-0.3104418516 -0.1594638377 0.6228909492 4290686052
-0.3092042506 -0.1581388265 0.6204078197 4290818137
-0.3062259555 -0.1559329182 0.6144319177 4290883930
-0.3023759425 -0.1532983780 0.6067070365 4290883929
-0.2985240221 -0.1506800205 0.5989782214 4290883929
-0.2951054275 -0.1482966095 0.5921189785 4290883929
-0.2925558388 -0.1463631839 0.5870033503 4290818136
-0.2900049090 -0.1444404572 0.5818849802 4290686550
-0.2887592316 -0.1431762874 0.5793855786 4290686550
-0.2870771885 -0.1417022794 0.5760105848 4290883929
-0.2862655818 -0.1406634897 0.5743821263 4290686550
-0.2854533792 -0.1396280229 0.5727524757 4290621011
-0.2850764692 -0.1388081461 0.5719962120 4290489425
