VERSION 0.7
FIELDS x y z rgba
SIZE 4 4 4 4
TYPE F F F U
COUNT 1 1 1 1
WIDTH 920
HEIGHT 1
VIEWPOINT 0.0 0.0 0.0 1.0 0.0 0.0 0.0
POINTS 920
DATA ascii
-0.3298457861 -0.1266112775 0.5574687123 4290085192
-0.3299050331 -0.1260145158 0.5575688481 4290547282
-0.3299640417 -0.1254174411 0.5576685667 4291205212
-0.3300227821 -0.1248200461 0.5577678084 4291601502
-0.3295811117 -0.1240341142 0.5570213795 4292391018
-0.3296392560 -0.1234369949 0.5571196079 4292853608
-0.3296971321 -0.1228395551 0.5572174191 4293511538
-0.3292543292 -0.1220563054 0.5564690828 4293185909
-0.3288111091 -0.1212745532 0.5557200313 4293383288
-0.3293685913 -0.1208616719 0.5566622019 4293514620
-0.3289246857 -0.1200811267 0.5559119582 4293514620
-0.3289810717 -0.1194839478 0.5560072064 4293383804
-0.3290371895 -0.1188864633 0.5561020970 4293449597
-0.3290930688 -0.1182886735 0.5561965108 4293384317
-0.3296496570 -0.1178697124 0.5571371913 4293186938
-0.3292039931 -0.1170921847 0.5563839674 4293187197
-0.3292590678 -0.1164934859 0.5564770699 4292989818
-0.3288126290 -0.1157180890 0.5557225943 4292726646
-0.3288671076 -0.1151197031 0.5558146238 4292463474
-0.3289212883 -0.1145210266 0.5559062362 4292069486
-0.3289752305 -0.1139220521 0.5559973717 4292003693
-0.3290289044 -0.1133227795 0.5560880899 4292332658
-0.3285806477 -0.1125513837 0.5553304553 4292793209
-0.3281319737 -0.1117815226 0.5545721650 4293713288
-0.3281846642 -0.1111832112 0.5546612740 4294042253
-0.3282371163 -0.1105846092 0.5547499061 4293846424
-0.3282893002 -0.1099857241 0.5548380613 4294043803
-0.3283411860 -0.1093865559 0.5549257994 4293321381
-0.3278907239 -0.1086207554 0.5541644096 4292334486
-0.3277414739 -0.1042632610 0.5539121628 4287859582
-0.3277907968 -0.1036634296 0.5539955497 4283846209
-0.3278398514 -0.1030633226 0.5540785193 4284502332
-0.3278886676 -0.1024629548 0.5541609526 4285226055
-0.3244163990 -0.1007687002 0.5482925177 4284308303
-0.3279854357 -0.1012614071 0.5543245077 4287532160
-0.3308292925 -0.1328292340 0.5601824522 4289626741
-0.3313895464 -0.1324307173 0.5611310601 4288968811
-0.3304544389 -0.1314353347 0.5595476627 4289623383
-0.3305157423 -0.1308379024 0.5596514940 4289754969
-0.3295795619 -0.1298472583 0.5580663085 4290081100
-0.3296401799 -0.1292509735 0.5581689477 4290278479
-0.3297005296 -0.1286543459 0.5582711101 4290411343
-0.3292617202 -0.1278636754 0.5575281382 4290608722
-0.3288224936 -0.1270744801 0.5567843914 4290611017
-0.3288818896 -0.1264786869 0.5568849444 4291203154
-0.3289410174 -0.1258825809 0.5569850802 4291928670
-0.3289999068 -0.1252861619 0.5570847988 4292718186
-0.3285591900 -0.1245001927 0.5563385487 4292918384
-0.3286174536 -0.1239040345 0.5564371943 4293642107
-0.3286754787 -0.1233075559 0.5565354228 4293382773
-0.3282336295 -0.1225242764 0.5557872653 4293251187
-0.3282910287 -0.1219280735 0.5558844805 4293384055
-0.3283481598 -0.1213315651 0.5559812188 4293384055
-0.3279052079 -0.1205509752 0.5552311540 4293646460
-0.3279617429 -0.1199547499 0.5553268790 4293580667
-0.3280180097 -0.1193582192 0.5554221869 4293449597
-0.3280740380 -0.1187613830 0.5555170178 4293646976
-0.3286299706 -0.1183443666 0.5564584136 4293713280
-0.3286855519 -0.1177460104 0.5565525293 4293581694
-0.3282404840 -0.1169690490 0.5557988882 4293516414
-0.3282954693 -0.1163709983 0.5558919907 4293450621
-0.3283501565 -0.1157726496 0.5559846163 4293187451
-0.3279039860 -0.1149984300 0.5552290678 4292858486
-0.3279580772 -0.1144004017 0.5553206801 4292595061
-0.3280119002 -0.1138020754 0.5554118156 4292266096
-0.3280654550 -0.1132034510 0.5555025339 4292003440
-0.3281187415 -0.1126045361 0.5555927753 4292135026
-0.3276707530 -0.1118343323 0.5548341870 4292725884
-0.3277234435 -0.1112357527 0.5549233556 4293646986
-0.3277758658 -0.1106368899 0.5550121069 4293977494
-0.3278279901 -0.1100377366 0.5551004410 4293977494
-0.3273785412 -0.1092709601 0.5543394089 4293584541
-0.3274300694 -0.1086721569 0.5544266701 4293716127
-0.3274813592 -0.1080730632 0.5545134544 4292730273
-0.3270307779 -0.1073091105 0.5537505150 4291217034
-0.3272813857 -0.1043127030 0.5541748405 4287990390
-0.3278327286 -0.1038716659 0.5551084280 4284305982
-0.3278818429 -0.1032703742 0.5551916361 4284699701
-0.3279306889 -0.1026688069 0.5552743077 4285949768
-0.3274770081 -0.1019106731 0.5545061231 4286743160
-0.3303612471 -0.1328912377 0.5604438782 4290215521
-0.3309207559 -0.1324925572 0.5613930821 4289886556
-0.3304847479 -0.1316950619 0.5606533885 4290081616
-0.3305461109 -0.1310964674 0.5607575178 4289818444
-0.3306072056 -0.1304975450 0.5608611703 4289883459
-0.3301700652 -0.1297026724 0.5601195693 4290541389
-0.3287363052 -0.1285198033 0.5576872826 4290873427
-0.3287962973 -0.1279235035 0.5577890277 4290741841
-0.3283577263 -0.1271339655 0.5570450425 4291072335
-0.3279187381 -0.1263459027 0.5563002825 4291993437
-0.3280365169 -0.1251546592 0.5565000772 4293573743
-0.3275963962 -0.1243692636 0.5557534695 4293511540
-0.3276545405 -0.1237737462 0.5558521152 4293906298
-0.3267148435 -0.1228029504 0.5542579293 4293253242
-0.3277700841 -0.1225817725 0.5560480952 4292990070
-0.3273284733 -0.1217996478 0.5552989244 4293251699
-0.3269431293 -0.1204237565 0.5546452403 4293514872
-0.3269995451 -0.1198281795 0.5547409058 4293580665
-0.3275550306 -0.1194143295 0.5556833148 4293712251
-0.3276110291 -0.1188172325 0.5557782650 4293843837
-0.3276667595 -0.1182198301 0.5558727980 4293713533
-0.3272226453 -0.1174428165 0.5551193953 4293647740
-0.3272777498 -0.1168457195 0.5552129149 4293516154
-0.3273326159 -0.1162483171 0.5553059578 4293516154
-0.3268873692 -0.1154740527 0.5545506477 4293384315
-0.3274415135 -0.1150526181 0.5554907322 4293252729
-0.3274956048 -0.1144543216 0.5555824637 4293055611
-0.3270493150 -0.1136819050 0.5548253655 4292792439
-0.3271027803 -0.1130839363 0.5549160242 4292464244
-0.3271559477 -0.1124856696 0.5550062656 4292398451
-0.3272088766 -0.1118871197 0.5550960302 4292528757
-0.3272615373 -0.1112882718 0.5551853776 4292726136
-0.3273139298 -0.1106891409 0.5552742481 4292858759
-0.3268654943 -0.1099213883 0.5545135140 4293516689
-0.3269172907 -0.1093226001 0.5546013713 4293846685
-0.3269687891 -0.1087235287 0.5546887517 4294109857
-0.3270200491 -0.1081241742 0.5547756553 4293650333
-0.3275718987 -0.1076892018 0.5557118654 4293123989
-0.3276226819 -0.1070883647 0.5557980537 4292005008
-0.3276731968 -0.1064872518 0.5558837652 4290162804
-0.3273218870 -0.1045221910 0.5552877784 4286805338
-0.3278725743 -0.1040800363 0.5562220216 4283778860
-0.3279217482 -0.1034775525 0.5563054085 4284173610
-0.3274691701 -0.1027174965 0.5555376410 4286673744
-0.3297680616 -0.1341485381 0.5604937077 4289034867
-0.3293336928 -0.1333499104 0.5597553849 4289100660
-0.3298925459 -0.1329531968 0.5607052445 4290149981
-0.3299543858 -0.1323550344 0.5608103275 4289689430
-0.3295189738 -0.1315580904 0.5600702763 4290080334
-0.3295801878 -0.1309601516 0.5601744056 4290211920
-0.3296411932 -0.1303618699 0.5602780581 4290409539
-0.3287073374 -0.1293718219 0.5586907864 4290935883
-0.3277728558 -0.1283850521 0.5571025014 4291137102
-0.3278327286 -0.1277893931 0.5572042465 4291137102
-0.3278923035 -0.1271934211 0.5573055148 4291600219
-0.3274540007 -0.1264050156 0.5565605760 4292389735
-0.3275129795 -0.1258092970 0.5566608310 4292852072
-0.3275717199 -0.1252132654 0.5567606091 4293510002
-0.3271322846 -0.1244275123 0.5560137033 4293316206
-0.3271903992 -0.1238317415 0.5561125278 4293250413
-0.3267501593 -0.1230480745 0.5553643107 4292727668
-0.3268077075 -0.1224525794 0.5554620624 4292925047
-0.3258684278 -0.1214852557 0.5538656116 4293120114
-0.3264236152 -0.1210758016 0.5548092127 4293185907
-0.3264802694 -0.1204802766 0.5549055338 4293382773
-0.3265366554 -0.1198844388 0.5550013781 4293580152
-0.3260941803 -0.1191061735 0.5542493463 4293712251
-0.3261499703 -0.1185106412 0.5543441176 4293843837
-0.3267042935 -0.1180950925 0.5552862883 4293778813
-0.3257618845 -0.1171392575 0.5536845326 4293713020
-0.3268147111 -0.1169006750 0.5554739833 4293779326
-0.3268695474 -0.1163030118 0.5555672050 4293779326
-0.3264249861 -0.1155283973 0.5548115969 4293713280
-0.3259800076 -0.1147553101 0.5540552735 4293581694
-0.3265331686 -0.1143334061 0.5549954772 4293450621
-0.3265868723 -0.1137354597 0.5550867319 4293384828
-0.3266402781 -0.1131372228 0.5551775098 4293254010
-0.3267463446 -0.1119398773 0.5553578138 4293449599
-0.3267989755 -0.1113407686 0.5554472804 4293186427
-0.3263515830 -0.1105720401 0.5546868443 4292792453
-0.3269034624 -0.1101416796 0.5556248426 4292924039
-0.3264553547 -0.1093742177 0.5548632145 4293056656
-0.3265068531 -0.1087748781 0.5549507141 4293254035
-0.3265580833 -0.1081752554 0.5550377965 4293320078
-0.3266090155 -0.1075753495 0.5551244020 4293583250
-0.3266597092 -0.1069751680 0.5552105308 4293188243
-0.3267101347 -0.1063747033 0.5552962422 4291609211
-0.3272606730 -0.1059359461 0.5562319756 4290950024
-0.3273106515 -0.1053340137 0.5563169122 4289699957
-0.3273603320 -0.1047317982 0.5564013720 4285686083
-0.3269091249 -0.1039700955 0.5556344390 4283514914
-0.3269582093 -0.1033682600 0.5557178855 4284107304
-0.3275077641 -0.1029235274 0.5566519499 4288054884
-0.3286776245 -0.1352015436 0.5596968532 4288710780
-0.3287403584 -0.1346053779 0.5598036647 4287592299
-0.3288028240 -0.1340088546 0.5599101186 4289493338
-0.3293611109 -0.1336132288 0.5608607531 4289624924
-0.3294231594 -0.1330151409 0.5609664321 4289950544
-0.3289887607 -0.1322172880 0.5602267385 4289950544
-0.3285539448 -0.1314208955 0.5594862700 4290016588
-0.3281186521 -0.1306259781 0.5587450266 4290411346
-0.3281794190 -0.1300292611 0.5588485003 4290347083
-0.3277433515 -0.1292363852 0.5581059456 4290544462
-0.3273068666 -0.1284449995 0.5573626161 4291270227
-0.3273666799 -0.1278490871 0.5574644804 4292191329
-0.3269293904 -0.1270597577 0.5567198396 4292719716
-0.3269886076 -0.1264640987 0.5568206906 4292851302
-0.3265505433 -0.1256768405 0.5560746789 4292984677
-0.3266091347 -0.1250814497 0.5561745167 4293182056
-0.3266675174 -0.1244857311 0.5562738776 4292986210
-0.3262282908 -0.1237011328 0.5555259585 4293249382
-0.3257886767 -0.1229180321 0.5547773242 4293250922
-0.3258460760 -0.1223231852 0.5548750758 4293185129
-0.3254056573 -0.1215421781 0.5541251302 4293250670
-0.3254624605 -0.1209476143 0.5542218685 4293382256
-0.3255189955 -0.1203527376 0.5543181300 4293383026
-0.3255752921 -0.1197575554 0.5544139743 4293514612
-0.3251334131 -0.1189798564 0.5536615252 4293515641
-0.3251890838 -0.1183849722 0.5537562966 4293647227
-0.3252444863 -0.1177897751 0.5538507104 4293582460
-0.3252996504 -0.1171942800 0.5539445877 4293714046
-0.3258527815 -0.1167770401 0.5548865199 4293517181
-0.3259075284 -0.1161800250 0.5549797416 4293582974
-0.3259619772 -0.1155827120 0.5550724268 4293779584
-0.3255176544 -0.1148092821 0.5543158650 4293845377
-0.3255715072 -0.1142122895 0.5544075370 4293976193
-0.3256250918 -0.1136149988 0.5544987917 4293910400
-0.3256784081 -0.1130174175 0.5545896292 4294107009
-0.3257314861 -0.1124195382 0.5546799302 4294238595
-0.3257842660 -0.1118213683 0.5547698736 4293910659
-0.3258368075 -0.1112229079 0.5548592806 4293779073
-0.3258890510 -0.1106241643 0.5549482703 4293515903
-0.3259410560 -0.1100251302 0.5550368428 4293252731
-0.3259927928 -0.1094258055 0.5551249385 4292923774
-0.3255449533 -0.1086595431 0.5543622971 4292792188
-0.3255960643 -0.1080605760 0.5544493794 4292530566
-0.3261463940 -0.1076261401 0.5553864837 4292596359
-0.3261970580 -0.1070256904 0.5554727316 4292596880
-0.3262474537 -0.1064249575 0.5555585623 4291807364
-0.3262975812 -0.1058239490 0.5556439161 4290556535
-0.3263474405 -0.1052226648 0.5557288527 4288582745
-0.3263970315 -0.1046211049 0.5558133125 4284568616
-0.3264463246 -0.1040192768 0.5558972955 4282923791
-0.3264953792 -0.1034171730 0.5559808016 4284963132
-0.3287034631 -0.1354683936 0.5608015060 4287655774
-0.3283335865 -0.1340711862 0.5601704717 4289886041
-0.3288910985 -0.1336753964 0.5611216426 4289557076
-0.3289531469 -0.1330770403 0.5612275004 4289818955
-0.3285194337 -0.1322788447 0.5604875684 4290016334
-0.3280852735 -0.1314821094 0.5597468019 4290280270
-0.3276506662 -0.1306868494 0.5590053797 4290543442
-0.3267198503 -0.1296962500 0.5574172735 4290413386
-0.3262842894 -0.1289048344 0.5566741824 4290939730
-0.3263442218 -0.1283099055 0.5567764640 4291862875
-0.3264039457 -0.1277146488 0.5568783283 4292849770
-0.3259672225 -0.1269258708 0.5561332703 4292917863
-0.3260263205 -0.1263308674 0.5562340617 4293049449
-0.3260851800 -0.1257355362 0.5563344359 4293050724
-0.3256473541 -0.1249494180 0.5555874705 4293050724
-0.3252090812 -0.1241647974 0.5548397303 4292723808
-0.3252669573 -0.1235703230 0.5549385548 4292986980
-0.3248279393 -0.1227877811 0.5541895032 4293053542
-0.3248852193 -0.1221935824 0.5542871952 4293053542
-0.3249422610 -0.1215990782 0.5543845296 4293250152
-0.3249990344 -0.1210042536 0.5544813871 4293381738
-0.3245585263 -0.1202250049 0.5537298322 4293316715
-0.3246146739 -0.1196304709 0.5538256764 4293448301
-0.3246705830 -0.1190356314 0.5539210439 4293383537
-0.3247262537 -0.1184404865 0.5540159941 4293580916
-0.3242842555 -0.1176645607 0.5532619357 4293450359
-0.3243393004 -0.1170697212 0.5533558726 4293516152
-0.3243941069 -0.1164745688 0.5534493327 4293581947
-0.3249462545 -0.1160568520 0.5543913245 4293581947
-0.3250005841 -0.1154601946 0.5544840693 4293713278
-0.3245568871 -0.1146873310 0.5537270308 4293844864
-0.3251084983 -0.1142659709 0.5546681285 4293910146
-0.3251620531 -0.1136684194 0.5547595024 4293910146
-0.3252153397 -0.1130705699 0.5548504591 4294106757
-0.3252683878 -0.1124724299 0.5549409389 4294172550
-0.3253211379 -0.1118739992 0.5550309420 4294042758
-0.3253736496 -0.1112752780 0.5551205277 4293976965
-0.3249275386 -0.1105067730 0.5543594360 4293844614
-0.3254778683 -0.1100769639 0.5552983284 4293778821
-0.3250310421 -0.1093097180 0.5545360446 4293778572
-0.3250824213 -0.1087107658 0.5546236634 4293646986
-0.3251335025 -0.1081115305 0.5547108054 4293253004
-0.3251843452 -0.1075120121 0.5547975302 4293187211
-0.3252348900 -0.1069122106 0.5548838377 4292727177
-0.3252851963 -0.1063121334 0.5549696088 4292464005
-0.3258341849 -0.1058739126 0.5559062958 4291673984
-0.3258840442 -0.1052723601 0.5559912920 4290160745
-0.3259336054 -0.1046705320 0.5560758710 4287265869
-0.3254836798 -0.1039090604 0.5553082824 4286344767
-0.3260319233 -0.1034660563 0.5562435985 4287595104
-0.3271183372 -0.1363135874 0.5591567159 4288119923
-0.3276756406 -0.1359235048 0.5601093173 4286935649
-0.3282329142 -0.1355312914 0.5610618591 4288968284
-0.3282956779 -0.1349337101 0.5611691475 4289363042
-0.3278636932 -0.1341334730 0.5604307652 4290410330
-0.3284204602 -0.1337375194 0.5613824725 4290147158
-0.3279877603 -0.1329384148 0.5606428385 4290148174
-0.3280494213 -0.1323403716 0.5607482791 4290016588
-0.3271210492 -0.1313445866 0.5591613650 4290214729
-0.3271820247 -0.1307476759 0.5592655540 4290543694
-0.3267476559 -0.1299535334 0.5585231185 4290874191
-0.3263128698 -0.1291608810 0.5577798486 4291861086
-0.3254419565 -0.1275800020 0.5562911630 4293047147
-0.3255012631 -0.1269850582 0.5563926101 4292720484
-0.3255603313 -0.1263898015 0.5564935803 4292917863
-0.3251235485 -0.1256027520 0.5557469130 4292853345
-0.3251820207 -0.1250077486 0.5558468699 4292787552
-0.3247444332 -0.1242227778 0.5550988913 4292657245
-0.3243063986 -0.1234393045 0.5543501377 4292854624
-0.3243639171 -0.1228451654 0.5544484854 4292855394
-0.3239251375 -0.1220637858 0.5536984205 4292921187
-0.3239820600 -0.1214699224 0.5537956953 4293183588
-0.3235424757 -0.1206906438 0.5530443192 4293117795
-0.3235988021 -0.1200970709 0.5531405807 4293052772
-0.3236548305 -0.1195031926 0.5532364249 4293118565
-0.3237661719 -0.1183145046 0.5534267426 4293381995
-0.3233247995 -0.1175391525 0.5526722670 4293448819
-0.3238764703 -0.1171246022 0.5536152720 4293448819
-0.3239312470 -0.1165291965 0.5537088513 4293514872
-0.3239857256 -0.1159334853 0.5538020134 4293514872
-0.3240399659 -0.1153374761 0.5538946986 4293646460
-0.3240939379 -0.1147411689 0.5539869666 4293712253
-0.3241476715 -0.1141445637 0.5540788174 4293777792
-0.3242011070 -0.1135476604 0.5541701913 4293843585
-0.3242543042 -0.1129504666 0.5542610884 4294106246
-0.3243072331 -0.1123529747 0.5543515682 4294303625
-0.3243598938 -0.1117551997 0.5544415712 4294305932
-0.3244122863 -0.1111571267 0.5545310974 4294240139
-0.3244644105 -0.1105587631 0.5546202064 4294239372
-0.3245162666 -0.1099601164 0.5547088981 4294239372
-0.3240700662 -0.1091934517 0.5539461970 4294304914
-0.3241213262 -0.1085951552 0.5540338159 4294041742
-0.3241723180 -0.1079965681 0.5541209579 4293581452
-0.3247210979 -0.1075626761 0.5550590158 4293449866
-0.3242735267 -0.1067985594 0.5542939305 4293779602
-0.3248218894 -0.1063622683 0.5552313328 4293582223
-0.3248718977 -0.1057616398 0.5553168058 4293384852
-0.3249216378 -0.1051607430 0.5554018021 4293253266
-0.3244726658 -0.1043991968 0.5546343923 4292530071
-0.3250203133 -0.1039581150 0.5555704236 4291872141
-0.3255678117 -0.1035149172 0.5565063357 4291214992
-0.3256165385 -0.1029120013 0.5565896034 4290754441
-0.3265852928 -0.1369717717 0.5593073964 4287793276
-0.3271420300 -0.1365827769 0.5602608919 4288049752
-0.3272051811 -0.1359865218 0.5603690147 4288576096
-0.3272680938 -0.1353899390 0.5604767203 4289886039
-0.3278244436 -0.1349963099 0.5614295602 4289820246
-0.3268993199 -0.1339933276 0.5598452091 4290672471
-0.3274552524 -0.1335981190 0.5607972741 4290540885
-0.3270231485 -0.1327995509 0.5600572824 4290410316
-0.3265905976 -0.1320024580 0.5593164563 4290410316
-0.3266517818 -0.1314056367 0.5594213009 4290608972
-0.3262184560 -0.1306105852 0.5586791635 4291003730
-0.3257846832 -0.1298170090 0.5579362512 4291532119
-0.3253504634 -0.1290249079 0.5571926236 4292584807
-0.3249158263 -0.1282342821 0.5564482808 4292784229
-0.3249753714 -0.1276394129 0.5565502644 4292850022
-0.3245399296 -0.1268508583 0.5558045506 4292523103
-0.3245988786 -0.1262562424 0.5559055209 4292720482
-0.3241626918 -0.1254697591 0.5551584363 4292787039
-0.3237260282 -0.1246847585 0.5544106364 4292721246
-0.3232889473 -0.1239012554 0.5536621213 4292655964
-0.3238417804 -0.1234969199 0.5546088815 4292721757
-0.3234040141 -0.1227145940 0.5538591743 4292525146
-0.3234611452 -0.1221207976 0.5539570451 4292459353
-0.3230226040 -0.1213405728 0.5532059669 4292853341
-0.3230791688 -0.1207470521 0.5533028245 4292853341
-0.3231354356 -0.1201532260 0.5533992052 4292722525
-0.3226957917 -0.1193757132 0.5526462197 4292788318
-0.3227514625 -0.1187821776 0.5527415872 4292854626
-0.3228068948 -0.1181883365 0.5528365374 4293183591
-0.3228620589 -0.1175941825 0.5529310107 4293184620
-0.3229169548 -0.1169997305 0.5530250669 4293250413
-0.3229716122 -0.1164049804 0.5531186461 4293316466
-0.3235222101 -0.1159878150 0.5540615916 4293316466
-0.3235763907 -0.1153915450 0.5541543961 4293447798
-0.3226376176 -0.1144428477 0.5525466204 4293513591
-0.3236840367 -0.1141981110 0.5543387532 4293448570
-0.3237374723 -0.1136009470 0.5544302464 4293645949
-0.3237906396 -0.1130034924 0.5545212626 4293974914
-0.3238435090 -0.1124057397 0.5546118617 4294303879
-0.3238961697 -0.1118076965 0.5547019839 4294502796
-0.3239485323 -0.1112093627 0.5547916889 4294634382
-0.3235037029 -0.1104410887 0.5540298820 4294831509
-0.3240524828 -0.1100118235 0.5549697280 4294897302
-0.3236069679 -0.1092448086 0.5542067289 4294765719
-0.3236581981 -0.1086462438 0.5542944670 4294436754
-0.3237091601 -0.1080473959 0.5543817878 4294108050
-0.3232625425 -0.1072832122 0.5536168814 4294042257
-0.3238103092 -0.1068488508 0.5545549393 4293779602
-0.3238604665 -0.1062491611 0.5546408892 4293713809
-0.3239103556 -0.1056491956 0.5547263622 4293583000
-0.3239600062 -0.1050489470 0.5548113585 4293648793
-0.3240093589 -0.1044484228 0.5548958778 4293714850
-0.3240584731 -0.1038476303 0.5549799800 4293451678
-0.3241072893 -0.1032465622 0.5550636053 4293386663
-0.3241558671 -0.1026452258 0.5551467538 4293189284
-0.3242041469 -0.1020436212 0.5552294850 4292861079
-0.3247502446 -0.1015975624 0.5561647415 4292005770
-0.3247980773 -0.1009944975 0.5562466383 4290953359
-0.3265439570 -0.1378379613 0.5603023767 4288777339
-0.3266075850 -0.1372421533 0.5604115129 4287264100
-0.3266709447 -0.1366460174 0.5605202317 4289230679
-0.3267340660 -0.1360495090 0.5606285334 4289493851
-0.3267969191 -0.1354526728 0.5607364178 4289884237
-0.3263665438 -0.1346520782 0.5599979162 4290147409
-0.3264288008 -0.1340554655 0.5601047873 4290409812
-0.3259976208 -0.1332568973 0.5593649745 4290541398
-0.3260592818 -0.1326604933 0.5594707727 4290278982
-0.3256273270 -0.1318639517 0.5587295890 4290936912
-0.3251949251 -0.1310688853 0.5579876304 4291530328
-0.3252556622 -0.1304732710 0.5580918193 4291859293
-0.3253161311 -0.1298773438 0.5581955910 4291927645
-0.3248825967 -0.1290848851 0.5574517250 4292585575
-0.3244486153 -0.1282939166 0.5567070842 4292521825
-0.3240142167 -0.1275044382 0.5559616685 4292719204
-0.3240733743 -0.1269098967 0.5560632348 4292391771
-0.3236382008 -0.1261224747 0.5553165078 4292523357
-0.3232025802 -0.1253365427 0.5545690656 4292523867
-0.3232608140 -0.1247428507 0.5546689630 4292458074
-0.3228244185 -0.1239590049 0.5539201498 4292326486
-0.3223875761 -0.1231766567 0.5531706214 4292326486
-0.3224448860 -0.1225838214 0.5532689095 4292326740
-0.3220072687 -0.1218035743 0.5525180697 4292260947
-0.3220639527 -0.1212110221 0.5526153445 4292326488
-0.3221203685 -0.1206181496 0.5527121425 4292392281
-0.3221765459 -0.1200249791 0.5528085232 4292392540
-0.3217374980 -0.1192480326 0.5520551801 4292524126
-0.3222881258 -0.1188376993 0.5529999733 4292721505
-0.3223435283 -0.1182435974 0.5530950427 4292984677
-0.3223986626 -0.1176491901 0.5531896353 4292985448
-0.3219582140 -0.1168746725 0.5524339080 4293051241
-0.3225081563 -0.1164594591 0.5533775091 4293117291
-0.3225625157 -0.1158641502 0.5534707904 4293183084
-0.3221210539 -0.1150914654 0.5527132750 4293183856
-0.3226704597 -0.1146726161 0.5536559820 4293315442
-0.3227240443 -0.1140763983 0.5537479520 4293316212
-0.3227773607 -0.1134798899 0.5538393855 4293513591
-0.3228304088 -0.1128830910 0.5539304614 4293776763
-0.3228831887 -0.1122859940 0.5540210009 4294039935
-0.3229357302 -0.1116885990 0.5541111827 4294172550
-0.3229879737 -0.1110909209 0.5542008281 4294435722
-0.3225437701 -0.1103232205 0.5534386039 4294699923
-0.3230917156 -0.1098946929 0.5543788075 4294897302
-0.3226468265 -0.1091282591 0.5536154509 4294635414
-0.3226979375 -0.1085303426 0.5537031889 4294438035
-0.3232453465 -0.1080982015 0.5546424389 4294306456
-0.3227994144 -0.1073336750 0.5538772941 4294240663
-0.3228497505 -0.1067349166 0.5539636016 4294241695
-0.3228998184 -0.1061358824 0.5540495515 4294044316
-0.3234464526 -0.1056989282 0.5549874902 4293846945
-0.3234960735 -0.1050984189 0.5550726056 4293649566
-0.3230484128 -0.1043371111 0.5543045402 4293847465
-0.3235944808 -0.1038965657 0.5552414656 4293584293
-0.3236432970 -0.1032952294 0.5553252101 4293847210
-0.3236918151 -0.1026936248 0.5554085374 4293781417
-0.3237400949 -0.1020917445 0.5554913282 4294110887
-0.3242854476 -0.1016454995 0.5564271212 4293716129
-0.3243332505 -0.1010421589 0.5565091372 4293452456
-0.3243807852 -0.1004385576 0.5565906763 4293123491
-0.3244280517 -0.0998346880 0.5566717982 4292465821
-0.3244750500 -0.0992305502 0.5567523837 4291873684
-0.3245217502 -0.0986261591 0.5568325520 4291150236
-0.3265641034 -0.1381096691 0.5614067912 4287919199
-0.3266277611 -0.1375127137 0.5615162849 4288577129
-0.3266912103 -0.1369154155 0.5616253614 4289492051
-0.3262622952 -0.1361124665 0.5608879924 4289426258
-0.3258329332 -0.1353109777 0.5601498485 4290344272
-0.3258953989 -0.1347144395 0.5602572560 4290410065
-0.3254652619 -0.1339149624 0.5595178008 4290411092
-0.3255271614 -0.1333186477 0.5596241951 4290411092
-0.3250962198 -0.1325211972 0.5588833094 4290542919
-0.3246648312 -0.1317252219 0.5581417680 4291069263
-0.3247257769 -0.1311296970 0.5582464933 4291465043
-0.3242936134 -0.1303357482 0.5575035810 4291794008
-0.3243539631 -0.1297404617 0.5576072931 4291993948
-0.3239210248 -0.1289485693 0.5568630099 4292454499
-0.3234876394 -0.1281581670 0.5561180115 4292259163
-0.3235470355 -0.1275637001 0.5562201142 4292456542
-0.3231128752 -0.1267753541 0.5554737449 4292129109
-0.3226782978 -0.1259884983 0.5547266006 4291997523
-0.3222432733 -0.1252031326 0.5539787412 4291931728
-0.3218078017 -0.1244192645 0.5532301068 4291800142
-0.3218655884 -0.1238268092 0.5533294678 4291734089
-0.3214293420 -0.1230450273 0.5525795221 4291734089
-0.3214865029 -0.1224528477 0.5526777506 4291996747
-0.3210495114 -0.1216731593 0.5519264936 4292128333
-0.3211060762 -0.1210812628 0.5520237684 4291931477
-0.3211623728 -0.1204890534 0.5521205664 4291997270
-0.3212184310 -0.1198965311 0.5522169471 4292063063
-0.3212742507 -0.1193036959 0.5523128510 4292194649
-0.3213297725 -0.1187105551 0.5524083376 4292523357
-0.3213850558 -0.1181171089 0.5525034070 4292654943
-0.3214401007 -0.1175233573 0.5525979996 4292786529
-0.3214948475 -0.1169293001 0.5526921153 4292918115
-0.3215493560 -0.1163349450 0.5527858138 4293049958
-0.3211088479 -0.1155622154 0.5520285368 4293115751
-0.3211627603 -0.1149681732 0.5521211624 4292985194
-0.3217113316 -0.1145500615 0.5530642867 4293050987
-0.3217647970 -0.1139544994 0.5531561971 4293052270
-0.3218179941 -0.1133586466 0.5532476902 4293315442
-0.3218709528 -0.1127624959 0.5533387065 4293579127
-0.3219236434 -0.1121660545 0.5534292459 4293776506
-0.3219760656 -0.1115693226 0.5535193682 4293711488
-0.3220282197 -0.1109722927 0.5536090732 4293843074
-0.3220801055 -0.1103749797 0.5536982417 4293975688
-0.3221317530 -0.1097773761 0.5537870526 4294238860
-0.3216874301 -0.1090115160 0.5530232191 4293977230
-0.3222342134 -0.1085813120 0.5539631844 4293977230
-0.3222850561 -0.1079828516 0.5540505648 4293715087
-0.3223356307 -0.1073841080 0.5541375279 4293583501
-0.3218899667 -0.1066208035 0.5533713698 4294702503
-0.3224359751 -0.1061857864 0.5543100238 4294966703
-0.3224857450 -0.1055862010 0.5543956161 4294967232
-0.3220390379 -0.1048248261 0.5536276698 4294967228
-0.3225845098 -0.1043862104 0.5545653701 4294966725
-0.3226334751 -0.1037858054 0.5546495914 4294702782
-0.3226821721 -0.1031851247 0.5547332764 4294636736
-0.3227306306 -0.1025841758 0.5548166037 4294373564
-0.3232753873 -0.1021398455 0.5557530522 4294176177
-0.3233233392 -0.1015374362 0.5558355451 4293913005
-0.3238677979 -0.1010897979 0.5567715168 4294109868
-0.3239153028 -0.1004859209 0.5568531752 4294241454
-0.3239625394 -0.0998817831 0.5569343567 4294109858
-0.3240095079 -0.0992773771 0.5570151210 4293780893
-0.3235591650 -0.0985213742 0.5562409759 4293386142
-0.3241026103 -0.0980677828 0.5571752191 4292991384
-0.3241487443 -0.0974626020 0.5572545528 4292728992
-0.3241946399 -0.0968571603 0.5573334098 4292268441
-0.3242402375 -0.0962514579 0.5574117899 4291348377
-0.3265181482 -0.1389792711 0.5624017119 4287264874
-0.3260910511 -0.1381734312 0.5616660118 4289100900
-0.3261547089 -0.1375762373 0.5617756844 4288771935
-0.3262180984 -0.1369786710 0.5618848801 4289753940
-0.3257898688 -0.1361753792 0.5611472726 4289819733
-0.3253611624 -0.1353735477 0.5604088902 4290016077
-0.3254236281 -0.1347767562 0.5605164766 4290345042
-0.3249941468 -0.1339769363 0.5597767234 4290542930
-0.3245642483 -0.1331785768 0.5590362549 4290148172
-0.3246257603 -0.1325825751 0.5591421723 4290872138
-0.3241950572 -0.1317862421 0.5584003329 4290937931
-0.3237639368 -0.1309913993 0.5576577783 4290742344
-0.3238244951 -0.1303961873 0.5577620864 4291268688
-0.3233925700 -0.1296033710 0.5570181608 4291731287
-0.3229602277 -0.1288120449 0.5562734604 4292191838
-0.3230198622 -0.1282176524 0.5563761592 4291930966
-0.3230792284 -0.1276229322 0.5564783812 4291865173
-0.3226457536 -0.1268342435 0.5557317734 4291931730
-0.3227045238 -0.1262397766 0.5558329821 4291668558
-0.3222702742 -0.1254531592 0.5550850034 4291471431
-0.3218355775 -0.1246680394 0.5543363094 4291339845
-0.3214004636 -0.1238844097 0.5535868406 4291338817
-0.3214579225 -0.1232913807 0.5536858439 4291141438
-0.3210220337 -0.1225098521 0.5529350638 4291469374
-0.3210789263 -0.1219170988 0.5530330539 4291732546
-0.3206422627 -0.1211376712 0.5522809029 4291602765
-0.3206985295 -0.1205452010 0.5523778796 4291602765
-0.3207545578 -0.1199524254 0.5524743795 4291733838
-0.3208103478 -0.1193593368 0.5525704026 4291931217
-0.3209211230 -0.1181722358 0.5527611971 4292391000
-0.3204822838 -0.1173973307 0.5520054102 4292587867
-0.3205369413 -0.1168039292 0.5520995259 4292785246
-0.3205913603 -0.1162102297 0.5521932244 4292851554
-0.3201514184 -0.1154380739 0.5514355302 4292917347
-0.3211935163 -0.1151991487 0.5532304049 4292786788
-0.3212472200 -0.1146036237 0.5533229113 4292852581
-0.3213006556 -0.1140078083 0.5534149408 4292853610
-0.3213538229 -0.1134116873 0.5535065532 4293248368
-0.3214067519 -0.1128152758 0.5535976887 4293512053
-0.3214594126 -0.1122185737 0.5536884069 4293643639
-0.3215118051 -0.1116215810 0.5537786484 4293776765
-0.3215639293 -0.1110242903 0.5538684130 4293776765
-0.3216158152 -0.1104267091 0.5539577603 4293646209
-0.3216674030 -0.1098288447 0.5540466905 4293712002
-0.3212237954 -0.1090626419 0.5532825589 4293515652
-0.3212747872 -0.1084651276 0.5533704162 4293581445
-0.3213255405 -0.1078673229 0.5534577966 4293319554
-0.3213759959 -0.1072692350 0.5535447598 4293122175
-0.3214262128 -0.1066708714 0.5536311865 4293386124
-0.3215258121 -0.1054733023 0.5538027883 4294966969
-0.3215752244 -0.1048740968 0.5538879037 4294967230
-0.3216243684 -0.1042746231 0.5539725423 4294967250
-0.3216732442 -0.1036748737 0.5540567040 4294967250
-0.3217218518 -0.1030748487 0.5541404486 4294967259
-0.3217701912 -0.1024745554 0.5542237163 4294967002
-0.3218182623 -0.1018739864 0.5543065071 4294966746
-0.3228579462 -0.1015852466 0.5560972691 4294768853
-0.3229056299 -0.1009822935 0.5561794043 4294702798
-0.3229530454 -0.1003790721 0.5562610626 4294702798
-0.3235432804 -0.0993241817 0.5572777390 4294176177
-0.3235899508 -0.0987192392 0.5573580861 4293781672
-0.3236363530 -0.0981140435 0.5574380159 4293518500
-0.3236824870 -0.0975085869 0.5575174689 4293715877
-0.3242248595 -0.0970514938 0.5584516525 4293650084
-0.3242705166 -0.0964445919 0.5585302711 4293321378
-0.3243158758 -0.0958374366 0.5586084723 4292926620
-0.3243609965 -0.0952300206 0.5586861372 4291940767
-0.3244058192 -0.0946223587 0.5587633252 4291019665
-0.3254893720 -0.1394310147 0.5617042184 4287854952
-0.3260437846 -0.1390433609 0.5626609921 4287723366
-0.3261077404 -0.1384453624 0.5627713799 4289034077
-0.3256809711 -0.1376397163 0.5620349050 4288902491
-0.3257443309 -0.1370419115 0.5621442199 4289622354
-0.3253167570 -0.1362382770 0.5614063740 4289688147
-0.3248887658 -0.1354360878 0.5606677532 4289950541
-0.3244603276 -0.1346353590 0.5599284172 4289884748
-0.3240314424 -0.1338361055 0.5591882467 4289950792
-0.3240931630 -0.1332401782 0.5592948198 4290345550
-0.3236635029 -0.1324429363 0.5585533381 4290739782
-0.3237246275 -0.1318472475 0.5586587787 4290937161
-0.3232941926 -0.1310520470 0.5579159856 4290807883
-0.3228633106 -0.1302583218 0.5571723580 4291465813
-0.3229234815 -0.1296634376 0.5572762489 4291599701
-0.3220002055 -0.1286753118 0.5556829572 4291797080
-0.3220597208 -0.1280815750 0.5557855964 4291864659
-0.3221189678 -0.1274874955 0.5558878779 4291864659
-0.3216860890 -0.1266993731 0.5551408529 4291602765
-0.3217447400 -0.1261055619 0.5552420616 4291405386
-0.3213110566 -0.1253195107 0.5544936657 4291273541
-0.3213691115 -0.1247259527 0.5545938611 4291273541
-0.3209346831 -0.1239419878 0.5538440943 4291404098
-0.3204998076 -0.1231595203 0.5530936718 4291075133
-0.3205569386 -0.1225668266 0.5531921983 4291336764
-0.3201212883 -0.1217864528 0.5524404049 4291731522
-0.3201777935 -0.1211940423 0.5525379181 4291405125
-0.3202340603 -0.1206013262 0.5526350141 4291339332
-0.3202900589 -0.1200082898 0.5527316928 4291601736
-0.3198529482 -0.1192312241 0.5519773364 4291864908
-0.3199083507 -0.1186384857 0.5520729423 4292061776
-0.3199634850 -0.1180454344 0.5521681309 4292193362
-0.3200183809 -0.1174520850 0.5522628427 4292455766
-0.3200730085 -0.1168584228 0.5523571372 4292587352
-0.3196341097 -0.1160853133 0.5515996814 4292587099
-0.3196881413 -0.1154919714 0.5516929626 4292850271
-0.3192484677 -0.1147210076 0.5509341955 4292851300
-0.3197954297 -0.1143043712 0.5518780947 4292851300
-0.3208358586 -0.1140610799 0.5536735654 4292852329
-0.3203953207 -0.1132901460 0.5529133677 4293247087
-0.3204481304 -0.1126943901 0.5530045033 4293445494
-0.3205007017 -0.1120983437 0.5530951619 4293577080
-0.3210468888 -0.1116738096 0.5540377498 4293513334
-0.3206050098 -0.1109053716 0.5532751679 4293579127
-0.3211508393 -0.1104784161 0.5542171597 4293448317
-0.3212024271 -0.1098802835 0.5543061495 4293448317
-0.3207595050 -0.1091137454 0.5535417795 4293317758
-0.3208104670 -0.1085159630 0.5536297560 4293383551
-0.3208611906 -0.1079178900 0.5537172556 4293252216
-0.3209116161 -0.1073195413 0.5538043380 4293054837
-0.3204672635 -0.1065564752 0.5530374646 4293253758
-0.3210117221 -0.1061220020 0.5539770722 4293714309
-0.3210613728 -0.1055228114 0.5540627241 4294308263
-0.3211107552 -0.1049233451 0.5541479588 4294966450
-0.3211598694 -0.1043235958 0.5542327166 4294967252
-0.3212087154 -0.1037235782 0.5543170571 4294967254
-0.3212572932 -0.1031232923 0.5544008613 4294967270
-0.3213056326 -0.1025227308 0.5544842482 4294967271
-0.3213536739 -0.1019218937 0.5545671582 4294967267
-0.3214014471 -0.1013207957 0.5546496511 4294967266
-0.3219442666 -0.1008746177 0.5555863380 4294967263
-0.3224869370 -0.1004263163 0.5565229058 4294967265
-0.3225340545 -0.0998225659 0.5566042066 4294967251
-0.3225809038 -0.0992185473 0.5566850305 4294966733
-0.3226274848 -0.0986142680 0.5567654371 4294571975
-0.3231694400 -0.0981602743 0.5577006936 4294374596
-0.3232155442 -0.0975545496 0.5577802658 4294308543
-0.3232613802 -0.0969485566 0.5578593612 4294308543
-0.3233069479 -0.0963423103 0.5579379797 4294110897
-0.3233522177 -0.0957358107 0.5580161214 4293781932
-0.3233972192 -0.0951290578 0.5580937862 4293650094
-0.3234419823 -0.0945220515 0.5581710339 4293452715
-0.3239825666 -0.0940588266 0.5591039658 4292729758
-0.3240268230 -0.0934503898 0.5591803193 4291874449
-0.3240708113 -0.0928416997 0.5592561960 4290429585
-0.3254401386 -0.1403028518 0.5626978278 4287529087
-0.3255045712 -0.1397053003 0.5628092289 4288509022
-0.3255687356 -0.1391074061 0.5629201531 4288772194
-0.3251430094 -0.1383008659 0.5621840358 4289164888
-0.3252065778 -0.1377031654 0.5622940063 4289033302
-0.3247800469 -0.1368986219 0.5615564585 4289360463
-0.3243530691 -0.1360955387 0.5608182549 4289492049
-0.3239256442 -0.1352939159 0.5600792170 4289884742
-0.3234978020 -0.1344937533 0.5593394637 4289884742
-0.3230695128 -0.1336950362 0.5585988760 4290147910
-0.3231311142 -0.1330997646 0.5587053895 4290476875
-0.3222115934 -0.1321020275 0.5571155548 4290151236
-0.3227630258 -0.1317080557 0.5580689907 4290480201
-0.3223331869 -0.1309134066 0.5573257804 4290743370
-0.3219028711 -0.1301202476 0.5565817356 4291269714
-0.3214721382 -0.1293285638 0.5558370352 4291533647
-0.3215318620 -0.1287349015 0.5559402704 4291862612
-0.3215913475 -0.1281408966 0.5560430884 4291731531
-0.3211594820 -0.1273518503 0.5552964211 4291731531
-0.3212183416 -0.1267581135 0.5553981662 4291731788
-0.3207857311 -0.1259711385 0.5546501279 4291731788
-0.3203526437 -0.1251856387 0.5539013743 4291403595
-0.3199191689 -0.1244016513 0.5531518459 4291403595
-0.3199767470 -0.1238093451 0.5532513857 4291337800
-0.3195424676 -0.1230274439 0.5525005460 4291140421
-0.3195994794 -0.1224354133 0.5525990725 4291009597
-0.3196561933 -0.1218430623 0.5526971817 4291272769
-0.3192208111 -0.1210638583 0.5519443750 4291534152
-0.3192769587 -0.1204717904 0.5520414710 4291534152
-0.3193328381 -0.1198794097 0.5521380901 4291863117
-0.3188963532 -0.1191029176 0.5513833761 4292192082
-0.3189516366 -0.1185108349 0.5514789820 4292192082
-0.3190066516 -0.1179184467 0.5515741110 4292257875
-0.3190614283 -0.1173257455 0.5516688228 4292520793
-0.3191159368 -0.1167327464 0.5517630577 4292652379
-0.3186776638 -0.1159602106 0.5510052443 4292718685
-0.3187315762 -0.1153675169 0.5510984659 4292652892
-0.3187852204 -0.1147745326 0.5511912107 4292588896
-0.3193314373 -0.1143577173 0.5521356463 4292588896
-0.3198775351 -0.1139387712 0.5530798435 4292589922
-0.3199305832 -0.1133430526 0.5531715751 4293116266
-0.3194903135 -0.1125733107 0.5524103642 4293379954
-0.3195427656 -0.1119779199 0.5525010228 4293643126
-0.3200881183 -0.1115541235 0.5534440279 4293054336
-0.3196468353 -0.1107862666 0.5526810288 4293054336
-0.3201918602 -0.1103600487 0.5536233783 4293316733
-0.3197498918 -0.1095934510 0.5528591871 4293316733
-0.3198010325 -0.1089966074 0.5529475808 4293447802
-0.3198519051 -0.1083994880 0.5530355573 4293382009
-0.3199025095 -0.1078020781 0.5531230569 4293447800
-0.3199528456 -0.1072043851 0.5532100797 4293513593
-0.3200029135 -0.1066064090 0.5532966852 4293054841
-0.3200527430 -0.1060081571 0.5533828139 4293186427
-0.3201022744 -0.1054096296 0.5534684658 4293122182
-0.3206456304 -0.1049725637 0.5544078946 4293845905
-0.3206947148 -0.1043725535 0.5544928312 4294242734
-0.3207435310 -0.1037722677 0.5545772314 4294834871
-0.3207921088 -0.1031717137 0.5546611547 4294836171
-0.3208403885 -0.1025708765 0.5547446609 4294967248
-0.3208884001 -0.1019697785 0.5548276901 4294705119
-0.3209361732 -0.1013684124 0.5549103022 4294836193
-0.3214782476 -0.1009220332 0.5558475256 4294901735
-0.3220201731 -0.1004735455 0.5567845702 4294836198
-0.3220672607 -0.0998695195 0.5568659902 4294967269
-0.3221141100 -0.0992652327 0.5569469929 4294967269
-0.3221606612 -0.0986606777 0.5570274591 4294967005
-0.3222069144 -0.0980558619 0.5571074486 4294966748
-0.3227479458 -0.0976004899 0.5580429435 4294966479
-0.3227937520 -0.0969942287 0.5581220984 4294900429
-0.3228392899 -0.0963877067 0.5582008362 4294703810
-0.3228845596 -0.0957809314 0.5582790971 4294440638
-0.3229295313 -0.0951739028 0.5583568811 4294177719
-0.3229742646 -0.0945666209 0.5584342480 4293914547
-0.3235141337 -0.0941031948 0.5593676567 4293782448
-0.3235583603 -0.0934944823 0.5594441295 4293519276
-0.3236023188 -0.0928855166 0.5595201850 4293384867
-0.3241416514 -0.0924176201 0.5604526401 4292529558
-0.3246808052 -0.0919476002 0.5613849163 4291281564
-0.3248998821 -0.1409648061 0.5628445745 4288382848
-0.3249645233 -0.1403673589 0.5629565120 4287395953
-0.3250288963 -0.1397695690 0.5630680919 4288770646
-0.3250930607 -0.1391714215 0.5631791949 4288968025
-0.3251569569 -0.1385729164 0.5632898808 4289294931
-0.3247315288 -0.1377665848 0.5625529289 4289426517
-0.3243056834 -0.1369616985 0.5618152022 4289426254
-0.3243686259 -0.1363639385 0.5619242787 4289294668
-0.3239420056 -0.1355610639 0.5611851811 4289819206
-0.3235149086 -0.1347596496 0.5604453087 4290082378
-0.3225978613 -0.1337567270 0.5588566661 4290280009
-0.3221698105 -0.1329591423 0.5581151247 4290280009
-0.3217413425 -0.1321630329 0.5573728085 4290150464
-0.3218021989 -0.1315686405 0.5574783087 4290545222
-0.3213729560 -0.1307745576 0.5567346215 4290809415
-0.3209432364 -0.1299819499 0.5559902191 4291335759
-0.3205130994 -0.1291908324 0.5552450418 4291401801
-0.3205727041 -0.1285978258 0.5553483367 4291664973
-0.3206320405 -0.1280044764 0.5554510951 4291599432
-0.3202007711 -0.1272159964 0.5547040105 4291665225
-0.3202595413 -0.1266229153 0.5548058152 4291731531
-0.3193369508 -0.1256434917 0.5532075763 4291599945
-0.3193950355 -0.1250515729 0.5533081889 4291402312
-0.3189621270 -0.1242681518 0.5525582433 4291270726
-0.3185288012 -0.1234862283 0.5518075228 4291139906
-0.3185859323 -0.1228951663 0.5519065261 4291008320
-0.3186427951 -0.1223037913 0.5520050526 4291140158
-0.3186994195 -0.1217120960 0.5521031022 4291337537
-0.3182646334 -0.1209334582 0.5513499379 4291336260
-0.3183206618 -0.1203420535 0.5514469743 4291467846
-0.3183764219 -0.1197503284 0.5515435934 4291796811
-0.3184319437 -0.1191582978 0.5516397357 4291994190
-0.3184871972 -0.1185659617 0.5517354608 4292059983
-0.3185421824 -0.1179733127 0.5518307686 4292125776
-0.3185969293 -0.1173803583 0.5519255996 4292323157
-0.3181596696 -0.1166068688 0.5511680841 4292520536
-0.3182138205 -0.1160142198 0.5512619019 4292389207
-0.3182677031 -0.1154212728 0.5513552427 4292389207
-0.3183213472 -0.1148280203 0.5514481664 4292259417
-0.3193588555 -0.1145875975 0.5532454848 4292391003
-0.3189199865 -0.1138162687 0.5524852276 4292457823
-0.3189729154 -0.1132212058 0.5525768995 4292918374
-0.3190255761 -0.1126258522 0.5526681542 4293313391
-0.3190779984 -0.1120302007 0.5527589321 4293576563
-0.3191301525 -0.1114342585 0.5528492928 4292923515
-0.3196746111 -0.1110090688 0.5537924767 4292989308
-0.3192336857 -0.1102414951 0.5530286431 4293185658
-0.3192850351 -0.1096446812 0.5531176329 4293185658
-0.3193361461 -0.1090475768 0.5532061458 4293316216
-0.3193869889 -0.1084501892 0.5532942414 4293250423
-0.3194375634 -0.1078525186 0.5533818603 4293316216
-0.3194878697 -0.1072545648 0.5534690022 4293382009
-0.3195379376 -0.1066563278 0.5535557270 4293119864
-0.3195877075 -0.1060578078 0.5536419749 4293185657
-0.3196372390 -0.1054590121 0.5537277460 4293055358
-0.3196865022 -0.1048599333 0.5538130999 4293318530
-0.3202289045 -0.1044214815 0.5547527671 4293386132
-0.3202776909 -0.1038209274 0.5548372865 4293846683
-0.3203262389 -0.1032201052 0.5549213290 4294111148
-0.3203744888 -0.1026190072 0.5550049543 4294637492
-0.3204225004 -0.1020176411 0.5550881028 4294703822
-0.3209640086 -0.1015722677 0.5560262203 4294966994
-0.3210115433 -0.1009694338 0.5561085939 4294967258
-0.3210588098 -0.1003663316 0.5561904907 4294967259
-0.3211058080 -0.0997629687 0.5562718511 4294967265
-0.3211525381 -0.0991593376 0.5563528538 4294967265
-0.3211989999 -0.0985554457 0.5564333200 4294967262
-0.3217394054 -0.0981019810 0.5573694706 4294967261
-0.3222796917 -0.0976464003 0.5583054423 4294967257
-0.3223254681 -0.0970398709 0.5583847761 4294967257
-0.3218765557 -0.0962851718 0.5576070547 4294901715
-0.3224162161 -0.0958260298 0.5585419536 4294770129
-0.3224611878 -0.0952187255 0.5586198568 4294639046
-0.3230005205 -0.0947562829 0.5595542192 4294310081
-0.3230450153 -0.0941475406 0.5596312881 4293980597
-0.3235839903 -0.0936817974 0.5605649948 4293585839
-0.3236280084 -0.0930716246 0.5606412292 4293780900
-0.3236717284 -0.0924612060 0.5607169867 4293320349
-0.3237151802 -0.0918505341 0.5607922673 4292729493
-0.3242534101 -0.0913791358 0.5617246628 4292268942
-0.3242963850 -0.0907670408 0.5617990494 4291216780
-0.3243390620 -0.0901547074 0.5618730187 4290493057
-0.3244236410 -0.1410295218 0.5631030202 4287984739
-0.3244882524 -0.1404318362 0.5632151365 4288050532
-0.3245525956 -0.1398337930 0.5633268356 4289426256
-0.3246167004 -0.1392353922 0.5634381175 4289623635
-0.3246805668 -0.1386366487 0.5635489225 4289491533
-0.3237674832 -0.1376223862 0.5619641542 4289557326
-0.3233422339 -0.1368180513 0.5612260103 4289426509
-0.3234050572 -0.1362209618 0.5613350272 4289294923
-0.3229790032 -0.1354186386 0.5605955124 4289688903
-0.3225525022 -0.1346177757 0.5598552823 4289886282
-0.3221255839 -0.1338183880 0.5591142774 4290148934
-0.3216982186 -0.1330204606 0.5583724976 4290214727
-0.3212704062 -0.1322239935 0.5576299429 4290282052
-0.3213312626 -0.1316293478 0.5577355623 4290676810
-0.3209026754 -0.1308349371 0.5569916368 4291137864
-0.3204736412 -0.1300419867 0.5562469959 4291532622
-0.3205335736 -0.1294481456 0.5563510060 4291336008
-0.3201037645 -0.1286572516 0.5556049943 4291467594
-0.3201630712 -0.1280636638 0.5557079315 4291467848
-0.3197324872 -0.1272748411 0.5549606085 4291533641
-0.3193014860 -0.1264874935 0.5542124510 4291467594
-0.3193598688 -0.1258947402 0.5543137789 4291336008
-0.3189280927 -0.1251094788 0.5535643697 4291270469
-0.3184958696 -0.1243257076 0.5528141856 4291336262
-0.3185532987 -0.1237338036 0.5529138446 4291270467
-0.3181203306 -0.1229521334 0.5521623492 4291138881
-0.3181771636 -0.1223604977 0.5522609949 4291007808
-0.3177434206 -0.1215809286 0.5515081286 4291073601
-0.3177996576 -0.1209895760 0.5516057611 4291138881
-0.3178556561 -0.1203979105 0.5517029166 4291402053
-0.3179113865 -0.1198059320 0.5517996550 4291665225
-0.3179668784 -0.1192136481 0.5518959761 4291796811
-0.3175313175 -0.1184379980 0.5511400104 4291927627
-0.3175862134 -0.1178460047 0.5512352586 4291993420
-0.3176408410 -0.1172537059 0.5513300896 4292190801
-0.3176952302 -0.1166611090 0.5514244437 4292453973
-0.3177493215 -0.1160682067 0.5515183806 4292191828
-0.3178032041 -0.1154749990 0.5516119003 4292257621
-0.3178567886 -0.1148814932 0.5517048836 4292127318
-0.3179101348 -0.1142876819 0.5517975092 4292258904
-0.3179632127 -0.1136935800 0.5518896580 4292260444
-0.3185075521 -0.1132739782 0.5528344512 4292720995
-0.3186126053 -0.1120824516 0.5530167818 4293445231
-0.3186647296 -0.1114862487 0.5531072617 4292792180
-0.3187165856 -0.1108897477 0.5531972647 4292923766
-0.3187682033 -0.1102929637 0.5532867908 4293185657
-0.3188195229 -0.1096958816 0.5533759594 4293185657
-0.3188706040 -0.1090985239 0.5534645915 4293315961
-0.3189719617 -0.1079029366 0.5536405444 4293250168
-0.3190222681 -0.1073047146 0.5537278056 4293315961
-0.3190722764 -0.1067062095 0.5538146496 4293382009
-0.3191220462 -0.1061074287 0.5539010167 4293513595
-0.3191715479 -0.1055083647 0.5539869070 4293448829
-0.3192207813 -0.1049090251 0.5540723801 4293580415
-0.3192697465 -0.1043094099 0.5541573763 4293450118
-0.3193184435 -0.1037095189 0.5542418957 4293713290
-0.3193668723 -0.1031093523 0.5543259382 4293780629
-0.3194150329 -0.1025089175 0.5544095635 4294175387
-0.3194629252 -0.1019082069 0.5544927120 4294241204
-0.3200036287 -0.1014635712 0.5554311872 4294570169
-0.3205442131 -0.1010168046 0.5563694835 4294833856
-0.3205914795 -0.1004134342 0.5564514995 4294966213
-0.3206384480 -0.0998097956 0.5565330386 4294966734
-0.3206851482 -0.0992058963 0.5566141009 4294966991
-0.3207315803 -0.0986017361 0.5566946864 4294967257
-0.3207777441 -0.0979973078 0.5567747951 4294967258
-0.3213171959 -0.0975424573 0.5577111244 4294967261
-0.3213628829 -0.0969365835 0.5577904582 4294967262
-0.3219020367 -0.0964784250 0.5587262511 4294901721
-0.3219921887 -0.0952635333 0.5588827133 4294967248
-0.3220368624 -0.0946557000 0.5589602590 4294770637
-0.3225752413 -0.0941918641 0.5598947406 4294573504
-0.3226194382 -0.0935826004 0.5599714518 4294310332
-0.3231574595 -0.0931154639 0.5609052777 4294570935
-0.3232011795 -0.0925047696 0.5609811544 4293978798
-0.3232446015 -0.0918938220 0.5610565543 4293715610
-0.3232877553 -0.0912826359 0.5611314774 4293386645
-0.3238250315 -0.0908098444 0.5620639920 4293057678
-0.3238676786 -0.0901972279 0.5621380210 4292860299
-0.3239100873 -0.0895843804 0.5622116327 4292071063
-0.3239521980 -0.0889712870 0.5622847080 4291018375
-0.3243689537 -0.1419048607 0.5640955567 4287661441
-0.3239467442 -0.1410942078 0.5633612871 4288377176
-0.3240112960 -0.1404962838 0.5634735823 4288706141
-0.3245629668 -0.1401083618 0.5644329190 4289688652
-0.3241397142 -0.1392993331 0.5636968613 4289622859
-0.3237160146 -0.1384917647 0.5629600286 4289491271
-0.3232918680 -0.1376856416 0.5622224212 4289491271
-0.3228672743 -0.1368809640 0.5614840388 4289360714
-0.3224422634 -0.1360777467 0.5607448816 4289558093
-0.3220167756 -0.1352759898 0.5600050092 4289754954
-0.3215909004 -0.1344756931 0.5592643023 4289623368
-0.3216526508 -0.1338800043 0.5593717098 4289951557
-0.3212259710 -0.1330817342 0.5586296916 4290346315
-0.3207988441 -0.1322849244 0.5578868985 4290217029
-0.3203712702 -0.1314895898 0.5571433902 4290611787
-0.3204317391 -0.1308952719 0.5572485328 4290940999
-0.3200034201 -0.1301019788 0.5565036535 4291335757
-0.3200632930 -0.1295078993 0.5566077828 4291204676
-0.3196341693 -0.1287166625 0.5558615327 4291336262
-0.3192046285 -0.1279269010 0.5551145077 4291336010
-0.3192635775 -0.1273336411 0.5552170277 4291401803
-0.3188332617 -0.1265459657 0.5544686317 4291336011
