VERSION 0.7
FIELDS x y z rgba
SIZE 4 4 4 4
TYPE F F F U
COUNT 1 1 1 1
WIDTH 920
HEIGHT 1
VIEWPOINT 0.0 0.0 0.0 1.0 0.0 0.0 0.0
POINTS 920
DATA ascii
-0.2798323333 -0.1260508150 0.5340983272 4291214411
-0.2798874080 -0.1254820675 0.5342034101 4291214411
-0.2799422145 -0.1249129996 0.5343080759 4291280204
-0.2799968123 -0.1243435889 0.5344122648 4291411790
-0.2800511718 -0.1237738431 0.5345160365 4291477583
-0.2801053226 -0.1232037693 0.5346193314 4291477583
-0.2801592052 -0.1226333678 0.5347222090 4291543376
-0.2806677818 -0.1222607866 0.5356929302 4291477583
-0.2807213068 -0.1216888055 0.5357950926 4291543376
-0.2807746232 -0.1211164892 0.5358968377 4291411790
-0.2808277011 -0.1205438524 0.5359981060 4291411790
-0.2813357711 -0.1201653332 0.5369678736 4291477583
-0.2813884616 -0.1195911169 0.5370684266 4291609169
-0.2818963230 -0.1192091629 0.5380377769 4291609939
-0.2819486558 -0.1186333746 0.5381376147 4291741525
-0.2820007205 -0.1180572659 0.5382369757 4291872082
-0.2825082242 -0.1176706329 0.5392056704 4291937875
-0.2825599313 -0.1170929596 0.5393043160 4292069211
-0.2830671966 -0.1167028919 0.5402725339 4292200797
-0.2831185162 -0.1161236539 0.5403704643 4292200292
-0.2831695676 -0.1155441031 0.5404679179 4292266085
-0.2836764753 -0.1151493639 0.5414354205 4292135782
-0.2837271392 -0.1145682484 0.5415320992 4292267368
-0.2842338085 -0.1141700894 0.5424991250 4292135778
-0.2842840850 -0.1135874167 0.5425950885 4292201571
-0.2852469087 -0.1133672222 0.5444328189 4292333157
-0.2857533395 -0.1129625142 0.5453993678 4292201571
-0.2862596810 -0.1125556305 0.5463658571 4292267376
-0.2867659628 -0.1121465638 0.5473321080 4292727927
-0.2872721255 -0.1117353216 0.5482982397 4292925320
-0.2877782285 -0.1113218963 0.5492641926 4293122699
-0.2882842422 -0.1109062880 0.5502299666 4292730283
-0.2892470956 -0.1106633246 0.5520676970 4293125041
-0.3427323103 -0.2173505276 0.6555412412 4292468715
-0.3432681262 -0.2169608325 0.6565660834 4290954917
-0.3429144025 -0.2160085142 0.6558895111 4290099608
-0.3430050910 -0.2153367102 0.6560629606 4289965935
-0.3426505327 -0.2143859565 0.6553848386 4289505384
-0.3436308801 -0.2142690569 0.6572598815 4289636711
-0.3428305089 -0.2130414248 0.6557290554 4289570918
-0.3429201543 -0.2123683840 0.6559004784 4289701473
-0.3425640762 -0.2114198655 0.6552194357 4289569887
-0.3426531255 -0.2107466310 0.6553897262 4289634902
-0.3414048254 -0.2092533410 0.6530021429 4289437523
-0.3383723497 -0.2066756040 0.6472019553 4289371724
-0.3340002298 -0.2032953501 0.6388394237 4289108552
-0.2943882346 -0.1785591543 0.5630738735 4289173825
-0.2873251140 -0.1736644655 0.5495643020 4289371204
-0.2900761068 -0.1747107655 0.5548260808 4289568321
-0.2861324847 -0.1717274785 0.5472831726 4289502528
-0.2848655879 -0.1703617573 0.5448600650 4289371455
-0.2844910622 -0.1695331931 0.5441436768 4289503041
-0.2836693823 -0.1684406996 0.5425720215 4289372225
-0.2832938731 -0.1676156819 0.5418538451 4289306432
-0.2824710011 -0.1665285379 0.5402799249 4289437246
-0.2820945382 -0.1657070965 0.5395598412 4289371453
-0.2812704742 -0.1646252871 0.5379836559 4289371453
-0.2808930576 -0.1638074517 0.5372617841 4289437246
-0.2796204090 -0.1624710560 0.5348275900 4289371453
-0.2801369131 -0.1621758491 0.5358155370 4289437246
-0.2797582448 -0.1613620967 0.5350912213 4289437501
-0.2793790996 -0.1605497003 0.5343660712 4289305915
-0.2794474065 -0.1599950790 0.5344967246 4289503292
-0.2795155048 -0.1594400555 0.5346269608 4289503292
-0.2795833647 -0.1588846296 0.5347567797 4289437499
-0.2792029083 -0.1580750644 0.5340290666 4289437499
-0.2792702615 -0.1575197130 0.5341578722 4289503292
-0.2793374360 -0.1569639593 0.5342863798 4289437499
-0.2789559066 -0.1561567634 0.5335566401 4289371193
-0.2790225446 -0.1556011140 0.5336840749 4289436986
-0.2786403000 -0.1547957808 0.5329529643 4289437497
-0.2787064314 -0.1542402357 0.5330794454 4289503290
-0.2787723541 -0.1536842883 0.5332055092 4289503544
-0.2783890367 -0.1528813541 0.5324723721 4289569337
-0.2784544528 -0.1523255259 0.5325974822 4289635130
-0.2785196304 -0.1517692953 0.5327221751 4289635130
-0.2785846293 -0.1512126774 0.5328464508 4289635130
-0.2781999409 -0.1504126638 0.5321106911 4289635130
-0.2782644033 -0.1498561651 0.5322340131 4289635129
-0.2783286572 -0.1492992938 0.5323569179 4289766715
-0.2779429555 -0.1485017240 0.5316191912 4289766713
-0.2780067027 -0.1479449719 0.5317410827 4289766713
-0.2780702114 -0.1473878324 0.5318625569 4289832506
-0.2781335115 -0.1468303204 0.5319836736 4289832506
-0.2777464688 -0.1460357308 0.5312433243 4289832506
-0.2773589790 -0.1452425867 0.5305022001 4289898299
-0.2774214447 -0.1446857303 0.5306217074 4289898299
-0.2774837017 -0.1441285163 0.5307407379 4289898299
-0.2770951986 -0.1433378458 0.5299976468 4289898299
-0.2771569192 -0.1427807808 0.5301157236 4289832506
-0.2772184610 -0.1422233433 0.5302333832 4289964092
-0.2768288851 -0.1414351910 0.5294882655 4289964092
-0.2764389217 -0.1406484842 0.5287423730 4290029628
-0.2760485411 -0.1398632228 0.5279957056 4290095421
-0.2756577432 -0.1390794069 0.5272482634 4290095421
-0.2757177949 -0.1385237724 0.5273631215 4290095421
-0.2753262818 -0.1377419680 0.5266142488 4290095419
-0.2749343514 -0.1369616091 0.5258646607 4290095419
-0.2749935687 -0.1364067197 0.5259779096 4290161212
-0.2746009231 -0.1356283873 0.5252268910 4290227005
-0.2746596038 -0.1350736767 0.5253391266 4290292798
-0.2751699090 -0.1347398609 0.5263152122 4290292798
-0.2752282619 -0.1341835409 0.5264267921 4290424384
-0.2757384479 -0.1338462830 0.5274025798 4290490177
-0.2757964432 -0.1332883388 0.5275135636 4290424897
-0.2763064504 -0.1329476237 0.5284890532 4290424897
-0.2763641179 -0.1323880702 0.5285993218 4290490690
-0.2768739760 -0.1320439130 0.5295745730 4290556483
-0.2773838043 -0.1316975653 0.5305497050 4290556483
-0.2774409950 -0.1311351210 0.5306590796 4290688069
-0.2779506743 -0.1307853460 0.5316339135 4290293311
-0.2780075073 -0.1302212775 0.5317426324 4290359104
-0.2785170078 -0.1298680454 0.5327171683 4290623044
-0.2785735130 -0.1293023825 0.5328252316 4290754630
-0.2786297798 -0.1287363768 0.5329328179 4290754630
-0.2791389525 -0.1283784360 0.5339067578 4290886216
-0.2791948617 -0.1278108209 0.5340136886 4291017802
-0.2792505622 -0.1272428632 0.5341202021 4291083595
-0.2793060243 -0.1266745627 0.5342262387 4291148618
-0.2798147500 -0.1263106465 0.5351993442 4291148618
-0.2798698545 -0.1257407665 0.5353047252 4291214411
-0.2799247205 -0.1251705289 0.5354096293 4291280204
-0.2799793482 -0.1245999709 0.5355141759 4291345995
-0.2800337672 -0.1240290776 0.5356182456 4291411788
-0.2800879478 -0.1234578490 0.5357218385 4291477581
-0.2801418900 -0.1228862852 0.5358250737 4291477581
-0.2801956236 -0.1223144010 0.5359277725 4291477581
-0.2802491188 -0.1217421815 0.5360301137 4291543374
-0.2807566524 -0.1213660240 0.5370008945 4291543374
-0.2808097899 -0.1207922250 0.5371025205 4291477581
-0.2808626592 -0.1202180982 0.5372036695 4291412558
-0.2809153199 -0.1196436509 0.5373043418 4291478351
-0.2814223766 -0.1192615479 0.5382742286 4291609937
-0.2814746499 -0.1186855286 0.5383741856 4291675730
-0.2819814980 -0.1182999983 0.5393436551 4291740496
-0.2820333838 -0.1177223995 0.5394428968 4291872082
-0.2825399935 -0.1173334345 0.5404118896 4292003418
-0.2821364403 -0.1165662631 0.5396400094 4292135004
-0.2826427519 -0.1161748022 0.5406084657 4292200544
-0.2831490040 -0.1157811508 0.5415767431 4292266337
-0.2831998765 -0.1152001172 0.5416740179 4292201573
-0.2837058902 -0.1148030385 0.5426418781 4292267366
-0.2837563753 -0.1142204478 0.5427384377 4292202086
-0.2847177088 -0.1140023470 0.5445771813 4292202086
-0.2847678661 -0.1134172603 0.5446730852 4292267625
-0.2852734923 -0.1130123958 0.5456402302 4292136039
-0.2857790291 -0.1126053482 0.5466071367 4292136307
-0.2862845063 -0.1121961176 0.5475739241 4292662651
-0.2867898643 -0.1117847115 0.5485405922 4293056908
-0.2872951627 -0.1113711149 0.5495070219 4293320080
-0.2882564664 -0.1111311838 0.5513457060 4292795821
-0.2892178297 -0.1108871922 0.5531845093 4293124786
-0.3413510323 -0.2162084430 0.6542891860 4291086258
-0.3414416611 -0.2155386806 0.6544628739 4290033570
-0.3415320218 -0.2148683965 0.6546361446 4290163063
-0.3411779404 -0.2139190286 0.6539573669 4289834098
-0.3408233523 -0.2129708678 0.6532777548 4289965678
-0.3409127891 -0.2123007327 0.6534491777 4289965678
-0.3405573964 -0.2113541365 0.6527680159 4290030438
-0.3402015567 -0.2104087770 0.6520859003 4289833059
-0.3394004107 -0.2091904730 0.6505503058 4289832283
-0.3381536305 -0.2077018619 0.6481605172 4289634904
-0.3364608586 -0.2059455812 0.6449158788 4289371724
-0.3316507638 -0.2022950500 0.6356960535 4289174345
-0.2947775126 -0.1791759133 0.5650187731 4289173825
-0.2903991044 -0.1758961082 0.5566263795 4289436997
-0.2873547375 -0.1734401435 0.5507910252 4289568836
-0.2856454253 -0.1718001366 0.5475147367 4289568836
-0.2848265171 -0.1707010120 0.5459450483 4289437248
-0.2840069532 -0.1696050018 0.5443741679 4289503041
-0.2831867039 -0.1685120761 0.5428019762 4289372225
-0.2828119099 -0.1676867604 0.5420835614 4289306432
-0.2815442979 -0.1663355678 0.5396538377 4289568832
-0.2820610404 -0.1660401523 0.5406442881 4289437246
-0.2812385261 -0.1649570316 0.5390677452 4289503039
-0.2804154158 -0.1638770401 0.5374900103 4289503039
-0.2800382674 -0.1630602479 0.5367671251 4289503294
-0.2805541754 -0.1627631634 0.5377559662 4289437501
-0.2792826891 -0.1614307463 0.5353188515 4289437501
-0.2793512344 -0.1608754396 0.5354502797 4289371708
-0.2789725065 -0.1600632221 0.5347243547 4289503292
-0.2790405452 -0.1595079899 0.5348547101 4289503292
-0.2791083753 -0.1589523554 0.5349847078 4289437499
-0.2791759968 -0.1583963186 0.5351143479 4289437499
-0.2792434096 -0.1578398794 0.5352435708 4289437499
-0.2788630128 -0.1570309699 0.5345144272 4289371706
-0.2789299190 -0.1564746201 0.5346426964 4289371193
-0.2785487771 -0.1556676030 0.5339121222 4289436986
-0.2786151767 -0.1551113427 0.5340393782 4289371704
-0.2782332897 -0.1543062031 0.5333074331 4289437497
-0.2782991529 -0.1537500471 0.5334336758 4289503290
-0.2783648372 -0.1531935036 0.5335595608 4289569083
-0.2779819071 -0.1523907632 0.5328255892 4289635130
-0.2780470550 -0.1518343240 0.5329504609 4289635130
-0.2781119943 -0.1512774974 0.5330749154 4289569337
-0.2781766951 -0.1507202834 0.5331989527 4289635130
-0.2782412171 -0.1501626819 0.5333225727 4289700922
-0.2778566480 -0.1493633837 0.5325854421 4289766715
-0.2779206336 -0.1488059014 0.5327081084 4289766715
-0.2775353193 -0.1480085403 0.5319695473 4289766715
-0.2775987685 -0.1474511921 0.5320912004 4289832506
-0.2776620388 -0.1468934715 0.5322124362 4289832506
-0.2777250707 -0.1463353634 0.5323333144 4289832506
-0.2773384154 -0.1455409974 0.5315921307 4289766713
-0.2769513428 -0.1447480470 0.5308502316 4289832506
-0.2770135403 -0.1441906095 0.5309694409 4289832506
-0.2766257524 -0.1433996409 0.5302261114 4289832506
-0.2766874135 -0.1428423673 0.5303443670 4289832506
-0.2767488956 -0.1422847062 0.5304621458 4289898299
-0.2768101394 -0.1417266876 0.5305795670 4289898299
-0.2764209807 -0.1409387589 0.5298336744 4289964092
-0.2760314047 -0.1401522756 0.5290869474 4290029885
-0.2756414413 -0.1393672526 0.5283394456 4290095419
-0.2757015228 -0.1388104856 0.5284546614 4290095419
-0.2753108442 -0.1380274594 0.5277057290 4290095419
-0.2749197185 -0.1372458786 0.5269560814 4290029626
-0.2749789953 -0.1366898566 0.5270696878 4290095419
-0.2750380337 -0.1361334622 0.5271828771 4290095419
-0.2750968635 -0.1355767250 0.5272955894 4290227005
-0.2751554847 -0.1350196302 0.5274079442 4290292798
-0.2752138674 -0.1344621629 0.5275198817 4290292798
-0.2757233083 -0.1341238767 0.5284963846 4290358591
-0.2757813632 -0.1335648000 0.5286076665 4290293309
-0.2762906849 -0.1332230419 0.5295838714 4290227516
-0.2763483822 -0.1326623410 0.5296944976 4290293309
-0.2764058709 -0.1321012974 0.5298047066 4290424895
-0.2769148946 -0.1317548305 0.5307803750 4290688067
-0.2774238884 -0.1314061880 0.5317559838 4290819653
-0.2774809003 -0.1308422536 0.5318652391 4290622274
-0.2779897153 -0.1304901540 0.5328405499 4290622274
-0.2780463696 -0.1299246103 0.5329491496 4290688837
-0.2781028152 -0.1293587238 0.5330573320 4290754630
-0.2781590521 -0.1287924945 0.5331650972 4290820423
-0.2786674201 -0.1284344047 0.5341395736 4290886216
-0.2787232995 -0.1278665662 0.5342466235 4290952009
-0.2787789404 -0.1272983849 0.5343532562 4291083595
-0.2788343430 -0.1267298758 0.5344594717 4291082825
-0.2793422639 -0.1263658106 0.5354330540 4291148618
-0.2793973088 -0.1257956922 0.5355386138 4291148618
-0.2794521451 -0.1252252460 0.5356436968 4291214411
-0.2795067430 -0.1246544495 0.5357483029 4291280202
-0.2795611024 -0.1240833253 0.5358524919 4291345995
-0.2796152234 -0.1235118732 0.5359562635 4291411788
-0.2796691358 -0.1229400784 0.5360596180 4291477581
-0.2797228098 -0.1223679632 0.5361624956 4291477581
-0.2797762752 -0.1217955127 0.5362649560 4291543374
-0.2802830338 -0.1214192137 0.5372362733 4291478351
-0.2803360820 -0.1208451837 0.5373380184 4291412558
-0.2803889215 -0.1202708259 0.5374392867 4291478350
-0.2804415524 -0.1196961477 0.5375401378 4291544143
-0.2809478045 -0.1193138957 0.5385105014 4291609936
-0.2810000181 -0.1187376454 0.5386105776 4291675729
-0.2815060616 -0.1183519587 0.5395805240 4291740496
-0.2815578878 -0.1177741289 0.5396798849 4291872082
-0.2816095054 -0.1171959862 0.5397788286 4291938136
-0.2821151614 -0.1168056205 0.5407480597 4292069722
-0.2826207578 -0.1164130643 0.5417171717 4292135263
-0.2826718390 -0.1158321053 0.5418150425 4292266849
-0.2831771970 -0.1154361218 0.5427837372 4292267366
-0.2832278609 -0.1148535982 0.5428808331 4292333159
-0.2837330103 -0.1144541800 0.5438490510 4292267625
-0.2846928537 -0.1142350659 0.5456888676 4292267625
-0.2842881978 -0.1134672537 0.5449132323 4292268144
-0.2847929895 -0.1130622327 0.5458808541 4292136558
-0.2852977216 -0.1126550213 0.5468482971 4292268154
-0.2858023942 -0.1122456267 0.5478155613 4292794498
-0.2867621183 -0.1120118499 0.5496551991 4293123214
-0.2872667015 -0.1115971580 0.5506222844 4293320593
-0.2877711654 -0.1111802757 0.5515892506 4292795823
-0.2887309492 -0.1109361947 0.5534289479 4293190581
-0.3394377828 -0.2154552788 0.6520099640 4291283136
-0.3395279348 -0.2147879004 0.6521831751 4290164655
-0.3391745389 -0.2138404548 0.6515043378 4290557824
-0.3397076130 -0.2134515494 0.6525282860 4290294652
-0.3389098942 -0.2122270018 0.6509959698 4290492020
-0.3389988840 -0.2115592510 0.6511669755 4290360434
-0.3386438489 -0.2106149346 0.6504849792 4290294123
-0.3382883370 -0.2096718401 0.6498020887 4290030951
-0.3379323483 -0.2087299824 0.6491182446 4290029662
-0.3362433612 -0.2069691420 0.6458739638 4289766490
-0.3341089189 -0.2049422711 0.6417740583 4289634126
-0.3297510445 -0.2015653998 0.6334032416 4289370954
-0.2951631248 -0.1797930598 0.5669648647 4289304898
-0.2903478444 -0.1762402505 0.5577154160 4289568070
-0.2841955721 -0.1718993336 0.5458979011 4289634629
-0.2878269553 -0.1734815240 0.5528731942 4289568836
-0.2856752574 -0.1715749353 0.5487400889 4289437248
-0.2835221887 -0.1696767360 0.5446044207 4289437248
-0.2827034295 -0.1685833931 0.5430316925 4289306432
-0.2823293209 -0.1677577645 0.5423130989 4289306432
-0.2810639441 -0.1664060354 0.5398824811 4289438016
-0.2820253968 -0.1663733572 0.5417292714 4289372223
-0.2807588279 -0.1650269777 0.5392963886 4289503039
-0.2803829014 -0.1642076373 0.5385742784 4289568832
-0.2800065875 -0.1633896381 0.5378513932 4289634880
-0.2796298265 -0.1625730097 0.5371277332 4289569087
-0.2792526484 -0.1617577374 0.5364031792 4289437501
-0.2788750231 -0.1609438360 0.5356779099 4289437501
-0.2789433300 -0.1603879184 0.5358090401 4289569087
-0.2785649896 -0.1595758647 0.5350823402 4289437501
-0.2786327600 -0.1590200216 0.5352125168 4289437499
-0.2787003219 -0.1584637910 0.5353422761 4289437499
-0.2783209383 -0.1576540768 0.5346135497 4289371706
-0.2783879936 -0.1570979208 0.5347423553 4289371706
-0.2780078650 -0.1562900990 0.5340121984 4289503292
-0.2785214782 -0.1559844017 0.5349987149 4289569085
-0.2781407237 -0.1551775634 0.5342674255 4289372474
-0.2782068551 -0.1546207070 0.5343943834 4289372474
-0.2778253853 -0.1538157612 0.5336616635 4289372474
-0.2778909802 -0.1532590091 0.5337876678 4289372474
-0.2779563665 -0.1527018547 0.5339133143 4289372474
-0.2775738537 -0.1518993080 0.5331785083 4289438267
-0.2776387334 -0.1513422728 0.5333031416 4289635130
-0.2777034044 -0.1507848501 0.5334273577 4289635130
-0.2777678668 -0.1502270252 0.5335511565 4289635129
-0.2778321207 -0.1496688277 0.5336745977 4289700922
-0.2774479389 -0.1488697380 0.5329366326 4289766715
-0.2775116563 -0.1483116597 0.5330590606 4289766715
-0.2771267295 -0.1475145072 0.5323196650 4289832508
-0.2771899402 -0.1469565779 0.5324410796 4289898301
-0.2772529423 -0.1463982463 0.5325620770 4289832506
-0.2773157060 -0.1458395571 0.5326826572 4289700920
-0.2769294381 -0.1450453997 0.5319406986 4289898299
-0.2765427828 -0.1442526728 0.5311979651 4289766713
-0.2761556804 -0.1434613764 0.5304543972 4289766715
-0.2766664326 -0.1431362480 0.5314354897 4289700922
-0.2762787342 -0.1423460245 0.5306907296 4289700920
-0.2763399184 -0.1417877972 0.5308083296 4289832506
-0.2759514749 -0.1409995556 0.5300621986 4289964092
-0.2760121524 -0.1404414922 0.5301787257 4290029885
-0.2756229937 -0.1396552324 0.5294311643 4290029628
-0.2756831348 -0.1390973479 0.5295467377 4290029628
-0.2752932608 -0.1383130848 0.5287978053 4290095419
-0.2753528655 -0.1377553791 0.5289123058 4290095419
-0.2749622464 -0.1369731426 0.5281620026 4290095419
-0.2750213444 -0.1364156306 0.5282755494 4290095419
-0.2750802338 -0.1358577609 0.5283886194 4290161212
-0.2751388848 -0.1352995187 0.5285013318 4290227005
-0.2751973271 -0.1347409338 0.5286135674 4290161212
-0.2757060528 -0.1344016045 0.5295907855 4290227005
-0.2757641673 -0.1338413954 0.5297023654 4290292798
-0.2762727439 -0.1334986091 0.5306792855 4290227005
-0.2763305008 -0.1329367757 0.5307902098 4290292798
-0.2763880491 -0.1323745847 0.5309007764 4290490177
-0.2764453590 -0.1318120509 0.5310108662 4290688069
-0.2774046063 -0.1316773891 0.5328534245 4290819655
-0.2774616778 -0.1311123073 0.5329630375 4290753862
-0.2775185108 -0.1305468827 0.5330722332 4290753862
-0.2780264914 -0.1301924735 0.5340479612 4290885448
-0.2780829668 -0.1296254396 0.5341564417 4290819655
-0.2781392336 -0.1290580630 0.5342645049 4290885448
-0.2781952918 -0.1284903437 0.5343721509 4290951241
-0.2787027955 -0.1281299442 0.5353470445 4290820423
-0.2787584960 -0.1275606155 0.5354540348 4290886216
-0.2788139284 -0.1269909441 0.5355605483 4291148618
-0.2788691819 -0.1264209449 0.5356666446 4291148618
-0.2789241672 -0.1258505881 0.5357722640 4291148618
-0.2789789438 -0.1252799034 0.5358774662 4291148618
-0.2790335119 -0.1247088909 0.5359822512 4291214411
-0.2790878117 -0.1241375357 0.5360866189 4291280204
-0.2791419029 -0.1235658526 0.5361905098 4291411790
-0.2791957855 -0.1229938343 0.5362939835 4291477583
-0.2792493999 -0.1224214882 0.5363969803 4291346765
-0.2797555029 -0.1220462918 0.5373691320 4291346765
-0.2798087597 -0.1214723587 0.5374714136 4291346765
-0.2798617780 -0.1208980978 0.5375732780 4291412558
-0.2803675234 -0.1205182076 0.5385447145 4291544144
-0.2804201543 -0.1199423671 0.5386458635 4291609937
-0.2804725766 -0.1193661988 0.5387465358 4291741523
-0.2805247605 -0.1187897176 0.5388467908 4291741523
-0.2810299993 -0.1184038818 0.5398172736 4291806548
-0.2810817957 -0.1178258210 0.5399167538 4291872341
-0.2815867960 -0.1174365506 0.5408868194 4291872857
-0.2816382051 -0.1168569177 0.5409855843 4291938650
-0.2821429968 -0.1164642125 0.5419551730 4292004447
-0.2826477289 -0.1160693169 0.5429246426 4292136033
-0.2826986015 -0.1154868752 0.5430223942 4292202084
-0.2832030654 -0.1150885448 0.5439913869 4292333670
-0.2837074697 -0.1146880388 0.5449603200 4292136811
-0.2837578058 -0.1141027808 0.5450569391 4292268397
-0.2842619717 -0.1136988401 0.5460253954 4292399991
-0.2847660482 -0.1132927164 0.5469936728 4292399991
-0.2848157883 -0.1127046570 0.5470892191 4292465794
-0.2853196561 -0.1122950986 0.5480570197 4292860552
-0.2862778008 -0.1120612398 0.5498975515 4293057678
-0.2867815495 -0.1116463766 0.5508651733 4293189264
-0.2877397835 -0.1114053279 0.5527057648 4292730546
-0.2886980772 -0.1111602113 0.5545465350 4293191097
-0.3375283182 -0.2147013396 0.6497283578 4291546061
-0.3376180828 -0.2140363306 0.6499011517 4290295994
-0.3377075791 -0.2133708000 0.6500734687 4290754949
-0.3377968669 -0.2127047479 0.6502453089 4290557570
-0.3374430835 -0.2117602527 0.6495642662 4290689401
-0.3370888233 -0.2108169943 0.6488823891 4290557815
-0.3367341161 -0.2098749578 0.6481995583 4290425711
-0.3363789320 -0.2089341432 0.6475158334 4290162539
-0.3360232711 -0.2079945654 0.6468312144 4290096225
-0.3338934779 -0.2059621364 0.6427314878 4289767260
-0.3317623138 -0.2039379627 0.6386290789 4289765712
-0.3265242577 -0.2000197023 0.6285459995 4289568333
-0.2959887981 -0.1806814820 0.5697664618 4289568070
-0.2902944088 -0.1765845567 0.5588049889 4289831242
-0.2877047956 -0.1743939817 0.5538200736 4289832008
-0.2855577171 -0.1724817604 0.5496870279 4289700422
-0.2842977047 -0.1711126566 0.5472615957 4289503811
-0.2834811807 -0.1700149029 0.5456898212 4289503811
-0.2826639712 -0.1689202487 0.5441167355 4289503811
-0.2818461359 -0.1678286940 0.5425423980 4289438018
-0.2814723253 -0.1670040935 0.5418227911 4289438016
-0.2810980678 -0.1661808342 0.5411024094 4289438016
-0.2807233930 -0.1653589308 0.5403811932 4289503294
-0.2799032927 -0.1642772108 0.5388025045 4289569087
-0.2795276642 -0.1634589136 0.5380794406 4289766466
-0.2795968056 -0.1629013568 0.5382125378 4289634880
-0.2792204618 -0.1620848924 0.5374881029 4289437501
-0.2788436711 -0.1612697840 0.5367627740 4289503294
-0.2784664631 -0.1604560465 0.5360366702 4289503294
-0.2785344720 -0.1598995179 0.5361676216 4289371708
-0.2781565189 -0.1590876430 0.5354400873 4289437499
-0.2782240510 -0.1585311890 0.5355700254 4289437499
-0.2782913446 -0.1579743475 0.5356995463 4289371706
-0.2779123485 -0.1571648121 0.5349700451 4289437499
-0.2779791355 -0.1566080600 0.5350986123 4289634878
-0.2775994241 -0.1558004022 0.5343676805 4289700671
-0.2776657045 -0.1552437395 0.5344952345 4289504060
-0.2777317464 -0.1546866745 0.5346223712 4289438267
-0.2773509920 -0.1538814157 0.5338894725 4289438269
-0.2774165273 -0.1533244550 0.5340155959 4289438269
-0.2770350575 -0.1525210887 0.5332812667 4289372474
-0.2771000862 -0.1519642323 0.5334064364 4289438267
-0.2771648765 -0.1514069885 0.5335311890 4289504058
-0.2772294879 -0.1508493572 0.5336555839 4289438265
-0.2768466473 -0.1500489265 0.5329186320 4289569337
-0.2769107521 -0.1494914144 0.5330419540 4289635130
-0.2769746184 -0.1489335150 0.5331649780 4289766716
-0.2770383060 -0.1483752280 0.5332875252 4289832509
-0.2771017551 -0.1478165686 0.5334096551 4289832508
-0.2771649957 -0.1472575068 0.5335314274 4289832508
-0.2772280574 -0.1466980875 0.5336527824 4289898301
-0.2768429220 -0.1459021717 0.5329114199 4289766715
-0.2764573693 -0.1451077014 0.5321692228 4289832508
-0.2765195668 -0.1445489377 0.5322889686 4289700922
-0.2761332691 -0.1437564343 0.5315454006 4289700923
-0.2761949599 -0.1431978196 0.5316641331 4289700923
-0.2758079469 -0.1424072832 0.5309191346 4289700923
-0.2758691013 -0.1418488473 0.5310368538 4289832509
-0.2759300470 -0.1412900239 0.5311541557 4289964094
-0.2755419910 -0.1405020058 0.5304071903 4289964094
-0.2756024003 -0.1399433613 0.5305234790 4289964094
-0.2752136290 -0.1391573399 0.5297751427 4289898301
-0.2752735317 -0.1385988742 0.5298904181 4290029374
-0.2753331959 -0.1380400360 0.5300052762 4290029374
-0.2749433815 -0.1372565776 0.5292549133 4290095167
-0.2750025392 -0.1366979331 0.5293687582 4290160960
-0.2750614583 -0.1361389309 0.5294821858 4290161214
-0.2751201689 -0.1355795711 0.5295951962 4290095421
-0.2756282985 -0.1352404654 0.5305733085 4290095421
-0.2756866813 -0.1346794814 0.5306856632 4290161214
-0.2757448256 -0.1341181397 0.5307976007 4290227007
-0.2762526870 -0.1337743104 0.5317752361 4290227007
-0.2763104737 -0.1332113296 0.5318865180 4290227007
-0.2763680816 -0.1326480061 0.5319973826 4290358593
-0.2764254510 -0.1320843399 0.5321077704 4290622276
-0.2769328952 -0.1317345202 0.5330846310 4290753862
-0.2769899070 -0.1311692148 0.5331943631 4290688069
-0.2770467103 -0.1306035817 0.5333036780 4290819655
-0.2771032751 -0.1300375909 0.5334125757 4290885448
-0.2771596313 -0.1294712573 0.5335210562 4290819655
-0.2776665092 -0.1291141808 0.5344967842 4290885448
-0.2777225077 -0.1285462230 0.5346046090 4290951241
-0.2777782679 -0.1279779375 0.5347119570 4290820169
-0.2778338194 -0.1274093091 0.5348188877 4291017548
-0.2778891623 -0.1268403381 0.5349253416 4291148620
-0.2779442370 -0.1262710243 0.5350314379 4291148620
-0.2779991031 -0.1257013828 0.5351370573 4291148620
-0.2785051465 -0.1253345311 0.5361111164 4291214413
-0.2785596550 -0.1247632802 0.5362160206 4291214413
-0.2786139250 -0.1241917014 0.5363205075 4291280206
-0.2786679566 -0.1236197874 0.5364245772 4291215181
-0.2787217796 -0.1230475381 0.5365281701 4291215181
-0.2787753642 -0.1224749610 0.5366313457 4291280974
-0.2792806327 -0.1220996305 0.5376039743 4291149388
-0.2793338597 -0.1215254590 0.5377063751 4291215181
-0.2798389196 -0.1211466864 0.5386786461 4291346767
-0.2798917592 -0.1205709353 0.5387803316 4291544146
-0.2799443901 -0.1199948639 0.5388815999 4291741525
-0.2799967527 -0.1194184646 0.5389823914 4291807318
-0.2805013061 -0.1190337315 0.5399537086 4291807318
-0.2805533111 -0.1184557602 0.5400537848 4291741271
-0.2810576558 -0.1180675849 0.5410246253 4291807064
-0.2811092734 -0.1174880415 0.5411239862 4291873372
-0.2816133797 -0.1170964316 0.5420944095 4291939165
-0.2821174562 -0.1167026386 0.5430646539 4292004704
-0.2821685076 -0.1161202714 0.5431630015 4292136290
-0.2826723456 -0.1157230362 0.5441328287 4292136807
-0.2831760943 -0.1153236181 0.5451025367 4292268393
-0.2832266092 -0.1147384346 0.5451997519 4292202864
-0.2837301195 -0.1143355817 0.5461690426 4292334450
-0.2833269238 -0.1135671288 0.5453928709 4292466046
-0.2842835188 -0.1133425534 0.5472342968 4292466046
-0.2847867012 -0.1129340827 0.5482028723 4292466311
-0.2852898240 -0.1125234291 0.5491713881 4292795276
-0.2857928574 -0.1121105850 0.5501396656 4292926610
-0.2867495120 -0.1118725687 0.5519812107 4293058196
-0.2872524261 -0.1114544198 0.5529493093 4292862134
-0.2882091403 -0.1112092063 0.5547909737 4293322685
-0.3360643387 -0.2142281085 0.6482962966 4291809239
-0.3361537755 -0.2135646194 0.6484687924 4290493379
-0.3366847932 -0.2131803632 0.6494932175 4291018375
-0.3363319337 -0.2122360617 0.6488125324 4290755203
-0.3359785974 -0.2112929672 0.6481308937 4290689146
-0.3356247842 -0.2103511095 0.6474483609 4290557560
-0.3357128203 -0.2096867412 0.6476182342 4290491250
-0.3344733715 -0.2081956714 0.6452271938 4290293871
-0.3341180682 -0.2072583735 0.6445417404 4290293350
-0.3328769803 -0.2057750374 0.6421476007 4289964385
-0.3303066492 -0.2034781724 0.6371892691 4289832021
-0.3250774145 -0.1995600611 0.6271016002 4289766228
-0.2972522676 -0.1818415225 0.5734245777 4289897294
-0.2902388573 -0.1769290417 0.5598950982 4289963087
-0.2876538634 -0.1747366786 0.5549083948 4289898318
-0.2855106294 -0.1728228182 0.5507739782 4289832525
-0.2838095129 -0.1711848229 0.5474923849 4289700938
-0.2834379971 -0.1703532338 0.5467756987 4289766731
-0.2826223969 -0.1692572683 0.5452023149 4289766729
-0.2818061411 -0.1681644022 0.5436276793 4289700936
-0.2814331055 -0.1673386097 0.5429080725 4289569604
-0.2806156576 -0.1662510931 0.5413311720 4289503811
-0.2802416980 -0.1654288769 0.5406097174 4289568832
-0.2798672915 -0.1646080166 0.5398874879 4289634625
-0.2790481150 -0.1635281146 0.5383072495 4289766211
-0.2795616686 -0.1632298678 0.5392979383 4289700418
-0.2787415683 -0.1621535867 0.5377158523 4289438016
-0.2788101435 -0.1615958959 0.5378481746 4289438016
-0.2788785398 -0.1610377878 0.5379800797 4289503294
-0.2780569494 -0.1599673927 0.5363951921 4289437501
-0.2781246901 -0.1594102532 0.5365259051 4289437499
-0.2777471542 -0.1585985422 0.5357975364 4289371706
-0.2778143883 -0.1580414921 0.5359272957 4289371706
-0.2778814435 -0.1574840397 0.5360565782 4289503292
-0.2775028348 -0.1566746831 0.5353262424 4289634880
-0.2775693536 -0.1561173201 0.5354545712 4289634880
-0.2771900296 -0.1553098559 0.5347228646 4289504062
-0.2772560418 -0.1547525823 0.5348501801 4289569855
-0.2768760026 -0.1539470106 0.5341170430 4289569855
-0.2769414783 -0.1533898413 0.5342433453 4289569855
-0.2770067751 -0.1528322697 0.5343692899 4289700671
-0.2766256630 -0.1520291120 0.5336341262 4289700671
-0.2766904235 -0.1514716595 0.5337590575 4289634876
-0.2767549753 -0.1509138197 0.5338835716 4289634876
-0.2768193483 -0.1503555775 0.5340077281 4289635130
-0.2764368951 -0.1495553553 0.5332699418 4289700923
-0.2765007019 -0.1489972472 0.5333930850 4289766716
-0.2765643299 -0.1484387517 0.5335158110 4289832509
-0.2766277492 -0.1478798687 0.5336381197 4289832509
-0.2766909301 -0.1473206133 0.5337600112 4289832509
-0.2767539322 -0.1467609704 0.5338815451 4289832508
-0.2768166959 -0.1462009400 0.5340026021 4289832508
-0.2764319479 -0.1454052478 0.5332604051 4289766203
-0.2760468125 -0.1446109861 0.5325174332 4289766203
-0.2761087418 -0.1440516412 0.5326369405 4289766203
-0.2757228613 -0.1432593465 0.5318925381 4289831996
-0.2757842839 -0.1427001506 0.5320109725 4289831996
-0.2753976583 -0.1419098377 0.5312651992 4289831996
-0.2754585445 -0.1413508058 0.5313826799 4289897789
-0.2755192220 -0.1407914013 0.5314996839 4289897789
-0.2751315832 -0.1400036216 0.5307519436 4289963581
-0.2751917243 -0.1394443959 0.5308679342 4289963581
-0.2748033702 -0.1386585981 0.5301187634 4290029375
-0.2748629749 -0.1380995512 0.5302337408 4290029375
-0.2749224007 -0.1375401467 0.5303483605 4290095168
-0.2749815881 -0.1369803697 0.5304625630 4290160961
-0.2754892409 -0.1366427839 0.5314418674 4290160960
-0.2755480707 -0.1360813826 0.5315553546 4290095167
-0.2756067216 -0.1355196238 0.5316684842 4290095421
-0.2756651342 -0.1349574924 0.5317811966 4290161214
-0.2757233381 -0.1343950182 0.5318934321 4290292546
-0.2762304544 -0.1340501457 0.5328717232 4290292546
-0.2762883008 -0.1334860325 0.5329833627 4290161214
-0.2763459384 -0.1329215765 0.5330945253 4290292800
-0.2764033675 -0.1323567629 0.5332052708 4290556229
-0.2764605582 -0.1317916065 0.5333155990 4290753608
-0.2769671381 -0.1314394623 0.5342928767 4290688069
-0.2770240009 -0.1308726817 0.5344024897 4290819655
-0.2770805955 -0.1303055435 0.5345117450 4291017034
-0.2771370113 -0.1297380626 0.5346205235 4290951241
-0.2771931887 -0.1291702390 0.5347288847 4290951241
-0.2772491276 -0.1286020726 0.5348368287 4291017034
-0.2773048580 -0.1280335486 0.5349442959 4290885962
-0.2773603499 -0.1274646968 0.5350514054 4291017548
-0.2778659761 -0.1271014959 0.5360267758 4291082827
-0.2779211104 -0.1265310347 0.5361331701 4291148620
-0.2779760361 -0.1259602457 0.5362390876 4291214413
-0.2780307233 -0.1253890991 0.5363445878 4291214413
-0.2780851722 -0.1248176321 0.5364496112 4291149134
-0.2785902023 -0.1244471893 0.5374238491 4291149134
-0.2786442935 -0.1238741204 0.5375282168 4291149134
-0.2786981463 -0.1233007163 0.5376321077 4291083341
-0.2787517607 -0.1227269843 0.5377355814 4291149134
-0.2788051665 -0.1221529171 0.5378385782 4291083341
-0.2793095708 -0.1217752546 0.5388116241 4291214927
-0.2793625891 -0.1211996004 0.5389139056 4291478099
-0.2798667848 -0.1208184883 0.5398865342 4291609685
-0.2799194455 -0.1202412471 0.5399881005 4291741271
-0.2799718678 -0.1196636856 0.5400891900 4291807064
-0.2800240517 -0.1190858036 0.5401898623 4291807064
-0.2805277407 -0.1186987385 0.5411615372 4291675993
-0.2805795372 -0.1181192696 0.5412614346 4291807579
-0.2810829878 -0.1177287623 0.5422326922 4291938911
-0.2811343968 -0.1171477288 0.5423318744 4292004704
-0.2816376388 -0.1167537794 0.5433026552 4291939428
-0.2825929821 -0.1165441126 0.5451455712 4292071014
-0.2826439142 -0.1159593239 0.5452438593 4292202602
-0.2831469476 -0.1155588105 0.5462142229 4292334188
-0.2831974924 -0.1149724498 0.5463117361 4292334196
-0.2832477987 -0.1143857837 0.5464087725 4292465782
-0.2837504447 -0.1139805838 0.5473784208 4292531587
-0.2842529714 -0.1135732010 0.5483478308 4292465794
-0.2843027413 -0.1129837185 0.5484438539 4292466059
-0.2848050296 -0.1125728935 0.5494127870 4292795024
-0.2857601047 -0.1123379245 0.5512552261 4293123220
-0.2862623334 -0.1119217873 0.5522240400 4293320599
-0.2872174680 -0.1116796210 0.5540665984 4292927929
-0.2881726623 -0.1114333794 0.5559092760 4293322687
-0.3341618180 -0.2134726942 0.6460102797 4292138206
-0.3346917629 -0.2130923569 0.6470348239 4290690760
-0.3343395889 -0.2121499777 0.6463539600 4291215241
-0.3344281018 -0.2114878148 0.6465251446 4290886276
-0.3340751231 -0.2105470002 0.6458426714 4290754939
-0.3337216377 -0.2096074224 0.6451593637 4290623353
-0.3333677053 -0.2086690664 0.6444751024 4290360436
-0.3330133259 -0.2077319324 0.6437900066 4290228850
-0.3326584697 -0.2067960352 0.6431040168 4290293864
-0.3283261061 -0.2033976167 0.6347285509 4290030692
-0.3310633600 -0.2043822259 0.6400202513 4290095194
-0.3240750730 -0.1993719041 0.6265103221 4290029401
-0.3002779484 -0.1840868592 0.5805051327 4289963089
-0.2906234860 -0.1775439084 0.5618408918 4289963089
-0.2871583104 -0.1748102009 0.5551418662 4289898064
-0.2854613960 -0.1731640399 0.5518614054 4289832271
-0.2842060924 -0.1717920899 0.5494346023 4289635403
-0.2833926976 -0.1706917137 0.5478621125 4289766989
-0.2825786471 -0.1695944369 0.5462884307 4289833037
-0.2817639709 -0.1685002744 0.5447134376 4289635658
-0.2809486389 -0.1674092263 0.5431371927 4289766983
-0.2805759013 -0.1665844619 0.5424166322 4289635397
-0.2802027464 -0.1657610387 0.5416952372 4289700418
-0.2798291445 -0.1649389714 0.5409730077 4289700418
-0.2794551551 -0.1641182750 0.5402499437 4289766211
-0.2790807188 -0.1632989198 0.5395261049 4289766211
-0.2782620788 -0.1622222215 0.5379434824 4289503809
-0.2783305943 -0.1616643220 0.5380759239 4289438016
-0.2783989310 -0.1611060202 0.5382080078 4289503809
-0.2780229151 -0.1602912545 0.5374811292 4289438016
-0.2776464820 -0.1594778597 0.5367534161 4289437501
-0.2777139843 -0.1589201093 0.5368838906 4289305915
-0.2777812779 -0.1583619565 0.5370140076 4289305915
-0.2774038315 -0.1575509161 0.5362842679 4289437501
-0.2774705887 -0.1569928527 0.5364133716 4289569087
-0.2770923972 -0.1561836898 0.5356822610 4289569087
-0.2771586776 -0.1556257159 0.5358103514 4289700671
-0.2767797410 -0.1548184305 0.5350777507 4289766464
-0.2768454850 -0.1542605609 0.5352048874 4289700673
-0.2769110203 -0.1537022889 0.5353315473 4289700673
-0.2765310407 -0.1528974026 0.5345970392 4289766466
-0.2765960693 -0.1523392349 0.5347226858 4289766466
-0.2762153745 -0.1515362561 0.5339867473 4289700669
-0.2762798667 -0.1509782076 0.5341114402 4289700669
-0.2763441503 -0.1504197717 0.5342357159 4289766462
-0.2764082551 -0.1498609483 0.5343595743 4289766462
-0.2764721215 -0.1493017226 0.5344830751 4289766462
-0.2765357792 -0.1487421244 0.5346061587 4289766462
-0.2765992284 -0.1481821239 0.5347288251 4289832255
-0.2762162387 -0.1473836452 0.5339884162 4289766462
-0.2762791812 -0.1468237936 0.5341100693 4289700923
-0.2763418853 -0.1462635547 0.5342313647 4289700923
-0.2764044106 -0.1457029432 0.5343521833 4289700409
-0.2760200799 -0.1449074596 0.5336091518 4289700409
-0.2756353319 -0.1441134214 0.5328653455 4289700410
-0.2756969929 -0.1435534805 0.5329846144 4289766203
-0.2753114998 -0.1427614093 0.5322393775 4289831996
-0.2753726542 -0.1422016323 0.5323575735 4289831996
-0.2754335999 -0.1416414678 0.5324753523 4289766202
-0.2750470936 -0.1408519298 0.5317281485 4289831995
-0.2751074731 -0.1402919441 0.5318449140 4289897788
-0.2751676738 -0.1397315860 0.5319613218 4289963581
-0.2747801244 -0.1389445812 0.5312120914 4290029375
-0.2748397887 -0.1383844018 0.5313274264 4290095168
-0.2748992443 -0.1378238648 0.5314423442 4290095168
-0.2749584913 -0.1372629702 0.5315569043 4290095168
-0.2750174999 -0.1367017031 0.5316709876 4290160960
-0.2755243182 -0.1363618076 0.5326507688 4290160960
-0.2755829692 -0.1357989013 0.5327641964 4290029374
-0.2756414413 -0.1352356523 0.5328772068 4290160960
-0.2756996751 -0.1346720308 0.5329898000 4290358339
-0.2762061059 -0.1343261302 0.5339688063 4290424132
-0.2762639821 -0.1337608844 0.5340807438 4290226753
-0.2763216794 -0.1331952810 0.5341922641 4290226753
-0.2763791382 -0.1326293349 0.5343033075 4290424643
-0.2764363587 -0.1320630312 0.5344139934 4290687815
-0.2764933705 -0.1314963698 0.5345242023 4290556483
-0.2765501738 -0.1309293658 0.5346339941 4290753862
-0.2766067386 -0.1303620040 0.5347433686 4291016780
-0.2766630948 -0.1297942996 0.5348522663 4291016780
-0.2767192125 -0.1292262524 0.5349608064 4291082827
-0.2767751217 -0.1286578625 0.5350688696 4291082827
-0.2768307924 -0.1280891299 0.5351765156 4290820423
-0.2768862545 -0.1275200397 0.5352836847 4290820423
-0.2773910761 -0.1271567047 0.5362595916 4291148620
-0.2774461508 -0.1265860200 0.5363661051 4291148620
-0.2775010169 -0.1260149926 0.5364722013 4291083341
-0.2775556445 -0.1254436374 0.5365778208 4291083341
-0.2776100636 -0.1248719320 0.5366830230 4291149134
-0.2781142890 -0.1245013550 0.5376577377 4291149134
-0.2781683207 -0.1239280552 0.5377622247 4291083341
-0.2782221437 -0.1233544201 0.5378662944 4291083341
-0.2782757282 -0.1227804571 0.5379698873 4291017548
-0.2783290744 -0.1222061589 0.5380730033 4291149134
-0.2788326740 -0.1218283549 0.5390465856 4291412306
-0.2793361843 -0.1214483529 0.5400199890 4291543892
-0.2793890238 -0.1208712086 0.5401221514 4291543892
-0.2794416249 -0.1202937439 0.5402238369 4291609685
-0.2794940174 -0.1197159439 0.5403251052 4291741271
-0.2799970210 -0.1193299890 0.5412975550 4291807064
-0.2800490260 -0.1187506095 0.5413980484 4291675739
-0.2805518210 -0.1183612049 0.5423700809 4291873118
-0.2806034386 -0.1177802533 0.5424698591 4291873635
-0.2811060250 -0.1173874065 0.5434414744 4292005221
-0.2811572254 -0.1168048829 0.5435404778 4292071016
-0.2821109593 -0.1165951416 0.5453842282 4292136809
-0.2826133370 -0.1161957309 0.5463554263 4292333935
-0.2826640904 -0.1156094447 0.5464535356 4292399728
-0.2831661999 -0.1152065918 0.5474242568 4292334199
-0.2832165658 -0.1146187410 0.5475215912 4292465785
-0.2837184668 -0.1142124459 0.5484918952 4292531588
-0.2842202783 -0.1138039604 0.5494620204 4292465795
-0.2842700481 -0.1132133007 0.5495582819 4292596878
-0.2847716212 -0.1128013730 0.5505279303 4292925843
-0.2857252061 -0.1125653759 0.5523713827 4293057431
-0.2862266600 -0.1121481359 0.5533408523 4293320603
-0.2871803045 -0.1119049340 0.5551844239 4292861881
-0.2876816690 -0.1114823744 0.5561537147 4293322432
-0.3327032328 -0.2129982561 0.6445745230 4293060577
-0.3327918947 -0.2123386711 0.6447463632 4290626236
-0.3328803480 -0.2116785645 0.6449177265 4290429082
-0.3325281441 -0.2107387930 0.6442353725 4290165910
-0.3326160312 -0.2100785077 0.6444056034 4290754943
-0.3327036798 -0.2094177008 0.6445754170 4290623357
-0.3319095373 -0.2082033753 0.6430368423 4290491253
-0.3315556049 -0.2072676569 0.6423511505 4290293874
-0.3294371367 -0.2052341998 0.6382468939 4290293353
-0.3312874734 -0.2056737989 0.6418316960 4290095974
-0.3269610703 -0.2022840232 0.6334497929 4290095194
-0.3217494488 -0.1983671039 0.6233528256 4290029401
-0.3046151400 -0.1871476471 0.5901570916 4290160468
-0.2910044193 -0.1781591624 0.5637878776 4290094675
-0.2871038020 -0.1751531065 0.5562309027 4289963859
-0.2854100168 -0.1735054255 0.5529493690 4289963859
-0.2841570675 -0.1721320450 0.5505218506 4289898575
-0.2833452523 -0.1710303575 0.5489490628 4289832782
-0.2825327814 -0.1699317843 0.5473750234 4289767242
-0.2817196846 -0.1688363105 0.5457997322 4289701449
-0.2809059024 -0.1677439362 0.5442231297 4289635658
-0.2805339992 -0.1669179797 0.5435025692 4289635658
-0.2797190547 -0.1658309698 0.5419237614 4289635658
-0.2793461680 -0.1650085896 0.5412013531 4289569865
-0.2789728642 -0.1641875803 0.5404781103 4289504070
-0.2785991430 -0.1633679271 0.5397540331 4289504070
-0.2786680460 -0.1628084630 0.5398874879 4289635143
-0.2778504491 -0.1617327034 0.5383034945 4289635143
-0.2779186964 -0.1611741930 0.5384357572 4289635397
-0.2775433958 -0.1603591144 0.5377086997 4289569604
-0.2776111662 -0.1598006785 0.5378399491 4289503811
-0.2772351205 -0.1589874625 0.5371114016 4289503811
-0.2773023546 -0.1584291011 0.5372416973 4289503039
-0.2773693800 -0.1578703374 0.5373715162 4289568832
-0.2769923210 -0.1570594758 0.5366410017 4289568832
-0.2770588398 -0.1565008014 0.5367698669 4289568832
-0.2766810358 -0.1556918174 0.5360379219 4289569087
-0.2767470181 -0.1551332325 0.5361657739 4289634880
-0.2763684988 -0.1543261409 0.5354324579 4289765953
-0.2764339745 -0.1537676603 0.5355592966 4289831746
-0.2764992416 -0.1532087922 0.5356857777 4289897537
-0.2761196792 -0.1524040997 0.5349503756 4289831744
-0.2761844397 -0.1518453360 0.5350758433 4289766464
-0.2758041322 -0.1510425508 0.5343390703 4289766464
-0.2758683860 -0.1504839063 0.5344635248 4289898050
-0.2759324014 -0.1499248743 0.5345875621 4289766464
-0.2759962082 -0.1493654400 0.5347111821 4289766464
-0.2760598361 -0.1488056183 0.5348344445 4289832257
-0.2761232257 -0.1482454240 0.5349572301 4289832257
-0.2761864066 -0.1476848423 0.5350796580 4289766464
-0.2758038342 -0.1468865722 0.5343384743 4289569855
-0.2758665085 -0.1463261247 0.5344598889 4289504062
-0.2759289443 -0.1457652897 0.5345808864 4289766205
-0.2755453289 -0.1449695081 0.5338376164 4289766205
-0.2751612961 -0.1441751420 0.5330936313 4289700412
-0.2756689787 -0.1438477635 0.5340771675 4289766205
-0.2752843201 -0.1430544704 0.5333319306 4289897789
-0.2748992443 -0.1422626227 0.5325859189 4289831996
-0.2749601305 -0.1417022496 0.5327038765 4289700412
-0.2750207782 -0.1411415190 0.5328214169 4289700412
-0.2746346891 -0.1403521895 0.5320733786 4289897791
-0.2746948302 -0.1397916228 0.5321898460 4289963584
-0.2747547328 -0.1392306834 0.5323059559 4289963582
-0.2748144567 -0.1386693865 0.5324216485 4290029375
-0.2748739421 -0.1381077319 0.5325369239 4290095167
-0.2749332190 -0.1375456899 0.5326517820 4290160960
-0.2749922872 -0.1369833052 0.5327661633 4290160961
-0.2750511467 -0.1364205480 0.5328801870 4290029375
-0.2751097679 -0.1358574331 0.5329937935 4290226754
-0.2756156027 -0.1355139464 0.5339738131 4290160961
-0.2756738961 -0.1349491924 0.5340867043 4290226754
-0.2757319510 -0.1343840957 0.5341992378 4290292547
-0.2757897973 -0.1338186264 0.5343112946 4290292546
-0.2758474350 -0.1332527995 0.5344229341 4290160960
-0.2759048641 -0.1326866299 0.5345341563 4290227264
-0.2759620249 -0.1321201026 0.5346449614 4290622022
-0.2764670849 -0.1317667812 0.5356234312 4290753608
-0.2765239179 -0.1311986446 0.5357335210 4290885194
-0.2765805423 -0.1306301355 0.5358432531 4290951241
-0.2766369283 -0.1300612986 0.5359525084 4291017034
-0.2766931057 -0.1294921041 0.5360612869 4291017032
-0.2767490447 -0.1289225519 0.5361697078 4291082825
-0.2768047750 -0.1283526719 0.5362776518 4291148618
-0.2768602669 -0.1277824491 0.5363851786 4291148618
-0.2769155204 -0.1272118688 0.5364922285 4291148616
-0.2769705653 -0.1266409606 0.5365988612 4291345995
-0.2770254016 -0.1260697097 0.5367050767 4291345997
-0.2770799994 -0.1254981160 0.5368108749 4291214411
-0.2775835097 -0.1251286566 0.5377864242 4291214413
-0.2776377499 -0.1245554686 0.5378914475 4291345999
-0.2776917517 -0.1239819452 0.5379960537 4291345997
-0.2781949341 -0.1236077696 0.5389709473 4291411790
-0.2782485783 -0.1230326518 0.5390748382 4291149134
-0.2783019841 -0.1224571913 0.5391783118 4291280720
-0.2783551514 -0.1218814105 0.5392813087 4291543894
-0.2788578570 -0.1215012670 0.5402552485 4291543894
-0.2789106369 -0.1209238917 0.5403575301 4291543896
-0.2794131339 -0.1205402985 0.5413310528 4291675482
-0.2794655561 -0.1199613363 0.5414326191 4291807066
-0.2795177400 -0.1193820536 0.5415337086 4291807066
-0.2800198793 -0.1189937517 0.5425065756 4291741281
-0.2800716758 -0.1184128895 0.5426068902 4291938660
-0.2805735767 -0.1180211455 0.5435793400 4291873637
-0.2806249857 -0.1174387038 0.5436789393 4291939430
-0.2815772295 -0.1172310784 0.5455237627 4292071018
-0.2816283107 -0.1166461259 0.5456227064 4292202604
-0.2821298838 -0.1162465587 0.5465944409 4292268144
-0.2821805775 -0.1156600341 0.5466926694 4292333937
-0.2826818824 -0.1152570248 0.5476639271 4292268152
-0.2827322185 -0.1146689355 0.5477613807 4292531324
-0.2832332850 -0.1142624766 0.5487321615 4292334723
-0.2837342918 -0.1138538346 0.5497028232 4292334723
-0.2842352092 -0.1134429947 0.5506732464 4292598159
-0.2847360373 -0.1130299717 0.5516435504 4292795538
-0.2852367759 -0.1126147509 0.5526136756 4292860566
-0.2861888409 -0.1123745963 0.5544582009 4293057945
-0.2871409655 -0.1121303663 0.5563028455 4292796603
-0.2876415849 -0.1117066965 0.5572727323 4293520326
-0.3308959007 -0.2115841955 0.6424554586 4291020746
-0.3314234614 -0.2112066001 0.6434798241 4290363301
-0.3310717046 -0.2102682441 0.6427968740 4290165922
-0.3311592937 -0.2096094787 0.6429668665 4290754943
-0.3308067322 -0.2086727023 0.6422823668 4290754943
-0.3304536939 -0.2077371478 0.6415969133 4290557562
-0.3301002085 -0.2068028450 0.6409106255 4290360183
-0.3293060362 -0.2055949122 0.6393686533 4290359405
-0.3280707896 -0.2041159868 0.6369703412 4290096233
-0.3259536624 -0.2020956278 0.6328598261 4290095453
-0.3216322362 -0.1987224370 0.6244694591 4290095453
-0.3058499098 -0.1883114576 0.5938271284 4290029654
-0.2913816571 -0.1787748039 0.5657360554 4290029654
-0.2874881029 -0.1757657677 0.5581764579 4289964372
-0.2849154472 -0.1735782623 0.5531815290 4289964372
-0.2836647034 -0.1722043604 0.5507531166 4289964370
-0.2828543782 -0.1711022407 0.5491797924 4289898577
-0.2820433676 -0.1700032353 0.5476051569 4289898830
-0.2816732228 -0.1691724956 0.5468865037 4289898830
-0.2808610499 -0.1680788249 0.5453096032 4289767244
-0.2800482213 -0.1669882685 0.5437314510 4289701451
-0.2796765864 -0.1661633402 0.5430098772 4289635658
-0.2793045044 -0.1653397679 0.5422875285 4289635658
-0.2784899771 -0.1642568260 0.5407060385 4289635658
-0.2781169713 -0.1634368598 0.5399817824 4289701451
-0.2781857848 -0.1628772020 0.5401154160 4289701449
-0.2778120339 -0.1620590687 0.5393897891 4289701449
-0.2774378657 -0.1612423062 0.5386633277 4289701449
-0.2775058746 -0.1606831849 0.5387953520 4289701449
-0.2771309614 -0.1598682702 0.5380674601 4289701190
-0.2771984637 -0.1593092233 0.5381984711 4289701190
-0.2768228352 -0.1584961861 0.5374691486 4289701190
-0.2768898010 -0.1579372138 0.5375992060 4289635397
-0.2765134275 -0.1571260393 0.5368684530 4289503811
-0.2765798867 -0.1565671563 0.5369974971 4289438018
-0.2766461372 -0.1560078710 0.5371261239 4289766466
-0.2762687206 -0.1551990807 0.5363933444 4289766466
-0.2763344646 -0.1546398997 0.5365209579 4289897539
-0.2759563327 -0.1538329870 0.5357868075 4289897539
-0.2760215402 -0.1532739103 0.5359134078 4289897539
-0.2756426930 -0.1524689049 0.5351778865 4289897539
-0.2757073939 -0.1519099325 0.5353034735 4289832259
-0.2757718861 -0.1513505578 0.5354287028 4289766466
-0.2758361697 -0.1507908106 0.5355535150 4289766466
-0.2759002447 -0.1502306610 0.5356779099 4289700673
-0.2755197287 -0.1494290978 0.5349391103 4289766464
-0.2755832672 -0.1488690823 0.5350624919 4289766464
-0.2756466269 -0.1483086646 0.5351854563 4289634878
-0.2757097483 -0.1477478743 0.5353080630 4289634878
-0.2757726610 -0.1471866816 0.5354301929 4289569855
-0.2753904760 -0.1463886350 0.5346881747 4289569855
-0.2754528821 -0.1458275914 0.5348093510 4289700671
-0.2755150795 -0.1452661604 0.5349300504 4289700671
-0.2751318514 -0.1444705874 0.5341860056 4289766205
-0.2751935124 -0.1439093202 0.5343057513 4289766205
-0.2748095691 -0.1431157142 0.5335602760 4289831998
-0.2748707235 -0.1425545961 0.5336790085 4289831998
-0.2749316394 -0.1419931054 0.5337973237 4289766205
-0.2749923468 -0.1414312571 0.5339151621 4289766205
-0.2746070623 -0.1406407058 0.5331671238 4289831998
