VERSION 0.7
FIELDS x y z rgba
SIZE 4 4 4 4
TYPE F F F U
COUNT 1 1 1 1
WIDTH 920
HEIGHT 1
VIEWPOINT 0.0 0.0 0.0 1.0 0.0 0.0 0.0
POINTS 920
DATA ascii
-0.2680383921 -0.1604801863 0.5791075230 4292995312
-0.2681021988 -0.1598748118 0.5792453885 4292732140
-0.2681658268 -0.1592690200 0.5793828368 4292337382
-0.2686368525 -0.1589039117 0.5804005265 4291942624
-0.2687001228 -0.1582963169 0.5805372596 4291744218
-0.2691710293 -0.1579275876 0.5815546513 4291217874
-0.2692340016 -0.1573182195 0.5816906691 4290953673
-0.2697047591 -0.1569458693 0.5827077627 4290164157
-0.2697673738 -0.1563347280 0.5828430653 4289506225
-0.2698297501 -0.1557231545 0.5829778910 4288782502
-0.2698919475 -0.1551111639 0.5831122398 4288321438
-0.2703623176 -0.1547324806 0.5841284990 4287729301
-0.2704241574 -0.1541187167 0.5842620730 4287860372
-0.2704857886 -0.1535045356 0.5843952298 4287597200
-0.2705472112 -0.1528899372 0.5845279098 4287333769
-0.2706083953 -0.1522749215 0.5846601129 4287202183
-0.2706693709 -0.1516594738 0.5847918391 4287135618
-0.2707301080 -0.1510436237 0.5849230886 4286938239
-0.2711996734 -0.1506545991 0.5859376192 4286609276
-0.2712600827 -0.1500369757 0.5860681534 4286411897
-0.2713202536 -0.1494189650 0.5861981511 4286478460
-0.2713802159 -0.1488005221 0.5863277316 4285820530
-0.2714399695 -0.1481816918 0.5864567757 4286347131
-0.2714994848 -0.1475624293 0.5865853429 4288452507
-0.2711491585 -0.1467211396 0.5858284831 4289965746
-0.2712081373 -0.1461020112 0.5859559178 4290360504
-0.2708571255 -0.1452627331 0.5851975083 4291018436
-0.2700958550 -0.1442060769 0.5835527778 4291939538
-0.2697439492 -0.1433706731 0.5827924609 4292071894
-0.2693916559 -0.1425367445 0.5820313096 4292006101
-0.2682186961 -0.1412722617 0.5794970989 4291743186
-0.2670449913 -0.1400130242 0.5769612789 4291940565
-0.2658705711 -0.1387590319 0.5744238496 4292466909
-0.2638746202 -0.1370839179 0.5701115727 4292730081
-0.2622880638 -0.1356300712 0.5666837096 4291677394
-0.2607006133 -0.1341833621 0.5632539392 4291151050
-0.2603441477 -0.1333749443 0.5624838471 4291216332
-0.2599872947 -0.1325680166 0.5617128611 4291216332
-0.2600408792 -0.1319711059 0.5618286133 4290953160
-0.2605051100 -0.1315813661 0.5628316402 4290887367
-0.2605583370 -0.1309827715 0.5629466176 4290755781
-0.2610223889 -0.1305894703 0.5639492273 4290689988
-0.2618975341 -0.1303986162 0.5658400059 4290755781
-0.2623615563 -0.1299998462 0.5668425560 4290558402
-0.2628255188 -0.1295988262 0.5678449273 4290624195
-0.2632894516 -0.1291955411 0.5688472390 4290689988
-0.2633418143 -0.1285890937 0.5689603686 4290558402
-0.2633939683 -0.1279822737 0.5690730810 4290624195
-0.2634458840 -0.1273750961 0.5691852570 4290821574
-0.2643209994 -0.1271637082 0.5710759759 4291150539
-0.2643726468 -0.1265539229 0.5711875558 4291479504
-0.2644240558 -0.1259437799 0.5712985992 4291742676
-0.2640632689 -0.1251380444 0.5705190897 4291611852
-0.2641141415 -0.1245281398 0.5706290007 4292203989
-0.2637526393 -0.1237245649 0.5698480010 4292598747
-0.2633907795 -0.1229225472 0.5690662265 4292796126
-0.2634408176 -0.1223134920 0.5691742897 4294704123
-0.2667520642 -0.1594523340 0.5777146816 4293061105
-0.2668154240 -0.1588481665 0.5778518915 4292732140
-0.2668785453 -0.1582435519 0.5779886246 4292337382
-0.2673483789 -0.1578788310 0.5790061355 4292204769
-0.2678182125 -0.1575118303 0.5800236464 4291678425
-0.2678808868 -0.1569040865 0.5801594257 4291414481
-0.2683505714 -0.1565334648 0.5811766386 4290624965
-0.2684129179 -0.1559239626 0.5813116431 4290032571
-0.2684750557 -0.1553140283 0.5814462304 4289374641
-0.2685369551 -0.1547036618 0.5815803409 4288914088
-0.2690062523 -0.1543267220 0.5825966597 4288321951
-0.2690678537 -0.1537145972 0.5827300549 4287992728
-0.2691292167 -0.1531020552 0.5828629732 4287597970
-0.2691903710 -0.1524890810 0.5829954147 4287465355
-0.2692512870 -0.1518757045 0.5831273794 4287333769
-0.2693119943 -0.1512619108 0.5832588673 4287332999
-0.2693724930 -0.1506476998 0.5833898783 4287135620
-0.2698410153 -0.1502604038 0.5844045281 4286741632
-0.2699011564 -0.1496444345 0.5845347643 4286478460
-0.2703694999 -0.1492535174 0.5855490565 4286610046
-0.2704292834 -0.1486357898 0.5856785774 4286478460
-0.2704888582 -0.1480176598 0.5858076215 4285623408
-0.2705482244 -0.1473991275 0.5859361291 4286149752
-0.2701985538 -0.1465584487 0.5851789117 4288386714
-0.2702573836 -0.1459400356 0.5853062868 4289834160
-0.2699070275 -0.1451013684 0.5845475197 4290492092
-0.2695562840 -0.1442641765 0.5837878585 4291347401
-0.2692051232 -0.1434284598 0.5830273628 4292071894
-0.2684443295 -0.1423771679 0.5813797116 4292137687
-0.2680923045 -0.1415453553 0.5806173086 4291940565
-0.2669210732 -0.1402846873 0.5780807137 4292335323
-0.2657491267 -0.1390292794 0.5755425692 4292467422
-0.2645764351 -0.1377791166 0.5730028152 4292335836
-0.2625837028 -0.1361095458 0.5686870813 4291282635
-0.2609996200 -0.1346604079 0.5652563572 4291019463
-0.2602342665 -0.1336393356 0.5635988712 4290953673
-0.2598782480 -0.1328311712 0.5628278255 4290822087
-0.2599318624 -0.1322330832 0.5629439354 4290689988
-0.2599852383 -0.1316346377 0.5630595088 4290689988
-0.2604485452 -0.1312425137 0.5640628934 4290624195
-0.2609117925 -0.1308481246 0.5650662184 4290492609
-0.2613749802 -0.1304514706 0.5660693645 4290689988
-0.2618381381 -0.1300525665 0.5670723915 4290689988
-0.2623012066 -0.1296514124 0.5680753589 4290361023
-0.2631748021 -0.1294499338 0.5699673295 4290558402
-0.2632271945 -0.1288423091 0.5700807571 4290624195
-0.2632793784 -0.1282343119 0.5701937675 4290755781
-0.2633313239 -0.1276259571 0.5703062415 4291150539
-0.2637939453 -0.1272154003 0.5713081360 4291611090
-0.2638455033 -0.1266053915 0.5714198351 4292005846
-0.2634857893 -0.1257987618 0.5706408024 4292071639
-0.2635368109 -0.1251889765 0.5707513094 4291809233
-0.2635876238 -0.1245788410 0.5708613396 4292269784
-0.2632268965 -0.1237749606 0.5700801015 4292664542
-0.2628658116 -0.1229726300 0.5692980886 4293125093
-0.2654676437 -0.1584268510 0.5763192177 4292995310
-0.2655304968 -0.1578238755 0.5764557123 4292797931
-0.2659992576 -0.1574608833 0.5774733424 4292599786
-0.2664679885 -0.1570956111 0.5784909725 4292139235
-0.2669366896 -0.1567280591 0.5795084834 4291810011
-0.2669990063 -0.1561206132 0.5796437860 4291086288
-0.2670610845 -0.1555127352 0.5797785521 4290559174
-0.2671229541 -0.1549044400 0.5799129009 4290032830
-0.2671846151 -0.1542957276 0.5800467134 4289638070
-0.2676528394 -0.1539205015 0.5810632110 4288914347
-0.2677141428 -0.1533100158 0.5811963081 4288453024
-0.2677752674 -0.1526991129 0.5813289881 4287795094
-0.2678361535 -0.1520877928 0.5814611912 4287531407
-0.2678968310 -0.1514760554 0.5815929174 4287465614
-0.2679572701 -0.1508639008 0.5817241669 4287399562
-0.2680175006 -0.1502513289 0.5818549395 4287267976
-0.2680775225 -0.1496383548 0.5819852352 4287070597
-0.2685448527 -0.1492514461 0.5829997063 4286807425
-0.2686045170 -0.1486367136 0.5831292868 4286939011
-0.2690716386 -0.1482461840 0.5841434002 4286544253
-0.2691309750 -0.1476297081 0.5842722058 4286150006
-0.2691900730 -0.1470128149 0.5844004750 4285755248
-0.2692489624 -0.1463955194 0.5845283270 4286216315
-0.2688995600 -0.1455569416 0.5837697983 4288190105
-0.2689579129 -0.1449397653 0.5838964581 4290098102
-0.2686078250 -0.1441031992 0.5831364393 4291084997
-0.2686656415 -0.1434861720 0.5832619667 4291282635
-0.2679064274 -0.1424344927 0.5816137791 4291940565
-0.2675551474 -0.1416023523 0.5808511376 4291941076
-0.2667948902 -0.1405564547 0.5792006254 4292270041
-0.2656253874 -0.1392996311 0.5766617656 4292401629
-0.2644551694 -0.1380480379 0.5741212368 4292730594
-0.2628753781 -0.1365893036 0.5706915855 4291941078
-0.2608857751 -0.1349262297 0.5663722157 4291677906
-0.2601220906 -0.1339038312 0.5647143126 4291348431
-0.2597669363 -0.1330944151 0.5639432669 4290690501
-0.2598205507 -0.1324951798 0.5640596747 4290427329
-0.2594647110 -0.1316878498 0.5632871389 4290690501
-0.2599271238 -0.1312955916 0.5642910004 4290624708
-0.2607989013 -0.1311068833 0.5661836267 4290427329
-0.2612613142 -0.1307091415 0.5671874881 4290558402
-0.2617236674 -0.1303091496 0.5681912303 4290492609
-0.2621859312 -0.1299069077 0.5691947937 4290492607
-0.2622384131 -0.1293003559 0.5693087578 4290624193
-0.2627004981 -0.1288945377 0.5703119040 4290624193
-0.2627525926 -0.1282863170 0.5704250336 4290755779
-0.2628044784 -0.1276777387 0.5705376267 4291150537
-0.2632662058 -0.1272670478 0.5715400577 4291874260
-0.2633177042 -0.1266568005 0.5716518760 4292597983
-0.2629587650 -0.1258498579 0.5708726048 4292729569
-0.2630097270 -0.1252398491 0.5709832311 4292269784
-0.2626501024 -0.1244350597 0.5702024698 4292467163
-0.2627005279 -0.1238252968 0.5703119636 4292796128
-0.2623401880 -0.1230226606 0.5695296526 4293519851
-0.2645275891 -0.1582474113 0.5756664872 4293258482
-0.2649954557 -0.1578865647 0.5766847134 4293061103
-0.2650580406 -0.1572829634 0.5768208504 4292928751
-0.2655257881 -0.1569184959 0.5778387785 4292533993
-0.2655880153 -0.1563131064 0.5779742002 4292205028
-0.2656500638 -0.1557072997 0.5781092048 4291481305
-0.2657118738 -0.1551010609 0.5782437921 4291020495
-0.2657735050 -0.1544944048 0.5783778429 4290494151
-0.2658348978 -0.1538873315 0.5785114765 4290164414
-0.2663020194 -0.1535138488 0.5795280337 4289440691
-0.2663630843 -0.1529050022 0.5796608925 4288979881
-0.2664239407 -0.1522957385 0.5797933340 4288321951
-0.2664845586 -0.1516860574 0.5799252391 4287795349
-0.2665449679 -0.1510759592 0.5800567269 4287597970
-0.2670115829 -0.1506948173 0.5810722113 4287597198
-0.2670716643 -0.1500829756 0.5812029243 4287465612
-0.2671315074 -0.1494707018 0.5813331604 4287268233
-0.2671911418 -0.1488580257 0.5814629793 4287202440
-0.2672505677 -0.1482449472 0.5815922618 4286939268
-0.2677166462 -0.1478561461 0.5826064944 4286676096
-0.2677757144 -0.1472413093 0.5827350616 4286741889
-0.2678345740 -0.1466260701 0.5828631520 4286347131
-0.2678931952 -0.1460104287 0.5829907060 4285952373
-0.2679516077 -0.1453943700 0.5831178427 4286544510
-0.2680097818 -0.1447779238 0.5832444429 4288124312
-0.2676603496 -0.1439419687 0.5824840069 4290229688
-0.2673105299 -0.1431075037 0.5817227364 4290887877
-0.2673678696 -0.1424917281 0.5818474889 4291874772
-0.2666096687 -0.1414430141 0.5801975131 4291743186
-0.2666663826 -0.1408283263 0.5803209543 4292203737
-0.2659072280 -0.1397844702 0.5786688328 4292335836
-0.2643316388 -0.1383170784 0.5752400756 4292993766
-0.2627551854 -0.1368568242 0.5718093514 4292730594
-0.2619939744 -0.1358268708 0.5701528192 4292862180
-0.2600076795 -0.1341684312 0.5658302307 4292203740
-0.2596533597 -0.1333577782 0.5650591254 4290887880
-0.2597069740 -0.1327573657 0.5651758909 4290295743
-0.2593519688 -0.1319487989 0.5644032955 4290493122
-0.2598136067 -0.1315554529 0.5654078722 4290493122
-0.2602751553 -0.1311598420 0.5664123297 4290295743
-0.2607366741 -0.1307619661 0.5674166679 4290164155
-0.2611981332 -0.1303618252 0.5684208870 4290164155
-0.2616595328 -0.1299594343 0.5694249868 4290164155
-0.2617119551 -0.1293526739 0.5695390701 4290229948
-0.2621731460 -0.1289467067 0.5705426931 4290492607
-0.2622251809 -0.1283382624 0.5706560016 4290755779
-0.2622770071 -0.1277294606 0.5707687736 4291084744
-0.2627378404 -0.1273186058 0.5717716217 4291808467
-0.2627892792 -0.1267081350 0.5718835592 4292664031
-0.2624310851 -0.1259008944 0.5711041093 4292927203
-0.2624820173 -0.1252906621 0.5712149143 4292532956
-0.2617135644 -0.1242910475 0.5695425868 4292598749
-0.2617638409 -0.1236820146 0.5696520209 4292927971
-0.2614041865 -0.1228800267 0.5688693523 4293980659
-0.2636510432 -0.1574661583 0.5751491189 4293324275
-0.2637133598 -0.1568641812 0.5752850771 4293323509
-0.2641800046 -0.1565014571 0.5763030648 4292994544
-0.2642419934 -0.1558977067 0.5764382482 4292731372
-0.2647085190 -0.1555313468 0.5774559975 4292007649
-0.2647701800 -0.1549258381 0.5775904655 4291612632
-0.2648316026 -0.1543198824 0.5777245164 4291086288
-0.2648928463 -0.1537135243 0.5778580308 4290690758
-0.2653589845 -0.1533408463 0.5788749456 4289967035
-0.2654198706 -0.1527327150 0.5790078044 4289703604
-0.2654805481 -0.1521241665 0.5791401267 4289111467
-0.2655410171 -0.1515152007 0.5792720318 4288453279
-0.2656012774 -0.1509058177 0.5794034600 4288058521
-0.2660668790 -0.1505254954 0.5804192424 4287991956
-0.2661268115 -0.1499143541 0.5805498958 4287728784
-0.2661865056 -0.1493027955 0.5806801319 4287597198
-0.2662459612 -0.1486908346 0.5808098912 4287662991
-0.2663052380 -0.1480784565 0.5809391737 4287596941
-0.2667703032 -0.1476904750 0.5819537044 4287333769
-0.2668292224 -0.1470763534 0.5820822120 4287005061
-0.2668879032 -0.1464618295 0.5822102427 4286873475
-0.2669463754 -0.1458469033 0.5823377967 4286873475
-0.2670046091 -0.1452315599 0.5824648738 4286347131
-0.2670626640 -0.1446158290 0.5825914741 4286347903
-0.2671204507 -0.1439996809 0.5827175379 4287992728
-0.2667713761 -0.1431649029 0.5819560289 4290295740
-0.2668286562 -0.1425489038 0.5820810199 4291282635
-0.2664788663 -0.1417161524 0.5813179612 4291545807
-0.2661286891 -0.1408848912 0.5805540085 4292269530
-0.2653710842 -0.1398406327 0.5789013505 4292335323
-0.2646129429 -0.1387997419 0.5772474408 4292730081
-0.2630398571 -0.1373370588 0.5738158226 4293059559
-0.2618731260 -0.1360931695 0.5712706447 4293651696
-0.2607056797 -0.1348545551 0.5687238574 4292927463
-0.2599449158 -0.1338309944 0.5670642853 4291480017
-0.2595911324 -0.1330196559 0.5662925243 4290887878
-0.2596445680 -0.1324177235 0.5664090514 4290822085
-0.2596977949 -0.1318154037 0.5665251613 4290493120
-0.2597507834 -0.1312127262 0.5666407347 4290295741
-0.2602114081 -0.1308147162 0.5676456094 4290361534
-0.2606719732 -0.1304144412 0.5686503053 4290756292
-0.2611324787 -0.1300119162 0.5696549416 4290295741
-0.2611848414 -0.1294049174 0.5697691441 4290229948
-0.2616451383 -0.1289988160 0.5707732439 4290361533
-0.2616971135 -0.1283901483 0.5708866715 4290756291
-0.2617488801 -0.1277811229 0.5709995627 4291151049
-0.2618004084 -0.1271717250 0.5711119771 4291545807
-0.2618516982 -0.1265619844 0.5712239146 4292137944
-0.2619027793 -0.1259518713 0.5713353157 4292401116
-0.2615449727 -0.1251458675 0.5705547929 4292467422
-0.2611867785 -0.1243414134 0.5697733760 4292664801
-0.2608281970 -0.1235385165 0.5689911246 4293322731
-0.2628369033 -0.1560839564 0.5747656822 4293258486
-0.2628985941 -0.1554818451 0.5749006271 4292995314
-0.2633640468 -0.1551172286 0.5759184361 4292337384
-0.2634254396 -0.1545133442 0.5760526657 4292073440
-0.2634865940 -0.1539090425 0.5761864185 4291547096
-0.2635475695 -0.1533043236 0.5763197541 4291086286
-0.2640126348 -0.1529333889 0.5773367286 4290362563
-0.2640732527 -0.1523268968 0.5774693489 4290361534
-0.2641336918 -0.1517200023 0.5776014328 4289835190
-0.2641938925 -0.1511126757 0.5777330995 4289111466
-0.2646585703 -0.1507354230 0.5787492394 4288585122
-0.2647184134 -0.1501263380 0.5788801312 4288255900
-0.2647780776 -0.1495168507 0.5790106058 4287861142
-0.2652424574 -0.1491346359 0.5800260901 4287794577
-0.2653017938 -0.1485233903 0.5801557899 4287926163
-0.2653608620 -0.1479117274 0.5802850127 4287926163
-0.2654197514 -0.1472996771 0.5804137588 4287531405
-0.2658837140 -0.1469111443 0.5814284086 4287531148
-0.2655368447 -0.1460743248 0.5806698799 4287465355
-0.2655950785 -0.1454610378 0.5807971358 4287465614
-0.2656530738 -0.1448473632 0.5809239745 4287268235
-0.2661164999 -0.1444534808 0.5819374323 4286676868
-0.2661741674 -0.1438380629 0.5820634961 4286676868
-0.2658257484 -0.1430039108 0.5813016295 4288256157
-0.2658828497 -0.1423886269 0.5814265013 4290164154
-0.2659397423 -0.1417729557 0.5815508962 4291348428
-0.2655903399 -0.1409413815 0.5807868242 4292006358
-0.2652404904 -0.1401112974 0.5800217986 4292072152
-0.2644840181 -0.1390690655 0.5783675313 4292664289
-0.2633205950 -0.1378175467 0.5758234262 4293322731
-0.2617500126 -0.1363595575 0.5723888874 4293059559
-0.2609915733 -0.1353303343 0.5707303286 4292401117
-0.2602325678 -0.1343044937 0.5690705776 4291677394
-0.2594729960 -0.1332820654 0.5674095750 4291808980
-0.2595264614 -0.1326789558 0.5675264597 4291545808
-0.2591728270 -0.1318684667 0.5667531490 4291019464
-0.2592257559 -0.1312655658 0.5668689013 4290558913
-0.2596854866 -0.1308674067 0.5678742528 4290427327
-0.2601451874 -0.1304669976 0.5688794851 4291348429
-0.2606047988 -0.1300643235 0.5698845387 4291611601
-0.2606570721 -0.1294571161 0.5699989200 4291414222
-0.2611165047 -0.1290508509 0.5710035563 4290953670
-0.2611684203 -0.1284419596 0.5711171031 4290953670
-0.2612201273 -0.1278327107 0.5712301135 4291282635
-0.2608639896 -0.1270246208 0.5704513192 4291545807
-0.2609151304 -0.1264155954 0.5705631971 4291874772
-0.2609660923 -0.1258062124 0.5706745982 4292203737
-0.2610167861 -0.1251964718 0.5707855225 4292533213
-0.2602514327 -0.1241970509 0.5691118240 4292993764
-0.2603015304 -0.1235885099 0.5692213774 4293849073
-0.2614964247 -0.1556660086 0.5732265711 4293455865
-0.2615578771 -0.1550655365 0.5733612776 4293324024
-0.2616190910 -0.1544646472 0.5734955072 4292797680
-0.2620833516 -0.1541004181 0.5745131969 4292403177
-0.2621442378 -0.1534977555 0.5746467113 4291876833
-0.2622049451 -0.1528946757 0.5747797489 4291612632
-0.2626689374 -0.1525254846 0.5757968426 4290954702
-0.2627293169 -0.1519206315 0.5759291649 4290822344
-0.2627894580 -0.1513153762 0.5760610700 4290361793
-0.2632531822 -0.1509412080 0.5770775676 4289769910
-0.2633129954 -0.1503341943 0.5772086978 4289177773
-0.2633726001 -0.1497267634 0.5773394108 4288716709
-0.2634319961 -0.1491189152 0.5774695873 4288124572
-0.2638953030 -0.1487384439 0.5784851909 4287926935
-0.2639543712 -0.1481288522 0.5786146522 4287992728
-0.2640132010 -0.1475188434 0.5787436366 4287728784
-0.2640718520 -0.1469084322 0.5788721442 4287794577
-0.2645347416 -0.1465216577 0.5798868537 4287728784
-0.2641884387 -0.1456863880 0.5791277289 4287597198
-0.2642464042 -0.1450747699 0.5792548060 4287662991
-0.2643041611 -0.1444627345 0.5793814063 4287662991
-0.2647665143 -0.1440705955 0.5803949833 4287269003
-0.2648239434 -0.1434568316 0.5805208087 4286940038
-0.2648811042 -0.1428426653 0.5806461573 4286874758
-0.2649380565 -0.1422281116 0.5807710290 4288716962
-0.2649948001 -0.1416131556 0.5808954239 4290558912
-0.2646460533 -0.1407822073 0.5801308751 4291480014
-0.2642968893 -0.1399527490 0.5793654919 4291677906
-0.2627309859 -0.1384836584 0.5759329200 4292270043
-0.2640029192 -0.1385110915 0.5787211061 4293059559
-0.2620302141 -0.1368378848 0.5743966699 4291941078
-0.2600564063 -0.1351737380 0.5700699091 4291283149
-0.2609220743 -0.1349882036 0.5719675422 4291480528
-0.2597584724 -0.1337535530 0.5694168210 4292204250
-0.2590001225 -0.1327322423 0.5677544475 4292138457
-0.2590532899 -0.1321285516 0.5678709745 4291743186
-0.2587001026 -0.1313183308 0.5670967698 4290822084
-0.2591589391 -0.1309200376 0.5681025982 4290032569
-0.2592114508 -0.1303152293 0.5682176948 4290822085
-0.2596701086 -0.1299133599 0.5692231059 4292203737
-0.2601287067 -0.1295092255 0.5702283978 4292598495
-0.2601806819 -0.1289014220 0.5703423619 4292006358
-0.2602324784 -0.1282932609 0.5704558492 4291480014
-0.2602840066 -0.1276847273 0.5705688596 4291743186
-0.2603353262 -0.1270758361 0.5706813931 4291940565
-0.2599795759 -0.1262689829 0.5699015260 4292137944
-0.2600303888 -0.1256603301 0.5700128675 4292598495
-0.2600809634 -0.1250513196 0.5701237321 4292862178
-0.2597241998 -0.1242472157 0.5693417192 4293585901
-0.2593670785 -0.1234446540 0.5685588121 4294309624
-0.2602197826 -0.1546487659 0.5718202591 4293587709
-0.2602807581 -0.1540495306 0.5719542503 4293127158
-0.2603415251 -0.1534498632 0.5720877647 4292797935
-0.2604020834 -0.1528497785 0.5722208619 4292337384
-0.2608650029 -0.1524845809 0.5732380748 4292073440
-0.2609252334 -0.1518827379 0.5733704567 4291415510
-0.2613880038 -0.1515139341 0.5743873715 4291152079
-0.2614479065 -0.1509103179 0.5745189786 4290757321
-0.2619105279 -0.1505378932 0.5755355954 4290361793
-0.2619701028 -0.1499325186 0.5756664872 4289835449
-0.2620294392 -0.1493267417 0.5757969022 4289243055
-0.2620885968 -0.1487205476 0.5759268999 4288585125
-0.2625508308 -0.1483418196 0.5769426227 4288321438
-0.2626096308 -0.1477338672 0.5770718455 4288189852
-0.2626681924 -0.1471255124 0.5772005916 4288255382
-0.2627265751 -0.1465167552 0.5773288608 4288189589
-0.2627847195 -0.1459075958 0.5774566531 4287926163
-0.2628426850 -0.1452980340 0.5775839686 4287991956
-0.2629003823 -0.1446880549 0.5777108073 4287861140
-0.2629579008 -0.1440776885 0.5778371692 4287663761
-0.2634192109 -0.1436872929 0.5788508058 4287466895
-0.2634763420 -0.1430751830 0.5789764524 4287532688
-0.2635332942 -0.1424626857 0.5791015625 4286940808
-0.2635900080 -0.1418497711 0.5792261958 4287401359
-0.2636464834 -0.1412364841 0.5793502927 4289243052
-0.2637027800 -0.1406227946 0.5794739723 4291085256
-0.2633542717 -0.1397939622 0.5787081718 4291612113
-0.2630054057 -0.1389666349 0.5779415369 4291480527
-0.2626561224 -0.1381408125 0.5771740675 4292336606
-0.2614968717 -0.1368926615 0.5746266246 4291612883
-0.2607417703 -0.1358607709 0.5729673505 4291217355
-0.2599861324 -0.1348322630 0.5713068247 4291677906
-0.2596349418 -0.1340162307 0.5705351233 4292533215
-0.2592833936 -0.1332017183 0.5697625875 4292599008
-0.2585262358 -0.1321815550 0.5680987835 4292533215
-0.2585791051 -0.1315772533 0.5682150126 4291414734
-0.2586317658 -0.1309725940 0.5683307052 4289901495
-0.2586842179 -0.1303675771 0.5684459209 4290362046
-0.2591419816 -0.1299655586 0.5694518089 4291216842
-0.2591940463 -0.1293588579 0.5695662498 4292664288
-0.2592459023 -0.1287517697 0.5696802139 4292664288
-0.2592975199 -0.1281443387 0.5697936416 4292072151
-0.2593489289 -0.1275365353 0.5699066520 4292401116
-0.2594001293 -0.1269283742 0.5700190663 4292532702
-0.2594510615 -0.1263198406 0.5701310635 4292598495
-0.2590956986 -0.1255142391 0.5693501234 4293190632
-0.2591461241 -0.1249059513 0.5694609880 4293191143
-0.2587900758 -0.1241024882 0.5686785579 4294046452
-0.2588843405 -0.1542315483 0.5702775717 4293521654
-0.2589450777 -0.1536339521 0.5704113245 4293258482
-0.2590055764 -0.1530359387 0.5705446005 4292994796
-0.2590658665 -0.1524374932 0.5706773996 4292665831
-0.2595276833 -0.1520740390 0.5716947317 4292270819
-0.2595876455 -0.1514738500 0.5718268156 4291876061
-0.2600493431 -0.1511067748 0.5728438497 4291349717
-0.2601089776 -0.1505048126 0.5729752183 4290889166
-0.2605705261 -0.1501341313 0.5739919543 4290625483
-0.2606298327 -0.1495304108 0.5741226077 4290164932
-0.2606889307 -0.1489262879 0.5742527843 4289375416
-0.2607478201 -0.1483217478 0.5743824840 4288717486
-0.2612089813 -0.1479447484 0.5753983259 4288322728
-0.2612675130 -0.1473384649 0.5755273104 4287927970
-0.2613258660 -0.1467317641 0.5756558180 4288387231
-0.2613839805 -0.1461246610 0.5757837892 4288124059
-0.2614418864 -0.1455171555 0.5759113431 4287926680
-0.2614995539 -0.1449092329 0.5760384202 4287860887
-0.2615570426 -0.1443009228 0.5761650205 4287992728
-0.2616142929 -0.1436922103 0.5762911439 4287926935
-0.2616713345 -0.1430830956 0.5764167905 4287663763
-0.2621314228 -0.1426931173 0.5774303079 4287597970
-0.2621881068 -0.1420822740 0.5775551796 4287729556
-0.2622445822 -0.1414710283 0.5776795745 4287400591
-0.2623008490 -0.1408593953 0.5778034925 4287466382
-0.2623568773 -0.1402473599 0.5779269338 4289440172
-0.2624126971 -0.1396349519 0.5780498981 4291216583
-0.2624682784 -0.1390221417 0.5781723261 4291677134
-0.2617158890 -0.1379830688 0.5765149593 4292269271
-0.2613668740 -0.1371593773 0.5757461786 4292729822
-0.2602094114 -0.1359150857 0.5731964111 4292270043
-0.2598594725 -0.1350962967 0.5724256039 4292467422
-0.2595091462 -0.1342790276 0.5716539025 4292664288
-0.2591584325 -0.1334632635 0.5708813071 4292664288
-0.2584029436 -0.1324417591 0.5692170858 4292664288
-0.2580513656 -0.1316299736 0.5684426427 4292137944
-0.2581039667 -0.1310250908 0.5685585141 4291217355
-0.2581563294 -0.1304198503 0.5686738491 4291151562
-0.2586131990 -0.1300176978 0.5696802735 4291217355
-0.2586652040 -0.1294107586 0.5697948337 4292072664
-0.2587170005 -0.1288034618 0.5699089170 4292993253
-0.2583636045 -0.1279951781 0.5691304803 4293124839
-0.2584148645 -0.1273881048 0.5692433715 4292993253
-0.2584659159 -0.1267806739 0.5693557858 4292993253
-0.2585167289 -0.1261728704 0.5694677234 4293125352
-0.2581620216 -0.1253679097 0.5686864257 4293322731
-0.2582123280 -0.1247603595 0.5687971711 4293783280
-0.2582623661 -0.1241524518 0.5689074993 4294375417
-0.2580126822 -0.1534562111 0.5697513819 4293390068
-0.2580730021 -0.1528589129 0.5698845983 4293061103
-0.2581331432 -0.1522611976 0.5700173974 4292732138
-0.2581930459 -0.1516630501 0.5701496601 4292533991
-0.2586537600 -0.1512990743 0.5711670518 4292270819
-0.2587133646 -0.1506991833 0.5712986588 4291876061
-0.2587727308 -0.1500988752 0.5714297891 4291349717
-0.2592332065 -0.1497299224 0.5724465847 4290954961
-0.2592922449 -0.1491278559 0.5725769997 4290494410
-0.2597525716 -0.1487552971 0.5735934377 4289967553
-0.2598112822 -0.1481514871 0.5737231374 4289375416
-0.2598697841 -0.1475472450 0.5738523602 4288849072
-0.2599280775 -0.1469426155 0.5739810467 4288388521
-0.2599861622 -0.1463375688 0.5741093159 4288453537
-0.2600440383 -0.1457321197 0.5742371082 4288190365
-0.2601017058 -0.1451262683 0.5743644238 4287926680
-0.2601591349 -0.1445200294 0.5744912624 4287926680
-0.2602163553 -0.1439133734 0.5746176243 4288058266
-0.2606756389 -0.1435278058 0.5756317973 4287992473
-0.2607325017 -0.1429194212 0.5757573843 4287795606
-0.2607891858 -0.1423106343 0.5758825541 4287729813
-0.2608456314 -0.1417014450 0.5760071874 4287861399
-0.2613044679 -0.1413096040 0.5770204067 4287927192
-0.2613605559 -0.1406986862 0.5771442652 4287532177
-0.2614164352 -0.1400873810 0.5772677064 4287663763
-0.2614721060 -0.1394756883 0.5773905516 4289900723
-0.2611245513 -0.1386496276 0.5766231418 4291677134
-0.2611796856 -0.1380380988 0.5767448545 4291677647
-0.2604283094 -0.1370020211 0.5750856996 4292203991
-0.2596763968 -0.1359693408 0.5734252334 4292401630
-0.2593272030 -0.1351502538 0.5726541877 4292730595
-0.2589776516 -0.1343326718 0.5718822479 4292861668
-0.2590311766 -0.1337248981 0.5720004439 4292795875
-0.2586809099 -0.1329094023 0.5712270141 4293059046
-0.2583302557 -0.1320954263 0.5704526901 4293059046
-0.2579792440 -0.1312829852 0.5696775317 4292467422
-0.2580316365 -0.1306765527 0.5697932243 4292270043
-0.2580837905 -0.1300697774 0.5699084401 4291677906
-0.2581357360 -0.1294626147 0.5700231194 4292138457
-0.2581874728 -0.1288550943 0.5701373219 4292861667
-0.2578348219 -0.1280464977 0.5693586469 4293256425
-0.2578860223 -0.1274392009 0.5694717169 4293256425
-0.2579370141 -0.1268315464 0.5695843101 4293322218
-0.2575833797 -0.1260256916 0.5688034296 4293651696
-0.2576338351 -0.1254182607 0.5689148307 4294112247
-0.2576840520 -0.1248104870 0.5690256953 4294309624
-0.2563416660 -0.1522067189 0.5674531460 4293324275
-0.2568014264 -0.1518481076 0.5684708953 4293061103
-0.2568610907 -0.1512516141 0.5686029792 4292797933
-0.2569205165 -0.1506547183 0.5687345862 4292600554
-0.2573800385 -0.1502911448 0.5697517991 4292336612
-0.2570388019 -0.1494596750 0.5689963698 4291876061
-0.2574980855 -0.1490934044 0.5700130463 4291415512
-0.2579573393 -0.1487248689 0.5710297227 4290954961
-0.2580159307 -0.1481240541 0.5711593628 4290428617
-0.2584750354 -0.1477518827 0.5721756816 4289968066
-0.2585332990 -0.1471493244 0.5723046660 4289441722
-0.2585913241 -0.1465463340 0.5724331141 4288849585
-0.2586491704 -0.1459429562 0.5725611448 4288848554
-0.2587067783 -0.1453391612 0.5726886988 4288388003
-0.2587641776 -0.1447349787 0.5728157759 4288058781
-0.2588213682 -0.1441303790 0.5729423761 4287992988
-0.2588783205 -0.1435253918 0.5730684996 4288190365
-0.2589350939 -0.1429199874 0.5731940866 4288124572
-0.2593931854 -0.1425348520 0.5742081404 4287992986
-0.2594496012 -0.1419277191 0.5743330121 4287927193
-0.2595057786 -0.1413201988 0.5744574666 4287992986
-0.2599635720 -0.1409301013 0.5754708052 4288058779
-0.2600194216 -0.1403208524 0.5755944252 4287926935
-0.2600750625 -0.1397112161 0.5757175684 4287466384
-0.2601304650 -0.1391011924 0.5758402348 4288058521
-0.2601856589 -0.1384907663 0.5759624243 4290032311
-0.2598384023 -0.1376668513 0.5751937628 4291545807
-0.2594907582 -0.1368444413 0.5744242072 4291677393
-0.2591427267 -0.1360235363 0.5736537576 4292006872
-0.2587943077 -0.1352041364 0.5728824735 4292664802
-0.2584455013 -0.1343862414 0.5721103549 4292993254
-0.2584989667 -0.1337782592 0.5722286701 4293124840
-0.2577467561 -0.1327550262 0.5705634952 4293453805
-0.2573967874 -0.1319417059 0.5697888136 4293716977
-0.2574493289 -0.1313354224 0.5699051023 4293454318
-0.2575016320 -0.1307287812 0.5700209737 4292993767
-0.2575537562 -0.1301217824 0.5701363087 4292664802
-0.2576056421 -0.1295143962 0.5702511668 4292599009
-0.2576572895 -0.1289066523 0.5703654885 4292927460
-0.2569021285 -0.1278969795 0.5686938167 4293124839
-0.2569531798 -0.1272904128 0.5688068271 4293322218
-0.2570040226 -0.1266834885 0.5689193606 4293651183
-0.2570546269 -0.1260761917 0.5690313578 4294243833
-0.2555317879 -0.1508397311 0.5670545697 4293061105
-0.2555909753 -0.1502444893 0.5671858788 4292929519
-0.2556499541 -0.1496488303 0.5673167706 4292534761
-0.2561082840 -0.1492856443 0.5683338046 4292140003
-0.2561669350 -0.1486882269 0.5684639812 4291810270
-0.2566251159 -0.1483214349 0.5694807172 4291415512
-0.2566834390 -0.1477222741 0.5696101785 4290889168
-0.2571414709 -0.1473518610 0.5706265569 4290494410
-0.2571994662 -0.1467509419 0.5707553029 4289968066
-0.2572572529 -0.1461496204 0.5708835125 4289441722
-0.2573148310 -0.1455478966 0.5710113049 4289374898
-0.2573721707 -0.1449457705 0.5711385608 4288848554
-0.2574293315 -0.1443432420 0.5712653995 4288388003
-0.2574862838 -0.1437403113 0.5713917613 4288256417
-0.2575429976 -0.1431369781 0.5715176463 4288387744
-0.2575995028 -0.1425332576 0.5716430545 4288256158
-0.2580565214 -0.1421498507 0.5726571679 4288124572
-0.2581126690 -0.1415443867 0.5727818608 4288124572
-0.2581686378 -0.1409385353 0.5729060173 4287992986
-0.2582243681 -0.1403322816 0.5730296969 4288256158
-0.2586809397 -0.1399426162 0.5740428567 4288321693
-0.2587363422 -0.1393346339 0.5741658211 4288190107
-0.2587915063 -0.1387262791 0.5742882490 4287992728
-0.2588464618 -0.1381175220 0.5744102001 4288650658
-0.2589012086 -0.1375083774 0.5745316744 4290361276
-0.2585542202 -0.1366866082 0.5737617016 4291479757
-0.2582068741 -0.1358663440 0.5729908943 4291677907
-0.2582607865 -0.1352579445 0.5731105208 4292533216
-0.2579127550 -0.1344397515 0.5723381639 4292862181
-0.2575643063 -0.1336230934 0.5715649724 4292927974
-0.2572154999 -0.1328079402 0.5707908869 4293191146
-0.2568663061 -0.1319943070 0.5700159669 4293454318
-0.2569187880 -0.1313878149 0.5701324344 4293585904
-0.2565688789 -0.1305762827 0.5693559647 4293388525
-0.2566208541 -0.1299699992 0.5694712996 4293191146
-0.2566725910 -0.1293633580 0.5695860982 4293191146
-0.2567240894 -0.1287563443 0.5697004199 4293125352
-0.2563729286 -0.1279480904 0.5689210892 4293059559
-0.2560213506 -0.1271414012 0.5681409240 4293454317
-0.2560720444 -0.1265352070 0.5682533979 4294178040
-0.2543228269 -0.1492398083 0.5657661557 4292929519
-0.2543813586 -0.1486453861 0.5658963323 4292600554
-0.2548384666 -0.1482826173 0.5669132471 4292336614
-0.2548966408 -0.1476864517 0.5670427084 4291876063
-0.2553536296 -0.1473200619 0.5680592656 4291349719
-0.2554114759 -0.1467221528 0.5681880116 4290889168
-0.2558683157 -0.1463521421 0.5692042112 4290428617
-0.2559258342 -0.1457524896 0.5693322420 4289902273
-0.2559831738 -0.1451524198 0.5694597363 4289835449
-0.2560402751 -0.1445519477 0.5695868134 4289309105
-0.2560971677 -0.1439510882 0.5697133541 4288848554
-0.2561538517 -0.1433498114 0.5698394775 4288651175
-0.2562103271 -0.1427481472 0.5699651241 4288585123
-0.2562665939 -0.1421460807 0.5700902939 4288387744
-0.2563226521 -0.1415436268 0.5702149868 4288321951
-0.2567784488 -0.1411606520 0.5712289214 4288321951
-0.2568341494 -0.1405564547 0.5713528395 4288321951
-0.2568896413 -0.1399518698 0.5714763403 4288321951
-0.2573451698 -0.1395639479 0.5724896193 4288387743
-0.2574003041 -0.1389576495 0.5726122856 4288058778
-0.2574552298 -0.1383509487 0.5727345347 4288453279
-0.2575099468 -0.1377438754 0.5728562474 4288453279
-0.2575644553 -0.1371363997 0.5729774833 4288387486
-0.2576187253 -0.1365285516 0.5730981827 4289966518
-0.2576727867 -0.1359203160 0.5732184649 4290888391
-0.2573257983 -0.1351012588 0.5724465847 4291743700
-0.2569784522 -0.1342837065 0.5716738105 4292073179
-0.2570316792 -0.1336762309 0.5717922449 4292336351
-0.2566836178 -0.1328607649 0.5710179806 4292533730
-0.2563351989 -0.1320468336 0.5702428222 4292599523
-0.2559863627 -0.1312344223 0.5694668889 4292927974
-0.2560384870 -0.1306283027 0.5695827603 4293059560
-0.2560903728 -0.1300217956 0.5696982145 4292730594
-0.2557405531 -0.1292120814 0.5689200163 4292862180
-0.2557919323 -0.1286057979 0.5690342784 4292797157
-0.2558430731 -0.1279991418 0.5691480637 4293126122
-0.2554922700 -0.1271921396 0.5683677197 4293849845
-0.2530566454 -0.1482375860 0.5643438101 4292929519
-0.2535126805 -0.1478765607 0.5653607845 4292665579
-0.2535706162 -0.1472820491 0.5654900074 4292270821
-0.2540265024 -0.1469174176 0.5665066838 4291744477
-0.2540841103 -0.1463211626 0.5666351318 4291283926
-0.2545398474 -0.1459529102 0.5676515102 4290889168
-0.2545971274 -0.1453549117 0.5677792430 4290362824
-0.2546541989 -0.1447565109 0.5679064989 4290361536
-0.2547110617 -0.1441577077 0.5680332780 4289900985
-0.2547677159 -0.1435585022 0.5681596398 4289374898
-0.2548241317 -0.1429588944 0.5682855248 4289111726
-0.2548803687 -0.1423588991 0.5684108734 4288848808
-0.2549363971 -0.1417585015 0.5685358047 4288585636
-0.2549921870 -0.1411577016 0.5686602592 4288585123
-0.2554469109 -0.1407764852 0.5696743727 4288585123
-0.2555023730 -0.1401739568 0.5697980523 4288519330
-0.2555576265 -0.1395710409 0.5699212551 4288519330
-0.2556126714 -0.1389677376 0.5700439811 4288585122
-0.2560669482 -0.1385802478 0.5710571408 4288387743
-0.2561216354 -0.1379752159 0.5711790919 4288453536
-0.2561761141 -0.1373698115 0.5713005662 4288585122
-0.2562303841 -0.1367640197 0.5714215636 4288584865
-0.2562844157 -0.1361578405 0.5715420842 4288782244
-0.2563382387 -0.1355512738 0.5716621280 4288849322
-0.2563918531 -0.1349443197 0.5717816353 4289902010
-0.2564452291 -0.1343370080 0.5719007254 4290954698
-0.2560982406 -0.1335206777 0.5711268783 4291875800
-0.2561511099 -0.1329135448 0.5712447762 4292402144
-0.2558034360 -0.1320993006 0.5704694390 4292402144
-0.2554553747 -0.1312865913 0.5696932077 4292402399
-0.2551069558 -0.1304754168 0.5689162016 4292599778
-0.2551586926 -0.1298696399 0.5690315366 4292731364
-0.2552101910 -0.1292635053 0.5691464543 4292599778
-0.2548607886 -0.1284550279 0.5683671832 4292862950
-0.2549117804 -0.1278491169 0.5684809685 4293652466
-0.2545616627 -0.1270427555 0.5677001476 4294441982
-0.2517346740 -0.1478293389 0.5627896190 4293192691
-0.2521896064 -0.1474700570 0.5638067126 4292863728
-0.2526445091 -0.1471085250 0.5648237467 4292534763
-0.2527020872 -0.1465143263 0.5649523735 4292205028
-0.2527594268 -0.1459197402 0.5650806427 4291810270
-0.2532140911 -0.1455532461 0.5660970807 4291415512
-0.2532711029 -0.1449569017 0.5662245750 4290954961
-0.2533279359 -0.1443601698 0.5663515925 4290953673
-0.2533845305 -0.1437630206 0.5664781332 4290558915
-0.2534409165 -0.1431654841 0.5666041970 4290032828
-0.2534971237 -0.1425675452 0.5667298436 4289572277
-0.2535530925 -0.1419692189 0.5668549538 4289177519
-0.2536088526 -0.1413704902 0.5669796467 4288848554
-0.2536644340 -0.1407713592 0.5671038628 4288782504
-0.2537197769 -0.1401718408 0.5672276020 4288782504
-0.2537748814 -0.1395719349 0.5673508644 4288453537
-0.2542282939 -0.1391897947 0.5683645010 4289045674
-0.2542830706 -0.1385881752 0.5684869885 4288848808
-0.2547363043 -0.1382024288 0.5695002079 4288980394
-0.2547907531 -0.1375990808 0.5696219206 4288980393
-0.2548449934 -0.1369953454 0.5697432160 4288980393
-0.2548989952 -0.1363912225 0.5698639750 4289637810
-0.2549528182 -0.1357867122 0.5699842572 4289440431
-0.2550064027 -0.1351818293 0.5701040626 4289112494
-0.2550597489 -0.1345765591 0.5702233315 4289375666
-0.2551129162 -0.1339709163 0.5703421831 4289704631
-0.2551658452 -0.1333648860 0.5704604983 4290033596
-0.2552185655 -0.1327584833 0.5705783367 4290494147
-0.2548715770 -0.1319448948 0.5698026419 4290823112
-0.2549237609 -0.1313387007 0.5699192882 4291152077
-0.2545760870 -0.1305272132 0.5691420436 4291612628
-0.2546277642 -0.1299212277 0.5692575574 4291612628
-0.2542794049 -0.1291118562 0.5684787631 4291612628
-0.2539306879 -0.1283040345 0.5676991343 4292204765
-0.2539815307 -0.1276988536 0.5678128004 4293257453
-0.2540321648 -0.1270933002 0.5679259896 4294178810
-0.2508116066 -0.1476539075 0.5621217489 4293390583
-0.2508692145 -0.1470631212 0.5622509122 4293258486
-0.2513230443 -0.1467033327 0.5632680058 4292995314
-0.2513803542 -0.1461108178 0.5633964539 4292534763
-0.2514374554 -0.1455178857 0.5635244250 4292140005
-0.2514943480 -0.1449245512 0.5636519194 4291876833
-0.2519477904 -0.1445584595 0.5646681786 4291482075
-0.2520043552 -0.1439633965 0.5647949576 4291480276
-0.2520607114 -0.1433679163 0.5649212599 4291019725
-0.2521168590 -0.1427720487 0.5650470853 4290493381
-0.2521727979 -0.1421757787 0.5651724935 4289967037
-0.2522285283 -0.1415791065 0.5652973652 4289374898
-0.2522840500 -0.1409820467 0.5654218197 4288980140
-0.2523393631 -0.1403845996 0.5655457377 4288848554
-0.2523944676 -0.1397867501 0.5656692386 4288848554
-0.2524493337 -0.1391885132 0.5657922626 4288848554
-0.2525040209 -0.1385898888 0.5659148097 4288716968
-0.2529562116 -0.1382081807 0.5669282675 4288914601
-0.2534083724 -0.1378241926 0.5679416060 4289046187
-0.2534625530 -0.1372225285 0.5680631399 4289046187
-0.2535165548 -0.1366204619 0.5681841373 4289111980
-0.2535703480 -0.1360180080 0.5683046579 4289309359
-0.2536239028 -0.1354151815 0.5684247017 4289572531
-0.2536772490 -0.1348119825 0.5685442686 4289441459
-0.2537303865 -0.1342083812 0.5686633587 4289375666
-0.2537832856 -0.1336044222 0.5687819719 4289573558
-0.2538360059 -0.1330000758 0.5689000487 4289705144
-0.2538884878 -0.1323953569 0.5690176487 4290099902
-0.2539407313 -0.1317902505 0.5691348314 4290626246
-0.2539927959 -0.1311847866 0.5692514777 4291020491
-0.2540446222 -0.1305789500 0.5693675876 4291349456
-0.2540962100 -0.1299727410 0.5694832802 4291678421
-0.2533496618 -0.1289599836 0.5678100586 4292007386
-0.2534006536 -0.1283549517 0.5679243803 4292665829
-0.2530523241 -0.1275483668 0.5671436787 4293455345
-0.2535020113 -0.1271437705 0.5681515336 4294179068
-0.2495515496 -0.1466557533 0.5606934428 4293324277
-0.2500042915 -0.1462977082 0.5617106557 4293061105
-0.2500613332 -0.1457068473 0.5618388057 4292797935
-0.2501181662 -0.1451155841 0.5619665384 4292600556
-0.2501748204 -0.1445239186 0.5620937347 4292337382
-0.2506271899 -0.1441596001 0.5631101131 4292074210
-0.2506834865 -0.1435661912 0.5632366538 4291745247
-0.2507396042 -0.1429723799 0.5633627176 4291482075
-0.2507954836 -0.1423781812 0.5634883046 4291284694
-0.2508511841 -0.1417835802 0.5636134148 4290889936
-0.2509066761 -0.1411885917 0.5637381077 4290560971
-0.2509619296 -0.1405932009 0.5638622642 4290232006
-0.2510170043 -0.1399974078 0.5639860034 4290033859
-0.2510718405 -0.1394012421 0.5641092062 4290033859
-0.2511264980 -0.1388046741 0.5642319918 4290033857
-0.2511809170 -0.1382077187 0.5643543005 4289902271
-0.2516320348 -0.1378277838 0.5653678775 4289902525
-0.2516861260 -0.1372291148 0.5654894114 4289968318
-0.2521370947 -0.1368455589 0.5665025711 4289902012
-0.2521908283 -0.1362451762 0.5666233897 4290099391
-0.2522443831 -0.1356444061 0.5667436719 4290494151
-0.2522976995 -0.1350432485 0.5668634772 4290625737
-0.2523508072 -0.1344417185 0.5669828057 4290626248
-0.2524037063 -0.1338398159 0.5671016574 4290757834
-0.2524563968 -0.1332375258 0.5672200322 4290889934
-0.2525088489 -0.1326348633 0.5673378706 4291153106
-0.2525610924 -0.1320318282 0.5674552917 4291482325
-0.2526131272 -0.1314284056 0.5675721765 4291877083
-0.2526649535 -0.1308246255 0.5676885843 4292468450
-0.2527165413 -0.1302204728 0.5678045154 4292731622
-0.2531659901 -0.1298200637 0.5688143373 4292994794
-0.2532172203 -0.1292142123 0.5689294338 4293126380
-0.2528700233 -0.1284057945 0.5681493878 4293389551
-0.2529207468 -0.1278001666 0.5682633519 4293784309
-0.2525728643 -0.1269938797 0.5674816966 4294113274
-0.2526230812 -0.1263884753 0.5675945282 4294376446
-0.2482935041 -0.1456600875 0.5592624545 4293390070
-0.2483502030 -0.1450718194 0.5593901277 4293192691
-0.2484066933 -0.1444831640 0.5595173836 4292995312
-0.2488580048 -0.1441228688 0.5605339408 4292797933
-0.2489141822 -0.1435324699 0.5606604815 4292600554
-0.2489701509 -0.1429416686 0.5607865453 4292534508
-0.2490259111 -0.1423504651 0.5609121323 4292337129
-0.2490814775 -0.1417588741 0.5610373020 4292205798
-0.2491368353 -0.1411668807 0.5611619949 4292074212
-0.2491919696 -0.1405745000 0.5612861514 4292074212
-0.2496425360 -0.1402039230 0.5623010397 4292140005
-0.2496973574 -0.1396098137 0.5624245405 4292139235
-0.2497519553 -0.1390153170 0.5625475049 4292139235
-0.2498063594 -0.1384204179 0.5626700521 4292073442
-0.2502565086 -0.1380435675 0.5636839867 4292073442
-0.2503105998 -0.1374469697 0.5638057590 4292073440
-0.2503644526 -0.1368499696 0.5639270544 4292139233
-0.2508143187 -0.1364681870 0.5649403930 4292139233
-0.2508678138 -0.1358694732 0.5650609136 4292270819
-0.2505247295 -0.1350566894 0.5642880797 4292468200
-0.2505777180 -0.1344581693 0.5644074678 4292665579
-0.2506305277 -0.1338592619 0.5645263791 4292797933
-0.2514764071 -0.1336816996 0.5664316416 4292732140
-0.2515289187 -0.1330801398 0.5665499568 4292732138
-0.2515812218 -0.1324782073 0.5666677952 4292797931
-0.2516333461 -0.1318759024 0.5667851567 4292929517
-0.2516852021 -0.1312732249 0.5669020414 4293126896
-0.2517368793 -0.1306701750 0.5670183897 4293323759
-0.2517883182 -0.1300667524 0.5671342611 4293389552
-0.2518395483 -0.1294629574 0.5672496557 4293455345
-0.2518905699 -0.1288588047 0.5673645735 4293455345
-0.2519413531 -0.1282542795 0.5674789548 4293521137
-0.2515944839 -0.1274480522 0.5666976571 4293652723
-0.2516447604 -0.1268437505 0.5668109059 4293915895
-0.2516948283 -0.1262390912 0.5669236183 4294179067
-0.2470374554 -0.1446669102 0.5578287840 4293521656
-0.2470936924 -0.1440799087 0.5579558015 4293324277
-0.2475439161 -0.1437213719 0.5589724183 4293126896
-0.2475998402 -0.1431326419 0.5590987206 4292929517
-0.2476555556 -0.1425435096 0.5592245460 4292994544
-0.2477110773 -0.1419539899 0.5593498945 4292797165
-0.2477663755 -0.1413640678 0.5594747663 4292599786
-0.2478214800 -0.1407737583 0.5595992208 4292468200
-0.2478763759 -0.1401830465 0.5597231388 4292533993
-0.2483258694 -0.1398142278 0.5607381463 4292665579
-0.2483804375 -0.1392217875 0.5608613491 4292599786
-0.2484347969 -0.1386289746 0.5609840751 4292533993
-0.2484889477 -0.1380357593 0.5611063838 4292599786
-0.2489380389 -0.1376606673 0.5621204376 4292665579
-0.2489918470 -0.1370657384 0.5622419715 4292731372
-0.2490454614 -0.1364704221 0.5623630285 4292731372
-0.2490988672 -0.1358747333 0.5624836087 4292797165
-0.2495475262 -0.1354933679 0.5634967685 4292862958
-0.2492050231 -0.1346821785 0.5627233386 4292994544
-0.2496534437 -0.1342981756 0.5637359023 4293126130
-0.2497060746 -0.1337000132 0.5638547540 4292995314
-0.2497584969 -0.1331014633 0.5639731288 4292929521
-0.2502066195 -0.1327125281 0.5649849772 4292929519
-0.2502586842 -0.1321122795 0.5651025772 4292995312
-0.2503105402 -0.1315116584 0.5652197003 4293192691
-0.2503621876 -0.1309106648 0.5653363466 4293258484
-0.2504136264 -0.1303093135 0.5654524565 4293389554
-0.2504648566 -0.1297075748 0.5655681491 4293389554
-0.2505158484 -0.1291054636 0.5656833053 4293652211
-0.2505666316 -0.1285029948 0.5657979846 4293718004
-0.2506172061 -0.1279001683 0.5659121275 4293784052
-0.2502709329 -0.1270955503 0.5651302338 4293915638
-0.2503209710 -0.1264929473 0.5652432442 4294113015
-0.2457834333 -0.1436762363 0.5563925505 4293455861
-0.2462325543 -0.1433194578 0.5574092269 4293258482
-0.2462882251 -0.1427323967 0.5575352907 4293126896
-0.2463436872 -0.1421449333 0.5576608181 4293191923
-0.2463989556 -0.1415570825 0.5577859282 4293060337
-0.2464540154 -0.1409688443 0.5579105616 4292862956
-0.2465088665 -0.1403802037 0.5580347180 4292665577
-0.2465635091 -0.1397911608 0.5581584573 4292599786
-0.2466179579 -0.1392017454 0.5582817197 4292731372
-0.2470662445 -0.1388333440 0.5592964888 4292665579
-0.2471203506 -0.1382422000 0.5594189763 4292599786
-0.2471742630 -0.1376506686 0.5595410466 4292731372
-0.2476222664 -0.1372773498 0.5605552197 4292797165
-0.2476758510 -0.1366841048 0.5606765151 4292862958
-0.2477292120 -0.1360904574 0.5607973337 4292928751
-0.2477823794 -0.1354964525 0.5609176755 4292928751
-0.2478353232 -0.1349020451 0.5610375404 4292994544
-0.2486775070 -0.1347350031 0.5629439950 4293060337
-0.2483354062 -0.1339250356 0.5621695518 4293126130
-0.2483877987 -0.1333285421 0.5622881651 4292995314
-0.2484399825 -0.1327316910 0.5624063015 4293061107
-0.2488870174 -0.1323445290 0.5634182692 4293126900
-0.2489388734 -0.1317459643 0.5635356903 4293258486
-0.2489904910 -0.1311470270 0.5636525154 4293390070
-0.2490419149 -0.1305477172 0.5637689233 4293455863
-0.2490931153 -0.1299480498 0.5638848543 4293718519
-0.2491441071 -0.1293479949 0.5640002489 4293718519
-0.2491948754 -0.1287475824 0.5641152263 4293849590
-0.2492454350 -0.1281468123 0.5642296672 4294112762
-0.2492957711 -0.1275456697 0.5643436313 4294310396
-0.2489501089 -0.1267426610 0.5635611415 4294376189
-0.2489999384 -0.1261417419 0.5636739135 4294507003
-0.2452607155 -0.1437320560 0.5566087365 4293653494
-0.2453164309 -0.1431461275 0.5567351580 4293455861
-0.2453719378 -0.1425598115 0.5568611026 4293324275
-0.2454272360 -0.1419730932 0.5569866300 4293257716
-0.2454823405 -0.1413859725 0.5571116805 4293126130
-0.2455372363 -0.1407984644 0.5572362542 4292863728
-0.2455919236 -0.1402105540 0.5573604107 4292600556
-0.2460394502 -0.1398456544 0.5583760142 4292534763
-0.2460938245 -0.1392560303 0.5584993958 4292666349
-0.2461479902 -0.1386660039 0.5586223602 4292600556
-0.2462019473 -0.1380755901 0.5587447882 4292600556
-0.2462556958 -0.1374848038 0.5588667393 4292534763
-0.2463092357 -0.1368936151 0.5589882731 4292666349
-0.2463625669 -0.1363020390 0.5591093302 4292797935
-0.2464157045 -0.1357100904 0.5592299104 4292797935
-0.2464686185 -0.1351177543 0.5593500137 4292797935
-0.2469151318 -0.1347399503 0.5603633523 4292863728
-0.2469677180 -0.1341459006 0.5604826808 4292995314
-0.2470200807 -0.1335514784 0.5606015325 4293061107
-0.2470722497 -0.1329566836 0.5607199073 4293192693
-0.2471242100 -0.1323615164 0.5608378053 4293258486
-0.2471759468 -0.1317659616 0.5609552264 4293390070
-0.2472274750 -0.1311700344 0.5610721707 4293521656
-0.2472787946 -0.1305737495 0.5611886382 4293718519
-0.2477243543 -0.1301843822 0.5621998310 4293850105
-0.2477753311 -0.1295863986 0.5623155236 4293981689
-0.2478260845 -0.1289880425 0.5624307394 4294047482
-0.2478766292 -0.1283893138 0.5625454187 4294310396
-0.2479269654 -0.1277902275 0.5626596212 4294441982
-0.2440097034 -0.1427434385 0.5551689863 4293719287
-0.2440649569 -0.1421587914 0.5552946925 4293587701
-0.2441200167 -0.1415737420 0.5554199219 4293587451
-0.2441748530 -0.1409883052 0.5555447340 4293324279
-0.2442295104 -0.1404024661 0.5556690693 4293126900
-0.2442839444 -0.1398162395 0.5557929277 4292929521
-0.2443381846 -0.1392296255 0.5559163094 4292797935
-0.2447845042 -0.1388651580 0.5569317937 4292797935
-0.2448384166 -0.1382768154 0.5570544600 4292666349
-0.2448921353 -0.1376880854 0.5571766496 4292666349
-0.2449456453 -0.1370989680 0.5572984219 4292666349
-0.2449989468 -0.1365094632 0.5574196577 4292797935
-0.2450520396 -0.1359195858 0.5575404763 4292929521
