VERSION 0.7
FIELDS x y z rgba
SIZE 4 4 4 4
TYPE F F F U
COUNT 1 1 1 1
WIDTH 920
HEIGHT 1
VIEWPOINT 0.0 0.0 0.0 1.0 0.0 0.0 0.0
POINTS 920
DATA ascii
-0.2667412162 -0.1359994709 0.5735523105 4291898668
-0.2647345364 -0.1343438923 0.5692375302 4292227633
-0.2627267838 -0.1326973587 0.5649203658 4292097337
-0.2607179582 -0.1310598701 0.5606009960 4292557888
-0.2587080598 -0.1294314563 0.5562793016 4292954438
-0.2571098208 -0.1280176193 0.5528426766 4293414989
-0.2563362420 -0.1270200461 0.5511792898 4293018942
-0.2559749782 -0.1262294948 0.5504025221 4292624184
-0.2560262680 -0.1256431192 0.5505127907 4291642177
-0.2560773492 -0.1250564009 0.5506226420 4292826451
-0.2561281919 -0.1244693398 0.5507320166 4293634477
-0.2561788559 -0.1238819286 0.5508408546 4294956248
-0.2562292516 -0.1232941672 0.5509492755 4294700789
-0.2566928267 -0.1229039654 0.5519460440 4294964475
-0.2571563125 -0.1225115284 0.5529426336 4294965244
-0.2580332458 -0.1223128587 0.5548282862 4294964987
-0.2584967017 -0.1219149828 0.5558247566 4294967039
-0.2593737543 -0.1217089742 0.5577106476 4293716717
-0.2602509260 -0.1214988232 0.5595967174 4292333783
-0.2615419924 -0.1214767247 0.5623728037 4293583850
-0.2689341009 -0.1438861191 0.5796518326 4293123300
-0.2689920962 -0.1432729661 0.5797767639 4291939026
-0.2690498531 -0.1426594108 0.5799012780 4291925405
-0.2691073716 -0.1420454681 0.5800252557 4288898927
-0.2691646814 -0.1414311379 0.5801487565 4290394166
-0.2688107491 -0.1406014115 0.5793858767 4290591545
-0.2684563994 -0.1397731900 0.5786221623 4291439397
-0.2681016624 -0.1389464587 0.5778575540 4291636776
-0.2673352361 -0.1379090399 0.5762056708 4291178794
-0.2665682435 -0.1368750036 0.5745525360 4291310380
-0.2649777830 -0.1354237944 0.5711244941 4291638065
-0.2629748583 -0.1337703913 0.5668074489 4292032823
-0.2609708905 -0.1321260333 0.5624881387 4292229691
-0.2589658201 -0.1304907352 0.5581665039 4292229691
-0.2569597363 -0.1288645118 0.5538426042 4292032564
-0.2557763159 -0.1276585162 0.5512919426 4292295736
-0.2550041378 -0.1266624480 0.5496276021 4292362552
-0.2546434700 -0.1258734912 0.5488502383 4292625724
-0.2542824149 -0.1250860691 0.5480720401 4292954440
-0.2547453940 -0.1247037575 0.5490698814 4291967545
-0.2547960281 -0.1241183653 0.5491790175 4291586412
-0.2548464239 -0.1235326231 0.5492876768 4294945196
-0.2553090751 -0.1231454834 0.5502848625 4294962922
-0.2557716966 -0.1227560937 0.5512819290 4294962922
-0.2562342286 -0.1223644614 0.5522788763 4294571508
-0.2571093738 -0.1221666858 0.5541651845 4294966523
-0.2575718760 -0.1217696145 0.5551620126 4294835711
-0.2588600218 -0.1217586845 0.5579384565 4293783029
-0.2597354650 -0.1215484664 0.5598253608 4292860641
-0.2610240281 -0.1215263754 0.5626026988 4294110708
-0.2675789893 -0.1435046345 0.5781149864 4293641163
-0.2676367164 -0.1428931206 0.5782396793 4290680478
-0.2676942348 -0.1422812343 0.5783639550 4290071120
-0.2677515149 -0.1416689306 0.5784876943 4289478983
-0.2678085864 -0.1410562545 0.5786110163 4291703860
-0.2674552202 -0.1402281076 0.5778475404 4291835446
-0.2675117254 -0.1396155804 0.5779696703 4291967284
-0.2667472959 -0.1385762691 0.5763180852 4292098870
-0.2655718029 -0.1373280883 0.5737783909 4291640636
-0.2648061216 -0.1362964958 0.5721241236 4291772222
-0.2632186115 -0.1348475367 0.5686942339 4292361788
-0.2612194717 -0.1331963092 0.5643749833 4292756546
-0.2588084638 -0.1313456446 0.5591658950 4292494918
-0.2568070889 -0.1297134906 0.5548418760 4292297539
-0.2556266487 -0.1285036057 0.5522914529 4292689467
-0.2544454634 -0.1272990257 0.5497394800 4292689467
-0.2536746860 -0.1263044626 0.5480741858 4292363582
-0.2533146143 -0.1255170852 0.5472962260 4292429375
-0.2529541552 -0.1247312650 0.5465174317 4292491836
-0.2534160912 -0.1243507117 0.5475154519 4293083973
-0.2534664869 -0.1237670034 0.5476244092 4291054677
-0.2539282441 -0.1233829111 0.5486220121 4294475913
-0.2539783120 -0.1227975562 0.5487301350 4293648351
-0.2544398606 -0.1224099323 0.5497273803 4294898418
-0.2553131580 -0.1222171858 0.5516141653 4294639092
-0.2561865449 -0.1220202893 0.5535011292 4294901752
-0.2570600212 -0.1218192503 0.5553883314 4294900989
-0.2579336166 -0.1216140687 0.5572757721 4293848301
-0.2592194080 -0.1215980500 0.5600537658 4293519338
-0.2600932419 -0.1213836074 0.5619417429 4294177268
-0.2661687732 -0.1437321752 0.5764514208 4292530133
-0.2662264705 -0.1431227177 0.5765764117 4291727255
-0.2662839592 -0.1425128579 0.5767009258 4288174433
-0.2663412392 -0.1419026256 0.5768249035 4289671477
-0.2663982809 -0.1412919760 0.5769484639 4289934649
-0.2660458088 -0.1404648572 0.5761851072 4291834417
-0.2661023140 -0.1398543715 0.5763074756 4292031796
-0.2657491267 -0.1390292794 0.5755425692 4292097589
-0.2649859786 -0.1379923970 0.5738897920 4292229175
-0.2642222643 -0.1369588971 0.5722358227 4292230464
-0.2626385391 -0.1355059892 0.5688058734 4292427843
-0.2610538900 -0.1340602338 0.5653739572 4292295995
-0.2590584457 -0.1324121356 0.5610523820 4292427581
-0.2570619285 -0.1307730973 0.5567284226 4292428612
-0.2554744482 -0.1293507665 0.5532903075 4292362819
-0.2542962134 -0.1281422973 0.5507385731 4292491834
-0.2535274923 -0.1271448731 0.5490737557 4292557627
-0.2527582347 -0.1261508763 0.5474077463 4292297278
-0.2523988187 -0.1253641546 0.5466293693 4291968313
-0.2524495423 -0.1247818694 0.5467391610 4292229177
-0.2525000274 -0.1241992339 0.5468485355 4293018693
-0.2525502741 -0.1236162558 0.5469573736 4292766065
-0.2526003420 -0.1230329201 0.5470657945 4294410890
-0.2530609965 -0.1226483509 0.5480633974 4292397516
-0.2535215914 -0.1222615391 0.5490609407 4294963700
-0.2543931007 -0.1220696792 0.5509483814 4294901754
-0.2552646995 -0.1218736768 0.5528360605 4294835961
-0.2561364174 -0.1216735318 0.5547239780 4294638330
-0.2570082247 -0.1214692295 0.5566120744 4293980400
-0.2582913935 -0.1214541793 0.5593911409 4293914609
-0.2643535137 -0.1437337697 0.5739005208 4293774802
-0.2648191452 -0.1433481872 0.5749114156 4290945703
-0.2648766041 -0.1427403837 0.5750361681 4290269273
-0.2649338543 -0.1421321779 0.5751603842 4288953413
-0.2649908662 -0.1415235847 0.5752841830 4291376184
-0.2650476694 -0.1409146041 0.5754075050 4291639356
-0.2646957636 -0.1400890499 0.5746435523 4292294709
-0.2643434703 -0.1392649710 0.5738787055 4292360502
-0.2643994391 -0.1386567056 0.5740002394 4292492347
-0.2636376917 -0.1376213133 0.5723465085 4292623933
-0.2624665797 -0.1363768727 0.5698040724 4292557888
-0.2608857751 -0.1349262297 0.5663722157 4292294716
-0.2588950992 -0.1332722008 0.5620505810 4292164152
-0.2573124468 -0.1318368316 0.5586146712 4292427324
-0.2553197145 -0.1301999837 0.5542885661 4292231234
-0.2541444600 -0.1289876252 0.5517370701 4292231234
-0.2533777952 -0.1279873550 0.5500726700 4292623422
-0.2526105642 -0.1269904971 0.5484070778 4292426043
-0.2518427968 -0.1259970665 0.5467402935 4292099647
-0.2514840662 -0.1252109855 0.5459614992 4292231233
-0.2515346408 -0.1246294379 0.5460712910 4292097591
-0.2515849769 -0.1240475327 0.5461805463 4291768626
-0.2516351044 -0.1234652847 0.5462893844 4291910754
-0.2525048256 -0.1232829541 0.5481775403 4294937746
-0.2525546849 -0.1226981133 0.5482857823 4291672766
-0.2530144155 -0.1223111600 0.5492838025 4294699244
-0.2534740567 -0.1219219640 0.5502817035 4294572537
-0.2543438971 -0.1217268482 0.5521700382 4294901502
-0.2556241155 -0.1217229739 0.5549494028 4294572537
-0.2564942241 -0.1215186119 0.5568383336 4294309365
-0.2573644221 -0.1213100925 0.5587275028 4294375158
-0.2630076110 -0.1433476210 0.5723586679 4293172391
-0.2634721696 -0.1429637671 0.5733696818 4289751155
-0.2635293901 -0.1423576176 0.5734941959 4290392377
-0.2635863721 -0.1417510808 0.5736182332 4290918721
-0.2636431456 -0.1411441416 0.5737417936 4292229175
-0.2636997104 -0.1405368149 0.5738648772 4292492347
-0.2633483708 -0.1397128254 0.5731003284 4292295995
-0.2629966736 -0.1388903260 0.5723348856 4292559167
-0.2626445591 -0.1380693167 0.5715686083 4293019461
-0.2618841231 -0.1370363683 0.5699138045 4293348426
-0.2611231506 -0.1360067874 0.5682577491 4293610569
-0.2591373324 -0.1343458891 0.5639361739 4293281604
-0.2575586140 -0.1329046786 0.5605005622 4293083454
-0.2559790015 -0.1314706355 0.5570630431 4292886075
-0.2543984950 -0.1300437748 0.5536235571 4292493635
-0.2528171241 -0.1286241114 0.5501821041 4292625221
-0.2528688908 -0.1280390322 0.5502947569 4292689728
-0.2516946495 -0.1268358827 0.5477393866 4292426556
-0.2509284019 -0.1258430183 0.5460718274 4292230463
-0.2505703568 -0.1250575930 0.5452926755 4292098877
-0.2506207526 -0.1244767755 0.5454024076 4291900980
-0.2510798872 -0.1240977198 0.5464015603 4291440429
-0.2511299551 -0.1235152557 0.5465105176 4292174180
-0.2515889108 -0.1231326535 0.5475092530 4294940056
-0.2520477772 -0.1227478161 0.5485078692 4291802812
-0.2525066137 -0.1223607212 0.5495063663 4294895083
-0.2529653907 -0.1219713837 0.5505047441 4294506744
-0.2538335025 -0.1217762157 0.5523939729 4294835709
-0.2547017336 -0.1215768978 0.5542833805 4294506744
-0.2555700541 -0.1213734224 0.5561730266 4294506744
-0.2616070211 -0.1435638070 0.5706900954 4291273386
-0.2620706260 -0.1431830227 0.5717014670 4290991456
-0.2625342309 -0.1427999884 0.5727127790 4289412424
-0.2625912726 -0.1421945542 0.5728372335 4290848300
-0.2626481056 -0.1415887326 0.5729612708 4290453542
-0.2627047300 -0.1409825087 0.5730847716 4290321948
-0.2627611458 -0.1403759122 0.5732077956 4290585120
-0.2624104917 -0.1395525485 0.5724428296 4290585892
-0.2620594203 -0.1387306899 0.5716770291 4290849064
-0.2617079914 -0.1379103214 0.5709103942 4291636009
-0.2601348758 -0.1364508271 0.5674786568 4292293939
-0.2593752146 -0.1354236901 0.5658214688 4293543231
-0.2582077086 -0.1341882795 0.5632746220 4294201161
-0.2558174431 -0.1323260367 0.5580602884 4294595405
-0.2550556660 -0.1313138008 0.5563985109 4294332233
-0.2538858354 -0.1300961524 0.5538465381 4293019461
-0.2519000769 -0.1284680516 0.5495145917 4292295738
-0.2515439987 -0.1276767850 0.5487378836 4292032566
-0.2511875629 -0.1268870384 0.5479602814 4292229945
-0.2504228950 -0.1258937865 0.5462921858 4292361790
-0.2504735291 -0.1253121644 0.5464026332 4292164411
-0.2505239844 -0.1247301772 0.5465126634 4291440429
-0.2505742013 -0.1241478473 0.5466222763 4292361531
-0.2506242096 -0.1235651672 0.5467313528 4294608778
-0.2510822713 -0.1231824309 0.5477305651 4294938514
-0.2515402734 -0.1227974519 0.5487297177 4292196287
-0.2519982159 -0.1224102303 0.5497286916 4294828007
-0.2520475984 -0.1218233109 0.5498363972 4294441210
-0.2529139221 -0.1216290295 0.5517263412 4294638589
-0.2537803650 -0.1214305982 0.5536164045 4294440951
-0.2546468973 -0.1212280169 0.5555067062 4294638330
-0.2606146932 -0.1439998001 0.5699061751 4291594642
-0.2606720626 -0.1433981508 0.5700316429 4288041820
-0.2611346841 -0.1430181861 0.5710433125 4288748065
-0.2615973055 -0.1426359564 0.5720549226 4288813858
-0.2616541982 -0.1420312375 0.5721793771 4289860116
-0.2617108822 -0.1414261460 0.5723032951 4288873221
-0.2617673278 -0.1408206373 0.5724267960 4288808968
-0.2614176571 -0.1399973780 0.5716620684 4289006347
-0.2610675693 -0.1391755939 0.5708965659 4289465871
-0.2607170939 -0.1383552998 0.5701301694 4289729043
-0.2599600554 -0.1373219341 0.5684746504 4290383888
-0.2592024505 -0.1362919658 0.5668179393 4290647060
-0.2576315701 -0.1348400116 0.5633827448 4291698458
-0.2564662099 -0.1336069703 0.5608344078 4292356388
-0.2548936307 -0.1321684122 0.5573955178 4293542202
-0.2537267506 -0.1309468895 0.5548437834 4294594890
-0.2525591552 -0.1297306567 0.5522905588 4293873740
-0.2517976165 -0.1287277043 0.5506252050 4292821052
-0.2506286800 -0.1275211573 0.5480690002 4292360501
-0.2502728999 -0.1267320514 0.5472910404 4292492087
-0.2499167621 -0.1259444952 0.5465121865 4292493117
-0.2495602369 -0.1251584888 0.5457325578 4292558910
-0.2496105283 -0.1245772317 0.5458425283 4290915625
-0.2500678897 -0.1241979152 0.5468426943 4293481552
-0.2501178384 -0.1236150190 0.5469518900 4294611090
-0.2505750060 -0.1232321486 0.5479516387 4294676883
-0.2506245971 -0.1226476058 0.5480601192 4292327616
-0.2510815859 -0.1222611964 0.5490593910 4294696164
-0.2515385151 -0.1218725368 0.5500586033 4294375417
-0.2524031401 -0.1216781959 0.5519493222 4294638589
-0.2532678545 -0.1214797050 0.5538402796 4294440951
-0.2600278556 -0.1446586847 0.5700073242 4290614167
-0.2596808970 -0.1438331753 0.5692467690 4289348423
-0.2597380877 -0.1432322562 0.5693721771 4287769391
-0.2597950697 -0.1426309347 0.5694971085 4289138193
-0.2602566183 -0.1422504485 0.5705088377 4289138193
-0.2603132725 -0.1416473985 0.5706329942 4289202184
-0.2603697181 -0.1410439461 0.5707567334 4289004805
-0.2600209117 -0.1402217001 0.5699921250 4289465871
-0.2592666149 -0.1391834617 0.5683386326 4289465871
-0.2601325214 -0.1390147358 0.5702367425 4289727760
-0.2593774498 -0.1379794925 0.5685815811 4289793553
-0.2586218119 -0.1369476318 0.5669251084 4290187022
-0.2574601471 -0.1357054412 0.5643786788 4290252815
-0.2562977672 -0.1344685256 0.5618306398 4290646031
-0.2551346719 -0.1332368851 0.5592809916 4290909203
-0.2535651326 -0.1317996681 0.5558404326 4290977304
-0.2528063059 -0.1307895035 0.5541769266 4292293164
-0.2516410053 -0.1295737475 0.5516225696 4293544003
-0.2504750192 -0.1283633113 0.5490666032 4293938761
-0.2501204014 -0.1275723875 0.5482892394 4293477951
-0.2493592799 -0.1265768409 0.5466207266 4293148986
-0.2490038127 -0.1257899404 0.5458415151 4292689467
-0.2490542680 -0.1252088398 0.5459521413 4292228916
-0.2491044998 -0.1246273741 0.5460622311 4291772735
-0.2491545081 -0.1240455583 0.5461719036 4294931056
-0.2496108562 -0.1236648113 0.5471722484 4293627278
-0.2500671446 -0.1232818067 0.5481724143 4294416794
-0.2505233586 -0.1228965521 0.5491725206 4292459977
-0.2509795427 -0.1225090548 0.5501725078 4294894318
-0.2514356673 -0.1221193075 0.5511723757 4294507005
-0.2518917024 -0.1217273027 0.5521721244 4294638591
-0.2527547181 -0.1215287521 0.5540639162 4294572537
-0.2586333752 -0.1448655277 0.5683342218 4292643729
-0.2586908340 -0.1442661136 0.5684605241 4287643461
-0.2587481141 -0.1436663121 0.5685863495 4288091415
-0.2584013939 -0.1428429186 0.5678244829 4289407275
-0.2588619888 -0.1424655020 0.5688365698 4289925137
-0.2589186132 -0.1418645084 0.5689610243 4289464586
-0.2589749992 -0.1412631273 0.5690849423 4289201414
-0.2590312064 -0.1406613439 0.5692084432 4288938242
-0.2586829662 -0.1398406625 0.5684432387 4289201932
-0.2583343685 -0.1390214860 0.5676771998 4289399311
-0.2579853833 -0.1382037997 0.5669102669 4289596942
-0.2576359808 -0.1373876035 0.5661424994 4289531149
-0.2572862208 -0.1365729123 0.5653738976 4289662989
-0.2557221651 -0.1351183355 0.5619370341 4289860368
-0.2545619607 -0.1338837743 0.5593874454 4290187539
-0.2538057864 -0.1328664124 0.5577258468 4290516504
-0.2526442111 -0.1316414922 0.5551733375 4290451732
-0.2518868744 -0.1306318790 0.5535091162 4290649111
-0.2507239282 -0.1294166148 0.5509535670 4291372834
-0.2495602667 -0.1282066554 0.5483965278 4292754487
-0.2492063195 -0.1274163872 0.5476187468 4293871682
-0.2488519996 -0.1266276389 0.5468401313 4293476924
-0.2484972924 -0.1258404404 0.5460606813 4292622650
-0.2485476881 -0.1252591163 0.5461714268 4292425271
-0.2485978454 -0.1246774495 0.5462816358 4292893014
-0.2486478090 -0.1240954250 0.5463914275 4294933625
-0.2491032630 -0.1237145364 0.5473922491 4293300882
-0.2495586574 -0.1233314052 0.5483929515 4294221984
-0.2500140071 -0.1229460165 0.5493935347 4292986836
-0.2504692674 -0.1225583777 0.5503939986 4294894833
-0.2509244978 -0.1221684888 0.5513943434 4294374906
-0.2517857850 -0.1219730824 0.5532869697 4294967039
-0.2572418153 -0.1450682282 0.5666593909 4289966518
-0.2572992742 -0.1444708705 0.5667858720 4290787899
-0.2573564947 -0.1438731253 0.5669119358 4288748316
-0.2574135065 -0.1432749778 0.5670375228 4289138963
-0.2570673823 -0.1424531490 0.5662750602 4289599514
-0.2575268745 -0.1420774907 0.5672873259 4289662483
-0.2575832605 -0.1414781511 0.5674114823 4289530897
-0.2576394081 -0.1408784240 0.5675352216 4289662483
-0.2576953471 -0.1402783096 0.5676584244 4289728276
-0.2573477328 -0.1394592077 0.5668926239 4289530897
-0.2569997013 -0.1386416107 0.5661259890 4289399311
-0.2566512823 -0.1378255039 0.5653585196 4289727247
-0.2567061186 -0.1372266561 0.5654792786 4289858833
-0.2559532821 -0.1361977756 0.5638209581 4289661708
-0.2547961175 -0.1349584162 0.5612719059 4289595915
-0.2536382377 -0.1337243319 0.5587212443 4289662989
-0.2528835833 -0.1327075213 0.5570588708 4289860368
-0.2517243028 -0.1314830780 0.5545052290 4290385939
-0.2509684861 -0.1304740310 0.5528402328 4290188560
-0.2498078644 -0.1292592436 0.5502836108 4290385167
-0.2486465424 -0.1280497760 0.5477254391 4291306269
-0.2478888929 -0.1270528883 0.5460564494 4292489778
-0.2475351691 -0.1262657493 0.5452772975 4293739845
-0.2471810579 -0.1254801452 0.5444972515 4293346367
-0.2476358563 -0.1251049340 0.5454990864 4292885816
-0.2476858795 -0.1245239899 0.5456092954 4294209135
-0.2477356941 -0.1239427030 0.5457190275 4294934914
-0.2481901795 -0.1235626340 0.5467201471 4293302691
-0.2490495592 -0.1233809367 0.5486131907 4294618551
-0.2495040148 -0.1229954138 0.5496143103 4293252819
-0.2499584109 -0.1226076409 0.5506152511 4294568679
-0.2504127324 -0.1222176179 0.5516160727 4294244085
-0.2508670390 -0.1218253374 0.5526167750 4294704636
-0.2563124001 -0.1448985934 0.5659967661 4288116610
-0.2563696802 -0.1443019658 0.5661232471 4289467928
-0.2564267218 -0.1437049359 0.5662492514 4288744205
-0.2560815811 -0.1428832114 0.5654870868 4289137422
-0.2561381161 -0.1422863305 0.5656119585 4289203215
-0.2561944723 -0.1416890472 0.5657363534 4289267979
-0.2566528618 -0.1413128674 0.5667486191 4289531151
-0.2567088604 -0.1407138705 0.5668722391 4289728530
-0.2563621998 -0.1398948580 0.5661067367 4289662737
-0.2564176917 -0.1392960250 0.5662292838 4289661967
-0.2556677163 -0.1382613182 0.5645731688 4289727760
-0.2553198636 -0.1374467909 0.5638050437 4289793294
-0.2553744614 -0.1368496120 0.5639255643 4289727501
-0.2546230555 -0.1358222365 0.5622663498 4289661706
-0.2534681261 -0.1345842928 0.5597159863 4289859085
-0.2527155280 -0.1335646361 0.5580540895 4289794575
-0.2519623935 -0.1325483918 0.5563909411 4289860368
-0.2508054674 -0.1313244253 0.5538361669 4289991184
-0.2500511110 -0.1303159446 0.5521704555 4290122770
-0.2488928437 -0.1291016489 0.5496127009 4290253585
-0.2477338612 -0.1278926581 0.5470533967 4290516757
-0.2469777167 -0.1268963367 0.5453836322 4291306020
-0.2466246784 -0.1261098534 0.5446040630 4292819259
-0.2462712526 -0.1253249049 0.5438235998 4293347396
-0.2463212609 -0.1247460097 0.5439340472 4293742154
-0.2467749566 -0.1243703142 0.5449358821 4294605435
-0.2468246222 -0.1237897575 0.5450456142 4294937484
-0.2472781390 -0.1234105080 0.5460470319 4293567662
-0.2481357157 -0.1232297048 0.5479407907 4294883522
-0.2489934117 -0.1230447516 0.5498347878 4293647836
-0.2494469136 -0.1226568446 0.5508362055 4294897903
-0.2499003708 -0.1222666800 0.5518375635 4294638330
-0.2549258471 -0.1450960636 0.5643190145 4292647079
-0.2549830675 -0.1445015073 0.5644456744 4286791502
-0.2550401092 -0.1439065337 0.5645719171 4289792783
-0.2550969124 -0.1433111727 0.5646976829 4289990162
-0.2547523379 -0.1424910128 0.5639348626 4289728530
-0.2548086345 -0.1418958008 0.5640594959 4289465358
-0.2552660704 -0.1415227056 0.5650721788 4289334285
-0.2553220391 -0.1409257650 0.5651960373 4289597457
-0.2553777993 -0.1403284222 0.5653194785 4289925907
-0.2550317049 -0.1395109892 0.5645533800 4289860114
-0.2550869584 -0.1389138252 0.5646756291 4290188052
-0.2543383837 -0.1378806084 0.5630185604 4290385431
-0.2543930411 -0.1372845471 0.5631395578 4290451221
-0.2540454865 -0.1364721656 0.5623701811 4290319635
-0.2536975741 -0.1356612742 0.5616000295 4290320148
-0.2529471219 -0.1346378475 0.5599387288 4290320148
-0.2517938614 -0.1334047168 0.5573858619 4290188563
-0.2510422170 -0.1323890388 0.5557219982 4289991184
-0.2498876452 -0.1311655492 0.5531661510 4290056725
-0.2487323284 -0.1299473643 0.5506086946 4290188311
-0.2475763112 -0.1287344843 0.5480496287 4290188050
-0.2464195788 -0.1275269389 0.5454890132 4290188050
-0.2460675985 -0.1267395616 0.5447098613 4290385177
-0.2457152307 -0.1259537339 0.5439298749 4291503658
-0.2449596077 -0.1249639094 0.5422571301 4292689979
-0.2454123646 -0.1245912835 0.5432593822 4294269011
-0.2458650768 -0.1242164075 0.5442615747 4294935430
-0.2463177443 -0.1238392740 0.5452635884 4294939285
-0.2463671416 -0.1232581586 0.5453729630 4293571002
-0.2472229302 -0.1230782568 0.5472673774 4294886862
-0.2480788082 -0.1228941977 0.5491620302 4293846243
-0.2489348054 -0.1227059811 0.5510569215 4294964724
-0.2493873686 -0.1223156825 0.5520586967 4294835709
-0.2535422742 -0.1452893913 0.5626395941 4292925921
-0.2535994649 -0.1446968913 0.5627664924 4291653762
-0.2536564469 -0.1441039890 0.5628929138 4286324529
-0.2537132204 -0.1435106844 0.5630189180 4290121746
-0.2537697852 -0.1429169774 0.5631444454 4290253332
-0.2534257770 -0.1420983970 0.5623810291 4289663248
-0.2538822591 -0.1417283863 0.5633940697 4289597455
-0.2539381981 -0.1411335021 0.5635181665 4289532178
-0.2539938986 -0.1405382305 0.5636418462 4289663764
-0.2540494204 -0.1399425566 0.5637649894 4290188309
-0.2541047037 -0.1393464953 0.5638877153 4290451481
-0.2537589073 -0.1385312080 0.5631203651 4290779674
-0.2534127235 -0.1377173960 0.5623521209 4291042846
-0.2530661523 -0.1369051039 0.5615830421 4291372323
-0.2527192235 -0.1360943019 0.5608131289 4291701288
-0.2523718774 -0.1352850050 0.5600423217 4291570215
-0.2520241439 -0.1344772130 0.5592706800 4291109664
-0.2508732677 -0.1332445592 0.5567167401 4290714394
-0.2497216314 -0.1320171952 0.5541611314 4290517015
-0.2489708662 -0.1310064346 0.5524950624 4289925909
-0.2478178889 -0.1297887266 0.5499365330 4289794323
-0.2462624758 -0.1283669323 0.5464848876 4289925137
-0.2455098182 -0.1273692697 0.5448146462 4290122516
-0.2447566241 -0.1263750494 0.5431432128 4290253080
-0.2444048673 -0.1255908161 0.5423626304 4290516252
-0.2440527380 -0.1248081401 0.5415812135 4291702571
-0.2445045263 -0.1244363338 0.5425837636 4293873740
-0.2445540279 -0.1238585562 0.5426936150 4294935174
-0.2450056374 -0.1234832034 0.5436958075 4294940314
-0.2458595932 -0.1233073995 0.5455908179 4293508291
-0.2463111877 -0.1229265854 0.5465929508 4294889944
-0.2471652627 -0.1227434278 0.5484882593 4293979371
-0.2480194569 -0.1225561053 0.5503838062 4294834680
-0.2522188425 -0.1448881179 0.5610856414 4291676881
-0.2522757649 -0.1442972720 0.5612123013 4290269021
-0.2523325086 -0.1437060386 0.5613384843 4286584613
-0.2523890138 -0.1431144029 0.5614641905 4289598225
-0.2524453104 -0.1425223649 0.5615894794 4289466639
-0.2525014281 -0.1419299245 0.5617142916 4289138446
-0.2525573075 -0.1413370967 0.5618386269 4289335825
-0.2530127168 -0.1409665793 0.5628516674 4289795863
-0.2530682683 -0.1403720230 0.5629752874 4290059035
-0.2531236112 -0.1397770941 0.5630983710 4290780446
-0.2527787983 -0.1389618814 0.5623313189 4290977825
-0.2524335682 -0.1381481737 0.5615633130 4291306531
-0.2520879805 -0.1373359561 0.5607945323 4291438117
-0.2521422207 -0.1367422938 0.5609151721 4292031536
-0.2517959476 -0.1359321326 0.5601448417 4292821052
-0.2514492869 -0.1351234764 0.5593736768 4292623673
-0.2507017553 -0.1341021210 0.5577107072 4291570985
-0.2499536723 -0.1330841631 0.5560465455 4290977053
-0.2488043904 -0.1318572760 0.5534898639 4290845467
-0.2476543933 -0.1306356937 0.5509315729 4289991702
-0.2465036958 -0.1294194311 0.5483717322 4289728530
-0.2453522682 -0.1282084733 0.5458102822 4289859346
-0.2442001402 -0.1270028353 0.5432472229 4289990932
-0.2434483767 -0.1260101348 0.5415748954 4290187287
-0.2434983701 -0.1254341602 0.5416860580 4290121494
-0.2431469262 -0.1246521398 0.5409042835 4291174687
-0.2435977310 -0.1242811531 0.5419071317 4293016891
-0.2436470985 -0.1237041205 0.5420169830 4294867326
-0.2440977395 -0.1233295873 0.5430194139 4294941343
-0.2449498773 -0.1231546849 0.5449151397 4293641933
-0.2458021343 -0.1229756325 0.5468110442 4294957793
-0.2462527752 -0.1225924268 0.5478135347 4294308852
-0.2471051663 -0.1224060059 0.5497097373 4294967039
-0.2512963414 -0.1447157562 0.5604181290 4290756291
-0.2513531148 -0.1441256404 0.5605447292 4289280576
-0.2514096797 -0.1435351372 0.5606709123 4287109407
-0.2514660358 -0.1429442167 0.5607965589 4289402645
-0.2515221834 -0.1423529088 0.5609217882 4289205266
-0.2515781224 -0.1417612135 0.5610465407 4289205268
-0.2516338527 -0.1411691159 0.5611708164 4289336854
-0.2516893744 -0.1405766159 0.5612946153 4289993755
-0.2521436512 -0.1402055919 0.5623077154 4290585892
-0.2517997921 -0.1393904686 0.5615409017 4291177257
-0.2514555454 -0.1385768503 0.5607731938 4291243050
-0.2511109412 -0.1377647221 0.5600046515 4291900208
-0.2511652410 -0.1371721625 0.5601257086 4292031794
-0.2508199215 -0.1363620907 0.5593556762 4292822080
-0.2508737147 -0.1357697248 0.5594756007 4293808975
-0.2505277395 -0.1349617243 0.5587040186 4293873741
-0.2497817129 -0.1339409202 0.5570403337 4292557881
-0.2486354113 -0.1327101737 0.5544839501 4291634983
-0.2474883795 -0.1314847171 0.5519259572 4291306018
-0.2463406473 -0.1302645653 0.5493664145 4290320149
-0.2455921918 -0.1292602420 0.5476972461 4290188563
-0.2444431186 -0.1280497760 0.5451346636 4290057493
-0.2432933301 -0.1268446445 0.5425705314 4289794321
-0.2425430864 -0.1258525103 0.5408974290 4290121494
-0.2421926111 -0.1250705421 0.5401158333 4290253080
-0.2422421724 -0.1244959086 0.5402263403 4291239708
-0.2426920086 -0.1241257489 0.5412294865 4292226603
-0.2427412271 -0.1235494614 0.5413392782 4294076268
-0.2431908846 -0.1231757402 0.5423420668 4294941857
-0.2440412194 -0.1230017468 0.5442383885 4293906899
-0.2448916584 -0.1228235960 0.5461350083 4294960101
-0.2457422167 -0.1226412803 0.5480318069 4294572537
-0.2499774843 -0.1443137079 0.5588611960 4290229435
-0.2500340044 -0.1437252611 0.5589874983 4289211698
-0.2500903010 -0.1431364119 0.5591133833 4287961631
-0.2501464188 -0.1425471604 0.5592388511 4289402134
-0.2502022982 -0.1419575214 0.5593637824 4289138962
-0.2502579987 -0.1413674951 0.5594882965 4289336341
-0.2503134906 -0.1407770663 0.5596123338 4289599513
-0.2503687441 -0.1401862353 0.5597358942 4290125855
-0.2508219481 -0.1398169696 0.5607491136 4290849578
-0.2508769035 -0.1392244250 0.5608719587 4291113261
-0.2501350343 -0.1381913871 0.5592133999 4291244847
-0.2501893640 -0.1375999600 0.5593348742 4291310383
-0.2498450428 -0.1367899776 0.5585650802 4291441969
-0.2498988956 -0.1361987144 0.5586854815 4292164409
-0.2499525249 -0.1356070787 0.5588054061 4292953925
-0.2492084801 -0.1345843822 0.5571419597 4293478983
-0.2484638989 -0.1335650980 0.5554773211 4292952639
-0.2477187514 -0.1325492114 0.5538114309 4292096559
-0.2465740740 -0.1313242316 0.5512523651 4291504422
-0.2454286814 -0.1301045716 0.5486916900 4290779929
-0.2442825884 -0.1288902313 0.5461294055 4290516757
-0.2431357801 -0.1276811957 0.5435655713 4290320665
-0.2423875928 -0.1266862005 0.5418928266 4289860114
-0.2416388541 -0.1256946474 0.5402189493 4289924886
-0.2412890792 -0.1249133497 0.5394369364 4290319644
-0.2413384914 -0.1243394539 0.5395474434 4291502880
-0.2413876951 -0.1237652078 0.5396574140 4291700259
-0.2418364137 -0.1233945712 0.5406606197 4292891735
-0.2422851026 -0.1230216771 0.5416637063 4294942626
-0.2439334095 -0.1232526898 0.5453487635 4294368477
-0.2431823164 -0.1222691312 0.5436695814 4294961899
-0.2448309958 -0.1224899217 0.5473554730 4294835709
-0.2486613244 -0.1439112127 0.5573025346 4290097081
-0.2487175912 -0.1433244348 0.5574285984 4289472815
-0.2487736493 -0.1427372545 0.5575542450 4288617506
-0.2488294989 -0.1421496719 0.5576794147 4289598231
-0.2492820919 -0.1417874843 0.5586937666 4289203473
-0.2493376136 -0.1411981881 0.5588182211 4289598486
-0.2493929416 -0.1406084895 0.5589422584 4290256416
-0.2494480610 -0.1400184035 0.5590657592 4290586919
-0.2495029569 -0.1394279152 0.5591887832 4291047470
-0.2495576590 -0.1388370544 0.5593113899 4290786092
-0.2492146790 -0.1380256563 0.5585427284 4290983471
-0.2492688745 -0.1374349594 0.5586642027 4291180337
-0.2489252239 -0.1366256177 0.5578939915 4291180337
-0.2489789128 -0.1360350996 0.5580142736 4291506479
-0.2486345768 -0.1352278292 0.5572425723 4291703858
-0.2482898533 -0.1344220638 0.5564699769 4292689467
-0.2475467771 -0.1334033459 0.5548046231 4293018432
-0.2464050800 -0.1321744919 0.5522457957 4292557878
-0.2456608266 -0.1311635375 0.5505777597 4291899948
-0.2445177883 -0.1299443543 0.5480160117 4291502623
-0.2433740348 -0.1287304908 0.5454525948 4290844693
-0.2422295809 -0.1275219619 0.5428876281 4290386458
-0.2414829135 -0.1265275478 0.5412141681 4289860114
-0.2407356948 -0.1255365610 0.5395395160 4289531411
-0.2403866053 -0.1247559264 0.5387571454 4289860376
-0.2404358685 -0.1241827756 0.5388675332 4290977819
-0.2408837378 -0.1238142624 0.5398713350 4291043612
-0.2413315773 -0.1234434992 0.5408750176 4292168012
-0.2417793572 -0.1230704784 0.5418785810 4294943397
-0.2422270924 -0.1226952001 0.5428820252 4294698725
-0.2434730530 -0.1227200329 0.5456745028 4294964210
-0.2473478764 -0.1435083002 0.5557422042 4290163127
-0.2474038899 -0.1429231763 0.5558680296 4288751396
-0.2474596947 -0.1423376650 0.5559934378 4288225052
-0.2475152910 -0.1417517662 0.5561183691 4289074196
-0.2479668111 -0.1413913369 0.5571327806 4289008403
-0.2480220795 -0.1408036947 0.5572569966 4289665819
-0.2480771542 -0.1402156800 0.5573807359 4290389542
-0.2481320202 -0.1396272629 0.5575039983 4291047472
-0.2481866926 -0.1390384585 0.5576268435 4290915886
-0.2482411414 -0.1384492666 0.5577491522 4291179058
-0.2482953817 -0.1378596723 0.5578710437 4291179058
-0.2479526997 -0.1370504349 0.5571011305 4291375406
-0.2480064481 -0.1364610195 0.5572218299 4291441199
-0.2480599731 -0.1358712316 0.5573421121 4291637291
-0.2477163225 -0.1350646168 0.5565699935 4291703084
-0.2473722845 -0.1342595071 0.5557970405 4291900463
-0.2466307282 -0.1332413405 0.5541308522 4292163635
-0.2454913706 -0.1320129782 0.5515710115 4292230456
-0.2447486371 -0.1310025901 0.5499022007 4292098870
-0.2436079532 -0.1297838986 0.5473393202 4291175455
-0.2424665540 -0.1285705268 0.5447748303 4290780697
-0.2413244545 -0.1273624897 0.5422087312 4290188830
-0.2409769446 -0.1265775263 0.5414279699 4289728279
-0.2402313501 -0.1255861819 0.5397527218 4289990411
-0.2398830205 -0.1248052493 0.5389701128 4290121997
-0.2399322242 -0.1242318898 0.5390806794 4290908952
-0.2399812192 -0.1236581802 0.5391907692 4290974745
-0.2404280752 -0.1232882366 0.5401947498 4291709007
-0.2412730157 -0.1231192127 0.5420931578 4294943658
-0.2417198420 -0.1227438077 0.5430971384 4294374645
-0.2425649315 -0.1225674078 0.5449958444 4294637817
-0.2464320809 -0.1433346421 0.5550697446 4290426300
-0.2464879304 -0.1427502632 0.5551955104 4289145902
-0.2465435714 -0.1421654820 0.5553208590 4288356386
-0.2465990037 -0.1415803134 0.5554457307 4289139989
-0.2466542423 -0.1409947425 0.5555701256 4289008403
-0.2471046448 -0.1406338066 0.5565845966 4290126370
-0.2471595556 -0.1400465071 0.5567082763 4290850093
-0.2472142577 -0.1394588351 0.5568315387 4290915884
-0.2472687662 -0.1388707608 0.5569542646 4290981677
-0.2473230511 -0.1382822990 0.5570765734 4291179056
-0.2469813377 -0.1374731511 0.5563068986 4291179056
-0.2470351309 -0.1368848532 0.5564280748 4291112234
-0.2470887154 -0.1362961829 0.5565487742 4291243820
-0.2471420914 -0.1357071251 0.5566689968 4291374634
-0.2467991263 -0.1349011660 0.5558964610 4291308841
-0.2464557737 -0.1340966970 0.5551230907 4291571498
-0.2457157224 -0.1330791116 0.5534561872 4291834670
-0.2445787191 -0.1318512261 0.5508951545 4292032564
-0.2438375056 -0.1308414191 0.5492256284 4292098357
-0.2430957407 -0.1298350096 0.5475548506 4290848800
-0.2419567853 -0.1286211908 0.5449894667 4290454042
-0.2412138581 -0.1276225895 0.5433160663 4290385439
-0.2404703945 -0.1266274303 0.5416414738 4289661716
-0.2397263944 -0.1256357133 0.5399656892 4289661705
-0.2397758216 -0.1250615567 0.5400769711 4290122256
-0.2394279838 -0.1242809370 0.5392935276 4290711573
-0.2394769043 -0.1237070262 0.5394037366 4290843159
-0.2399228662 -0.1233369559 0.5404081941 4290859090
-0.2407660633 -0.1231678799 0.5423074365 4294946737
-0.2412119955 -0.1227923483 0.5433118939 4294440438
-0.2420553565 -0.1226158962 0.5452114940 4294769403
-0.2454614639 -0.1437439919 0.5542700887 4292465370
-0.2455173433 -0.1431607455 0.5543962717 4290688959
-0.2455730289 -0.1425770968 0.5545220375 4289607999
-0.2456285059 -0.1419930458 0.5546472669 4287963174
-0.2456837744 -0.1414086223 0.5547720790 4289141016
-0.2457388490 -0.1408237815 0.5548964739 4288877844
-0.2457937151 -0.1402385533 0.5550203323 4290324263
-0.2458483875 -0.1396529377 0.5551437736 4291245365
-0.2459028363 -0.1390669346 0.5552667379 4290915884
-0.2459570915 -0.1384805441 0.5553892851 4291047470
-0.2460111380 -0.1378937662 0.5555112958 4291047470
-0.2460649908 -0.1373065859 0.5556328893 4290850091
-0.2461186200 -0.1367190331 0.5557540059 4290652453
-0.2461720556 -0.1361311078 0.5558746457 4290652453
-0.2458300442 -0.1353252232 0.5551024079 4290980646
-0.2458829880 -0.1347374618 0.5552219152 4291112232
-0.2451449186 -0.1337179840 0.5535553098 4291309354
-0.2448017746 -0.1329166442 0.5527804494 4291506733
-0.2440627068 -0.1319030225 0.5511115789 4291704111
-0.2433230877 -0.1308928281 0.5494414568 4292033076
-0.2425829321 -0.1298860610 0.5477701426 4290981669
-0.2406547815 -0.1282498986 0.5434162617 4290455325
-0.2414968908 -0.1280927956 0.5453177691 4290450973
-0.2399632335 -0.1266772896 0.5418546796 4289793043
-0.2396169007 -0.1258932799 0.5410726666 4289793291
-0.2392702103 -0.1251108348 0.5402897596 4290319635
-0.2393193543 -0.1245361120 0.5404008031 4290908441
-0.2393683046 -0.1239610389 0.5405113101 4290842648
-0.2394170463 -0.1233856082 0.5406213999 4290404190
-0.2402585149 -0.1232164875 0.5425214767 4294950589
-0.2407035530 -0.1228408217 0.5435264111 4294572278
-0.2441547811 -0.1433382779 0.5527057052 4291938256
-0.2442104071 -0.1427567005 0.5528315902 4290885568
-0.2442658395 -0.1421747208 0.5529571176 4290597468
-0.2443210632 -0.1415923536 0.5530821085 4287439404
-0.2443760931 -0.1410095990 0.5532066822 4288878873
-0.2444309145 -0.1404264420 0.5533307791 4288747287
-0.2444855273 -0.1398428828 0.5534543991 4289996324
-0.2445399463 -0.1392589509 0.5535776019 4291246391
-0.2445941567 -0.1386746168 0.5537003279 4290719788
-0.2450421304 -0.1383122653 0.5547143817 4290785581
-0.2447019666 -0.1375048012 0.5539444089 4290851374
-0.2451497018 -0.1371397972 0.5549579263 4290456616
-0.2448089570 -0.1363334358 0.5541865826 4290258724
-0.2448621392 -0.1357471794 0.5543069839 4289929759
-0.2453095168 -0.1353781968 0.5553197265 4290389538
-0.2449679077 -0.1345735341 0.5545463562 4290915882
-0.2442313582 -0.1335546225 0.5528790355 4291244588
-0.2438888997 -0.1327539235 0.5521038175 4291376174
-0.2431513518 -0.1317408830 0.5504341722 4291573038
-0.2424132526 -0.1307312697 0.5487632751 4291967796
-0.2424644083 -0.1301490068 0.5488790870 4291244071
-0.2417254001 -0.1291443408 0.5472061634 4290586141
-0.2405907810 -0.1279330403 0.5446376801 4289728530
-0.2398506254 -0.1269361824 0.5429621339 4289596944
-0.2395051420 -0.1261509508 0.5421800613 4290056206
-0.2395545989 -0.1255744696 0.5422919989 4290187792
-0.2396038622 -0.1249976456 0.5424035192 4291039000
-0.2396529019 -0.1244204566 0.5425145626 4291104793
-0.2397017479 -0.1238429174 0.5426251292 4291261045
-0.2401459962 -0.1234684363 0.5436307788 4294953420
-0.2409859151 -0.1232941449 0.5455321670 4294638069
-0.2427952737 -0.1435116380 0.5510134697 4291940827
-0.2428508401 -0.1429321319 0.5511395931 4291346121
-0.2429062128 -0.1423522234 0.5512652993 4290753984
-0.2429613918 -0.1417719275 0.5513904691 4291325308
-0.2430163622 -0.1411912292 0.5515152812 4286917177
-0.2430711389 -0.1406101435 0.5516395569 4288615701
-0.2431257069 -0.1400286704 0.5517634153 4288813080
-0.2435729355 -0.1396720707 0.5527783632 4289536288
-0.2436271906 -0.1390888691 0.5529015064 4290917941
-0.2436812520 -0.1385052800 0.5530241728 4290785840
-0.2437350899 -0.1379213035 0.5531463623 4290654254
-0.2437887341 -0.1373369396 0.5532681346 4290851120
-0.2442354709 -0.1369727552 0.5542819500 4290653741
-0.2438954115 -0.1361670494 0.5535101891 4290258983
-0.2439484447 -0.1355815381 0.5536305904 4289601053
-0.2440012693 -0.1349956393 0.5537504554 4289995552
-0.2440538853 -0.1344093531 0.5538698435 4290719275
-0.2437125742 -0.1336068660 0.5530952811 4291113261
-0.2433708906 -0.1328058839 0.5523198247 4291244847
-0.2430288345 -0.1320064068 0.5515435338 4291441967
-0.2422924340 -0.1309954673 0.5498723388 4291836725
-0.2415554821 -0.1299879551 0.5481998324 4291439910
-0.2412121445 -0.1291949600 0.5474206209 4290255636
-0.2404742092 -0.1281933635 0.5457459092 4289072651
-0.2401300371 -0.1274043918 0.5449648499 4289335823
-0.2397854924 -0.1266169697 0.5441829562 4290253330
-0.2394405901 -0.1258310825 0.5434001684 4290319123
-0.2394898534 -0.1252530962 0.5435119867 4290841881
-0.2395389080 -0.1246747449 0.5436233282 4292026155
-0.2395877689 -0.1240960434 0.5437341928 4292972182
-0.2400311977 -0.1237204820 0.5447405577 4294955738
-0.2418857366 -0.1433353275 0.5503365397 4291743189
-0.2419411391 -0.1427565515 0.5504626036 4290951361
-0.2419963479 -0.1421773881 0.5505881906 4290490810
-0.2420513630 -0.1415978223 0.5507133603 4291462805
-0.2421061695 -0.1410178691 0.5508380532 4287186260
-0.2421607822 -0.1404375136 0.5509623289 4288352529
-0.2426071167 -0.1400830746 0.5519778132 4288681494
-0.2426614165 -0.1395010054 0.5521013737 4289207838
-0.2427155077 -0.1389185488 0.5522243977 4290655284
-0.2427694052 -0.1383356899 0.5523470640 4291049527
-0.2428230941 -0.1377524436 0.5524691939 4290588976
-0.2428765744 -0.1371688247 0.5525909066 4290851120
-0.2433223128 -0.1368054748 0.5536050200 4290719534
-0.2433754802 -0.1362201273 0.5537259579 4290784814
-0.2434284389 -0.1356344074 0.5538464785 4290126884
-0.2430884689 -0.1348304898 0.5530729890 4290258724
-0.2431409359 -0.1342449486 0.5531923771 4290719275
-0.2428003103 -0.1334431022 0.5524173379 4290981677
-0.2424593121 -0.1326427758 0.5516415238 4291244849
-0.2421179414 -0.1318439692 0.5508648157 4291639348
-0.2417761981 -0.1310466826 0.5500872731 4291705141
-0.2410408556 -0.1300387979 0.5484142900 4290913313
-0.2406982929 -0.1292455196 0.5476348400 4289531660
-0.2403553426 -0.1284537762 0.5468545556 4288942862
-0.2400120199 -0.1276635677 0.5460734963 4289206034
-0.2392747998 -0.1266665757 0.5443961620 4290123288
-0.2397179157 -0.1262951642 0.5454043150 4290057495
-0.2393735647 -0.1255086362 0.5446208715 4290054934
-0.2394226491 -0.1249291301 0.5447325110 4293212998
-0.2394715101 -0.1243492663 0.5448436737 4294095803
-0.2399141192 -0.1239726171 0.5458506942 4294959079
-0.2405313551 -0.1435034275 0.5486414433 4291939539
-0.2405866981 -0.1429267228 0.5487676859 4291281609
-0.2406418622 -0.1423496306 0.5488935113 4290556603
-0.2406968176 -0.1417721361 0.5490188599 4290096052
-0.2407515645 -0.1411942542 0.5491437316 4291138209
-0.2408061326 -0.1406159699 0.5492681861 4288374903
-0.2408604920 -0.1400372982 0.5493921638 4289273631
-0.2413057387 -0.1396846324 0.5504077673 4288681494
-0.2413597852 -0.1391042322 0.5505310893 4288682008
-0.2414136380 -0.1385234594 0.5506538749 4289668903
-0.2414672822 -0.1379422843 0.5507762432 4290590005
-0.2419121563 -0.1375833601 0.5517910123 4290524212
-0.2419654876 -0.1370004714 0.5519126654 4290720048
-0.2420186102 -0.1364171952 0.5520338416 4290785841
-0.2420715243 -0.1358335465 0.5521545410 4290917167
-0.2421242446 -0.1352495104 0.5522747636 4290653995
-0.2421767563 -0.1346650869 0.5523945689 4290588202
-0.2422290593 -0.1340802908 0.5525138378 4290719788
-0.2418891191 -0.1332791001 0.5517384410 4290851374
-0.2415488064 -0.1324794292 0.5509622097 4291311925
-0.2412081212 -0.1316812932 0.5501851439 4291573812
-0.2408670634 -0.1308846623 0.5494071841 4290915882
-0.2405256331 -0.1300895661 0.5486283898 4289795863
-0.2401838303 -0.1292960048 0.5478487611 4289269519
-0.2398416549 -0.1285039783 0.5470682979 4289205007
-0.2394991070 -0.1277134866 0.5462869406 4289533972
-0.2395489067 -0.1271329373 0.5464005470 4289861146
-0.2392057031 -0.1263445765 0.5456176996 4289532181
-0.2392549962 -0.1257642657 0.5457301736 4289992739
-0.2393040955 -0.1251836121 0.5458421111 4294861421
-0.2393529713 -0.1246025860 0.5459536314 4294367450
-0.2391800433 -0.1436673403 0.5469447970 4291876063
-0.2392353266 -0.1430927068 0.5470712185 4291741646
-0.2392904311 -0.1425176859 0.5471972227 4290820544
-0.2393453270 -0.1419422776 0.5473227501 4290096052
-0.2394000292 -0.1413664669 0.5474478602 4289438122
-0.2394545376 -0.1407902539 0.5475724936 4290154655
-0.2395088375 -0.1402136534 0.5476966500 4288773002
-0.2399531156 -0.1398640871 0.5487126112 4290590259
-0.2400071174 -0.1392857581 0.5488361120 4288748055
-0.2400609106 -0.1387070417 0.5489591360 4288025104
-0.2401145101 -0.1381279528 0.5490816832 4288288276
-0.2405584157 -0.1377721131 0.5500968099 4289669929
-0.2410023063 -0.1374140084 0.5511118770 4290327859
-0.2406647801 -0.1366100907 0.5503399968 4290589488
-0.2411084324 -0.1362493336 0.5513545275 4290852660
-0.2411611974 -0.1356664300 0.5514752269 4290720045
-0.2412137538 -0.1350831240 0.5515953898 4290851631
-0.2408750802 -0.1342814565 0.5508209467 4290720045
-0.2409271449 -0.1336983591 0.5509399772 4290588459
-0.2409790009 -0.1331148744 0.5510585904 4290917424
-0.2410306633 -0.1325310022 0.5511767268 4291509561
-0.2406907529 -0.1317325681 0.5503994226 4291246130
-0.2403504550 -0.1309356540 0.5496212244 4289864477
-0.2404013276 -0.1303525716 0.5497375727 4288875790
-0.2400603890 -0.1295577735 0.5489579439 4289402134
-0.2397190630 -0.1287645102 0.5481774211 4289465871
-0.2393773794 -0.1279727668 0.5473960638 4290189594
-0.2390353233 -0.1271825731 0.5466138721 4290124579
-0.2390848398 -0.1266014725 0.5467270613 4289664028
-0.2391341478 -0.1260199994 0.5468398333 4291704900
-0.2391832471 -0.1254381835 0.5469521284 4294939294
-0.2392321527 -0.1248559952 0.5470639467 4294176748
-0.2378318161 -0.1438270658 0.5452465415 4292072154
-0.2378870398 -0.1432545185 0.5453732014 4291414224
-0.2383308709 -0.1429147124 0.5463907123 4291148739
-0.2383857965 -0.1423404217 0.5465165973 4290359223
-0.2384405285 -0.1417657584 0.5466421247 4289897900
-0.2384950668 -0.1411906779 0.5467671156 4288976798
-0.2385494113 -0.1406152099 0.5468916893 4288252557
-0.2386035621 -0.1400393546 0.5470158458 4287397248
-0.2386575043 -0.1394631118 0.5471395254 4290267721
-0.2391006649 -0.1391130388 0.5481554866 4288754482
-0.2391542941 -0.1385350674 0.5482784510 4287699484
-0.2392077297 -0.1379567087 0.5484009385 4287304726
-0.2392609715 -0.1373779625 0.5485230088 4288024341
-0.2397037745 -0.1370216310 0.5495381355 4289274408
-0.2397566885 -0.1364411712 0.5496594906 4289998381
-0.2401993424 -0.1360812336 0.5506743193 4290327346
-0.2402519435 -0.1354990602 0.5507948995 4290654252
-0.2403043509 -0.1349165142 0.5509150028 4290720045
-0.2399663478 -0.1341155022 0.5501401424 4290653482
-0.2400182635 -0.1335331351 0.5502591729 4290587689
-0.2400699705 -0.1329503953 0.5503776670 4290327087
-0.2401214689 -0.1323672682 0.5504957438 4290458673
-0.2397822440 -0.1315695047 0.5497180820 4290257190
-0.2398332506 -0.1309865862 0.5498350263 4289072916
-0.2394933701 -0.1301909089 0.5490558147 4288610827
-0.2395438850 -0.1296081990 0.5491716266 4288808206
-0.2392033339 -0.1288146526 0.5483908653 4289268488
-0.2388624251 -0.1280226260 0.5476093292 4289663246
-0.2389121503 -0.1274407208 0.5477233529 4289728790
-0.2389616817 -0.1268584579 0.5478368998 4291307822
-0.2390110046 -0.1262758225 0.5479499698 4293426316
-0.2390601337 -0.1256928444 0.5480625629 4294950863
-0.2365418375 -0.1434121281 0.5436735153 4291676885
-0.2369846702 -0.1430754215 0.5446913838 4291018955
-0.2370395362 -0.1425032169 0.5448175073 4290753982
-0.2370942086 -0.1419306248 0.5449431539 4289898673
-0.2371487021 -0.1413576156 0.5450683832 4289436835
-0.2372029722 -0.1407842338 0.5451931357 4288318354
-0.2372570634 -0.1402104497 0.5453174710 4287462530
-0.2373109609 -0.1396362633 0.5454413295 4286738807
-0.2377531379 -0.1392892897 0.5464576483 4289550679
-0.2378067225 -0.1387134045 0.5465807915 4288432198
-0.2378601134 -0.1381371170 0.5467035174 4288292652
-0.2379132956 -0.1375604421 0.5468257666 4287239964
-0.2383551151 -0.1372072101 0.5478412509 4287498255
-0.2384079993 -0.1366288215 0.5479627848 4287893013
-0.2388496697 -0.1362719834 0.5489779115 4288486682
-0.2389022410 -0.1356918961 0.5490987301 4289341991
-0.2389545888 -0.1351114064 0.5492190719 4289866793
-0.2390067577 -0.1345305443 0.5493389964 4289801000
-0.2390587032 -0.1339492947 0.5494583845 4290390569
-0.2391104549 -0.1333676726 0.5495773554 4290456362
-0.2391620129 -0.1327856779 0.5496958494 4290127910
-0.2392133623 -0.1322033107 0.5498138070 4289601566
-0.2392645031 -0.1316205561 0.5499314070 4289139475
-0.2393154353 -0.1310374290 0.5500484705 4288547338
-0.2389763296 -0.1302414685 0.5492690206 4288349704
-0.2390267700 -0.1296585649 0.5493850112 4288810255
-0.2386870086 -0.1288647205 0.5486040711 4289598484
-0.2387369573 -0.1282820255 0.5487188697 4289335312
-0.2387866974 -0.1276989579 0.5488331914 4289732136
-0.2388362437 -0.1271155328 0.5489470959 4294074474
-0.2388855815 -0.1265317500 0.5490604639 4294950855
-0.2389347106 -0.1259475946 0.5491733551 4294957023
-0.2352546304 -0.1429967582 0.5420988798 4291282127
-0.2356963754 -0.1426618248 0.5431167483 4290558404
-0.2357509881 -0.1420912892 0.5432426333 4290161332
-0.2358054072 -0.1415203661 0.5433679819 4289240230
-0.2358596325 -0.1409490556 0.5434929729 4288778392
-0.2359136641 -0.1403773427 0.5436174870 4287659911
-0.2359674871 -0.1398052424 0.5437415242 4287066745
-0.2360211313 -0.1392327547 0.5438651443 4286606194
-0.2364622205 -0.1388875544 0.5448815227 4288374115
-0.2365155518 -0.1383133382 0.5450044274 4287913564
-0.2365686893 -0.1377387345 0.5451268554 4288955210
-0.2366216332 -0.1371637583 0.5452488661 4287639350
-0.2370623648 -0.1368122995 0.5462644100 4287699488
-0.2375030667 -0.1364585757 0.5472799540 4286844179
-0.2375555933 -0.1358805448 0.5474009514 4287172366
-0.2379961461 -0.1355232149 0.5484161377 4287961882
-0.2380483449 -0.1349434704 0.5485364795 4288880929
-0.2381003499 -0.1343633533 0.5486562848 4288486171
-0.2381521463 -0.1337828636 0.5487756133 4288550422
-0.2382037491 -0.1332019866 0.5488945246 4288418836
-0.2382551432 -0.1326207221 0.5490129590 4288547852
-0.2383063287 -0.1320390999 0.5491309166 4288416266
-0.2383573204 -0.1314570904 0.5492483974 4288810506
-0.2384081036 -0.1308747232 0.5493654609 4289139471
-0.2384586930 -0.1302919686 0.5494819880 4288811278
-0.2381199747 -0.1294972599 0.5487015247 4288942864
-0.2381700724 -0.1289147288 0.5488169193 4289205531
-0.2382199466 -0.1283318251 0.5489318967 4289995047
-0.2382696271 -0.1277485490 0.5490463376 4291581024
-0.2383190989 -0.1271649152 0.5491603613 4294941864
-0.2383683771 -0.1265809238 0.5492738485 4294960869
-0.2343562990 -0.1428162307 0.5414144993 4291676115
-0.2344108522 -0.1422477812 0.5415405035 4290886599
-0.2348514795 -0.1419123411 0.5425584316 4290161332
-0.2349057347 -0.1413421631 0.5426837802 4289042851
-0.2349597812 -0.1407715976 0.5428086519 4288514450
-0.2350136489 -0.1402006298 0.5429331064 4287330176
-0.2350673229 -0.1396292746 0.5430570841 4286737780
-0.2351208031 -0.1390575171 0.5431806445 4286408815
-0.2351740748 -0.1384853870 0.5433037281 4287588199
-0.2352271676 -0.1379128546 0.5434263945 4287456613
-0.2352800518 -0.1373399496 0.5435485840 4288763483
-0.2357198000 -0.1369915903 0.5445644855 4287710795
-0.2357723862 -0.1364169717 0.5446859598 4287640631
-0.2362120003 -0.1360650212 0.5457015634 4286456357
-0.2362642735 -0.1354886740 0.5458223224 4287304726
-0.2367037535 -0.1351331174 0.5468376279 4287370519
-0.2367557138 -0.1345550716 0.5469576716 4288024339
-0.2368074656 -0.1339766532 0.5470772386 4288024339
-0.2372466773 -0.1336161792 0.5480918884 4287959311
-0.2372981161 -0.1330360472 0.5482107401 4287959311
