VERSION 0.7
FIELDS x y z rgba
SIZE 4 4 4 4
TYPE F F F U
COUNT 1 1 1 1
WIDTH 920
HEIGHT 1
VIEWPOINT 0.0 0.0 0.0 1.0 0.0 0.0 0.0
POINTS 920
DATA ascii
-0.3148364425 -0.1776841581 0.6261272430 4292008932
-0.3144752085 -0.1767854244 0.6254088879 4288390317
-0.3141135573 -0.1758880317 0.6246895790 4283981673
-0.3137514293 -0.1749919802 0.6239694357 4283257950
-0.3138247430 -0.1743394285 0.6241152287 4284113259
-0.3134618402 -0.1734451950 0.6233934760 4283192157
-0.3135345578 -0.1727926433 0.6235381365 4283125594
-0.3131708801 -0.1719002128 0.6228148341 4284112489
-0.3123704493 -0.1707706451 0.6212230325 4284244075
-0.3120057881 -0.1698818654 0.6204978228 4286349451
-0.3116406798 -0.1689944565 0.6197717190 4288389034
-0.3086557090 -0.1666937619 0.6138353348 4289639101
-0.3061057627 -0.1646402627 0.6087641716 4290099652
-0.3039911687 -0.1628312021 0.6045588255 4289836480
-0.3023122251 -0.1612638831 0.6012198329 4289903043
-0.3015061617 -0.1601676941 0.5996168256 4290429387
-0.3011365533 -0.1593059599 0.5988817811 4290692559
-0.3012036979 -0.1586759090 0.5990152955 4290626766
-0.3012705743 -0.1580454558 0.5991482735 4290692559
-0.3013372421 -0.1574145705 0.5992808342 4291021524
-0.3014036417 -0.1567832828 0.5994129181 4291482075
-0.3014698327 -0.1561515629 0.5995445251 4291811040
-0.3019734025 -0.1557451487 0.6005460024 4292008932
-0.3024769425 -0.1553364843 0.6015474200 4292469483
-0.3029804230 -0.1549255848 0.6025487185 4292732655
-0.3034838438 -0.1545124203 0.6035498977 4292666862
-0.3035492003 -0.1538749635 0.6036798954 4292929779
-0.3124597371 -0.1774251461 0.6227762103 4292929521
-0.3125338256 -0.1767750978 0.6229239106 4290495180
-0.3121728897 -0.1758796424 0.6222044826 4285626498
-0.3118115366 -0.1749855280 0.6214842200 4282139469
-0.3114497066 -0.1740927547 0.6207630634 4283718501
-0.3110874593 -0.1732013524 0.6200410128 4283980903
-0.3111599386 -0.1725526452 0.6201854944 4282336078
-0.3107968867 -0.1716630608 0.6194619536 4283388767
-0.3104334176 -0.1707748324 0.6187374592 4283257181
-0.3096340001 -0.1696493775 0.6171441078 4282730836
-0.3088339567 -0.1685270965 0.6155495048 4285954693
-0.3075975776 -0.1671712399 0.6130852103 4290165443
-0.3037456274 -0.1644051522 0.6054077744 4290823373
-0.3003275394 -0.1618900001 0.5985950232 4290033857
-0.3021394908 -0.1621976346 0.6022064686 4288717997
-0.2991550565 -0.1599330008 0.5962581038 4289046962
-0.2992222905 -0.1593063176 0.5963920951 4289968064
-0.2988530099 -0.1584478915 0.5956560373 4289507515
-0.2989196777 -0.1578212827 0.5957889557 4288520620
-0.2989861071 -0.1571942419 0.5959213376 4288783792
-0.2990522981 -0.1565667987 0.5960533023 4289178550
-0.2991182804 -0.1559389234 0.5961847901 4289245113
-0.2991839945 -0.1553106457 0.5963158011 4289047734
-0.2996863723 -0.1549077630 0.5973170400 4289574078
-0.3001886606 -0.1545026302 0.5983182192 4289837250
-0.3002538681 -0.1538712680 0.5984482169 4289837250
-0.3007559776 -0.1534625590 0.5994489789 4289508285
-0.3008207977 -0.1528294533 0.5995782018 4289837250
-0.3013227284 -0.1524171680 0.6005785465 4290429387
-0.3022620082 -0.1522229165 0.6024507284 4290495693
-0.3032014370 -0.1520245820 0.6043230891 4290364107
-0.3037033677 -0.1516036838 0.6053235531 4290758865
-0.3046429455 -0.1513980776 0.6071962714 4291351002
-0.3055826724 -0.1511883587 0.6090692282 4291350489
-0.3056467175 -0.1505431831 0.6091969013 4290955731
-0.3057105243 -0.1498976052 0.6093240380 4291351002
-0.3057740629 -0.1492516249 0.6094506979 4292074725
-0.3053992093 -0.1483923495 0.6087035537 4292535276
-0.3050239086 -0.1475345045 0.6079555750 4292601069
-0.3046481907 -0.1466781348 0.6072067022 4292798446
-0.3108648062 -0.1824306697 0.6209719181 4292535274
-0.3109405935 -0.1817850322 0.6211233139 4292272102
-0.3110161424 -0.1811389178 0.6212742329 4292535274
-0.3106581867 -0.1802409440 0.6205591559 4292929519
-0.3102997839 -0.1793443263 0.6198432446 4292929519
-0.3092955649 -0.1760180742 0.6178372502 4292074212
-0.3093689680 -0.1753732115 0.6179838777 4289376697
-0.3094421327 -0.1747279018 0.6181300282 4283915878
-0.3090809584 -0.1738379747 0.6174085736 4282205262
-0.3087193370 -0.1729494035 0.6166862249 4283784294
-0.3087915778 -0.1723045409 0.6168305278 4282730836
-0.3084291816 -0.1714177877 0.6161066294 4281875527
-0.3080663681 -0.1705324054 0.6153818369 4283191388
-0.3077030778 -0.1696483791 0.6146562099 4281743942
-0.3069046736 -0.1685270220 0.6130613089 4283717731
-0.3056707978 -0.1671710759 0.6105965972 4288849585
-0.3031313717 -0.1651094854 0.6055239439 4291678682
-0.3001555204 -0.1628224254 0.5995794535 4291876061
-0.2989184558 -0.1614879370 0.5971083641 4291152338
-0.2985509932 -0.1606267989 0.5963743329 4290297029
-0.2977477908 -0.1595338285 0.5947698951 4290889166
-0.2978147566 -0.1589087397 0.5949036479 4291547096
-0.2978815138 -0.1582832187 0.5950369835 4290494408
-0.2975124419 -0.1574267894 0.5942997336 4289244341
-0.2975786030 -0.1568013579 0.5944319367 4290033859
-0.2976445556 -0.1561754942 0.5945636630 4290494410
-0.2977102697 -0.1555492282 0.5946949124 4290165445
-0.2977757454 -0.1549225450 0.5948256850 4289178550
-0.2982770503 -0.1545213610 0.5958271027 4290231238
-0.2983421683 -0.1538929343 0.5959571600 4290428617
-0.2988432944 -0.1534881592 0.5969581604 4290033859
-0.2989079952 -0.1528579891 0.5970874429 4289244343
-0.2989724874 -0.1522274166 0.5972162485 4289704894
-0.2994732559 -0.1518177390 0.5982166529 4290033859
-0.2999739945 -0.1514058262 0.5992168784 4289376699
-0.3004747033 -0.1509916484 0.6002170444 4288916148
-0.3009753227 -0.1505752206 0.6012170911 4289508285
-0.3019128144 -0.1503741592 0.6030897498 4289574078
-0.3024134040 -0.1499523073 0.6040897369 4288981171
-0.3020397425 -0.1490966678 0.6033433080 4288652206
-0.3021028638 -0.1484573185 0.6034693718 4289179320
-0.3021657169 -0.1478175819 0.6035949588 4289705664
-0.3017909527 -0.1469644308 0.6028463244 4289442492
-0.3014157414 -0.1461127549 0.6020968556 4289574078
-0.3010401130 -0.1452625245 0.6013464928 4290297801
-0.3011017442 -0.1446239799 0.6014695764 4290363594
-0.3007253408 -0.1437757611 0.6007177234 4290232008
-0.3007863760 -0.1431373507 0.6008396149 4290363594
-0.3008471429 -0.1424985677 0.6009610295 4290956244
-0.3009076715 -0.1418593973 0.6010819077 4291219416
-0.3009679615 -0.1412198246 0.6012023687 4291219416
-0.3014661670 -0.1407845169 0.6021975279 4291351002
-0.3015260100 -0.1401432604 0.6023171544 4291877346
-0.3015856445 -0.1395016164 0.6024362445 4292074725
-0.3016450107 -0.1388595998 0.6025547981 4291877346
-0.3017041385 -0.1382171959 0.6026728749 4291943139
-0.3022015989 -0.1377743781 0.6036666632 4292666862
-0.3026989996 -0.1373293251 0.6046602130 4292930034
-0.3071450889 -0.1895302087 0.6149058342 4292535787
-0.3063614368 -0.1883651763 0.6133369803 4292667373
-0.3060081303 -0.1874672771 0.6126295924 4292798957
-0.3060854673 -0.1868338138 0.6127844453 4292864750
-0.3061625957 -0.1861998737 0.6129388809 4292996336
-0.3080677390 -0.1818764657 0.6167529821 4292271841
-0.3081431389 -0.1812355667 0.6169039607 4290758602
-0.3082183301 -0.1805941910 0.6170544624 4289903293
-0.3082932830 -0.1799523532 0.6172044873 4289837500
-0.3079355061 -0.1790585518 0.6164882183 4289968832
-0.3075773120 -0.1781660914 0.6157711148 4290232004
-0.3072186410 -0.1772749722 0.6150530577 4290363592
-0.3068595529 -0.1763851941 0.6143341660 4290429385
-0.3069329262 -0.1757446378 0.6144810915 4290692557
-0.3065730631 -0.1748566628 0.6137606502 4290166213
-0.3062127531 -0.1739700288 0.6130393147 4287994274
-0.3062852323 -0.1733299047 0.6131843925 4282533455
-0.3063574731 -0.1726893336 0.6133289933 4282928213
-0.3059960604 -0.1718049645 0.6126054525 4283125592
-0.3060677350 -0.1711643934 0.6127489805 4281612355
-0.3061391711 -0.1705233753 0.6128919721 4282204492
-0.3057766557 -0.1696412861 0.6121662259 4282730836
-0.3049798608 -0.1685208529 0.6105710268 4281349183
-0.3041824400 -0.1674036235 0.6089745760 4286283658
-0.3029503822 -0.1660516858 0.6065079570 4290889168
-0.3004150689 -0.1639938205 0.6014323235 4291941854
-0.2983125746 -0.1621825248 0.5972231030 4291941854
-0.2975118458 -0.1610854119 0.5956200361 4291481303
-0.2967104614 -0.1599915177 0.5940156579 4290823373
-0.2963429987 -0.1591341943 0.5932799578 4290889166
-0.2964097261 -0.1585106999 0.5934135318 4290954959
-0.2964761853 -0.1578867733 0.5935466290 4290428615
-0.2965424657 -0.1572624445 0.5936793089 4290428615
-0.2966084778 -0.1566376835 0.5938114524 4291349717
-0.2966742516 -0.1560125202 0.5939431787 4291086545
-0.2963047028 -0.1551590860 0.5932033062 4290560203
-0.2968051136 -0.1547609270 0.5942051411 4290033859
-0.2968702018 -0.1541345119 0.5943354368 4291678684
-0.2969350517 -0.1535076797 0.5944652557 4291283926
-0.2974351346 -0.1531046182 0.5954664946 4290823375
-0.2974996269 -0.1524760574 0.5955955386 4290625996
-0.2975638509 -0.1518470794 0.5957241058 4291612378
-0.2976278365 -0.1512176991 0.5958522558 4291480792
-0.2981274426 -0.1508083940 0.5968524814 4290428617
-0.2990629673 -0.1506163925 0.5987253785 4290231238
-0.2995625436 -0.1502016634 0.5997255445 4291152340
-0.2996259630 -0.1495669782 0.5998525023 4290625996
-0.3001253605 -0.1491486728 0.6008522511 4289375929
-0.2997520268 -0.1482964009 0.6001049280 4289375929
-0.2993783057 -0.1474455744 0.5993567109 4290560203
-0.2994406521 -0.1468102187 0.5994814634 4290231238
-0.2995027602 -0.1461744457 0.5996057987 4288916148
-0.2991279066 -0.1453261375 0.5988554358 4289245113
-0.2987526655 -0.1444793046 0.5981041789 4290232008
-0.2988138497 -0.1438442171 0.5982266665 4289705664
-0.2984378338 -0.1429993808 0.5974738598 4289310136
-0.2984984517 -0.1423644423 0.5975952148 4289770687
-0.2985588312 -0.1417291313 0.5977160335 4289969349
-0.2986189425 -0.1410934329 0.5978364348 4289443005
-0.2986788154 -0.1404573470 0.5979562998 4288916661
-0.2987384200 -0.1398208737 0.5980756283 4289245626
-0.2987978160 -0.1391840279 0.5981945395 4289771970
-0.2988569438 -0.1385468096 0.5983129144 4289311419
-0.2989158034 -0.1379092038 0.5984307528 4288785075
-0.2989744544 -0.1372712255 0.5985481739 4289048247
-0.2990328372 -0.1366328746 0.5986650586 4289706177
-0.2995288670 -0.1361932606 0.5996581316 4289903556
-0.2995868325 -0.1355532259 0.5997741818 4289837763
-0.2996445596 -0.1349128187 0.5998896956 4290166728
-0.3001401722 -0.1344683468 0.6008819342 4290758865
-0.3001974821 -0.1338262707 0.6009966731 4290824658
-0.3002545238 -0.1331838220 0.6011108756 4290758865
-0.3007497191 -0.1327344924 0.6021022797 4291087830
-0.3008063436 -0.1320903897 0.6022156477 4291745758
-0.3008627295 -0.1314458996 0.6023284793 4291811551
-0.3013574779 -0.1309917420 0.6033189893 4291943137
-0.3014134169 -0.1303455979 0.6034309864 4292140516
-0.3014691174 -0.1296990961 0.6035424471 4292403688
-0.3015245199 -0.1290522367 0.6036534309 4292469481
-0.3020186722 -0.1285919398 0.6046427488 4292535274
-0.3020736873 -0.1279434264 0.6047528386 4292798446
-0.3047443926 -0.2108872533 0.6114592552 4289574076
-0.3048297167 -0.2102667242 0.6116303802 4290231236
-0.3053412735 -0.2099388838 0.6126568317 4290428615
-0.3054262698 -0.2093164325 0.6128274202 4290626766
-0.3055110872 -0.2086934745 0.6129975915 4290955731
-0.3055956960 -0.2080699950 0.6131672859 4291218903
-0.3052531481 -0.2071562558 0.6124800444 4291482075
-0.3053372204 -0.2065326273 0.6126487255 4291942624
-0.3058482409 -0.2061964422 0.6136741042 4292271589
-0.3059320152 -0.2055709064 0.6138421893 4292534761
-0.3064429760 -0.2052310854 0.6148673892 4292732140
-0.3060989380 -0.2043182701 0.6141771078 4292798448
-0.3059234023 -0.1912430376 0.6138248444 4292535272
-0.3051424325 -0.1900745779 0.6122578979 4291482838
-0.3052206039 -0.1894428283 0.6124147177 4289903806
-0.3052985370 -0.1888105869 0.6125711203 4289903796
-0.3049461544 -0.1879128218 0.6118640304 4290232761
-0.3041630983 -0.1867522150 0.6102929115 4290166967
-0.3038097322 -0.1858579665 0.6095838547 4289640623
-0.3038863540 -0.1852273643 0.6097375751 4289311918
-0.3039627373 -0.1845963001 0.6098908782 4289180332
-0.3044695556 -0.1842253357 0.6109077930 4289377208
-0.3049763739 -0.1838520914 0.6119247079 4289640380
-0.3046214581 -0.1829590350 0.6112125516 4290100931
-0.3046970665 -0.1823251694 0.6113642454 4290495689
-0.3052035272 -0.1819478273 0.6123804450 4290759364
-0.3052787781 -0.1813121289 0.6125314236 4291088329
-0.3057850897 -0.1809311658 0.6135473847 4291154633
-0.3058600128 -0.1802936196 0.6136977077 4290496703
-0.3055031896 -0.1794022322 0.6129817367 4289049009
-0.3055775464 -0.1787646562 0.6131309271 4289114802
-0.3052199781 -0.1778750271 0.6124134660 4290297797
-0.3048619330 -0.1769867390 0.6116951108 4290166211
-0.3045034707 -0.1760998070 0.6109758615 4289968832
-0.3037125468 -0.1749653220 0.6093888879 4290363590
-0.3037852347 -0.1743299663 0.6095347404 4290297799
-0.3034254611 -0.1734470725 0.6088128686 4288981939
-0.3034975827 -0.1728117019 0.6089575887 4287007379
-0.3035694957 -0.1721758842 0.6091018319 4281743939
-0.3036411405 -0.1715396047 0.6092455983 4283191387
-0.3037125766 -0.1709028929 0.6093889475 4282665043
-0.3033510447 -0.1700231731 0.6086634994 4281546562
-0.3034219146 -0.1693864614 0.6088057160 4282665043
-0.3034925461 -0.1687493175 0.6089473963 4282598738
-0.3026968539 -0.1676320732 0.6073508859 4282467152
-0.3014673889 -0.1662791371 0.6048840284 4289507003
-0.3002370894 -0.1649312228 0.6024154425 4292665067
-0.2977059186 -0.1628770828 0.5973367691 4291942624
-0.2969071269 -0.1617781371 0.5957340002 4291482073
-0.2961076796 -0.1606824249 0.5941299796 4291153110
-0.2957412601 -0.1598242819 0.5933947563 4291153110
-0.2953743935 -0.1589675397 0.5926586390 4290362824
-0.2954409420 -0.1583447307 0.5927922130 4289441722
-0.2955072820 -0.1577214897 0.5929252505 4289441720
-0.2955733836 -0.1570978314 0.5930578709 4290165443
-0.2956392169 -0.1564737558 0.5931900144 4290297029
-0.2957048416 -0.1558492780 0.5933216810 4289375927
-0.2957702577 -0.1552243680 0.5934529305 4289507513
-0.2954009771 -0.1543720365 0.5927119851 4289639099
-0.2959003150 -0.1539733261 0.5937139392 4291217874
-0.2959650159 -0.1533471793 0.5938436985 4289638842
-0.2960294783 -0.1527206302 0.5939730406 4290165186
-0.2960936725 -0.1520936638 0.5941019058 4290757323
-0.2961576581 -0.1514662951 0.5942302346 4292468198
-0.2966564000 -0.1510600150 0.5952309370 4292994542
-0.2967199981 -0.1504309177 0.5953585505 4292073440
-0.2972185016 -0.1500210613 0.5963588357 4291612889
-0.2977169752 -0.1496089548 0.5973590016 4291283924
-0.2977800667 -0.1489768028 0.5974855423 4291152338
-0.2978428900 -0.1483442485 0.5976116061 4290428615
-0.2974699438 -0.1474953443 0.5968632698 4291086545
-0.2975321710 -0.1468629092 0.5969882011 4291350487
-0.2971584797 -0.1460159868 0.5962383747 4290889936
-0.2972201705 -0.1453836858 0.5963621140 4289903041
-0.2968457043 -0.1445387602 0.5956107378 4291021522
-0.2964708209 -0.1436952949 0.5948585868 4291482073
-0.2965315878 -0.1430636793 0.5949804783 4291087315
-0.2965921164 -0.1424316764 0.5951019526 4290363592
-0.2966524065 -0.1417993009 0.5952228904 4291021522
-0.2967124283 -0.1411665231 0.5953434110 4291153110
-0.2967722416 -0.1405333728 0.5954633355 4290297801
-0.2968317866 -0.1398998350 0.5955828428 4289771457
-0.2964544892 -0.1390611231 0.5948258042 4290495180
-0.2965134680 -0.1384277493 0.5949441195 4290758352
-0.2965721786 -0.1377940178 0.5950619578 4289442492
-0.2966306508 -0.1371598989 0.5951793194 4288916148
-0.2966888845 -0.1365254074 0.5952961445 4289837250
-0.2967468798 -0.1358905435 0.5954124928 4290495180
-0.2968046367 -0.1352553070 0.5955283642 4289442492
-0.2968621254 -0.1346197128 0.5956436992 4288915893
-0.2969193459 -0.1339837313 0.5957585573 4290231753
-0.2974137068 -0.1335437894 0.5967504978 4290034374
-0.2974705398 -0.1329061389 0.5968645215 4289705409
-0.2975271344 -0.1322681308 0.5969780087 4288981686
-0.2975834310 -0.1316297650 0.5970910192 4289836995
-0.2980772257 -0.1311836541 0.5980817676 4289771966
-0.2981331348 -0.1305436343 0.5981939435 4289311415
-0.2981887758 -0.1299032420 0.5983055830 4289245624
-0.2982441783 -0.1292624921 0.5984167457 4289969347
-0.2982993126 -0.1286213845 0.5985274315 4289837763
-0.2983542085 -0.1279799193 0.5986375213 4289311419
-0.2984088361 -0.1273380965 0.5987471938 4289508796
-0.2984632254 -0.1266959310 0.5988562703 4290298312
-0.2985173464 -0.1260534227 0.5989648700 4290561486
-0.2990096509 -0.1255947053 0.5999526381 4290035142
-0.2990633547 -0.1249505505 0.6000604033 4290758610
-0.2991167903 -0.1243060455 0.6001676321 4291153368
-0.2991699576 -0.1236611977 0.6002743244 4291548126
-0.2996616066 -0.1231963858 0.6012608409 4291219161
-0.3001531661 -0.1227293313 0.6022471189 4291548126
-0.3006446362 -0.1222600490 0.6032332182 4291745505
-0.3011359870 -0.1217885241 0.6042190790 4292008932
-0.3016272187 -0.1213147715 0.6052047014 4292272104
-0.3016792238 -0.1206631437 0.6053090692 4292403690
-0.3017309606 -0.1200111806 0.6054129004 4292601069
-0.3017824292 -0.1193588898 0.6055161357 4292864241
-0.3022730052 -0.1188790426 0.6065004468 4292930034
-0.3023240268 -0.1182251349 0.6066028476 4292995825
-0.3028142750 -0.1177417785 0.6075865030 4293193204
-0.3122442365 -0.1060943007 0.6265074015 4293390835
-0.3127311766 -0.1055625752 0.6274844408 4293390835
-0.3033374250 -0.2103824466 0.6099956036 4287402907
-0.3034224212 -0.2097634524 0.6101664901 4287270805
-0.3039328754 -0.2094372660 0.6111930013 4287205012
-0.3040175438 -0.2088163495 0.6113632917 4287008149
-0.3041020334 -0.2081949264 0.6115331650 4287008149
-0.3041863143 -0.2075729817 0.6117026806 4287073942
-0.3038442433 -0.2066606730 0.6110147834 4287139735
-0.3039279878 -0.2060385644 0.6111831665 4287336598
-0.3044379354 -0.2057040483 0.6122086048 4287336598
-0.3049478829 -0.2053672671 0.6132341027 4287468698
-0.3046046197 -0.2044555247 0.6125438213 4287666077
-0.3046876490 -0.2038304955 0.6127108335 4287929251
-0.3047704995 -0.2032049596 0.6128773689 4288324009
-0.3048531115 -0.2025789022 0.6130435467 4288850866
-0.3049355149 -0.2019523531 0.6132092476 4289311417
-0.3050177097 -0.2013252825 0.6133745313 4289837246
-0.3046723902 -0.2004166245 0.6126801372 4290166211
-0.3043266237 -0.1995092034 0.6119847894 4290561484
-0.3044079542 -0.1988823861 0.6121483445 4290758863
-0.3044890761 -0.1982550621 0.6123114824 4291087830
-0.3041422069 -0.1973496675 0.6116139293 4291351002
-0.3046506643 -0.1969989240 0.6126364470 4291679712
-0.3047311306 -0.1963700950 0.6127982736 4291942884
-0.3048113883 -0.1957407743 0.6129596829 4292271849
-0.3048914373 -0.1951109618 0.6131206155 4292403435
-0.3045429587 -0.1942074895 0.6124198437 4292995314
-0.3047017455 -0.1929471642 0.6127391458 4292666345
-0.3047808111 -0.1923162490 0.6128981113 4290363590
-0.3048596382 -0.1916848570 0.6130567193 4288916398
-0.3045094013 -0.1907842606 0.6123523712 4288455847
-0.3037297130 -0.1896171272 0.6107844114 4287666584
-0.3033784628 -0.1887200177 0.6100780964 4286482310
-0.3034559786 -0.1880902201 0.6102340221 4287403913
-0.3031039834 -0.1871948093 0.6095260978 4286548604
-0.3031809628 -0.1865649521 0.6096809506 4285364076
-0.3023986220 -0.1854078919 0.6081076860 4284706146
-0.3020452857 -0.1845164001 0.6073971987 4284311650
-0.3021212816 -0.1838877946 0.6075500250 4284180064
-0.3026269376 -0.1835193932 0.6085668206 4283982436
-0.3031325638 -0.1831487268 0.6095836163 4284114022
-0.3027780354 -0.1822580248 0.6088706851 4284048229
-0.3028532267 -0.1816266328 0.6090219021 4284442987
-0.3029282391 -0.1809947640 0.6091727018 4284574824
-0.3030029833 -0.1803624332 0.6093230247 4285561719
-0.3035080433 -0.1799849272 0.6103386879 4287009674
-0.3035824597 -0.1793507636 0.6104882956 4286746502
-0.3032259345 -0.1784626395 0.6097713709 4285956988
-0.3028689623 -0.1775758415 0.6090535522 4287470227
-0.3029424846 -0.1769420952 0.6092013717 4289245109
-0.3025847673 -0.1760570854 0.6084820032 4288389800
-0.3022266030 -0.1751734167 0.6077617407 4290100418
-0.3018679917 -0.1742911041 0.6070406437 4290824141
-0.3019402921 -0.1736582220 0.6071860194 4290034627
-0.3015809357 -0.1727777123 0.6064633727 4288916146
-0.3016526699 -0.1721448302 0.6066076159 4285494140
-0.3017241955 -0.1715115011 0.6067514420 4281283388
-0.3017954826 -0.1708777100 0.6068947911 4282928215
-0.3014346659 -0.1699999273 0.6061692238 4282204492
-0.3015053868 -0.1693661660 0.6063115001 4281414977
-0.3011438251 -0.1684902012 0.6055843830 4282467665
-0.3012139797 -0.1678564548 0.6057254672 4282138187
-0.3004193902 -0.1667424291 0.6041275859 4283519840
-0.2996241748 -0.1656316072 0.6025284529 4290691279
-0.2983958721 -0.1642858833 0.6000583768 4293059827
-0.2963016033 -0.1624708474 0.5958469510 4291942624
-0.2959367633 -0.1616095752 0.5951132178 4291416280
-0.2955714762 -0.1607497036 0.5943787098 4291218903
-0.2947729230 -0.1596567780 0.5927728415 4291153110
-0.2948396504 -0.1590341479 0.5929070115 4289639101
-0.2949061394 -0.1584111154 0.5930407047 4289046964
-0.2949723899 -0.1577876359 0.5931739807 4289441720
-0.2950384319 -0.1571637541 0.5933067203 4290231236
-0.2951042354 -0.1565394551 0.5934390426 4289375927
-0.2951697707 -0.1559147239 0.5935708880 4289968064
-0.2952351272 -0.1552895904 0.5937022567 4290165443
-0.2948665917 -0.1544369310 0.5929611325 4288915376
-0.2949313521 -0.1538118720 0.5930914283 4289375670
-0.2954297066 -0.1534117013 0.5940935612 4288980912
-0.2954940796 -0.1527849138 0.5942230225 4289638840
-0.2955582440 -0.1521577090 0.5943520665 4289704633
-0.2956221700 -0.1515301019 0.5944805741 4291678682
-0.2956858277 -0.1509020925 0.5946086645 4292731370
-0.2957492769 -0.1502736807 0.5947362185 4292073440
-0.2962468565 -0.1498645991 0.5957368612 4289836478
-0.2963099182 -0.1492344588 0.5958636403 4289375927
-0.2963727415 -0.1486039162 0.5959900022 4289441720
-0.2964353263 -0.1479729563 0.5961158276 4290560201
-0.2964976728 -0.1473416090 0.5962412357 4290099650
-0.2961249352 -0.1464947462 0.5954916477 4290297029
-0.2957517803 -0.1456493437 0.5947412252 4290099650
-0.2953782082 -0.1448054016 0.5939899683 4290758350
-0.2950041890 -0.1439629197 0.5932378769 4290692557
-0.2955001593 -0.1435447186 0.5942353010 4290824143
-0.2951255143 -0.1427033246 0.5934818387 4290560971
-0.2951858044 -0.1420729458 0.5936030746 4290297799
-0.2952458560 -0.1414421797 0.5937238336 4290363592
-0.2953056395 -0.1408110261 0.5938441157 4291153108
-0.2953652143 -0.1401794851 0.5939638615 4290429385
-0.2954245210 -0.1395475715 0.5940831900 4290692557
-0.2950477898 -0.1387103796 0.5933255553 4291745245
-0.2951065302 -0.1380786449 0.5934436917 4291547868
-0.2951650321 -0.1374465227 0.5935613513 4290495180
-0.2952232957 -0.1368140280 0.5936784744 4290758352
-0.2952812910 -0.1361811608 0.5937951207 4291745247
-0.2953390479 -0.1355479211 0.5939112902 4291547868
-0.2953965664 -0.1349143088 0.5940269232 4290100422
-0.2954538465 -0.1342803389 0.5941420794 4290232008
-0.2955108583 -0.1336459816 0.5942567587 4291613661
-0.2955676317 -0.1330112666 0.5943709016 4291087317
-0.2960608006 -0.1325717270 0.5953626633 4290232008
-0.2961171567 -0.1319353431 0.5954760313 4290297801
-0.2961732745 -0.1312986016 0.5955888629 4291350489
-0.2962291241 -0.1306615025 0.5957011580 4290824141
-0.2958477437 -0.1298322529 0.5949342251 4289639867
-0.2959029973 -0.1291953772 0.5950453281 4289705662
-0.2963951826 -0.1287480295 0.5960351229 4290889936
-0.2964500189 -0.1281094998 0.5961453915 4290692557
-0.2960672975 -0.1272825897 0.5953757763 4289508283
-0.2961215675 -0.1266442984 0.5954848528 4289639869
-0.2961755693 -0.1260056496 0.5955935121 4290034627
-0.2962293327 -0.1253666580 0.5957015753 4290035140
-0.2967204750 -0.1249115393 0.5966892242 4289245624
-0.2967737913 -0.1242709085 0.5967965126 4289903556
-0.2968268692 -0.1236299276 0.5969032049 4290364107
-0.2968796790 -0.1229886040 0.5970094204 4290100935
-0.2973701954 -0.1225273982 0.5979958177 4289114040
-0.2974225879 -0.1218844429 0.5981011391 4289574591
-0.2979128063 -0.1214197129 0.5990869999 4290166728
-0.2979647517 -0.1207751408 0.5991914272 4289903554
-0.2984547019 -0.1203068867 0.6001766920 4289443003
-0.2985062003 -0.1196606979 0.6002802253 4289837248
-0.2985574305 -0.1190141663 0.6003832817 4290429385
-0.2986084223 -0.1183673069 0.6004858017 4290166213
-0.2986591458 -0.1177201122 0.6005877852 4289639869
-0.2987096012 -0.1170725971 0.6006892323 4289706175
-0.2991985083 -0.1165957078 0.6016724110 4290364105
-0.2992485166 -0.1159465834 0.6017729640 4290824656
-0.2997370958 -0.1154661924 0.6027555466 4291087828
-0.3002255857 -0.1149835736 0.6037378311 4291416793
-0.3002749383 -0.1143315658 0.6038371325 4291745758
-0.3007631302 -0.1138454452 0.6048187613 4292074723
-0.3008120358 -0.1131918505 0.6049171090 4292272102
-0.3012998700 -0.1127022281 0.6058982015 4292403688
-0.3013483286 -0.1120470390 0.6059955955 4292469481
-0.3013964891 -0.1113915443 0.6060924530 4292601067
-0.3023232520 -0.1110585779 0.6079561114 4292732653
-0.3023710251 -0.1104005352 0.6080521941 4292930032
-0.3028580844 -0.1099016964 0.6090316772 4293193204
-0.3033450246 -0.1094006300 0.6100109220 4293324790
-0.3038318455 -0.1088973433 0.6109898090 4293390583
-0.3081615269 -0.1049409434 0.6196966171 4293061618
-0.3086471260 -0.1044166982 0.6206731200 4293061618
-0.3023575544 -0.2101722807 0.6093862057 4290889938
-0.3024423420 -0.2095539421 0.6095570326 4290691787
-0.3025268912 -0.2089350820 0.6097275019 4290428615
-0.3026112616 -0.2083157152 0.6098974943 4289968834
-0.3022702932 -0.2074041069 0.6092103124 4289639869
-0.3023541272 -0.2067845762 0.6093792915 4289310904
-0.3024377823 -0.2061645240 0.6095478535 4288916146
-0.3029466867 -0.2058330476 0.6105735302 4288455593
-0.3030300438 -0.2052111030 0.6107414961 4288126628
-0.3031131625 -0.2045886368 0.6109091043 4287863456
-0.3031961024 -0.2039656490 0.6110762358 4287666077
-0.3032788038 -0.2033421695 0.6112429500 4287468698
-0.3029352725 -0.2024334520 0.6105505228 4287271319
-0.3030174375 -0.2018098235 0.6107161641 4287073940
-0.3030994236 -0.2011856884 0.6108813882 4287008147
-0.3027547896 -0.2002789676 0.6101867557 4286942608
-0.3028362095 -0.1996546984 0.6103509068 4286876815
-0.3029174507 -0.1990299374 0.6105146408 4286810770
-0.3029984832 -0.1984046549 0.6106778979 4286942356
-0.3030792773 -0.1977788806 0.6108407974 4287139735
-0.3031598926 -0.1971526146 0.6110032201 4287271321
-0.3032402694 -0.1965258420 0.6111652255 4287402909
-0.3033204377 -0.1958985627 0.6113268137 4287534495
-0.3034003973 -0.1952707916 0.6114879251 4287666081
-0.3034801185 -0.1946425289 0.6116486788 4287731874
-0.3035596609 -0.1940137744 0.6118089557 4288652204
-0.3032113016 -0.1931121498 0.6111068726 4290231236
-0.3032902777 -0.1924832910 0.6112660766 4290955211
-0.3033690453 -0.1918539405 0.6114248037 4286876045
-0.3030196130 -0.1909544021 0.6107205153 4283652441
-0.3026697338 -0.1900561452 0.6100153327 4283455062
-0.3023194075 -0.1891591698 0.6093092561 4282994509
-0.3019686341 -0.1882635057 0.6086023450 4282468165
-0.3020458817 -0.1876352876 0.6087579727 4283193161
-0.3016943336 -0.1867413223 0.6080495119 4282929989
-0.3017710447 -0.1861130297 0.6082040668 4283127365
-0.3014187515 -0.1852207929 0.6074940562 4284509018
-0.3010660112 -0.1843298525 0.6067831516 4285365090
-0.3007128537 -0.1834402382 0.6060713530 4285891434
-0.3007883132 -0.1828127354 0.6062234640 4285496929
-0.3008635938 -0.1821847409 0.6063751578 4285167964
-0.3009386361 -0.1815562844 0.6065263748 4284707159
-0.3010134399 -0.1809273660 0.6066771746 4284772952
-0.3010880351 -0.1802979708 0.6068274975 4284312152
-0.3007327914 -0.1794118136 0.6061115265 4285299047
-0.3012365401 -0.1790377796 0.6071268320 4286943880
-0.3008806407 -0.1781524867 0.6064095497 4286022778
-0.3009542227 -0.1775221378 0.6065578461 4284641128
-0.3005975783 -0.1766386181 0.6058390141 4286878090
-0.3002404571 -0.1757564396 0.6051192880 4288324007
-0.3007434011 -0.1753774136 0.6061329842 4286481803
-0.2999553084 -0.1742461324 0.6045445204 4289508281
-0.3000274599 -0.1736161858 0.6046899557 4290560969
-0.3000993729 -0.1729857922 0.6048349142 4289047730
-0.3001710773 -0.1723549515 0.6049793959 4288060835
-0.3002425432 -0.1717236489 0.6051234603 4283783522
-0.3003137708 -0.1710918993 0.6052670479 4281414974
-0.2999538183 -0.1702151299 0.6045415998 4282599250
-0.2995934188 -0.1693397462 0.6038151979 4281678148
-0.2996637821 -0.1687084734 0.6039569974 4281414977
-0.2993026376 -0.1678349078 0.6032291055 4282204493
-0.2989410460 -0.1669627279 0.6025003791 4281414466
-0.2985790372 -0.1660919338 0.6017707586 4284704116
-0.2977850139 -0.1649834067 0.6001704335 4291678174
-0.2965586782 -0.1636398882 0.5976988673 4292928241
-0.2953315377 -0.1623014212 0.5952256322 4291942624
-0.2949673235 -0.1614407301 0.5944915414 4291350487
-0.2946026623 -0.1605814397 0.5937565565 4291350487
-0.2942375839 -0.1597235650 0.5930207968 4290889936
-0.2938720584 -0.1588670760 0.5922840834 4288981169
-0.2939383984 -0.1582447141 0.5924177766 4289046962
-0.2940044999 -0.1576219350 0.5925509930 4289573306
-0.2940703630 -0.1569987237 0.5926837325 4289968064
-0.2941359878 -0.1563751101 0.5928160548 4289112755
-0.2942014039 -0.1557510644 0.5929478407 4291086545
-0.2942665517 -0.1551266164 0.5930792093 4290889166
-0.2943314910 -0.1545017511 0.5932100415 4288652204
-0.2943961918 -0.1538764685 0.5933404565 4288322982
-0.2944606543 -0.1532507837 0.5934703946 4288191396
-0.2945249081 -0.1526246816 0.5935998559 4288257187
-0.2945888937 -0.1519981623 0.5937288404 4288849324
-0.2946526706 -0.1513712555 0.5938573480 4291415510
-0.2947161794 -0.1507439166 0.5939853787 4292994542
-0.2947794795 -0.1501161903 0.5941129327 4291941854
-0.2952761054 -0.1497078985 0.5951139331 4289573306
-0.2953390181 -0.1490784287 0.5952407122 4289704892
-0.2954016924 -0.1484485716 0.5953670144 4289704892
-0.2954641283 -0.1478183120 0.5954928398 4290691787
-0.2946583927 -0.1467553824 0.5938689113 4289244341
-0.2951542139 -0.1463413835 0.5948681831 4288783790
-0.2947816849 -0.1454965770 0.5941174030 4288060067
-0.2944087386 -0.1446532309 0.5933657885 4290494408
-0.2940353751 -0.1438113451 0.5926132798 4288981169
-0.2936615944 -0.1429709345 0.5918599367 4289573308
-0.2937219143 -0.1423425525 0.5919814706 4288783792
-0.2937819660 -0.1417137831 0.5921024680 4289441722
-0.2938417792 -0.1410846412 0.5922230482 4289507515
-0.2939013541 -0.1404551119 0.5923430920 4289705662
-0.2939606607 -0.1398251951 0.5924627185 4289705662
-0.2940197587 -0.1391948909 0.5925817490 4290363592
-0.2936435640 -0.1383592486 0.5918235779 4291218901
-0.2937020957 -0.1377291232 0.5919415355 4290626764
-0.2937603593 -0.1370986253 0.5920589566 4289245111
-0.2938183844 -0.1364677548 0.5921759009 4289113525
-0.2938761711 -0.1358365119 0.5922923684 4289837248
-0.2939336896 -0.1352049112 0.5924082994 4291021522
-0.2944265306 -0.1347722858 0.5934016109 4290889936
-0.2940480411 -0.1339405626 0.5926387310 4290889936
-0.2941048145 -0.1333078444 0.5927532315 4290824143
-0.2941613793 -0.1326747537 0.5928671956 4291284696
-0.2946535349 -0.1322369277 0.5938591361 4290692559
-0.2947096825 -0.1316021681 0.5939722657 4291218903
-0.2947655618 -0.1309670508 0.5940849185 4291218903
-0.2948212028 -0.1303315759 0.5941970348 4290889936
-0.2944403887 -0.1295038909 0.5934295058 4290824143
-0.2944954336 -0.1288686395 0.5935404897 4291350487
-0.2945502400 -0.1282330304 0.5936509371 4291416280
-0.2946048081 -0.1275970787 0.5937609076 4291679452
-0.2946591079 -0.1269607544 0.5938703418 4290758350
-0.2942765355 -0.1261369437 0.5930992961 4291153108
-0.2943302691 -0.1255008727 0.5932075977 4291679452
-0.2943837345 -0.1248644590 0.5933153629 4291153108
-0.2944369316 -0.1242276952 0.5934225917 4290495178
-0.2944898903 -0.1235905886 0.5935293436 4291218903
-0.2945426106 -0.1229531392 0.5936355591 4291613661
-0.2945950627 -0.1223153397 0.5937412977 4291021524
-0.2950844169 -0.1218577400 0.5947275758 4290034629
-0.2951364517 -0.1212183237 0.5948324203 4290626766
-0.2951882184 -0.1205785647 0.5949367285 4291153110
-0.2956771255 -0.1201161593 0.5959221125 4290429385
-0.2957284451 -0.1194747835 0.5960255265 4289705662
-0.2957795262 -0.1188330799 0.5961284637 4290166213
-0.2958303392 -0.1181910411 0.5962309241 4290889936
-0.2958808839 -0.1175486669 0.5963327885 4290100420
-0.2959311903 -0.1169059724 0.5964341760 4289179318
-0.2959812284 -0.1162629500 0.5965350270 4289443003
-0.2964689434 -0.1157906279 0.5975179672 4290100933
-0.2965185344 -0.1151460037 0.5976179242 4289969347
-0.2965678573 -0.1145010591 0.5977173448 4290100933
-0.2970550656 -0.1140239611 0.5986992717 4290298312
-0.2971039414 -0.1133774221 0.5987977982 4290495691
-0.2971525788 -0.1127305552 0.5988957882 4290627277
-0.2972009182 -0.1120833755 0.5989932418 4290627277
-0.2976874411 -0.1116002426 0.5999737978 4290561484
-0.2977353632 -0.1109514832 0.6000703573 4290627277
-0.2977829874 -0.1103024036 0.6001663804 4290692304
-0.2982690036 -0.1098145097 0.6011458635 4290692304
-0.2987548709 -0.1093243957 0.6021251678 4290889938
-0.2992406189 -0.1088320613 0.6031041741 4291087317
-0.2992874086 -0.1081788763 0.6031984687 4291153110
-0.2997728288 -0.1076830551 0.6041768193 4291218903
-0.3002581298 -0.1071850061 0.6051548719 4291481820
-0.3007432818 -0.1066847369 0.6061326861 4291810785
-0.3012283146 -0.1061822549 0.6071102619 4291810785
-0.3017131984 -0.1056775451 0.6080874801 4291876578
-0.3026371896 -0.1053234786 0.6099497676 4292140005
-0.3031218648 -0.1048133746 0.6109265685 4292600556
-0.3036063910 -0.1043010503 0.6119031310 4292732142
-0.3040907681 -0.1037864983 0.6128793955 4292666349
-0.3045750260 -0.1032697409 0.6138553619 4292929266
-0.3054986894 -0.1028988138 0.6157169938 4293455610
-0.3014631271 -0.2093441039 0.6089466214 4293192693
-0.3015474975 -0.2087259144 0.6091170907 4293192693
-0.3016316593 -0.2081072032 0.6092870831 4293126900
-0.3012912571 -0.2071961612 0.6085994840 4293061107
-0.3013749123 -0.2065772861 0.6087684035 4292995314
-0.3010337353 -0.2056678236 0.6080793142 4292863728
-0.3015415668 -0.2053380013 0.6091050506 4292600556
-0.3016245961 -0.2047175914 0.6092727780 4292403177
-0.3017074168 -0.2040966749 0.6094400883 4292140003
-0.3017900288 -0.2034752369 0.6096069217 4292008417
-0.3018724322 -0.2028532922 0.6097733974 4291811038
-0.3019546270 -0.2022308409 0.6099393964 4291547866
-0.3016112149 -0.2013239264 0.6092457175 4291284694
-0.3021183908 -0.2009844184 0.6102702022 4290955729
-0.3021999598 -0.2003604472 0.6104350090 4290626764
-0.3018555641 -0.1994546503 0.6097393632 4290429385
-0.3015107512 -0.1985501051 0.6090428233 4290232519
-0.3015914559 -0.1979263872 0.6092058420 4290100933
-0.3016719520 -0.1973021626 0.6093684435 4289903041
-0.3017522395 -0.1966774464 0.6095306277 4289508283
-0.3018323183 -0.1960522234 0.6096923947 4289113527
-0.3019121885 -0.1954265088 0.6098536849 4288718769
-0.3019918203 -0.1948002875 0.6100145578 4288324011
-0.3020712733 -0.1941735893 0.6101750135 4288060839
-0.3021504879 -0.1935463846 0.6103350520 4288125860
-0.3018026054 -0.1926462054 0.6096323729 4288060067
-0.3018812835 -0.1920189112 0.6097912788 4287928733
-0.3019597530 -0.1913911104 0.6099497676 4285165427
-0.3016107976 -0.1904930174 0.6092448831 4283783514
-0.3008340597 -0.1893272847 0.6076759100 4284046686
-0.3013389707 -0.1889687330 0.6086958647 4283586133
-0.3009888232 -0.1880736351 0.6079885364 4283322961
-0.3006381989 -0.1871798187 0.6072803140 4283127368
-0.3002871573 -0.1862873137 0.6065711975 4283193161
-0.3003635705 -0.1856606007 0.6067255139 4283851342
-0.3004397452 -0.1850333959 0.6068794131 4284904030
-0.3000876009 -0.1841430217 0.6061680913 4284707663
-0.2997350395 -0.1832539737 0.6054559350 4285299800
-0.2998103201 -0.1826271415 0.6056080461 4285497681
-0.2998854220 -0.1819998324 0.6057596803 4285497681
-0.2999602556 -0.1813720465 0.6059108973 4285300049
-0.3000349104 -0.1807437986 0.6060616374 4285234256
-0.3001093268 -0.1801150888 0.6062119603 4284575573
-0.2997546792 -0.1792294979 0.6054956317 4285430882
-0.2998285294 -0.1786007434 0.6056448221 4286878087
-0.2994731367 -0.1777169108 0.6049268842 4285759606
-0.2995464504 -0.1770881414 0.6050750017 4284246116
-0.2991902828 -0.1762060970 0.6043555140 4286285699
-0.2988336682 -0.1753253937 0.6036351919 4287337366
-0.2989060879 -0.1746970415 0.6037815213 4286679436
-0.2989782989 -0.1740682274 0.6039273143 4289311156
-0.2986206114 -0.1731897742 0.6032047868 4289442742
-0.2986922562 -0.1725609601 0.6033495069 4287402905
-0.2987636626 -0.1719316989 0.6034938097 4287337112
-0.2988348603 -0.1713019907 0.6036375761 4283059799
-0.2989058197 -0.1706718206 0.6037809253 4281217595
-0.2989765704 -0.1700412035 0.6039238572 4282072906
-0.2986167967 -0.1691663861 0.6031970978 4281283390
-0.2982565761 -0.1682929546 0.6024695039 4281414977
-0.2978959382 -0.1674208790 0.6017410159 4282072907
-0.2979654670 -0.1667912155 0.6018814445 4281151292
-0.2976040542 -0.1659210026 0.6011514068 4285954181
-0.2950883210 -0.1638561338 0.5960696936 4292138725
-0.2964490950 -0.1639464200 0.5988184214 4292796655
-0.2943623662 -0.1621317416 0.5946033001 4291811038
-0.2939987481 -0.1612716317 0.5938688517 4291547866
-0.2936347425 -0.1604129374 0.5931335092 4291482073
-0.2937015593 -0.1597902775 0.5932684541 4290955729
-0.2933367491 -0.1589334607 0.5925316215 4289573306
-0.2938345075 -0.1585436761 0.5935370326 4290428615
-0.2939006388 -0.1579197496 0.5936706066 4290823627
-0.2939665318 -0.1572954059 0.5938037038 4290626248
-0.2940321863 -0.1566706300 0.5939363241 4289113009
-0.2940976322 -0.1560454369 0.5940685272 4290034111
-0.2941628098 -0.1554198414 0.5942002535 4289573560
-0.2942277789 -0.1547938138 0.5943314433 4288915630
-0.2942925096 -0.1541673839 0.5944622159 4289178289
-0.2939247787 -0.1533150822 0.5937193632 4289375668
-0.2939889431 -0.1526887417 0.5938490033 4288717738
-0.2940528989 -0.1520619988 0.5939781666 4289112496
-0.2941165864 -0.1514348388 0.5941068530 4291415764
-0.2941800356 -0.1508072764 0.5942350030 4292731624
-0.2942432761 -0.1501793116 0.5943627357 4291415764
-0.2947390676 -0.1497708708 0.5953642130 4290099904
-0.2948019207 -0.1491411626 0.5954911709 4288652458
-0.2944315374 -0.1482929885 0.5947430134 4288784044
-0.2944938242 -0.1476634145 0.5948688388 4289507767
-0.2941226661 -0.1468172222 0.5941191316 4289310388
-0.2941843867 -0.1461877674 0.5942437649 4288520618
-0.2938125134 -0.1453435570 0.5934925675 4288915376
-0.2938736379 -0.1447142512 0.5936160684 4288981169
-0.2935010195 -0.1438720375 0.5928633809 4288783790
-0.2931279540 -0.1430312991 0.5921097994 4289244341
-0.2931881845 -0.1424026787 0.5922315121 4289704892
-0.2932482064 -0.1417736709 0.5923526883 4290494408
-0.2928740680 -0.1409354955 0.5915969610 4290165443
-0.2929334939 -0.1403066516 0.5917170048 4289968064
-0.2929926813 -0.1396774203 0.5918365717 4289375927
-0.2930516005 -0.1390478164 0.5919556022 4290494408
-0.2926760912 -0.1382127702 0.5911970735 4291218131
-0.2927344441 -0.1375833452 0.5913149714 4289836478
-0.2927925587 -0.1369535327 0.5914323330 4289310134
-0.2928504646 -0.1363233477 0.5915492773 4290099650
-0.2929081023 -0.1356928051 0.5916656852 4290033857
-0.2929655015 -0.1350618750 0.5917816162 4290889166
-0.2930226326 -0.1344305873 0.5918970704 4291218131
-0.2930795252 -0.1337989271 0.5920120478 4290099650
-0.2931361794 -0.1331668943 0.5921264887 4290033857
-0.2931925952 -0.1325345039 0.5922403932 4291415510
-0.2932487726 -0.1319017410 0.5923538804 4289639099
-0.2933046818 -0.1312686205 0.5924668312 4290362822
-0.2933603525 -0.1306351274 0.5925792456 4289375927
-0.2934157550 -0.1300012916 0.5926911831 4289310134
-0.2934709489 -0.1293670833 0.5928026438 4289244341
-0.2935258448 -0.1287325174 0.5929135680 4290429385
-0.2935805321 -0.1280976087 0.5930240154 4289508283
-0.2931993008 -0.1272732317 0.5922539234 4289508283
-0.2932533920 -0.1266385466 0.5923631787 4289574076
-0.2928713858 -0.1258163005 0.5915915966 4290889936
-0.2929249108 -0.1251818538 0.5916996598 4291416280
-0.2929781675 -0.1245470792 0.5918072462 4291284694
-0.2934672236 -0.1240963489 0.5927951336 4291218901
-0.2935200632 -0.1234599277 0.5929018855 4291613661
-0.2935726345 -0.1228231713 0.5930081010 4291745247
-0.2936249673 -0.1221860722 0.5931137800 4291482075
-0.2936770320 -0.1215486303 0.5932189822 4291087317
-0.2937288582 -0.1209108531 0.5933236480 4291679452
-0.2937804163 -0.1202727407 0.5934277773 4291745245
-0.2938317358 -0.1196342856 0.5935314298 4291218903
-0.2938827872 -0.1189955026 0.5936345458 4290824145
-0.2939335704 -0.1183563918 0.5937371850 4291416282
-0.2935473025 -0.1175420284 0.5929569006 4291811040
-0.2940343916 -0.1170771644 0.5939408541 4291087317
-0.2940844297 -0.1164370626 0.5940418839 4290692559
-0.2941341996 -0.1157966331 0.5941424370 4291153108
-0.2941837013 -0.1151558831 0.5942424536 4291416280
-0.2942329645 -0.1145148054 0.5943419337 4291745758
-0.2942819595 -0.1138734072 0.5944408774 4291745758
-0.2943307161 -0.1132316887 0.5945393443 4291745758
-0.2948165834 -0.1127569526 0.5955207944 4291745758
-0.2948648930 -0.1121136472 0.5956183672 4291811551
-0.2949129045 -0.1114700213 0.5957154036 4291679965
-0.2949606776 -0.1108260900 0.5958118439 4291548379
-0.2950081825 -0.1101818383 0.5959078074 4291482586
-0.2950554192 -0.1095372811 0.5960032344 4291547868
-0.2955402434 -0.1090539768 0.5969825983 4291350489
-0.2960249484 -0.1085684523 0.5979616642 4291218903
-0.2960715294 -0.1079210564 0.5980557799 4291218903
-0.2965559065 -0.1074320450 0.5990341902 4291153110
-0.2966020405 -0.1067830846 0.5991273522 4291021524
-0.2970860898 -0.1062905937 0.6001051068 4291218903
-0.2971317470 -0.1056400687 0.6001973748 4291482075
-0.2976154685 -0.1051440984 0.6011744738 4291547868
-0.2980990410 -0.1046459079 0.6021512747 4291482075
-0.2985824943 -0.1041455045 0.6031278372 4291745247
-0.2990658283 -0.1036428809 0.6041041017 4292337384
-0.2995489836 -0.1031380370 0.6050801277 4292732142
-0.3000320196 -0.1026309803 0.6060558558 4292797935
-0.3009536266 -0.1022707894 0.6079174280 4293126900
-0.3006923795 -0.1971036941 0.6087554693 4293127413
-0.3007724583 -0.1964796484 0.6089175940 4293061620
-0.3008523583 -0.1958550960 0.6090793610 4292995572
-0.3009320199 -0.1952300519 0.6092406511 4292798193
-0.3010114729 -0.1946045160 0.6094014645 4292600301
-0.3010907173 -0.1939784735 0.6095619202 4292402922
-0.3007437587 -0.1930784583 0.6088594794 4292074212
-0.3008224666 -0.1924523264 0.6090188622 4291021524
-0.3009009361 -0.1918257028 0.6091777682 4289836732
-0.3005529046 -0.1909277588 0.6084731221 4287336598
-0.3006308377 -0.1903010458 0.6086308956 4285889149
-0.3002820313 -0.1894048005 0.6079247594 4285165426
-0.2999328077 -0.1885098517 0.6072177291 4284441957
-0.3000098765 -0.1878834665 0.6073737741 4284507750
-0.2996598780 -0.1869902164 0.6066651344 4283587919
-0.2993094325 -0.1860982776 0.6059556603 4283324747
-0.2993856370 -0.1854722351 0.6061099768 4284114261
-0.2994616330 -0.1848457009 0.6062638164 4285627500
-0.2991100848 -0.1839559078 0.6055521369 4285233503
-0.2987581193 -0.1830674261 0.6048395634 4285430882
-0.2988332510 -0.1824412644 0.6049916148 4285168213
-0.2989081442 -0.1818146259 0.6051432490 4284641869
-0.2989827991 -0.1811875254 0.6052944660 4284378444
-0.2990572751 -0.1805599481 0.6054451466 4284312651
-0.2991314828 -0.1799319088 0.6055954695 4284048981
-0.2987774611 -0.1790468842 0.6048787236 4285101669
-0.2988511324 -0.1784188151 0.6050278544 4286285953
-0.2984963357 -0.1775355637 0.6043095589 4285759609
-0.2981410921 -0.1766536385 0.6035904288 4284443495
-0.2977854311 -0.1757730693 0.6028703451 4285298804
-0.2974293530 -0.1748938560 0.6021494269 4286350470
-0.2975014746 -0.1742670834 0.6022954583 4287074193
-0.2975734174 -0.1736398488 0.6024410725 4289179570
-0.2976450920 -0.1730121821 0.6025862694 4288719019
-0.2972875834 -0.1721356511 0.6018624306 4286679436
-0.2973587215 -0.1715079695 0.6020064950 4287139987
-0.2974296510 -0.1708798409 0.6021500230 4282467916
-0.2975003421 -0.1702512652 0.6022931933 4281415228
-0.2980001867 -0.1698670089 0.6033051610 4282007111
-0.2976410389 -0.1689927727 0.6025779843 4281414974
-0.2977110445 -0.1683628559 0.6027197242 4281612355
-0.2969214320 -0.1672484130 0.6011211276 4282270285
-0.2969907820 -0.1666194350 0.6012615561 4281611843
-0.2966299951 -0.1657497883 0.6005311608 4287270041
-0.2954087853 -0.1644029319 0.5980588198 4292204516
-0.2941867709 -0.1630610973 0.5955848098 4292862446
-0.2933940887 -0.1619617939 0.5939800143 4291942624
-0.2934614122 -0.1613388360 0.5941163301 4291679452
-0.2930980921 -0.1604798138 0.5933807492 4291482071
-0.2927343547 -0.1596221775 0.5926443934 4291153106
-0.2928007841 -0.1589997858 0.5927788615 4290494662
-0.2932976782 -0.1586098671 0.5937848091 4291152592
-0.2933637202 -0.1579857022 0.5939185619 4291021006
-0.2934295535 -0.1573611200 0.5940518379 4290757834
-0.2934951484 -0.1567361206 0.5941846371 4289836732
-0.2935605347 -0.1561107039 0.5943169594 4289178802
-0.2936256528 -0.1554848701 0.5944488645 4289310388
-0.2936905622 -0.1548586190 0.5945802331 4290231490
-0.2937552333 -0.1542319506 0.5947111845 4290165184
-0.2938196659 -0.1536048651 0.5948415995 4290757321
-0.2934523225 -0.1527527422 0.5940979123 4290296770
-0.2935161889 -0.1521257609 0.5942272544 4289836219
-0.2935798466 -0.1514983624 0.5943560600 4291086284
-0.2936432362 -0.1508705616 0.5944843888 4291744214
-0.2937064171 -0.1502423584 0.5946123004 4290296768
-0.2937693298 -0.1496137530 0.5947396755 4290033596
-0.2942641377 -0.1492038369 0.5957413912 4288783529
-0.2938944697 -0.1483553350 0.5949930549 4289507252
-0.2939566970 -0.1477255225 0.5951189995 4289178802
-0.2935862839 -0.1468789876 0.5943691134 4289639353
-0.2932154536 -0.1460339129 0.5936183929 4288126114
-0.2932767868 -0.1454047710 0.5937425494 4290626248
-0.2929052114 -0.1445616931 0.5929902792 4287928735
-0.2929659486 -0.1439326704 0.5931132436 4288191907
-0.2925936282 -0.1430916041 0.5923594832 4289046962
-0.2926538289 -0.1424627453 0.5924813151 4289704892
-0.2927137613 -0.1418334991 0.5926026702 4290560201
-0.2927734554 -0.1412038654 0.5927235484 4288454825
-0.2923997343 -0.1403658986 0.5919669271 4288783790
-0.2924588621 -0.1397364289 0.5920866132 4289046962
-0.2925177217 -0.1391065866 0.5922058225 4290494408
-0.2921429276 -0.1382712126 0.5914469957 4291152338
-0.2922012508 -0.1376415342 0.5915650725 4289375927
-0.2922593057 -0.1370114833 0.5916826129 4287994274
-0.2923171520 -0.1363810599 0.5917997360 4288849583
-0.2919409275 -0.1355488598 0.5910380483 4289968064
-0.2919981778 -0.1349186301 0.5911539793 4291086545
-0.2920551896 -0.1342880279 0.5912693739 4291152338
-0.2921119630 -0.1336570531 0.5913842916 4289507513
-0.2921684682 -0.1330257207 0.5914987326 4290033857
-0.2922247350 -0.1323940158 0.5916126370 4291283924
-0.2922807634 -0.1317619383 0.5917260647 4288783790
-0.2923365533 -0.1311295182 0.5918390155 4290165443
-0.2923920751 -0.1304967254 0.5919514298 4288520618
-0.2924473584 -0.1298635751 0.5920633674 4289441722
-0.2920677662 -0.1290380359 0.5912948251 4289573308
-0.2921224833 -0.1284051090 0.5914056301 4290494408
-0.2921769321 -0.1277718395 0.5915158391 4288586411
-0.2922311425 -0.1271381974 0.5916255713 4289704892
-0.2918501496 -0.1263159662 0.5908542871 4290362822
-0.2919037640 -0.1256825775 0.5909628272 4290824145
-0.2919571400 -0.1250488311 0.5910708904 4291482075
-0.2920102775 -0.1244147494 0.5911784768 4291218903
-0.2924984097 -0.1239647865 0.5921667218 4291416282
-0.2925511301 -0.1233290657 0.5922734141 4291350489
-0.2926035821 -0.1226930022 0.5923795700 4291153110
-0.2922202647 -0.1218749657 0.5916035771 4291284696
-0.2922721207 -0.1212391630 0.5917086005 4291284696
-0.2923237383 -0.1206030324 0.5918130875 4291613661
-0.2923751175 -0.1199665591 0.5919170976 4291547868
-0.2924262285 -0.1193297505 0.5920205116 4291612891
-0.2924770713 -0.1186926067 0.5921235085 4291547098
-0.2925276756 -0.1180551350 0.5922259092 4291745247
-0.2921419740 -0.1172423437 0.5914450884 4291745247
-0.2921919823 -0.1166051701 0.5915463567 4291416282
-0.2926779389 -0.1161407456 0.5925301313 4291613661
-0.2927275002 -0.1155019626 0.5926305056 4292008419
-0.2927768230 -0.1148628592 0.5927303433 4292008419
-0.2928258777 -0.1142234281 0.5928296447 4292074212
-0.2928746939 -0.1135836840 0.5929284692 4292008419
-0.2929232419 -0.1129436120 0.5930267572 4292008932
