VERSION 0.7
FIELDS x y z rgba
SIZE 4 4 4 4
TYPE F F F U
COUNT 1 1 1 1
WIDTH 920
HEIGHT 1
VIEWPOINT 0.0 0.0 0.0 1.0 0.0 0.0 0.0
POINTS 920
DATA ascii
-0.3349111974 -0.0919970199 0.6602174044 4291876829
-0.3354006410 -0.0913968459 0.6611822844 4291482071
-0.3354408443 -0.0906730965 0.6612615585 4292074208
-0.3331806660 -0.0961106420 0.6582472324 4293324275
-0.3327749372 -0.0952631384 0.6574456692 4292863724
-0.3328167200 -0.0945445448 0.6575282216 4292140001
-0.3328582048 -0.0938256755 0.6576101780 4291350485
-0.3324513435 -0.0929812267 0.6568063498 4290626762
-0.3324921727 -0.0922627971 0.6568869948 4290166211
-0.3329808414 -0.0916674733 0.6578524709 4290034625
-0.3330211043 -0.0909475535 0.6579319835 4290560969
-0.3335093260 -0.0903488025 0.6588965058 4291745243
-0.3335490227 -0.0896273851 0.6589749455 4293324275
-0.3311270177 -0.0979136452 0.6556285620 4293258482
-0.3311698735 -0.0971977785 0.6557134390 4292336866
-0.3312124312 -0.0964816287 0.6557977200 4291547350
-0.3312546909 -0.0957652032 0.6558813453 4290823627
-0.3312966228 -0.0950485095 0.6559644341 4290428869
-0.3308911324 -0.0942042395 0.6551615000 4290231490
-0.3309324086 -0.0934879705 0.6552432775 4290297283
-0.3305261433 -0.0926460698 0.6544388533 4290626762
-0.3305667341 -0.0919302329 0.6545192599 4291087313
-0.3310544193 -0.0913375691 0.6554848552 4292074208
-0.3315419257 -0.0907427073 0.6564500928 4292732138
-0.3311342597 -0.0899026617 0.6556429267 4293521908
-0.3290320039 -0.1004103348 0.6529163122 4293456115
-0.3290758431 -0.0996981859 0.6530033350 4292732392
-0.3291194141 -0.0989857540 0.6530897617 4291942876
-0.3296086788 -0.0984061956 0.6540606618 4291219153
-0.3292056024 -0.0975600407 0.6532608271 4290758602
-0.3296943903 -0.0969779938 0.6542307734 4290363076
-0.3292906284 -0.0961332172 0.6534295082 4290297283
-0.3293326497 -0.0954193920 0.6535128951 4290560455
-0.3293744028 -0.0947052911 0.6535957456 4291152592
-0.3289694786 -0.0938635692 0.6527922153 4291679450
-0.3290105462 -0.0931499004 0.6528737545 4292337380
-0.3290513456 -0.0924359635 0.6529546976 4292995310
-0.3149549961 -0.1241641343 0.6263629794 4292995825
-0.3145661056 -0.1233157516 0.6255896091 4293127411
-0.3269378841 -0.1028813049 0.6501938701 4293390322
-0.3269827366 -0.1021729037 0.6502830386 4292798185
-0.3270272613 -0.1014642045 0.6503715515 4292206048
-0.3270714879 -0.1007552221 0.6504595280 4291416532
-0.3271154165 -0.1000459567 0.6505469084 4290758602
-0.3271590769 -0.0993364006 0.6506336927 4290428867
-0.3276475668 -0.0987607464 0.6516052485 4290231488
-0.3276906908 -0.0980496630 0.6516909599 4290428866
-0.3272881806 -0.0972060487 0.6508904696 4290823624
-0.3277759552 -0.0966266543 0.6518605947 4291613657
-0.3278181553 -0.0959147364 0.6519444585 4292205794
-0.3274146020 -0.0950731933 0.6511418819 4292995310
-0.3141783476 -0.1269151717 0.6262016296 4292798446
-0.3129089177 -0.1257094294 0.6236714721 4292337382
-0.3111973703 -0.1243326589 0.6202601194 4291087315
-0.3103678823 -0.1233139485 0.6186068654 4289705662
-0.3099794090 -0.1224731430 0.6178326011 4289245111
-0.3100321591 -0.1218074113 0.6179376841 4289508283
-0.3096429408 -0.1209687740 0.6171619296 4289968834
-0.3101368546 -0.1204749346 0.6181463599 4291153621
-0.3106306493 -0.1199788526 0.6191305518 4292995825
-0.3248905838 -0.1046218053 0.6475526094 4292995310
-0.3249360621 -0.1039168835 0.6476432681 4292468966
-0.3249812722 -0.1032116562 0.6477333903 4291811036
-0.3250261843 -0.1025061384 0.6478228569 4291218899
-0.3250707686 -0.1018003300 0.6479117870 4290627016
-0.3251150846 -0.1010942310 0.6480001211 4290298051
-0.3251591027 -0.1003878489 0.6480878592 4290165695
-0.3252028227 -0.0996811762 0.6481749415 4290297281
-0.3248019218 -0.0988390073 0.6473758817 4290889418
-0.3248449862 -0.0981327370 0.6474617124 4291613141
-0.3253321946 -0.0975594670 0.6484327912 4292468450
-0.3258192241 -0.0969839767 0.6494035125 4293323759
-0.3134526610 -0.1289900094 0.6261413693 4293061105
-0.3121870756 -0.1277763247 0.6236132383 4292008417
-0.3109207153 -0.1265679449 0.6210836172 4290495178
-0.3096536398 -0.1253648996 0.6185525656 4289245111
-0.3075047433 -0.1238124073 0.6142599583 4287204501
-0.3062360585 -0.1226219237 0.6117256880 4285691262
-0.3054073453 -0.1216122657 0.6100703478 4284375659
-0.3050188720 -0.1207806021 0.6092942953 4284112487
-0.3050708175 -0.1201240867 0.6093980670 4283980901
-0.3051224947 -0.1194672361 0.6095013022 4284244073
-0.3056149185 -0.1189817488 0.6104849577 4286612621
-0.3065482974 -0.1186647639 0.6123494506 4290033857
-0.3074817061 -0.1183436513 0.6142139435 4292797163
-0.3219139278 -0.1067511216 0.6430432200 4293390068
-0.3224031031 -0.1061977819 0.6440203786 4292797931
-0.3228920996 -0.1056422219 0.6449972391 4292074208
-0.3229379654 -0.1049404815 0.6450887918 4291350485
-0.3229835033 -0.1042384505 0.6451798081 4290692555
-0.3230287731 -0.1035361141 0.6452702284 4290297797
-0.3230737448 -0.1028334871 0.6453600526 4290232004
-0.3231184185 -0.1021305695 0.6454493403 4290232004
-0.3231628239 -0.1014273614 0.6455379725 4290889934
-0.3232069016 -0.1007238626 0.6456260681 4291350485
-0.3232507110 -0.1000200734 0.6457135081 4292074208
-0.3232941926 -0.0993160009 0.6458004117 4292797931
-0.3233374059 -0.0986116454 0.6458867192 4293390068
-0.3127241433 -0.1310632080 0.6260750890 4292666860
-0.3114623725 -0.1298415810 0.6235489845 4291745245
-0.3106392026 -0.1288074553 0.6219010353 4290560971
-0.3093760312 -0.1275954992 0.6193721294 4289442490
-0.3081121147 -0.1263888776 0.6168417931 4288652974
-0.3068474531 -0.1251875609 0.6143099666 4288126630
-0.3051424026 -0.1238131821 0.6108964086 4287863458
-0.3038762212 -0.1226234958 0.6083614826 4287269524
-0.3026093245 -0.1214391440 0.6058251858 4285427320
-0.3022215366 -0.1206112728 0.6050488353 4283716702
-0.3022733033 -0.1199595705 0.6051524878 4283387737
-0.3023248315 -0.1193075329 0.6052556634 4283914851
-0.3023760915 -0.1186551675 0.6053583026 4284704367
-0.3028673232 -0.1181742400 0.6063416600 4286283399
-0.3033584058 -0.1176910698 0.6073248386 4288257189
-0.3042897582 -0.1173755452 0.6091893911 4291086799
-0.3052211106 -0.1170558780 0.6110540032 4293192175
-0.3065930009 -0.1169000417 0.6138005257 4293389554
-0.3084056377 -0.1169051677 0.6174294353 4292731624
-0.3102186024 -0.1169023514 0.6210590005 4292863210
-0.3120318353 -0.1168915778 0.6246891022 4293126382
-0.3186540604 -0.1129931137 0.6379468441 4293127150
-0.3187028766 -0.1123015061 0.6380445361 4292863978
-0.3187513947 -0.1116095856 0.6381416917 4292732392
-0.3187996447 -0.1109173521 0.6382383108 4293127150
-0.3194315732 -0.1082950830 0.6395034194 4293324529
-0.3194784522 -0.1076003313 0.6395972967 4292863978
-0.3195250630 -0.1069052815 0.6396905780 4292337634
-0.3204553723 -0.1065037325 0.6415530443 4291548118
-0.3209435642 -0.1059520915 0.6425304413 4290824395
-0.3209894896 -0.1052532494 0.6426223516 4290363844
-0.3210351169 -0.1045541093 0.6427137256 4290232258
-0.3210804462 -0.1038546711 0.6428044438 4290363844
-0.3215678036 -0.1032970250 0.6437801719 4290824395
-0.3211702108 -0.1024549082 0.6429842114 4291811290
-0.3212146759 -0.1017545909 0.6430732012 4292666599
-0.3212588429 -0.1010539830 0.6431615949 4293390322
-0.3114975691 -0.1336178035 0.6250092387 4293061103
-0.3111164272 -0.1327607185 0.6242444515 4292140001
-0.3107348382 -0.1319051683 0.6234788299 4291350485
-0.3099144995 -0.1308660358 0.6218328476 4290560455
-0.3090935647 -0.1298303008 0.6201856732 4289902525
-0.3073950112 -0.1284315735 0.6167775989 4288915376
-0.3061341941 -0.1272223145 0.6142477989 4288389032
-0.3044339418 -0.1258370578 0.6108363271 4288520620
-0.3036102951 -0.1248197630 0.6091837287 4288849585
-0.3023472726 -0.1236264780 0.6066495180 4289441723
-0.3015224338 -0.1226170138 0.6049944758 4290297032
-0.3006969988 -0.1216109917 0.6033383012 4290954702
-0.2998710275 -0.1206084266 0.6016809344 4290494151
-0.2994835973 -0.1197849587 0.6009036303 4289046705
-0.2995349467 -0.1191377416 0.6010066867 4288257189
-0.2995860577 -0.1184901893 0.6011092067 4288915119
-0.2996369004 -0.1178423092 0.6012111902 4290165186
-0.3001269102 -0.1173659414 0.6021943688 4291086034
-0.3006168008 -0.1168873385 0.6031773090 4291414999
-0.3011065722 -0.1164065078 0.6041600704 4291941856
-0.3020358682 -0.1160924360 0.6060246825 4292336614
-0.3034048975 -0.1159422621 0.6087716222 4291283924
-0.3052138984 -0.1159531251 0.6124013066 4290494408
-0.3070232272 -0.1159560457 0.6160315871 4291283924
-0.3088328242 -0.1159510016 0.6196625233 4292270819
-0.3106427193 -0.1159380078 0.6232940555 4293191921
-0.3133831322 -0.1155635118 0.6287925839 4292666850
-0.3143133223 -0.1152058244 0.6306589842 4291285197
-0.3143629730 -0.1145232022 0.6307585835 4290956234
-0.3148526549 -0.1139996946 0.6317411661 4290627269
-0.3157826662 -0.1136324331 0.6336071491 4290627269
-0.3162721395 -0.1131034940 0.6345892549 4289442995
-0.3163209260 -0.1124157608 0.6346871257 4288719272
-0.3163694143 -0.1117277071 0.6347844601 4288061342
-0.3164176345 -0.1110393330 0.6348811984 4288193185
-0.3164655864 -0.1103506461 0.6349774003 4290298561
-0.3169540465 -0.1098143831 0.6359574795 4292206560
-0.3174423873 -0.1092758924 0.6369373202 4292469732
-0.3174895942 -0.1085843518 0.6370320320 4291811802
-0.3179775476 -0.1080423594 0.6380110979 4291219665
-0.3180242479 -0.1073492542 0.6381047964 4290759114
-0.3180706501 -0.1066558361 0.6381978989 4290430149
-0.3185580075 -0.1061090827 0.6391757727 4290363844
-0.3190451860 -0.1055601016 0.6401532888 4290890188
-0.3195322156 -0.1050089002 0.6411305070 4291548118
-0.3195776641 -0.1043113917 0.6412217021 4292206048
-0.3196228147 -0.1036135927 0.6413123012 4292995564
-0.3077041507 -0.1343479156 0.6187768579 4292468966
-0.3073242009 -0.1334953755 0.6180127859 4291613657
-0.3073810935 -0.1328332871 0.6181271672 4290889936
-0.3074376881 -0.1321708411 0.6182410121 4290166213
-0.3066192269 -0.1311338991 0.6165951490 4289573308
-0.3062376678 -0.1302864850 0.6158278584 4289046964
-0.3054181337 -0.1292554289 0.6141797900 4289178550
-0.3045980036 -0.1282277852 0.6125305891 4289112757
-0.3033396006 -0.1270202696 0.6099999547 4288915376
-0.3020804524 -0.1258180737 0.6074678898 4289112755
-0.3008205593 -0.1246211976 0.6049343348 4289836478
-0.3004358709 -0.1237905622 0.6041607261 4290494408
-0.2996127307 -0.1227819771 0.6025054455 4290954959
-0.2987890244 -0.1217768341 0.6008489728 4291415510
-0.2984029353 -0.1209527478 0.6000726223 4292731109
-0.2980164289 -0.1201302260 0.5992953777 4293323246
-0.2980678678 -0.1194849834 0.5993987918 4293981176
-0.2976806164 -0.1186646372 0.5986200571 4293981176
-0.2977314591 -0.1180196777 0.5987222791 4294178559
-0.2977820039 -0.1173743904 0.5988239646 4294244351
-0.2982709706 -0.1169006824 0.5998072028 4293520376
-0.2987597883 -0.1164247468 0.6007902026 4292665067
-0.2992485166 -0.1159465834 0.6017729640 4291283927
-0.2997370958 -0.1154661924 0.6027555466 4289112758
-0.3011034429 -0.1153197810 0.6055031419 4289639099
-0.3024699390 -0.1151673272 0.6082510948 4291283924
-0.3042756915 -0.1151750237 0.6118823886 4292468452
-0.3056425750 -0.1150095314 0.6146311164 4293257968
-0.3074488640 -0.1150022745 0.6182634234 4293718517
-0.3088161349 -0.1148237213 0.6210129857 4292731622
-0.3101835549 -0.1146391109 0.6237627864 4288982442
-0.3111117184 -0.1142870188 0.6256292462 4286416515
-0.3116003871 -0.1137703210 0.6266119480 4285890173
-0.3120889068 -0.1132513881 0.6275943518 4286153345
-0.3130169213 -0.1128887683 0.6294605136 4285824380
-0.3135052323 -0.1123644114 0.6304425001 4284508520
-0.3135536015 -0.1116811782 0.6305397749 4284245348
-0.3140415549 -0.1111533120 0.6315210462 4285034864
-0.3140894771 -0.1104684994 0.6316173673 4285956223
-0.3145770729 -0.1099371240 0.6325979233 4287798427
-0.3150644898 -0.1094035283 0.6335781217 4289640633
-0.3155517876 -0.1088676900 0.6345580220 4290561735
-0.3160389364 -0.1083296314 0.6355376244 4290495943
-0.3160856664 -0.1076394245 0.6356316805 4290298564
-0.3161321580 -0.1069489121 0.6357250810 4290890700
-0.3170590401 -0.1065540761 0.6375890374 4291943388
-0.3171050847 -0.1058610380 0.6376816034 4292863978
-0.3175913095 -0.1053137556 0.6386593580 4293390322
-0.3200915456 -0.0939847454 0.6436872482 4293390322
-0.3201323450 -0.0932814479 0.6437692642 4293324529
-0.3201728165 -0.0925778821 0.6438506842 4293390322
-0.3064806461 -0.1368584782 0.6176960468 4293061105
-0.3056666553 -0.1358105093 0.6160554886 4292337382
-0.3048520982 -0.1347659379 0.6144137979 4291021522
-0.3040369749 -0.1337247640 0.6127709150 4290363592
-0.3036575317 -0.1328778863 0.6120061874 4289639869
-0.3032776713 -0.1320325285 0.6112406254 4289113525
-0.3033338189 -0.1313777268 0.6113538146 4288850355
-0.3033897281 -0.1307225525 0.6114664674 4289113527
-0.3025721610 -0.1296927333 0.6098186970 4289704895
-0.3017540276 -0.1286663264 0.6081697941 4290033860
-0.3009352982 -0.1276433468 0.6065196991 4290494410
-0.3005528450 -0.1268080920 0.6057488918 4290954961
-0.2997330427 -0.1257910132 0.6040965915 4291218131
-0.2989126742 -0.1247773692 0.6024432182 4291415510
-0.2985288203 -0.1239486337 0.6016695499 4292007899
-0.2977074087 -0.1229409203 0.6000140309 4292929001
-0.2973226607 -0.1221162379 0.5992385745 4293915383
-0.2969374657 -0.1212931052 0.5984622836 4294441727
-0.2965519130 -0.1204715371 0.5976851583 4294901759
-0.2966033816 -0.1198282614 0.5977889299 4294901759
-0.2966546118 -0.1191846579 0.5978921652 4294770687
-0.2962679565 -0.1183658764 0.5971128941 4294639103
-0.2963185906 -0.1177225560 0.5972149372 4294375935
-0.2968067229 -0.1172518507 0.5981987715 4292665320
-0.2968569100 -0.1166069210 0.5982999206 4290164935
-0.2969068587 -0.1159616634 0.5984005332 4287730594
-0.2973945141 -0.1154861674 0.5993834138 4286217612
-0.2983201146 -0.1151775792 0.6012489200 4284112236
-0.2992457449 -0.1148648486 0.6031144857 4287533725
-0.3001714051 -0.1145479828 0.6049800515 4291810270
-0.3015353382 -0.1143932492 0.6077290773 4292337634
-0.3033378124 -0.1143977866 0.6113618612 4292798185
-0.3047021627 -0.1142299995 0.6141116023 4291679703
-0.3060666621 -0.1140561625 0.6168617010 4290890187
-0.3078698814 -0.1140387207 0.6204960346 4288653479
-0.3083575070 -0.1135288253 0.6214787364 4285955966
-0.3088449836 -0.1130167022 0.6224612594 4286153345
-0.3093323112 -0.1125023440 0.6234434247 4287008654
-0.3102583587 -0.1121443808 0.6253098249 4286087298
-0.3107454777 -0.1116245985 0.6262916327 4284376680
-0.3112324774 -0.1111025885 0.6272731423 4283916129
-0.3117193282 -0.1105783433 0.6282543540 4285166196
-0.3122060299 -0.1100518703 0.6292352676 4284837744
-0.3126925528 -0.1095231622 0.6302158833 4285561467
-0.3136182129 -0.1091450900 0.6320814490 4287864223
-0.3141045272 -0.1086109579 0.6330615878 4290561736
-0.3145906925 -0.1080746055 0.6340414286 4292009182
-0.3146372736 -0.1073860303 0.6341353059 4292930284
-0.3180282116 -0.0964365900 0.6409695745 4293325042
-0.3185105026 -0.0958696008 0.6419416666 4293193456
-0.3185520470 -0.0951687545 0.6420252919 4292929517
-0.3185932636 -0.0944676474 0.6421083808 4292863724
-0.3181934655 -0.0936365724 0.6413026452 4292863978
-0.3182340562 -0.0929358900 0.6413844228 4293061357
-0.3182743490 -0.0922349393 0.6414656639 4293324529
-0.3048201203 -0.1391588151 0.6157276630 4293258484
-0.3044441044 -0.1383038908 0.6149681211 4292600554
-0.3036327064 -0.1372538209 0.6133291125 4292007647
-0.3028206825 -0.1362071335 0.6116888523 4291152338
-0.3020080924 -0.1351638287 0.6100474000 4290297029
-0.3011949062 -0.1341239065 0.6084048152 4289639099
-0.3003811240 -0.1330873668 0.6067610383 4288981939
-0.2995667756 -0.1320542395 0.6051160693 4289113525
-0.2996228337 -0.1314065009 0.6052292585 4289639099
-0.2996786535 -0.1307583898 0.6053420305 4290165443
-0.2997342050 -0.1301099211 0.6054542065 4290560201
-0.2993537486 -0.1292729378 0.6046857238 4290954959
-0.2989728749 -0.1284374595 0.6039164066 4291612889
-0.2985916138 -0.1276035309 0.6031462550 4292139233
-0.2977739275 -0.1265857965 0.6014945507 4292994542
-0.2978278100 -0.1259402782 0.6016033888 4293652472
-0.2970091403 -0.1249275059 0.5999497175 4294244350
-0.2966261506 -0.1241006777 0.5991760492 4294310143
-0.2962427139 -0.1232753992 0.5984015465 4294376189
-0.2958588898 -0.1224516705 0.5976262093 4294573567
-0.2959111035 -0.1218091547 0.5977316499 4294573567
-0.2955265045 -0.1209875867 0.5969548225 4294441982
-0.2955781221 -0.1203453392 0.5970590711 4294770175
-0.2956294715 -0.1197027564 0.5971628428 4294901759
-0.2956805825 -0.1190598458 0.5972660780 4294572543
-0.2952946126 -0.1182416826 0.5964863896 4293980408
-0.2953450978 -0.1175990552 0.5965884328 4292730859
-0.2958323359 -0.1171291098 0.5975725651 4289046451
-0.2958824039 -0.1164848730 0.5976737142 4285559425
-0.2959322035 -0.1158403158 0.5977743268 4283059291
-0.2964189649 -0.1153655797 0.5987575650 4283783271
-0.2969055772 -0.1148886234 0.5997405052 4283191134
-0.2978294194 -0.1145776808 0.6016066670 4285099385
-0.2983159125 -0.1140953079 0.6025893092 4290494411
-0.2996772230 -0.1139433905 0.6053391099 4290889936
-0.3010386825 -0.1137854233 0.6080892682 4291482073
-0.3024003506 -0.1136214063 0.6108397841 4290692555
-0.3041998446 -0.1136148050 0.6144747138 4290297797
-0.3051240742 -0.1132752001 0.6163416505 4290100925
-0.3056105077 -0.1127698943 0.6173241735 4287798170
-0.3060967922 -0.1122623459 0.6183065176 4286811275
-0.3070209324 -0.1119122207 0.6201732159 4286416517
-0.3079450428 -0.1115579456 0.6220399141 4284837231
-0.3084310591 -0.1110417917 0.6230216622 4284113508
-0.3089169562 -0.1105234027 0.6240031123 4284442473
-0.3098409176 -0.1101585999 0.6258695126 4285297782
-0.3103265762 -0.1096347943 0.6268505454 4285956225
-0.3108121157 -0.1091087535 0.6278312802 4287732636
-0.3117359281 -0.1087334156 0.6296973825 4290364357
-0.3122211993 -0.1082019508 0.6306776404 4292601319
-0.3155691326 -0.0980303288 0.6374403238 4293324275
-0.3164906204 -0.0976062715 0.6393017173 4293126896
-0.3165328205 -0.0969088823 0.6393869519 4292995310
-0.3165746927 -0.0962112024 0.6394715309 4292929517
-0.3166162968 -0.0955132544 0.6395555735 4292929517
-0.3166576028 -0.0948150307 0.6396390200 4293258482
-0.3166986108 -0.0941165388 0.6397218704 4293455861
-0.3031597733 -0.1414397061 0.6137507558 4293192691
-0.3023518920 -0.1403826922 0.6121152043 4292600554
-0.3019773066 -0.1395295113 0.6113568544 4291876061
-0.3016023040 -0.1386778206 0.6105976701 4291086545
-0.3007928431 -0.1376290321 0.6089589000 4290231490
-0.2999827862 -0.1365836114 0.6073188782 4289770939
-0.2991721332 -0.1355415732 0.6056777239 4289704633
-0.2979266047 -0.1343071312 0.6031561494 4289704633
-0.2975490689 -0.1334676296 0.6023918390 4289770426
-0.2967366874 -0.1324357539 0.6007471085 4289770426
-0.2963582277 -0.1316002309 0.5999809504 4289902273
-0.2959793806 -0.1307662278 0.5992139578 4290428617
-0.2960348129 -0.1301248223 0.5993261933 4291218131
-0.2965247929 -0.1296731979 0.6003181934 4292139233
-0.2965798080 -0.1290301383 0.6004295349 4292797417
-0.2961996198 -0.1281984746 0.5996598601 4293257968
-0.2962540388 -0.1275556386 0.5997700095 4293915896
-0.2958731055 -0.1267260909 0.5989988446 4294442239
-0.2954917550 -0.1258980781 0.5982267857 4294639359
-0.2951100171 -0.1250716150 0.5974538922 4294507775
-0.2955985367 -0.1246137470 0.5984429121 4294376189
-0.2952161133 -0.1237884760 0.5976687074 4294441982
-0.2948332727 -0.1229647547 0.5968936682 4294573567
-0.2948856056 -0.1223232746 0.5969995856 4294573567
-0.2949376702 -0.1216814443 0.5971050262 4294244603
-0.2949894965 -0.1210392863 0.5972099304 4293784052
-0.2946052551 -0.1202189401 0.5964320302 4293454066
-0.2946564853 -0.1195770577 0.5965357423 4292927722
-0.2947074473 -0.1189348325 0.5966389179 4291875550
-0.2947581708 -0.1182922795 0.5967416167 4291546585
-0.2948086262 -0.1176493913 0.5968437791 4291546586
-0.2948588431 -0.1170061752 0.5969454050 4288651694
-0.2953450382 -0.1165347695 0.5979297161 4285033592
-0.2953948081 -0.1158899516 0.5980304480 4283520353
-0.2954442799 -0.1152448058 0.5981307030 4283191388
-0.2959299982 -0.1147686094 0.5991140008 4284178283
-0.2964155972 -0.1142901853 0.6000971198 4282928730
-0.2973377109 -0.1139768958 0.6019639373 4288521135
-0.2982598245 -0.1136594713 0.6038307548 4290165960
-0.2996187508 -0.1135033593 0.6065818667 4289771202
-0.3009777963 -0.1133411974 0.6093333364 4290758352
-0.3027739525 -0.1133365259 0.6129696369 4289771457
-0.3036964238 -0.1129987091 0.6148371696 4289245616
-0.3041818440 -0.1124951094 0.6158199906 4287732377
-0.3046671748 -0.1119892746 0.6168025136 4286416517
-0.3055895269 -0.1116409302 0.6186698079 4286087552
-0.3060746193 -0.1111296788 0.6196519136 4284640106
-0.3069969118 -0.1107739881 0.6215190887 4284903278
-0.3074818254 -0.1102573127 0.6225007772 4287337365
-0.3084040284 -0.1098942831 0.6243678331 4289574327
-0.3088887334 -0.1093721837 0.6253491044 4290956493
-0.3098108470 -0.1090018153 0.6272159219 4292140767
-0.3102953136 -0.1084742919 0.6281967163 4293325042
-0.3135099709 -0.1004304513 0.6347048283 4293456115
-0.3135532439 -0.0997390151 0.6347925067 4293126896
-0.3140348494 -0.0991858244 0.6357674599 4292929517
-0.3140776157 -0.0984928608 0.6358540654 4292863724
-0.3145588338 -0.0979361981 0.6368283033 4292863724
-0.3150398433 -0.0973773226 0.6378021240 4292995312
-0.3150818646 -0.0966815725 0.6378871799 4293192691
-0.3151236176 -0.0959855467 0.6379716992 4293455863
-0.3148887455 -0.0923724845 0.6374961734 4293455861
-0.3153679073 -0.0918036625 0.6384662390 4293390322
-0.3154076040 -0.0911057517 0.6385466456 4293456115
-0.3006948531 -0.1426395625 0.6101323962 4292600554
-0.3003221750 -0.1417857260 0.6093762517 4291745245
-0.2995162606 -0.1407299936 0.6077409387 4290824143
-0.2987097502 -0.1396776289 0.6061044931 4290165697
-0.2983356416 -0.1388301104 0.6053453684 4289705146
-0.2975280285 -0.1377835274 0.6037067175 4289310388
-0.2967198193 -0.1367403120 0.6020668149 4289244595
-0.2959110439 -0.1357004791 0.6004257202 4289507254
-0.2951016724 -0.1346640140 0.5987834334 4290033598
-0.2942917049 -0.1336309463 0.5971399546 4290494149
-0.2939146757 -0.1327971220 0.5963749290 4290954700
-0.2935372293 -0.1319648325 0.5956090689 4291546837
-0.2935930490 -0.1313280314 0.5957223177 4292073181
-0.2932148576 -0.1304978132 0.5949549079 4292270819
-0.2932700813 -0.1298612356 0.5950669646 4292731370
-0.2933250666 -0.1292242855 0.5951785445 4293455347
-0.2938137650 -0.1287772059 0.5961701870 4294113277
-0.2938683331 -0.1281386167 0.5962808728 4294508031
-0.2939226329 -0.1274996549 0.5963910818 4294573823
-0.2939766943 -0.1268603504 0.5965007544 4294639359
-0.2940304875 -0.1262206882 0.5966099501 4294770687
-0.2940840423 -0.1255806834 0.5967186093 4294705151
-0.2937028706 -0.1247557700 0.5959451795 4294705151
-0.2937558293 -0.1241160110 0.5960526466 4294770687
-0.2938085496 -0.1234759092 0.5961595774 4294770687
-0.2938610017 -0.1228354573 0.5962660313 4294310141
-0.2939132154 -0.1221946701 0.5963719487 4293652211
-0.2939651608 -0.1215535402 0.5964773297 4292731109
-0.2940168381 -0.1209120676 0.5965822339 4291875800
-0.2940682769 -0.1202702597 0.5966866016 4291678425
-0.2941194773 -0.1196281165 0.5967904329 4291217874
-0.2941703796 -0.1189856380 0.5968937874 4290888655
-0.2942210436 -0.1183428243 0.5969966054 4290757069
-0.2942714691 -0.1176996827 0.5970988870 4291414999
-0.2943216264 -0.1170562059 0.5972006321 4289704381
-0.2943715155 -0.1164124086 0.5973019004 4285625728
-0.2948566973 -0.1159395352 0.5982863307 4284375661
-0.2949061394 -0.1152941287 0.5983867049 4282336078
-0.2949553430 -0.1146484017 0.5984864831 4283915110
-0.2954400182 -0.1141707450 0.5994699597 4282270800
-0.2959245741 -0.1136908531 0.6004531980 4285626243
-0.2972808182 -0.1135416999 0.6032050848 4289902788
-0.2982012630 -0.1132209674 0.6050727367 4288257963
-0.2995577455 -0.1130606681 0.6078251600 4289310906
-0.3017866313 -0.1132215336 0.6123477221 4289376699
-0.3027074039 -0.1128845438 0.6142160296 4288587686
-0.3031919301 -0.1123816967 0.6151991487 4287600791
-0.3036763370 -0.1118766218 0.6161820292 4286219138
-0.3045969605 -0.1115291044 0.6180500984 4286219138
-0.3055176139 -0.1111774296 0.6199181676 4285758587
-0.3060017526 -0.1106637418 0.6209005117 4286811275
-0.3069223464 -0.1103047207 0.6227684617 4290232257
-0.3074062467 -0.1097856015 0.6237503886 4292863977
-0.3114962280 -0.1021170020 0.6320492029 4293324275
-0.3119777143 -0.1015715078 0.6330261827 4293061103
-0.3120214045 -0.1008822992 0.6331148148 4292995310
-0.3120648265 -0.1001928002 0.6332029104 4292929517
-0.3121079504 -0.0995030180 0.6332904100 4292995310
-0.3121507764 -0.0988129452 0.6333773732 4293061103
-0.3126311898 -0.0982602164 0.6343521476 4293258482
-0.3133190572 -0.0942382365 0.6357478499 4293390068
-0.3133597076 -0.0935440063 0.6358303428 4293324275
-0.3134000599 -0.0928495154 0.6359122396 4293192943
-0.3134401441 -0.0921547487 0.6359935403 4293192943
-0.3134799004 -0.0914597213 0.6360742450 4293390322
-0.2985456288 -0.1453128010 0.6071397662 4293192691
-0.2986066341 -0.1446677744 0.6072638035 4292732140
-0.2982357740 -0.1438142359 0.6065096259 4292205026
-0.2978644967 -0.1429621577 0.6057545543 4291415510
-0.2970610261 -0.1419053078 0.6041205525 4290560201
-0.2962569296 -0.1408517957 0.6024853587 4289836478
-0.2958842218 -0.1400060356 0.6017273664 4289244341
-0.2955110967 -0.1391617507 0.6009685397 4289112755
-0.2947054207 -0.1381164491 0.5993300676 4289376181
-0.2938991785 -0.1370745152 0.5976904631 4289705146
-0.2935246229 -0.1362365931 0.5969287157 4290297283
-0.2927172780 -0.1352004707 0.5952868462 4290692041
-0.2923417985 -0.1343664825 0.5945232511 4291415251
-0.2915333807 -0.1333361864 0.5928792357 4292336353
-0.2911569774 -0.1325061619 0.5921137929 4293125869
-0.2912129164 -0.1318735927 0.5922275186 4293586420
-0.2908357680 -0.1310456693 0.5914605260 4293915383
-0.2908911109 -0.1304133236 0.5915731192 4294112762
-0.2909462154 -0.1297806203 0.5916851163 4294508031
-0.2914340794 -0.1293397397 0.5926772952 4294573823
-0.2914887667 -0.1287053674 0.5927885175 4294639615
-0.2919763923 -0.1282609552 0.5937801600 4294639615
-0.2920306623 -0.1276249290 0.5938905478 4294639615
-0.2925180197 -0.1271769702 0.5948817134 4294639615
-0.2925718725 -0.1265393049 0.5949912071 4294705151
-0.2926254570 -0.1259012818 0.5951001644 4294639359
-0.2931123972 -0.1254484802 0.5960904360 4294441982
-0.2927318811 -0.1246241927 0.5953165889 4294310396
-0.2927847207 -0.1239851266 0.5954240561 4294112762
-0.2928373218 -0.1233457103 0.5955309868 4293520625
-0.2928896248 -0.1227059588 0.5956373811 4292731109
-0.2933757007 -0.1222466975 0.5966258645 4292402144
-0.2934275866 -0.1216053143 0.5967314243 4292204251
-0.2934792340 -0.1209635884 0.5968364477 4291677907
-0.2935306132 -0.1203215271 0.5969409347 4291217874
-0.2935817540 -0.1196791232 0.5970449448 4291283667
-0.2936326265 -0.1190363914 0.5971484184 4291020241
-0.2936832607 -0.1183933243 0.5972513556 4291217620
-0.2937336266 -0.1177499220 0.5973537564 4291415513
-0.2937837243 -0.1171061918 0.5974556804 4290560204
-0.2938335836 -0.1164621338 0.5975570083 4286744210
-0.2943179011 -0.1159890741 0.5985419750 4284112490
-0.2943673134 -0.1153434068 0.5986424685 4282994009
-0.2944164574 -0.1146974191 0.5987424254 4283125595
-0.2949002981 -0.1142195761 0.5997263789 4282665558
-0.2953840196 -0.1137394980 0.6007100940 4283126109
-0.2963027060 -0.1134237424 0.6025784016 4289310906
-0.2976565957 -0.1132694408 0.6053317785 4288718769
-0.2994458973 -0.1132737249 0.6089706421 4287666079
-0.3008002043 -0.1131063551 0.6117247939 4289310904
-0.3017192483 -0.1127701923 0.6135938168 4288982190
-0.3022028804 -0.1122681051 0.6145773530 4287995295
-0.3031218648 -0.1119246036 0.6164462566 4286219138
-0.3036052883 -0.1114170924 0.6174293756 4286087552
-0.3045242429 -0.1110662371 0.6192982197 4287468951
-0.3050074577 -0.1105533019 0.6202809215 4290166464
-0.3059263527 -0.1101951078 0.6221495867 4292798185
-0.3099218607 -0.1039312109 0.6302751303 4293324275
-0.3099664748 -0.1032457873 0.6303658485 4292995310
-0.3104474247 -0.1027045250 0.6313439608 4292797931
-0.3104915321 -0.1020175442 0.6314336061 4292732138
-0.3105353415 -0.1013302729 0.6315227151 4292929517
-0.3105788827 -0.1006427184 0.6316112876 4293192689
-0.3106221259 -0.0999548659 0.6316992044 4293390068
-0.3117914796 -0.0953996107 0.6340772510 4293324788
-0.3118325472 -0.0947075859 0.6341608167 4293193202
-0.3118733466 -0.0940152779 0.6342437863 4293127150
-0.3119138479 -0.0933227092 0.6343261003 4293192943
-0.3119540513 -0.0926298648 0.6344078779 4293324529
-0.3119939566 -0.0919367597 0.6344890594 4293587701
-0.2973818481 -0.1470944285 0.6061421037 4292929519
-0.2965825200 -0.1460274011 0.6045128703 4292205796
-0.2962131202 -0.1451747119 0.6037599444 4291547866
-0.2949820459 -0.1439033300 0.6012507081 4290758350
-0.2941809297 -0.1428462863 0.5996178389 4289968834
-0.2933792174 -0.1417925954 0.5979837179 4289573306
-0.2930077910 -0.1409495175 0.5972266197 4289507513
-0.2922049761 -0.1399015784 0.5955902934 4289639099
-0.2918326259 -0.1390624195 0.5948313475 4289836478
-0.2914598882 -0.1382247359 0.5940715671 4289836478
-0.2906554639 -0.1371850073 0.5924320221 4290165443
-0.2902818024 -0.1363512576 0.5916703343 4291021006
-0.2899077237 -0.1355189979 0.5909078717 4291876315
-0.2895332277 -0.1346882433 0.5901445746 4292797417
-0.2891583145 -0.1338589936 0.5893803835 4293389554
-0.2887829840 -0.1330312639 0.5886153579 4293915896
-0.2884072661 -0.1322050244 0.5878495574 4294179068
-0.2884629369 -0.1315772831 0.5879630446 4294310654
-0.2885183692 -0.1309491843 0.5880760550 4294376447
-0.2890055776 -0.1305158138 0.5890690684 4294376447
-0.2890606225 -0.1298860461 0.5891813040 4294573823
-0.2891153991 -0.1292559206 0.5892929435 4294508284
-0.2896021903 -0.1288176924 0.5902851820 4294574077
-0.2896565795 -0.1281859130 0.5903959870 4294639615
-0.2901431024 -0.1277441531 0.5913876891 4294508031
-0.2906295657 -0.1273001581 0.5923792124 4294441727
-0.2911159396 -0.1268539131 0.5933705568 4294375934
-0.2916021943 -0.1264054179 0.5943617225 4294244348
-0.2916556597 -0.1257680953 0.5944706798 4293915383
-0.2917088568 -0.1251304299 0.5945791006 4293454834
-0.2921946943 -0.1246771067 0.5955693722 4293125869
-0.2922474742 -0.1240377873 0.5956769586 4292731111
-0.2923000157 -0.1233981252 0.5957840085 4292270560
-0.2923522890 -0.1227581128 0.5958905816 4292270044
-0.2924043238 -0.1221177652 0.5959966183 4292467423
-0.2928893566 -0.1216570437 0.5969852209 4292138457
-0.2929409444 -0.1210150570 0.5970904231 4291348941
-0.2929922938 -0.1203727424 0.5971950293 4290559942
-0.2930433750 -0.1197300851 0.5972991586 4291086286
-0.2930941880 -0.1190870926 0.5974027514 4290099652
-0.2931447625 -0.1184437722 0.5975058079 4290954961
-0.2931950688 -0.1178001091 0.5976083875 4291415259
-0.2932451367 -0.1171561256 0.5977104306 4291283673
-0.2932949364 -0.1165118068 0.5978119373 4288322990
-0.2937784195 -0.1160385683 0.5987973809 4284046445
-0.2938277721 -0.1153926402 0.5988979936 4283125343
-0.2938768566 -0.1147463918 0.5989980698 4282072655
-0.2943598628 -0.1142683551 0.5999825001 4282927962
-0.2952769697 -0.1139556766 0.6018518209 4282204239
-0.2961941063 -0.1136388406 0.6037212014 4288192425
-0.2975456417 -0.1134835407 0.6064759493 4289310906
-0.2988973260 -0.1133221686 0.6092310548 4287600284
-0.3002491593 -0.1131547391 0.6119864583 4289705660
-0.3011665940 -0.1128184497 0.6138564348 4289771706
-0.3016493618 -0.1123161688 0.6148404479 4289245362
-0.3025667071 -0.1119725257 0.6167102456 4289113776
-0.3030492961 -0.1114648134 0.6176938415 4290298050
-0.3035317361 -0.1109548733 0.6186771989 4292008668
-0.3040140569 -0.1104426906 0.6196602583 4293127149
-0.3088293076 -0.1051980630 0.6294750571 4293127409
-0.3088743687 -0.1045139208 0.6295669079 4292863724
-0.3089191616 -0.1038294807 0.6296581626 4292666345
-0.3089636564 -0.1031447351 0.6297488809 4292797931
-0.3090078533 -0.1024597064 0.6298390031 4293258482
-0.3101819754 -0.0979318246 0.6322321296 4293390835
-0.3102240562 -0.0972425565 0.6323179007 4293259249
-0.3102658391 -0.0965530127 0.6324030757 4293193456
-0.3103073239 -0.0958631858 0.6324876547 4293259249
-0.3103485405 -0.0951730832 0.6325716376 4293390835
-0.3103894591 -0.0944827050 0.6326550245 4293456628
-0.2957260609 -0.1492922753 0.6041348577 4292863726
-0.2953590751 -0.1484365910 0.6033850908 4292270819
-0.2945622504 -0.1473675519 0.6017573476 4291678682
-0.2937648296 -0.1463018358 0.6001282930 4290889168
-0.2929668427 -0.1452394277 0.5984980464 4290297031
-0.2921682298 -0.1441803575 0.5968666077 4289968066
-0.2913690209 -0.1431246102 0.5952339172 4289639101
-0.2905692458 -0.1420722157 0.5936000347 4289639101
-0.2897688448 -0.1410231441 0.5919649601 4290033859
-0.2893978655 -0.1401857436 0.5912070870 4290428358
-0.2890264988 -0.1393498033 0.5904483795 4290625737
-0.2886546850 -0.1385153681 0.5896888375 4291152081
-0.2882824838 -0.1376824081 0.5889284611 4291810011
-0.2883402407 -0.1370555162 0.5890464187 4292204767
-0.2879672647 -0.1362246126 0.5882845521 4292599525
-0.2875939310 -0.1353952140 0.5875217915 4293389039
-0.2876507640 -0.1347690672 0.5876379013 4294178555
-0.2877073586 -0.1341425478 0.5877535343 4294639359
-0.2873329520 -0.1333157867 0.5869886279 4294705151
-0.2869580984 -0.1324905455 0.5862228870 4294770687
-0.2870137990 -0.1318648010 0.5863367319 4294705151
-0.2870692909 -0.1312386990 0.5864500403 4294770687
-0.2875556052 -0.1308083385 0.5874435902 4294705150
-0.2876106799 -0.1301805675 0.5875560641 4294573564
-0.2880967855 -0.1297466755 0.5885490775 4294770687
-0.2881514430 -0.1291172504 0.5886607766 4294573311
-0.2882058322 -0.1284874529 0.5887719393 4294507519
-0.2886915505 -0.1280487180 0.5897641182 4294112766
-0.2891771495 -0.1276077330 0.5907561779 4293389043
-0.2900943458 -0.1273540258 0.5926299095 4292862699
-0.2905798554 -0.1269076169 0.5936217904 4292665320
-0.2906334400 -0.1262713373 0.5937312245 4292468452
-0.2906867564 -0.1256347001 0.5938401222 4292468452
-0.2911718488 -0.1251834631 0.5948311090 4292402659
-0.2912247479 -0.1245451868 0.5949391723 4292073694
-0.2917095721 -0.1240903959 0.5959296227 4292073694
-0.2917620540 -0.1234504804 0.5960367918 4292139487
-0.2918142676 -0.1228102222 0.5961434841 4291744729
-0.2918662429 -0.1221696213 0.5962496996 4292007901
-0.2923504412 -0.1217087135 0.5972388387 4291678934
-0.2924019694 -0.1210664809 0.5973441005 4290034109
-0.2924532592 -0.1204239056 0.5974488854 4288454828
-0.2925042808 -0.1197809950 0.5975531340 4289375930
-0.2925550640 -0.1191377491 0.5976568460 4289112758
-0.2926055789 -0.1184941679 0.5977600813 4289836481
-0.2926558554 -0.1178502515 0.5978627801 4291218134
-0.2927058637 -0.1172060072 0.5979648829 4291349720
-0.2927556038 -0.1165614352 0.5980665684 4289704895
-0.2932382226 -0.1160880104 0.5990524888 4283980904
-0.2932875454 -0.1154418215 0.5991532207 4283059548
-0.2933366001 -0.1147953197 0.5992534161 4281941067
-0.2938187420 -0.1143170968 0.6002383828 4282928732
-0.2943007648 -0.1138366386 0.6012231708 4282139216
-0.2956497073 -0.1136873439 0.6039788723 4287468449
-0.2969987690 -0.1135319844 0.6067348719 4289968583
-0.2983480394 -0.1133705676 0.6094912291 4288652725
-0.2996974289 -0.1132030860 0.6122479439 4290626515
-0.3006131947 -0.1128666624 0.6141187549 4290560971
-0.3010951281 -0.1123641804 0.6151032448 4291284694
-0.3015769124 -0.1118594632 0.6160874963 4292403175
-0.3024925888 -0.1115124971 0.6179580688 4293390070
-0.3049457073 -0.1082638502 0.6229695678 4293455861
-0.3054263890 -0.1077412516 0.6239515543 4293192943
-0.3067760170 -0.1075210124 0.6267086267 4292995564
-0.3068219423 -0.1068406925 0.6268025041 4292732392
-0.3068675995 -0.1061600670 0.6268957853 4292535013
-0.3069129884 -0.1054791436 0.6269884706 4292732392
-0.3069581091 -0.1047979146 0.6270806193 4292995564
-0.3070029318 -0.1041163802 0.6271722317 4293324275
-0.3074823916 -0.1035810634 0.6281517148 4293390068
-0.3077441454 -0.0994781479 0.6286864281 4293455861
-0.3077867925 -0.0987933204 0.6287735701 4293258482
-0.3082645535 -0.0982469767 0.6297495365 4293192689
-0.3083066642 -0.0975606069 0.6298356056 4293258482
-0.3083485365 -0.0968739614 0.6299211383 4293390068
-0.3083900809 -0.0961870402 0.6300060153 4293587447
-0.2949269712 -0.1519112438 0.6038725376 4292797933
-0.2941338718 -0.1508335918 0.6022486687 4292205796
-0.2933402061 -0.1497592479 0.6006236076 4291613659
-0.2925459146 -0.1486882120 0.5989972353 4291020752
-0.2917509973 -0.1476204842 0.5973696709 4290494408
-0.2909555137 -0.1465560645 0.5957409143 4289770685
-0.2897308171 -0.1452800632 0.5932332873 4289704892
-0.2889340520 -0.1442232132 0.5916018486 4289704894
-0.2881366909 -0.1431697011 0.5899692178 4289902273
-0.2873387039 -0.1421195269 0.5883353949 4290428617
-0.2865401506 -0.1410726905 0.5867003202 4290823375
-0.2861700356 -0.1402394474 0.5859425068 4291349719
-0.2857995331 -0.1394076943 0.5851838589 4291941856
-0.2858578265 -0.1387858093 0.5853031874 4292928743
-0.2859158516 -0.1381635517 0.5854220390 4293389294
-0.2859736681 -0.1375409067 0.5855404139 4293981431
-0.2856017649 -0.1367123127 0.5847789049 4294441982
-0.2852294445 -0.1358852088 0.5840165615 4294573567
-0.2852863669 -0.1352633089 0.5841331482 4294573567
-0.2853430510 -0.1346410364 0.5842491984 4294573567
-0.2853994966 -0.1340184063 0.5843647718 4294573567
-0.2854557037 -0.1333954036 0.5844798684 4294705151
-0.2855116725 -0.1327720284 0.5845944285 4294705151
-0.2855674028 -0.1321482807 0.5847085714 4294770687
-0.2860530317 -0.1317222565 0.5857028961 4294639359
-0.2861083746 -0.1310968548 0.5858162045 4294639359
-0.2861634493 -0.1304710805 0.5859289765 4294639359
-0.2866486907 -0.1300402135 0.5869225264 4294244603
-0.2867033780 -0.1294127852 0.5870345235 4294047224
-0.2871883810 -0.1289783567 0.5880275369 4293454834
-0.2872426510 -0.1283492744 0.5881386995 4293191662
-0.2877274156 -0.1279113144 0.5891312361 4293191664
-0.2882120907 -0.1274711043 0.5901236534 4292731113
-0.2891275585 -0.1272182614 0.5919981003 4292138976
-0.2896121442 -0.1267726272 0.5929902792 4292402148
-0.2896655798 -0.1261370331 0.5930997133 4292599525
-0.2901499271 -0.1256878674 0.5940914154 4292467939
-0.2902029455 -0.1250506341 0.5941999555 4292534245
-0.2906869948 -0.1245979145 0.5951910615 4292271073
-0.2907395959 -0.1239590421 0.5952987671 4292205280
-0.2912233770 -0.1235027909 0.5962893367 4292205280
-0.2912755609 -0.1228622720 0.5963962078 4291942108
-0.2913274765 -0.1222214177 0.5965024829 4292073694
-0.2918108106 -0.1217603385 0.5974921584 4291744729
-0.2918623090 -0.1211178526 0.5975975990 4290297283
-0.2919135392 -0.1204750240 0.5977025032 4288454828
-0.2919645309 -0.1198318526 0.5978068709 4288520621
-0.2920152545 -0.1191883534 0.5979107022 4288783793
-0.2920657098 -0.1185445189 0.5980140567 4289902274
-0.2921159267 -0.1179003417 0.5981168747 4290889683
-0.2921658754 -0.1172558442 0.5982191563 4291218648
-0.2922155857 -0.1166110113 0.5983209014 4290429134
-0.2926973701 -0.1161374003 0.5993074179 4284376178
-0.2927466333 -0.1154909581 0.5994082689 4282797146
-0.2927956283 -0.1148441955 0.5995085835 4282073423
-0.2932769358 -0.1143657863 0.6004940271 4283126113
-0.2946233749 -0.1142205894 0.6032509804 4282862941
-0.2955372930 -0.1139025614 0.6051222086 4287797416
-0.2964512408 -0.1135803908 0.6069935560 4290494929
-0.2977980375 -0.1134189144 0.6097511649 4289705413
-0.2991449833 -0.1132513732 0.6125091314 4291416031
-0.3000591099 -0.1129148230 0.6143807769 4291745245
-0.3005401790 -0.1124121472 0.6153658032 4292600554
-0.3029435873 -0.1098651811 0.6202868819 4293390068
-0.3029904068 -0.1091928706 0.6203827262 4293192689
-0.3034704626 -0.1086754948 0.6213656664 4292732138
-0.3039503992 -0.1081558913 0.6223483682 4292732138
-0.3044301867 -0.1076340452 0.6233307123 4292797931
-0.3049098253 -0.1071099713 0.6243127584 4292929517
-0.3053893149 -0.1065836623 0.6252945662 4293192943
-0.3054347932 -0.1059046909 0.6253877282 4293521908
-0.3057454526 -0.1011434942 0.6260237098 4293390068
-0.3062230647 -0.1006048545 0.6270017028 4293390068
-0.3062660992 -0.0999222547 0.6270897985 4293390068
-0.3063088655 -0.0992393643 0.6271773577 4293390068
-0.3063513339 -0.0985561907 0.6272643209 4293587447
-0.2928432226 -0.1538526416 0.6009727120 4293323761
-0.2920530736 -0.1527715921 0.5993511677 4292533994
-0.2916893959 -0.1519162655 0.5986048579 4291810271
-0.2913253009 -0.1510623693 0.5978575945 4291020754
-0.2901062667 -0.1497687697 0.5953559279 4290428617
-0.2893137932 -0.1486999840 0.5937296152 4289902273
-0.2885207236 -0.1476344913 0.5921020508 4289770687
-0.2877270281 -0.1465723217 0.5904732943 4289836480
-0.2869327664 -0.1455134600 0.5888432860 4289836480
-0.2861379087 -0.1444579214 0.5872120857 4289968064
-0.2857702374 -0.1436207145 0.5864575505 4290494408
-0.2849742770 -0.1425708979 0.5848240852 4291218131
-0.2846057117 -0.1417375654 0.5840677023 4291941854
-0.2838086486 -0.1406934857 0.5824319720 4292533991
-0.2838672996 -0.1400753111 0.5825523734 4292994542
-0.2839257419 -0.1394567639 0.5826722980 4293652726
-0.2835555971 -0.1386284083 0.5819126964 4294244863
-0.2836134732 -0.1380100250 0.5820314884 4294507771
-0.2836711407 -0.1373912692 0.5821497440 4294639357
-0.2841571271 -0.1369787306 0.5831471086 4294705150
-0.2837857008 -0.1361526102 0.5823848844 4294573564
-0.2838426232 -0.1355327368 0.5825017095 4294639359
-0.2838993371 -0.1349124759 0.5826180577 4294770687
-0.2843847275 -0.1344946921 0.5836141706 4294770687
-0.2844410241 -0.1338727623 0.5837297440 4294573567
-0.2844970822 -0.1332504600 0.5838447809 4294507519
-0.2845529020 -0.1326277852 0.5839593410 4294573311
-0.2846084833 -0.1320047379 0.5840734243 4294573311
-0.2850931883 -0.1315795034 0.5850681067 4294244350
-0.2851483822 -0.1309547871 0.5851813555 4293981180
-0.2852033377 -0.1303297281 0.5852941275 4293783801
-0.2856876254 -0.1298996359 0.5862880349 4293389043
-0.2861718833 -0.1294672936 0.5872817636 4292994285
-0.2862262428 -0.1288392544 0.5873934031 4292796904
-0.2871401012 -0.1285958886 0.5892687440 4292599525
-0.2876240909 -0.1281568110 0.5902619958 4292862697
-0.2881079912 -0.1277154982 0.5912550688 4292862697
-0.2885918021 -0.1272719502 0.5922479630 4292402146
-0.2886453569 -0.1266374141 0.5923578739 4292007388
-0.2891288996 -0.1261903048 0.5933502316 4291941595
-0.2896123827 -0.1257409602 0.5943424106 4292073181
-0.2896653414 -0.1251034886 0.5944510698 4292533732
-0.2901485562 -0.1246505976 0.5954427123 4292599525
-0.2902010977 -0.1240114719 0.5955505371 4292467941
-0.2906840444 -0.1235550418 0.5965416431 4292402148
-0.2907361686 -0.1229142770 0.5966486335 4292336355
-0.2907880247 -0.1222731695 0.5967550278 4292402148
-0.2908396423 -0.1216317192 0.5968610048 4292139487
-0.2913219631 -0.1211691648 0.5978507996 4291284178
-0.2913731337 -0.1205260828 0.5979558229 4290625996
-0.2914240658 -0.1198826656 0.5980603099 4290033859
-0.2914747298 -0.1192389056 0.5981643200 4290165446
-0.2915251553 -0.1185948104 0.5982677937 4290757583
-0.2915753126 -0.1179503873 0.5983707309 4290889683
-0.2916252315 -0.1173056290 0.5984731317 4290823890
-0.2921063602 -0.1168331131 0.5994604826 4290955478
-0.2921558022 -0.1161867455 0.5995620489 4285494659
-0.2922050357 -0.1155400425 0.5996630192 4283718248
-0.2922539711 -0.1148930192 0.5997634530 4283060318
-0.2927344143 -0.1144144237 0.6007494330 4283915886
-0.2940784395 -0.1142691821 0.6035075784 4283718507
-0.2949906886 -0.1139510348 0.6053797603 4288389810
-0.2959029675 -0.1136287451 0.6072519422 4291087323
-0.2972473204 -0.1134672165 0.6100108027 4290955739
-0.2981597185 -0.1131356582 0.6118832231 4292337392
-0.2990721166 -0.1127999350 0.6137557030 4292600556
-0.2995522916 -0.1122980192 0.6147410870 4292995314
-0.3000323176 -0.1117938608 0.6157261729 4293390072
-0.3005122244 -0.1112874597 0.6167110205 4293324279
-0.3009919822 -0.1107788309 0.6176956296 4292995312
-0.3010390997 -0.1101097539 0.6177923083 4292732140
-0.3015185297 -0.1095976084 0.6187761426 4292732140
-0.3019978106 -0.1090832278 0.6197597980 4292797933
-0.3020442426 -0.1084112898 0.6198550463 4292929519
-0.3025231957 -0.1078933999 0.6208379269 4293258484
-0.3030019999 -0.1073732749 0.6218205094 4293455861
-0.3045720160 -0.1037628353 0.6250425577 4293390068
-0.3046162724 -0.1030833498 0.6251333952 4293390068
-0.3046602607 -0.1024035662 0.6252236366 4293390068
-0.3047039807 -0.1017234921 0.6253134012 4293390068
-0.3047474325 -0.1010431275 0.6254025102 4293455861
-0.3047905862 -0.1003624722 0.6254910827 4293521654
-0.2920397222 -0.1564506590 0.6006929278 4293389300
-0.2916785777 -0.1555906236 0.5999501348 4292797163
-0.2913170457 -0.1547319889 0.5992064476 4292139233
-0.2901030779 -0.1534242183 0.5967094898 4291415764
-0.2893144190 -0.1523459405 0.5950872898 4290955213
-0.2885251343 -0.1512709409 0.5934638381 4290428618
-0.2877352834 -0.1501992494 0.5918391943 4290099653
-0.2869448066 -0.1491308510 0.5902132392 4289902273
-0.2857272625 -0.1478450894 0.5877088904 4289968066
-0.2853620350 -0.1470039487 0.5869576931 4290297031
-0.2845697701 -0.1459454745 0.5853281021 4290823375
-0.2837769091 -0.1448903084 0.5836972594 4291547096
-0.2829834223 -0.1438384652 0.5820651650 4292139233
-0.2826162875 -0.1430059820 0.5813100338 4292271073
-0.2822487354 -0.1421749592 0.5805540085 4292731624
-0.2818807662 -0.1413454115 0.5797971487 4293323759
-0.2815124094 -0.1405173391 0.5790393949 4293981689
-0.2815708816 -0.1399030387 0.5791597366 4294442239
-0.2816291451 -0.1392883658 0.5792795420 4294573823
-0.2816871703 -0.1386733055 0.5793988705 4294442239
-0.2817449570 -0.1380578727 0.5795177221 4294310653
-0.2818025053 -0.1374420524 0.5796360970 4294441978
-0.2818598151 -0.1368258595 0.5797539949 4294573564
-0.2823446989 -0.1364159882 0.5807513595 4294573564
-0.2824016213 -0.1357981116 0.5808684826 4294441978
-0.2824583352 -0.1351798624 0.5809851289 4294507773
-0.2825148106 -0.1345612407 0.5811012387 4294507773
-0.2829991579 -0.1341451854 0.5820975304 4294244603
-0.2834834754 -0.1337268949 0.5830937028 4293915638
-0.2835393846 -0.1331052780 0.5832086802 4293125869
-0.2835950851 -0.1324833035 0.5833232403 4293257455
-0.2836505175 -0.1318609715 0.5834372640 4293323250
-0.2841342688 -0.1314365119 0.5844323635 4293060078
-0.2841893137 -0.1308125108 0.5845455527 4292796652
-0.2846728563 -0.1303845048 0.5855401158 4292665066
-0.2847275138 -0.1297588199 0.5856525302 4292665066
-0.2852107882 -0.1293272674 0.5866466165 4292730859
-0.2861229777 -0.1290870011 0.5885229111 4292665318
-0.2861771584 -0.1284574270 0.5886343122 4292796904
-0.2870893478 -0.1282107830 0.5905105472 4292796904
-0.2875723839 -0.1277693063 0.5915040970 4292928490
-0.2880553305 -0.1273255795 0.5924975276 4292533732
-0.2881088555 -0.1266907901 0.5926075578 4290757321
-0.2881621122 -0.1260556579 0.5927171111 4289836219
-0.2886446416 -0.1256070882 0.5937096477 4290757321
-0.2891270816 -0.1251562834 0.5947019458 4292205280
-0.2896094322 -0.1247032210 0.5956941247 4292665831
-0.2896619141 -0.1240638420 0.5958020687 4292731370
-0.2901440263 -0.1236072406 0.5967937112 4292731370
-0.2901960909 -0.1229662225 0.5969007611 4292797163
-0.2902478874 -0.1223248616 0.5970073342 4292797163
-0.2907295227 -0.1218634322 0.5979980230 4292731370
-0.2907809317 -0.1212204322 0.5981037021 4292402405
-0.2908320427 -0.1205770969 0.5982089043 4292073442
-0.2913132310 -0.1201108396 0.5991986394 4291481305
-0.2913639247 -0.1194658726 0.5993028879 4291020754
-0.2914143801 -0.1188205704 0.5994066596 4290757582
-0.2914645374 -0.1181749329 0.5995098948 4291152341
-0.2915144861 -0.1175289676 0.5996125937 4291020755
-0.2915641665 -0.1168826669 0.5997147560 4291350234
-0.2920443118 -0.1164077297 0.6007024050 4286678931
-0.2920935452 -0.1157598197 0.6008036733 4284507764
-0.2921425104 -0.1151115745 0.6009044051 4283520869
-0.2930531502 -0.1148006618 0.6027774811 4284442230
-0.2935327888 -0.1143177301 0.6037639976 4284047472
-0.2944433987 -0.1139994636 0.6056370139 4288981947
-0.2953540385 -0.1136770472 0.6075100899 4291350495
-0.2962646782 -0.1133504733 0.6093832254 4291745253
-0.2976066768 -0.1131837815 0.6121435165 4292600562
-0.2985174358 -0.1128479391 0.6140168309 4292403177
-0.2985652685 -0.1121837050 0.6141152978 4292337384
-0.2990444005 -0.1116803065 0.6151008010 4292140005
