VERSION 0.7
FIELDS x y z rgba
SIZE 4 4 4 4
TYPE F F F U
COUNT 1 1 1 1
WIDTH 920
HEIGHT 1
VIEWPOINT 0.0 0.0 0.0 1.0 0.0 0.0 0.0
POINTS 920
DATA ascii
-0.2540648282 -0.1323448271 0.5237794518 4292396391
-0.2541196346 -0.1317912936 0.5238924026 4292593770
-0.2537484765 -0.1310175657 0.5231272578 4292790897
-0.2538027763 -0.1304642558 0.5232391953 4293054069
-0.2538568676 -0.1299105734 0.5233506560 4293120381
-0.2539107502 -0.1293565482 0.5234617591 4293186174
-0.2539644241 -0.1288021654 0.5235724449 4293054851
-0.2540178895 -0.1282474250 0.5236826539 4293252230
-0.2540711462 -0.1276923418 0.5237924457 4293515151
-0.2541241944 -0.1271369159 0.5239018202 4293778323
-0.2541770339 -0.1265811324 0.5240107179 4293975449
-0.2538031042 -0.1258135587 0.5232398510 4294238621
-0.2538554370 -0.1252580285 0.5233477354 4294567845
-0.2539075613 -0.1247021481 0.5234552026 4294896810
-0.2539594471 -0.1241459250 0.5235621929 4294962094
-0.2540111542 -0.1235893667 0.5236687660 4294962094
-0.2540626526 -0.1230324656 0.5237749219 4294962351
-0.2541139126 -0.1224752292 0.5238806605 4294962094
-0.2541649938 -0.1219176576 0.5239859223 4294896299
-0.2546430826 -0.1215637103 0.5249716043 4294830506
-0.2546938062 -0.1210045293 0.5250761509 4294764713
-0.2547443211 -0.1204450130 0.5251802802 4294764713
-0.2547946274 -0.1198851615 0.5252839923 4294633381
-0.2552722991 -0.1195251942 0.5262687206 4294501795
-0.2553222477 -0.1189637482 0.5263717175 4294436002
-0.2557997406 -0.1186002940 0.5273560882 4294304416
-0.2558493316 -0.1180372462 0.5274583697 4294172828
-0.2563266456 -0.1176703200 0.5284423828 4294041242
-0.2568039000 -0.1173011810 0.5294262767 4294041242
-0.2572810948 -0.1169298291 0.5304100513 4294041242
-0.2577582300 -0.1165562645 0.5313937664 4294041241
-0.2582353354 -0.1161804944 0.5323773026 4293975448
-0.2591406703 -0.1159942299 0.5342438221 4294041241
-0.2596177459 -0.1156130880 0.5352272987 4294041241
-0.2600947022 -0.1152297258 0.5362106562 4293910166
-0.2614287734 -0.1152219325 0.5389609337 4293910166
-0.2623344362 -0.1150202006 0.5408280492 4293975961
-0.2632402182 -0.1148143560 0.5426953435 4293910168
-0.2641460598 -0.1146043986 0.5445628762 4293910169
-0.2650519907 -0.1143903285 0.5464305282 4293910169
-0.2663869560 -0.1143562868 0.5491827130 4293844894
-0.2677221596 -0.1143162400 0.5519353747 4293910687
-0.2690576017 -0.1142701656 0.5546885133 4293120919
-0.2703932822 -0.1142180711 0.5574421287 4292594575
-0.2721584439 -0.1143403053 0.5610811710 4293186459
-0.2734946311 -0.1142752096 0.5638358593 4293844389
-0.2756898701 -0.1145609617 0.5683615804 4293387208
-0.2917578816 -0.1617059112 0.6028677821 4289109599
-0.2914007902 -0.1608389765 0.6021298766 4289833322
-0.2910432816 -0.1599734575 0.6013911366 4290095956
-0.2906853259 -0.1591093540 0.6006515026 4290227542
-0.2899031341 -0.1580156386 0.5990352631 4290555218
-0.2882724702 -0.1564649940 0.5956657529 4290949976
-0.2849447131 -0.1540046036 0.5887895226 4291474778
-0.2676192820 -0.1440262794 0.5529894829 4291737950
-0.2600428164 -0.1393518001 0.5373339653 4292000606
-0.2575544417 -0.1374270171 0.5321921706 4292066399
-0.2550647259 -0.1355129629 0.5270476341 4292001122
-0.2542716861 -0.1345078647 0.5254089236 4292198501
-0.2534780502 -0.1335060894 0.5237690210 4292330597
-0.2531085312 -0.1327303648 0.5230054855 4292330597
-0.2527385950 -0.1319561303 0.5222411156 4292593770
-0.2527931631 -0.1314042509 0.5223538280 4292791149
-0.2528475225 -0.1308519989 0.5224661827 4292922483
-0.2529016733 -0.1302994043 0.5225780606 4293185655
-0.2525304854 -0.1295283884 0.5218110085 4293186174
-0.2530093491 -0.1291931421 0.5228005648 4293186174
-0.2530628741 -0.1286394894 0.5229111314 4293186437
-0.2531161904 -0.1280854791 0.5230213404 4293318023
-0.2527438104 -0.1273167729 0.5222518444 4293515151
-0.2527966201 -0.1267630011 0.5223609805 4293778323
-0.2528492212 -0.1262088865 0.5224696994 4294041242
-0.2529016435 -0.1256544143 0.5225779414 4294238621
-0.2529538274 -0.1250995994 0.5226858258 4294567845
-0.2530058026 -0.1245444492 0.5227932334 4294896810
-0.2530575693 -0.1239889488 0.5229001641 4294962351
-0.2531091273 -0.1234331131 0.5230067372 4294962094
-0.2531604767 -0.1228769422 0.5231128335 4294962349
-0.2532116175 -0.1223204285 0.5232185125 4294962092
-0.2532625496 -0.1217635795 0.5233237147 4294830506
-0.2537397146 -0.1214104444 0.5243096948 4294698920
-0.2537902892 -0.1208519861 0.5244142413 4294698920
-0.2538406551 -0.1202932000 0.5245183110 4294633127
-0.2543175220 -0.1199353114 0.5255036950 4294501795
-0.2543675601 -0.1193749160 0.5256070495 4294501795
-0.2548442483 -0.1190135404 0.5265920758 4294436000
-0.2548939288 -0.1184515506 0.5266947150 4294304414
-0.2553704381 -0.1180866957 0.5276793242 4294041242
-0.2558468878 -0.1177196354 0.5286638141 4293909656
-0.2558960915 -0.1171547696 0.5287654996 4293975449
-0.2563723624 -0.1167842299 0.5297496319 4294041242
-0.2572759390 -0.1166051701 0.5316166878 4294041495
-0.2577521801 -0.1162292510 0.5326007605 4293975702
-0.2586558759 -0.1160429344 0.5344681144 4293975959
-0.2591320574 -0.1156616509 0.5354521275 4293975959
-0.2600359023 -0.1154680625 0.5373197198 4293910166
-0.2605120540 -0.1150813997 0.5383035541 4293910166
-0.2614159882 -0.1148805469 0.5401713848 4293975961
-0.2623200119 -0.1146755815 0.5420393944 4293910168
-0.2632241249 -0.1144664958 0.5439075828 4293844890
-0.2645564079 -0.1144384816 0.5466605425 4293910683
-0.2654607594 -0.1142202243 0.5485292673 4293910433
-0.2667934299 -0.1141811162 0.5512830019 4293910433
-0.2681263387 -0.1141359955 0.5540372133 4292989334
-0.2694594860 -0.1140848473 0.5567919016 4292528783
-0.2712213099 -0.1142081022 0.5604324341 4293054875
-0.2729834914 -0.1143234149 0.5640737414 4293712805
-0.2747460604 -0.1144307926 0.5677157640 4293781966
-0.2902296484 -0.1625646204 0.6010894179 4287267669
-0.2902962863 -0.1619339436 0.6012274623 4288451943
-0.2899400592 -0.1610680372 0.6004896760 4290030943
-0.2895834148 -0.1602035463 0.5997509956 4290162529
-0.2892263234 -0.1593404561 0.5990114808 4290359126
-0.2888688445 -0.1584787816 0.5982710719 4290424919
-0.2872418165 -0.1569251865 0.5949013829 4290752593
-0.2851906717 -0.1551483423 0.5906532407 4291147351
-0.2784828544 -0.1508583724 0.5767608285 4291869019
-0.2620353997 -0.1413455755 0.5426968336 4292000605
-0.2578594387 -0.1384996325 0.5340480804 4292131679
-0.2557989359 -0.1368042827 0.5297806263 4292197472
-0.2541608810 -0.1353433728 0.5263880491 4292132708
-0.2537929714 -0.1345634609 0.5256261230 4292330087
-0.2534246743 -0.1337850094 0.5248633027 4292462183
-0.2526321113 -0.1327852756 0.5232218504 4292527976
-0.2522629201 -0.1320107430 0.5224572420 4292725356
-0.2518933713 -0.1312377155 0.5216918588 4292922735
-0.2519475818 -0.1306861937 0.5218040943 4293054069
-0.2520015836 -0.1301343143 0.5219159722 4293251448
-0.2520553768 -0.1295820922 0.5220273733 4293317760
-0.2521089613 -0.1290295124 0.5221383572 4293251967
-0.2521623373 -0.1284765750 0.5222489238 4293186437
-0.2522155046 -0.1279232800 0.5223590136 4293252230
-0.2518437803 -0.1271552294 0.5215891600 4293449358
-0.2518964708 -0.1266021729 0.5216982365 4293778323
-0.2519489229 -0.1260487735 0.5218068957 4294041242
-0.2520011663 -0.1254950315 0.5219151378 4294304414
-0.2520532310 -0.1249409467 0.5220229030 4294567845
-0.2521050572 -0.1243865192 0.5221303105 4294831017
-0.2521567047 -0.1238317490 0.5222371817 4294896299
-0.2522081137 -0.1232766360 0.5223436952 4294830506
-0.2522593141 -0.1227211878 0.5224497318 4294830760
-0.2523103058 -0.1221654043 0.5225553513 4294830760
-0.2523610890 -0.1216092780 0.5226605535 4294699174
-0.2528373301 -0.1212569550 0.5236468911 4294633381
-0.2533135116 -0.1209024191 0.5246331096 4294567588
-0.2529380023 -0.1201411635 0.5238553882 4294436002
-0.2534139454 -0.1197840795 0.5248410702 4294370209
-0.2538898289 -0.1194247901 0.5258266330 4294370209
-0.2539395690 -0.1188638508 0.5259297490 4294304414
-0.2544152737 -0.1185010821 0.5269149542 4294041242
-0.2544646859 -0.1179385409 0.5270172954 4293909656
-0.2549402118 -0.1175722852 0.5280021429 4293843863
-0.2554156780 -0.1172038168 0.5289868712 4293909656
-0.2558910847 -0.1168331355 0.5299714804 4294041242
-0.2563664615 -0.1164602414 0.5309559703 4293976213
-0.2568417490 -0.1160851344 0.5319403410 4293976213
-0.2577437162 -0.1158996969 0.5338084102 4293976213
-0.2586458027 -0.1157101616 0.5356766582 4293976213
-0.2591210902 -0.1153265163 0.5366610289 4293910420
-0.2600232661 -0.1151297092 0.5385295153 4293910420
-0.2604984939 -0.1147406846 0.5395137668 4293910166
-0.2614007890 -0.1145365983 0.5413824916 4293910166
-0.2627303600 -0.1145145968 0.5441361666 4293779097
-0.2636329234 -0.1143013313 0.5460054278 4293976476
-0.2649628818 -0.1142682508 0.5487598777 4293910433
-0.2662931085 -0.1142291501 0.5515149236 4293844640
-0.2676235735 -0.1141840294 0.5542703867 4292923287
-0.2689542472 -0.1141328737 0.5570263267 4292528529
-0.2707127929 -0.1142561957 0.5606684685 4292857755
-0.2720440030 -0.1141920313 0.5634254813 4293581478
-0.2738032341 -0.1143004224 0.5670689344 4294110931
-0.2888375223 -0.1621578634 0.5995854735 4287531343
-0.2884821594 -0.1612929851 0.5988477468 4289110375
-0.2881263494 -0.1604295224 0.5981091857 4290557023
-0.2877701521 -0.1595674604 0.5973697305 4290293851
-0.2869914472 -0.1584737599 0.5957532525 4290556760
-0.2866342962 -0.1576154381 0.5950118899 4290754139
-0.2845878005 -0.1558337212 0.5907636285 4291016020
-0.2808507681 -0.1531396508 0.5830060840 4291279192
-0.2678184211 -0.1454157978 0.5559527874 4291935064
-0.2585827112 -0.1398047358 0.5367807746 4291935064
-0.2561044991 -0.1378741711 0.5316363573 4292000093
-0.2544703484 -0.1364075094 0.5282440782 4292131679
-0.2532580495 -0.1351735443 0.5257275701 4292198501
-0.2528907955 -0.1343942583 0.5249651670 4292461673
-0.2521001697 -0.1333926320 0.5233238935 4292462437
-0.2513089478 -0.1323943585 0.5216814876 4292594023
-0.2513634861 -0.1318433434 0.5217947364 4292791149
-0.2514178455 -0.1312919706 0.5219075680 4292922735
-0.2510486543 -0.1305201501 0.5211411119 4293119862
-0.2511025071 -0.1299690008 0.5212529302 4293383034
-0.2511561513 -0.1294174939 0.5213642716 4293383551
-0.2512095869 -0.1288656294 0.5214751959 4293383551
-0.2512628138 -0.1283134222 0.5215857029 4293120642
-0.2513158321 -0.1277608573 0.5216957927 4293186435
-0.2513686717 -0.1272079498 0.5218054652 4293515151
-0.2514212728 -0.1266546845 0.5219146609 4293975702
-0.2514736950 -0.1261010915 0.5220234394 4294304414
-0.2511017323 -0.1253354251 0.5212513208 4294436000
-0.2511536479 -0.1247820631 0.5213590860 4294568099
-0.2507809997 -0.1240185127 0.5205855370 4294831271
-0.2512568235 -0.1236743182 0.5215732455 4294830760
-0.2513080835 -0.1231199354 0.5216796994 4294699174
-0.2517837584 -0.1227722466 0.5226671100 4294764965
-0.2518346906 -0.1222162470 0.5227728486 4294764965
-0.2518854439 -0.1216599122 0.5228781700 4294699172
-0.2519359589 -0.1211032420 0.5229830742 4294633379
-0.2519862652 -0.1205462366 0.5230875015 4294567588
-0.2524613738 -0.1201912463 0.5240737796 4294436002
-0.2529364526 -0.1198340356 0.5250599384 4294238621
-0.2529862821 -0.1192741543 0.5251634121 4294304414
-0.2534611821 -0.1189134642 0.5261492133 4294107035
-0.2539360523 -0.1185505614 0.5271349549 4293843863
-0.2539854050 -0.1179878041 0.5272374153 4293843862
-0.2544600666 -0.1176214144 0.5282227397 4293843862
-0.2549346685 -0.1172528118 0.5292080045 4293909656
-0.2558349073 -0.1170767993 0.5310767293 4294107035
-0.2563095093 -0.1167028174 0.5320619345 4293976211
-0.2567840219 -0.1163266301 0.5330469608 4294042004
-0.2572585046 -0.1159482226 0.5340319276 4293976211
-0.2577328980 -0.1155676022 0.5350167155 4293910418
-0.2586333454 -0.1153748333 0.5368858576 4293976213
-0.2595338821 -0.1151779592 0.5387552381 4293910420
-0.2600082457 -0.1147887930 0.5397399664 4293844373
-0.2609088719 -0.1145846397 0.5416095853 4293910166
-0.2618095875 -0.1143763661 0.5434793234 4293713304
-0.2631368935 -0.1143493131 0.5462346077 4294042269
-0.2640378475 -0.1141318530 0.5481048822 4293910433
-0.2653655410 -0.1140937060 0.5508609414 4293778847
-0.2666934431 -0.1140495315 0.5536174774 4292858007
-0.2680215836 -0.1139993221 0.5563744903 4292463249
-0.2697767913 -0.1141236648 0.5600181222 4292791962
-0.2715323865 -0.1142400652 0.5636624694 4293515685
-0.2732883394 -0.1143485159 0.5673075914 4294177494
-0.2870270610 -0.1615138352 0.5972040892 4288582996
-0.2866721451 -0.1606513858 0.5964655876 4289964649
-0.2863167822 -0.1597903520 0.5957262516 4290423640
-0.2863821685 -0.1591647863 0.5958622694 4290423640
-0.2856048048 -0.1580725163 0.5942448974 4290687834
-0.2814561129 -0.1551256925 0.5856128931 4290951006
-0.2844697237 -0.1561290324 0.5918831825 4290951257
-0.2769461572 -0.1513595432 0.5762292147 4291082843
-0.2601431906 -0.1415748298 0.5412680507 4291672667
-0.2555623353 -0.1384910494 0.5317369103 4291672667
-0.2543537319 -0.1372480839 0.5292221904 4291869271
-0.2531443834 -0.1360103041 0.5267059207 4292066650
-0.2523562312 -0.1350034773 0.5250660777 4292198760
-0.2519896328 -0.1342248023 0.5243032575 4292396139
-0.2512004375 -0.1332237273 0.5226612687 4292397158
-0.2508329451 -0.1324489564 0.5218966603 4292397158
-0.2508874536 -0.1318977475 0.5220100284 4292660333
-0.2505192757 -0.1311250478 0.5212439895 4292989298
-0.2505732775 -0.1305740476 0.5213563442 4293120379
-0.2506270707 -0.1300226897 0.5214682817 4293186172
-0.2502579093 -0.1292526573 0.5207002163 4293252230
-0.2503112257 -0.1287015229 0.5208110809 4293318023
-0.2503643036 -0.1281500310 0.5209215879 4293251977
-0.2504172027 -0.1275981963 0.5210316181 4293515149
-0.2504698634 -0.1270460188 0.5211412311 4293515149
-0.2505223453 -0.1264934838 0.5212503672 4293778321
-0.2505745888 -0.1259406060 0.5213591456 4294238620
-0.2506266534 -0.1253873855 0.5214674473 4294567585
-0.2506785095 -0.1248338148 0.5215753317 4294699685
-0.2503066063 -0.1240699738 0.5208015442 4294699685
-0.2503579557 -0.1235166565 0.5209083557 4294699172
-0.2504090965 -0.1229629964 0.5210147500 4294699172
-0.2504600286 -0.1224090084 0.5211207271 4294633379
-0.2509346306 -0.1220608577 0.5221081972 4294633379
-0.2509852052 -0.1215052530 0.5222134590 4294699172
-0.2510356009 -0.1209493056 0.5223183036 4294699172
-0.2515099049 -0.1205964014 0.5233051777 4294501792
-0.2515599430 -0.1200388521 0.5234092474 4294238620
-0.2520340681 -0.1196824536 0.5243957639 4294173340
-0.2529325485 -0.1195243895 0.5262652040 4293975961
-0.2525577247 -0.1187634170 0.5254853368 4293844375
-0.2534562051 -0.1185999811 0.5273547173 4293778582
-0.2535054982 -0.1180370152 0.5274572968 4293844375
-0.2539793253 -0.1176704913 0.5284431577 4293910168
-0.2540282607 -0.1171059236 0.5285450220 4293844373
-0.2549267709 -0.1169307977 0.5304144621 4293844373
-0.2554004192 -0.1165576279 0.5313999653 4294237591
-0.2558740079 -0.1161822453 0.5323853493 4294237591
-0.2563475370 -0.1158046424 0.5333706141 4293976210
-0.2572462261 -0.1156159267 0.5352404714 4293910417
-0.2577196956 -0.1152329519 0.5362256169 4294041244
-0.2586185038 -0.1150369570 0.5380957127 4293975451
-0.2595173717 -0.1148368493 0.5399659276 4293974936
-0.2604163587 -0.1146326289 0.5418363810 4294040729
-0.2613154054 -0.1144242883 0.5437070131 4293976213
-0.2622145712 -0.1142118275 0.5455778241 4294042006
-0.2635395229 -0.1141797081 0.5483346581 4294041241
-0.2648647428 -0.1141415611 0.5510919690 4293843862
-0.2661902010 -0.1140973791 0.5538497567 4293317782
-0.2675158679 -0.1140471771 0.5566080213 4292725645
-0.2692678273 -0.1141715795 0.5602532625 4292333730
-0.2705940008 -0.1141083539 0.5630125999 4292860074
-0.2859947979 -0.1619683951 0.5964345932 4287662965
-0.2856408060 -0.1611060649 0.5956963897 4289306715
-0.2852863967 -0.1602451354 0.5949572921 4290162024
-0.2849316001 -0.1593856215 0.5942173004 4290423381
-0.2845763564 -0.1585275084 0.5934764743 4290357588
-0.2833797932 -0.1572043300 0.5909811258 4290687063
-0.2813413739 -0.1554216295 0.5867300630 4290884442
-0.2771986127 -0.1524907351 0.5780903697 4291147864
-0.2642183900 -0.1447379142 0.5510205030 4291213657
-0.2571236491 -0.1402556449 0.5362245440 4291606362
-0.2542346716 -0.1380906850 0.5301997066 4291672155
-0.2530282140 -0.1368490905 0.5276836753 4291935064
-0.2522421181 -0.1358394474 0.5260442495 4292132443
-0.2514554262 -0.1348331571 0.5244036317 4292264294
-0.2510894537 -0.1340551078 0.5236404538 4292461673
-0.2507230937 -0.1332785636 0.5228764415 4292265574
-0.2503563464 -0.1325035095 0.5221115947 4292397160
-0.2499892265 -0.1317299455 0.5213459730 4292725872
-0.2500433624 -0.1311791092 0.5214588642 4292989044
-0.2500973046 -0.1306279004 0.5215713382 4293054586
-0.2497292161 -0.1298569888 0.5208036900 4293120379
-0.2497826517 -0.1293060035 0.5209151506 4293318023
-0.2494138628 -0.1285371780 0.5201460719 4293449609
-0.2494668067 -0.1279864162 0.5202564597 4293317770
-0.2495195419 -0.1274353117 0.5203664303 4293449356
-0.2495720834 -0.1268838495 0.5204759836 4293515151
-0.2496244013 -0.1263320446 0.5205851197 4293844116
-0.2496765256 -0.1257798970 0.5206938386 4294304413
-0.2497284412 -0.1252273917 0.5208020806 4294501792
-0.2497801483 -0.1246745586 0.5209099054 4294568099
-0.2485634685 -0.1234913170 0.5183725357 4294633892
-0.2494601160 -0.1233587712 0.5202425122 4294567585
-0.2495111078 -0.1228058413 0.5203488469 4294501792
-0.2495619059 -0.1222525761 0.5204547644 4294436000
-0.2500355542 -0.1219052374 0.5214425325 4294436000
-0.2500860095 -0.1213503629 0.5215477943 4294501793
-0.2505594790 -0.1209995374 0.5225352049 4294567586
-0.2506096065 -0.1204430535 0.5226397514 4294370206
-0.2510829270 -0.1200887412 0.5236268044 4294107034
-0.2511326969 -0.1195306480 0.5237306356 4293844375
-0.2520294189 -0.1193734780 0.5256007314 4293844375
-0.2516552806 -0.1186131537 0.5248205066 4293844375
-0.2529757619 -0.1186493561 0.5275742412 4293778582
-0.2530249953 -0.1180861741 0.5276769996 4293778582
-0.2534979582 -0.1177195162 0.5286633372 4293778582
-0.2539708614 -0.1173506454 0.5296495557 4293844373
-0.2544437051 -0.1169795543 0.5306356549 4293910166
-0.2549164891 -0.1166062504 0.5316216350 4294171798
-0.2553892434 -0.1162307262 0.5326074958 4294171798
-0.2558619082 -0.1158529893 0.5335932374 4293910417
-0.2567589283 -0.1156642064 0.5354639292 4293976210
-0.2572315633 -0.1152810901 0.5364496112 4294041244
-0.2581286728 -0.1150850281 0.5383205414 4294041244
-0.2590259016 -0.1148848608 0.5401917100 4294106522
-0.2599232197 -0.1146805659 0.5420629978 4294106522
-0.2608205974 -0.1144721583 0.5439345241 4293975959
-0.2617180943 -0.1142596304 0.5458061695 4294107545
-0.2630406022 -0.1142275110 0.5485642552 4294107035
-0.2643633485 -0.1141893640 0.5513227582 4293909656
-0.2656863034 -0.1141451821 0.5540817976 4293317782
-0.2670095265 -0.1140949726 0.5568413138 4292923024
-0.2687582076 -0.1142194495 0.5604881644 4292333732
-0.2700819075 -0.1141562089 0.5632486939 4292925869
-0.2846105099 -0.1615586579 0.5949257612 4288452474
-0.2846763432 -0.1609348506 0.5950633287 4290095971
-0.2843225598 -0.1600745320 0.5943238139 4290359143
-0.2835489213 -0.1589804292 0.5927066803 4290554964
-0.2827746868 -0.1578895748 0.5910882950 4290489171
-0.2811605632 -0.1563353240 0.5877142549 4290818390
-0.2782862186 -0.1540907770 0.5817059278 4291015769
-0.2707921565 -0.1493123025 0.5660410523 4291081558
-0.2595151365 -0.1424915344 0.5424684882 4291213144
-0.2545331419 -0.1391649246 0.5320545435 4291540569
-0.2524894774 -0.1374611557 0.5277826190 4291672155
-0.2517052889 -0.1364496499 0.5261434317 4292131932
-0.2509205341 -0.1354414821 0.5245031118 4292329311
-0.2505556345 -0.1346625835 0.5237402916 4292264294
-0.2501903176 -0.1338851750 0.5229766369 4292461673
-0.2498245984 -0.1331092566 0.5222122073 4292265321
-0.2494585067 -0.1323348433 0.5214469433 4292462700
-0.2490920424 -0.1315619200 0.5206809044 4292725874
-0.2491460294 -0.1310117990 0.5207937956 4292923253
-0.2491998225 -0.1304613203 0.5209062099 4292988795
-0.2488323748 -0.1296910346 0.5201381445 4293186174
-0.2488856614 -0.1291407794 0.5202495456 4293383816
-0.2485175431 -0.1283725947 0.5194800496 4293515402
-0.2485703379 -0.1278225631 0.5195903778 4293580944
-0.2486229241 -0.1272721738 0.5197003484 4293580944
-0.2486753166 -0.1267214566 0.5198098421 4293646483
-0.2487275004 -0.1261703670 0.5199189186 4294041241
-0.2487794757 -0.1256189495 0.5200275779 4294304413
-0.2488312423 -0.1250671893 0.5201357603 4294370206
-0.2488828003 -0.1245150715 0.5202435255 4294502305
-0.2489341497 -0.1239626184 0.5203508735 4294633891
-0.2489853054 -0.1234098226 0.5204578042 4294501792
-0.2490362376 -0.1228566840 0.5205643177 4294304413
-0.2490869761 -0.1223032102 0.5206703544 4294172827
-0.2491375059 -0.1217494011 0.5207759738 4294238620
-0.2496101707 -0.1214006692 0.5217639804 4294304413
-0.2496603578 -0.1208452433 0.5218688846 4294238620
-0.2501328588 -0.1204930246 0.5228565335 4294041241
-0.2506053150 -0.1201385856 0.5238441229 4293843862
-0.2506550550 -0.1195802763 0.5239480734 4293712530
-0.2511273324 -0.1192223504 0.5249353051 4293778323
-0.2515995800 -0.1188622117 0.5259224772 4293778582
-0.2520717680 -0.1184998527 0.5269094706 4293844375
-0.2525438964 -0.1181352809 0.5278964043 4293778582
-0.2530159950 -0.1177684888 0.5288832188 4293778582
-0.2534880340 -0.1173994839 0.5298699737 4293844373
-0.2539600432 -0.1170282587 0.5308565497 4293910166
-0.2544319630 -0.1166548133 0.5318430662 4294040982
-0.2549038529 -0.1162791550 0.5328294039 4294040982
-0.2553756535 -0.1159012765 0.5338156819 4293976210
-0.2558474243 -0.1155211776 0.5348017812 4293976210
-0.2567427754 -0.1153291762 0.5366733670 4293975448
-0.2576382458 -0.1151330546 0.5385451913 4294041241
-0.2581099868 -0.1147444025 0.5395312309 4294172570
-0.2590055466 -0.1145409942 0.5414032340 4294106777
-0.2599011958 -0.1143334657 0.5432754755 4294041752
-0.2612209916 -0.1143073738 0.5460342765 4294041752
-0.2621169090 -0.1140906513 0.5479069948 4294172828
-0.2634370923 -0.1140534505 0.5506666303 4294041242
-0.2647575140 -0.1140102297 0.5534266829 4293449114
-0.2665025294 -0.1141427234 0.5570743680 4293120149
-0.2678234875 -0.1140864640 0.5598355532 4292136103
-0.2695691884 -0.1142040193 0.5634846091 4293057205
-0.2831630409 -0.1617702097 0.5932773948 4287531363
-0.2832288146 -0.1611484587 0.5934152007 4289176188
-0.2828758955 -0.1602891535 0.5926758051 4290490465
-0.2825225592 -0.1594312638 0.5919355154 4290358879
-0.2817501724 -0.1583395004 0.5903172493 4290752084
-0.2809771895 -0.1572510153 0.5886976719 4290752084
-0.2785282135 -0.1552320421 0.5835666656 4290818388
-0.2748211026 -0.1525261998 0.5757995844 4291081560
-0.2623124123 -0.1449732184 0.5495916605 4291016020
-0.2556655705 -0.1407045275 0.5356653333 4291081813
-0.2527884841 -0.1385326684 0.5296372771 4291540569
-0.2511678338 -0.1370598227 0.5262417197 4291737948
-0.2503850162 -0.1360497773 0.5246015787 4292132189
-0.2500211298 -0.1352700293 0.5238391757 4292263775
-0.2496568412 -0.1344917715 0.5230759382 4292264294
-0.2492921799 -0.1337150037 0.5223118663 4292395880
-0.2489271164 -0.1329397112 0.5215470195 4292265323
-0.2485616803 -0.1321659237 0.5207813978 4292462702
-0.2481958717 -0.1313936412 0.5200149417 4292660083
-0.2478296608 -0.1306228489 0.5192476511 4292857462
-0.2478832155 -0.1300740242 0.5193598866 4293054588
-0.2479365617 -0.1295248568 0.5194716454 4293251967
-0.2475693822 -0.1287567168 0.5187023282 4293514889
-0.2476222366 -0.1282077730 0.5188130736 4293580682
-0.2476748824 -0.1276584715 0.5189234018 4293646737
-0.2477273345 -0.1271088123 0.5190332532 4293778323
-0.2477795631 -0.1265588105 0.5191426873 4293843862
-0.2478315979 -0.1260084659 0.5192517042 4294041241
-0.2478834391 -0.1254577786 0.5193603039 4294238874
-0.2479350567 -0.1249067336 0.5194684863 4294304667
-0.2479864806 -0.1243553534 0.5195762515 4294370717
-0.2480376959 -0.1238036305 0.5196835399 4294370717
-0.2480887026 -0.1232515648 0.5197904110 4294238874
-0.2485607862 -0.1229074746 0.5207794905 4294107288
-0.2486114651 -0.1223537922 0.5208857059 4293975702
-0.2482404709 -0.1215933338 0.5201084018 4293975702
-0.2487121969 -0.1212454140 0.5210967064 4293975702
-0.2491838783 -0.1208952814 0.5220850110 4293909909
-0.2492337972 -0.1203393191 0.5221895576 4293778323
-0.2501271069 -0.1201883703 0.5240612626 4293712530
-0.2505986691 -0.1198315918 0.5250492096 4293712530
-0.2510701716 -0.1194725931 0.5260371566 4293778323
-0.2511195838 -0.1189115271 0.5261406898 4293909909
-0.2515909374 -0.1185490415 0.5271282196 4293975702
-0.2520622015 -0.1181843355 0.5281156301 4293909909
-0.2516888380 -0.1174233705 0.5273333788 4293909909
-0.2525822520 -0.1172521934 0.5292052031 4293909909
-0.2530533075 -0.1168817803 0.5301921368 4293909909
-0.2535242736 -0.1165091470 0.5311789513 4294040980
-0.2539952099 -0.1161342934 0.5321656466 4294040980
-0.2544661164 -0.1157572195 0.5331522226 4293910417
-0.2553597093 -0.1155692711 0.5350244641 4293976210
-0.2558305264 -0.1151868179 0.5360109210 4294041495
-0.2567242682 -0.1149915829 0.5378834605 4294041495
-0.2571950555 -0.1146037355 0.5388698578 4294107288
-0.2580888569 -0.1144012064 0.5407425165 4294107288
-0.2589827776 -0.1141945645 0.5426154733 4293910938
-0.2603000402 -0.1141694337 0.5453753471 4293910938
-0.2611941695 -0.1139535829 0.5472487211 4294041241
-0.2625118196 -0.1139173433 0.5500094295 4294107034
-0.2642531693 -0.1140578538 0.5536578894 4293515161
-0.2655713558 -0.1140085906 0.5564197302 4293186196
-0.2673133910 -0.1141341552 0.5600695610 4291807657
-0.2686320841 -0.1140718535 0.5628324747 4293320896
-0.2817841172 -0.1613579243 0.5917654037 4288781163
-0.2814320624 -0.1604996622 0.5910261273 4290031230
-0.2810795903 -0.1596428007 0.5902858973 4290555998
-0.2807267308 -0.1587873548 0.5895448327 4290227033
-0.2799555659 -0.1576979458 0.5879253745 4290948693
-0.2783479393 -0.1561428905 0.5845492482 4290817107
-0.2754852474 -0.1538942158 0.5785373449 4290686289
-0.2676033974 -0.1488667876 0.5619849563 4291015254
-0.2563719451 -0.1420205683 0.5383981466 4291147093
-0.2526649237 -0.1393774748 0.5306131840 4291147093
-0.2510480881 -0.1378998011 0.5272176862 4291540569
-0.2502672970 -0.1368869543 0.5255780220 4291737948
-0.2494859397 -0.1358774602 0.5239371061 4292066398
-0.2491227090 -0.1350983381 0.5231742859 4292197984
-0.2487590760 -0.1343207061 0.5224106312 4292264296
-0.2483950704 -0.1335445642 0.5216462016 4292330089
-0.2480306625 -0.1327699274 0.5208809376 4292396141
-0.2480849475 -0.1322201192 0.5209949017 4292593520
-0.2477198690 -0.1314475387 0.5202282071 4292594035
-0.2473544180 -0.1306764483 0.5194607377 4292791414
-0.2474078983 -0.1301274300 0.5195730925 4293054590
-0.2470417619 -0.1293584257 0.5188041925 4293317762
-0.2470947653 -0.1288096309 0.5189154744 4293449096
-0.2471475601 -0.1282604784 0.5190263391 4293514889
-0.2472001463 -0.1277109683 0.5191367865 4293514636
-0.2472525388 -0.1271611154 0.5192468166 4293777808
-0.2473047227 -0.1266109049 0.5193563700 4293844116
-0.2473566979 -0.1260603517 0.5194655657 4293975702
-0.2469884306 -0.1252963692 0.5186921358 4294173081
-0.2470398992 -0.1247460544 0.5188002586 4294238874
-0.2470911741 -0.1241954044 0.5189079642 4294304663
-0.2475625575 -0.1238546893 0.5198978782 4294041491
-0.2476135045 -0.1233024225 0.5200048685 4293778321
-0.2476642579 -0.1227498055 0.5201114416 4293580942
-0.2477147877 -0.1221968532 0.5202175379 4293449356
-0.2481857687 -0.1218500882 0.5212066770 4293515149
-0.2482359707 -0.1212955266 0.5213121176 4293646735
-0.2487068027 -0.1209452674 0.5223008394 4293712528
-0.2491775751 -0.1205927953 0.5232895017 4293712530
-0.2496483177 -0.1202381030 0.5242781043 4293712530
-0.2501190007 -0.1198811978 0.5252665877 4293778323
-0.2505896688 -0.1195220724 0.5262549520 4293844116
-0.2502177656 -0.1187608540 0.5254740119 4293909907
-0.2511094809 -0.1185981706 0.5273466706 4294041493
-0.2515799105 -0.1182333305 0.5283345580 4294041493
-0.2512073219 -0.1174720749 0.5275520682 4293975700
-0.2520990372 -0.1173008457 0.5294247866 4293909909
-0.2525692284 -0.1169302911 0.5304121971 4293844116
-0.2530393600 -0.1165575236 0.5313994884 4293975698
-0.2535094321 -0.1161825359 0.5323866606 4294041491
-0.2539794445 -0.1158053279 0.5333737731 4293976210
-0.2544493973 -0.1154258996 0.5343607068 4293976210
-0.2553413510 -0.1152347177 0.5362338424 4294041495
-0.2562333941 -0.1150394231 0.5381072164 4294041495
-0.2567033470 -0.1146514341 0.5390940905 4294041493
-0.2575954795 -0.1144488379 0.5409677029 4294041493
-0.2584877312 -0.1142421216 0.5428414345 4293845145
-0.2593800426 -0.1140312776 0.5447154045 4293910938
-0.2606949806 -0.1140010804 0.5474768281 4294107288
-0.2620101571 -0.1139648408 0.5502387881 4294107288
-0.2633255422 -0.1139225662 0.5530011654 4293515161
-0.2646411657 -0.1138742492 0.5557640791 4292988817
-0.2681188881 -0.1141194776 0.5630674958 4293846735
-0.2804077864 -0.1609451920 0.5902517438 4289701485
-0.2800562680 -0.1600884348 0.5895118117 4290293622
-0.2792874873 -0.1589957923 0.5878935456 4290555224
-0.2789350450 -0.1581427902 0.5871517062 4290357845
-0.2777481079 -0.1568202674 0.5846531987 4291014229
-0.2757261097 -0.1550337523 0.5803969502 4291014229
-0.2703651190 -0.1513870656 0.5691121817 4290883154
-0.2587415278 -0.1442734748 0.5446448326 4291212119
-0.2533737421 -0.1406878233 0.5333457589 4290949712
-0.2505083680 -0.1385109276 0.5273141861 4291015505
-0.2497295290 -0.1374962181 0.5256747603 4291475289
-0.2489501089 -0.1364848465 0.5240340829 4291738461
-0.2485879064 -0.1357048899 0.5232716799 4291935582
-0.2482253164 -0.1349263936 0.5225084424 4292067168
-0.2478623390 -0.1341494024 0.5217443705 4292132967
-0.2474989742 -0.1333739012 0.5209795237 4292132967
-0.2475533932 -0.1328242570 0.5210940838 4292396141
-0.2471893579 -0.1320508122 0.5203278065 4292593520
-0.2468249500 -0.1312788576 0.5195606947 4292659830
-0.2468785793 -0.1307300031 0.5196735859 4292857209
-0.2465134859 -0.1299601197 0.5189050436 4293054336
-0.2465666234 -0.1294114739 0.5190169215 4293251715
-0.2462008595 -0.1286436915 0.5182470083 4293383303
-0.2462535053 -0.1280952692 0.5183578134 4293449096
-0.2463059425 -0.1275464892 0.5184682012 4293514636
-0.2463581860 -0.1269973665 0.5185781717 4293777808
-0.2464102209 -0.1264478862 0.5186877251 4293844116
-0.2464620471 -0.1258980632 0.5187968016 4293975702
-0.2465136796 -0.1253478974 0.5189054608 4294107286
-0.2465651035 -0.1247973889 0.5190137625 4294173079
-0.2461969107 -0.1240352318 0.5182386637 4294041491
-0.2466673404 -0.1236953363 0.5192289352 4293712526
-0.2467181534 -0.1231437922 0.5193358660 4292988805
-0.2471884191 -0.1228004023 0.5203257799 4292923012
-0.2472389042 -0.1222472414 0.5204320550 4292988805
-0.2472891808 -0.1216937453 0.5205379128 4293186184
-0.2477591783 -0.1213455796 0.5215272307 4293449356
-0.2478091121 -0.1207904667 0.5216323733 4293646735
-0.2482789457 -0.1204388142 0.5226213336 4293712528
-0.2487487346 -0.1200849339 0.5236102343 4293778321
-0.2492184937 -0.1197288409 0.5245990157 4293778321
-0.2496881932 -0.1193705276 0.5255877376 4293844114
-0.2501578331 -0.1190100014 0.5265763402 4293975700
-0.2510479689 -0.1188463196 0.5284500718 4294041493
-0.2506764233 -0.1180841550 0.5276679397 4294041491
-0.2515665293 -0.1179150864 0.5295416117 4293975698
-0.2520359755 -0.1175456792 0.5305297971 4293909907
-0.2525053918 -0.1171740443 0.5315178633 4293909907
-0.2521328926 -0.1164115071 0.5307338238 4293975953
-0.2530230284 -0.1162307262 0.5326074958 4294041746
-0.2534921765 -0.1158533767 0.5335950851 4293910418
-0.2539612949 -0.1154738143 0.5345824957 4293910418
-0.2544303238 -0.1150920242 0.5355698466 4294041495
-0.2553206086 -0.1148976088 0.5374438763 4294041495
-0.2562110126 -0.1146990731 0.5393181443 4293910420
-0.2571014762 -0.1144964173 0.5411925912 4293976213
-0.2579920590 -0.1142896339 0.5430672169 4293779865
-0.2588827014 -0.1140787229 0.5449420214 4293911451
-0.2597734630 -0.1138636768 0.5468170047 4294173079
-0.2610860467 -0.1138283983 0.5495799780 4294173079
-0.2623988986 -0.1137870774 0.5523434877 4293580952
-0.2641339004 -0.1139216945 0.5559956431 4292923022
-0.2786181271 -0.1602927446 0.5878589749 4290227308
-0.2786830068 -0.1596767604 0.5879958272 4290095722
-0.2779155672 -0.1585855484 0.5863766074 4290554707
-0.2767314017 -0.1572610885 0.5838781595 4290620500
-0.2755464315 -0.1559417397 0.5813779831 4291145045
-0.2722790241 -0.1534543037 0.5744840503 4291276631
-0.2640127838 -0.1481766105 0.5570430160 4291145811
-0.2549095154 -0.1424698383 0.5378359556 4291145811
-0.2516344488 -0.1400495023 0.5309258103 4290554438
-0.2491910756 -0.1381054521 0.5257705450 4290883403
-0.2484135926 -0.1370922178 0.5241301656 4291343956
-0.2480524331 -0.1363113970 0.5233681202 4291672921
-0.2476908863 -0.1355320662 0.5226052999 4292001373
-0.2473289520 -0.1347542107 0.5218416452 4292132959
-0.2469666302 -0.1339778602 0.5210771561 4292132967
-0.2466039211 -0.1332029849 0.5203118920 4292132967
-0.2466581911 -0.1326540709 0.5204263926 4292396142
-0.2462948114 -0.1318812668 0.5196596980 4292593521
-0.2463485897 -0.1313325465 0.5197731853 4292725625
-0.2459845245 -0.1305618137 0.5190050602 4292857211
-0.2460378110 -0.1300133169 0.5191174746 4293054338
-0.2456730753 -0.1292446703 0.5183479190 4293120131
-0.2453079671 -0.1284775138 0.5175775290 4293251718
-0.2453604639 -0.1279298216 0.5176883340 4293383304
-0.2454127669 -0.1273817867 0.5177986622 4293580429
-0.2454648614 -0.1268333942 0.5179085732 4293712015
-0.2455167472 -0.1262846440 0.5180180669 4293844114
-0.2455684394 -0.1257355511 0.5181271434 4294041493
-0.2456199229 -0.1251861155 0.5182357430 4293844114
-0.2452526838 -0.1244240105 0.5174608827 4293515149
-0.2457222790 -0.1240862086 0.5184516907 4293449354
-0.2457731515 -0.1235357448 0.5185590386 4293251975
-0.2458238155 -0.1229849383 0.5186659694 4292593534
-0.2467120141 -0.1228509396 0.5205399394 4292725120
-0.2467624247 -0.1222975701 0.5206463337 4292923010
-0.2468126416 -0.1217438653 0.5207523108 4293186182
-0.2472817749 -0.1213955805 0.5217421055 4293449354
-0.2473316640 -0.1208402589 0.5218473673 4293580940
-0.2478006333 -0.1204884797 0.5228368640 4293646735
-0.2482695580 -0.1201344803 0.5238262415 4293712528
-0.2487384379 -0.1197782531 0.5248155594 4293778321
-0.2487877458 -0.1192187741 0.5249195695 4293844114
-0.2492564470 -0.1188590527 0.5259084702 4293909905
-0.2497251183 -0.1184971184 0.5268973112 4294041491
-0.2506135106 -0.1183311716 0.5287717581 4294041491
-0.2502424121 -0.1175693199 0.5279887915 4293975698
-0.2511308193 -0.1173979864 0.5298632383 4293909905
-0.2520193160 -0.1172225401 0.5317378640 4293844112
-0.2524877787 -0.1168485507 0.5327263474 4293910417
-0.2529562116 -0.1164723411 0.5337146521 4293910417
-0.2534245849 -0.1160939038 0.5347028971 4293910418
-0.2530522048 -0.1153300926 0.5339171886 4293910418
-0.2539407313 -0.1151397377 0.5357918739 4293975702
-0.2548293471 -0.1149452701 0.5376667976 4294041495
-0.2557180524 -0.1147466674 0.5395419002 4293976213
-0.2561862171 -0.1143561676 0.5405296683 4293976213
-0.2570750117 -0.1141502634 0.5424049497 4293779865
-0.2583847642 -0.1141261086 0.5451683998 4293911451
-0.2592738271 -0.1139109954 0.5470442176 4294173332
-0.2605839372 -0.1138757169 0.5498084426 4294173332
-0.2618942857 -0.1138343960 0.5525732040 4293646745
-0.2632048726 -0.1137870252 0.5553383827 4293317780
-0.2772477269 -0.1598789841 0.5863415599 4290753134
-0.2768971920 -0.1590262055 0.5856001973 4290095204
-0.2761310041 -0.1579373330 0.5839798450 4290685521
-0.2749488950 -0.1566151381 0.5814798474 4290817107
-0.2725197077 -0.1545910835 0.5763424635 4290947153
-0.2675960362 -0.1511692554 0.5659295321 4291210325
-0.2568511963 -0.1444958001 0.5432056785 4291145297
-0.2510897815 -0.1406646222 0.5310210586 4290816332
-0.2490677834 -0.1389466077 0.5267447829 4290093885
-0.2482923269 -0.1379305720 0.5251048207 4290620229
-0.2479323000 -0.1371479928 0.5243434310 4291277648
-0.2467397004 -0.1359085143 0.5218212008 4291672406
-0.2463787198 -0.1351307333 0.5210577846 4291935580
-0.2464336157 -0.1345817894 0.5211738944 4292067166
-0.2460719496 -0.1338060647 0.5204089880 4292132967
-0.2461263537 -0.1332572997 0.5205240846 4292264553
-0.2457640171 -0.1324836314 0.5197577477 4292396142
-0.2458179295 -0.1319350898 0.5198717713 4292659314
-0.2454549074 -0.1311634928 0.5191040635 4292725371
-0.2455083430 -0.1306151450 0.5192170739 4292922750
-0.2455615550 -0.1300664544 0.5193296075 4293054339
-0.2451975793 -0.1292975098 0.5185598135 4293054339
-0.2448332161 -0.1285300702 0.5177892447 4293185671
-0.2448856533 -0.1279821694 0.5179001689 4293317257
-0.2449378967 -0.1274339259 0.5180106163 4293448843
-0.2454072833 -0.1271014959 0.5190033317 4293580429
-0.2454592139 -0.1265516132 0.5191131234 4293844114
-0.2455109358 -0.1260013878 0.5192225575 4293975700
-0.2455624491 -0.1254508048 0.5193314552 4293515149
-0.2451960444 -0.1246874705 0.5185565948 4292791426
-0.2456648648 -0.1243486181 0.5195480585 4292594045
-0.2457157671 -0.1237970069 0.5196557045 4292594045
-0.2457664609 -0.1232450530 0.5197629333 4292527741
-0.2458169460 -0.1226927564 0.5198696852 4292856706
-0.2462853640 -0.1223478466 0.5208603740 4293185925
-0.2463355362 -0.1217939332 0.5209664702 4293383304
-0.2468037903 -0.1214455292 0.5219567418 4293449097
-0.2468536347 -0.1208899990 0.5220621824 4293514890
-0.2473217249 -0.1205380931 0.5230521560 4293580942
-0.2477897853 -0.1201839596 0.5240420103 4293712528
-0.2482578158 -0.1198276132 0.5250318050 4293844112
-0.2483070493 -0.1192679182 0.5251359344 4293844112
-0.2487749010 -0.1189080775 0.5261253715 4293910160
-0.2492426932 -0.1185460091 0.5271146894 4293975953
-0.2501294315 -0.1183800101 0.5289900303 4293976210
-0.2497590929 -0.1176178679 0.5282068253 4293910417
-0.2506457865 -0.1174464822 0.5300821066 4293844625
-0.2506941557 -0.1168800741 0.5301843882 4293713039
-0.2511616349 -0.1165078431 0.5311729908 4293844878
-0.2516290247 -0.1161333919 0.5321614742 4293844878
-0.2529353201 -0.1161419302 0.5349240899 4293910420
-0.2534027696 -0.1157611385 0.5359126925 4293910420
-0.2542897761 -0.1155688241 0.5377885699 4293975448
-0.2547571659 -0.1151826307 0.5387771130 4293975448
-0.2556442916 -0.1149830148 0.5406532288 4293845141
-0.2548520863 -0.1140278503 0.5389778018 4293845141
-0.2565789223 -0.1141975969 0.5426298380 4293714070
-0.2574661672 -0.1139874905 0.5445062518 4293845656
-0.2587735653 -0.1139582619 0.5472711921 4294173330
-0.2600812018 -0.1139229834 0.5500366688 4294041744
-0.2613890469 -0.1138816625 0.5528026223 4293712536
-0.2626971304 -0.1138342917 0.5555690527 4293712536
-0.2761645913 -0.1609302312 0.5854259729 4288780938
-0.2758153081 -0.1600770801 0.5846855640 4289438868
-0.2754656374 -0.1592253298 0.5839443207 4290554454
-0.2751155496 -0.1583749950 0.5832021832 4290554454
-0.2743506134 -0.1572884768 0.5815806985 4290488912
-0.2723415196 -0.1554951817 0.5773217082 4290423119
-0.2686727643 -0.1527676880 0.5695445538 4290553935
-0.2608549595 -0.1477080733 0.5529719591 4290685521
-0.2526185215 -0.1424492300 0.5355119705 4290751314
-0.2493569255 -0.1400227398 0.5285978913 4290817107
-0.2481686026 -0.1387709379 0.5260788798 4290816846
-0.2473946065 -0.1377554536 0.5244381428 4291080018
-0.2466200441 -0.1367432922 0.5227961540 4291409488
-0.2462601811 -0.1359637380 0.5220333338 4291672660
-0.2458999455 -0.1351856738 0.5212696791 4292066396
-0.2459547818 -0.1346365362 0.5213859081 4292197982
-0.2455938607 -0.1338605136 0.5206208229 4292263273
-0.2456482053 -0.1333115548 0.5207359791 4292394859
-0.2457023412 -0.1327622384 0.5208507776 4292133997
-0.2453404665 -0.1319888532 0.5200836658 4292462962
-0.2449781895 -0.1312169582 0.5193157196 4292922234
-0.2450315654 -0.1306684166 0.5194288492 4293185406
-0.2450847179 -0.1301195323 0.5195415020 4293185154
-0.2451376915 -0.1295702755 0.5196537971 4293119361
-0.2447741628 -0.1288016140 0.5188831687 4293119878
-0.2439938933 -0.1278163493 0.5172291398 4293317257
-0.2440459728 -0.1272688359 0.5173395276 4293383050
-0.2445144206 -0.1269372255 0.5183325410 4293317257
-0.2445661873 -0.1263880730 0.5184423327 4293514636
-0.2446177602 -0.1258385777 0.5185516477 4293712015
-0.2446691394 -0.1252887249 0.5186605453 4293316740
-0.2447202951 -0.1247385442 0.5187690258 4292000880
-0.2447712570 -0.1241880059 0.5188770294 4291869548
-0.2452390939 -0.1238477603 0.5198687315 4292659064
-0.2452897280 -0.1232955977 0.5199760795 4292660093
-0.2453401685 -0.1227430999 0.5200830102 4292989058
-0.2458077222 -0.1223980635 0.5210741758 4293251718
-0.2458578199 -0.1218439490 0.5211803913 4293317511
-0.2463252246 -0.1214954183 0.5221711993 4293514636
-0.2463749945 -0.1209396794 0.5222766995 4293777808
-0.2468422353 -0.1205876470 0.5232671499 4293778321
-0.2468916774 -0.1200302988 0.5233719945 4293778321
-0.2473587394 -0.1196747646 0.5243620872 4293844114
-0.2478257716 -0.1193170100 0.5253521204 4293844114
-0.2482927442 -0.1189570352 0.5263420343 4293844114
-0.2483415902 -0.1183955222 0.5264455676 4293909907
-0.2488083988 -0.1180320531 0.5274351239 4293844112
-0.2492751479 -0.1176663563 0.5284245610 4293844112
-0.2497418523 -0.1172984391 0.5294138789 4293844624
-0.2502084970 -0.1169282943 0.5304031372 4293778831
-0.2506750822 -0.1165559292 0.5313922167 4293844625
-0.2511416376 -0.1161813438 0.5323812366 4293910418
-0.2516081035 -0.1158045307 0.5333700776 4293910418
-0.2524932623 -0.1156172305 0.5352464914 4293910418
-0.2529597282 -0.1152350232 0.5362352729 4294237081
-0.2538449764 -0.1150404215 0.5381119251 4294237081
-0.2551493049 -0.1150305793 0.5408768654 4294237843
-0.2560348511 -0.1148267686 0.5427540541 4294237843
-0.2560822070 -0.1142448708 0.5428544879 4293909905
-0.2569677532 -0.1140346974 0.5447317362 4293975698
-0.2578533888 -0.1138203964 0.5466091037 4294171287
-0.2591584623 -0.1137860790 0.5493756533 4294171287
-0.2604637444 -0.1137457117 0.5521426797 4293778596
-0.2621887922 -0.1138814986 0.5557994843 4294041768
-0.2743858099 -0.1602710336 0.5830279589 4288978039
-0.2744503021 -0.1596607715 0.5831650496 4289570176
-0.2741011679 -0.1588105559 0.5824231505 4290422866
-0.2733381093 -0.1577231288 0.5808017850 4290422866
-0.2721608281 -0.1564012766 0.5783002377 4290553937
-0.2697415948 -0.1543742120 0.5731597543 4290488144
-0.2644243538 -0.1507068574 0.5618613958 4290619728
-0.2553792596 -0.1449487507 0.5426419377 4290553935
-0.2500557899 -0.1413369030 0.5313304067 4290619982
-0.2476283163 -0.1393802315 0.5261723995 4290883154
-0.2468562573 -0.1383628696 0.5245319009 4290948687
-0.2460836321 -0.1373488456 0.5228901505 4291146066
-0.2457248122 -0.1365684569 0.5221277475 4291409234
-0.2453656048 -0.1357895434 0.5213644505 4291672406
-0.2450060248 -0.1350121200 0.5206003785 4291934812
-0.2446460426 -0.1342361718 0.5198355317 4292132191
-0.2447004318 -0.1336883157 0.5199511051 4292329321
-0.2447546273 -0.1331401020 0.5200662613 4292395114
-0.2448086143 -0.1325915009 0.5201809406 4292133997
-0.2444473952 -0.1318187565 0.5194134116 4292528755
-0.2445008904 -0.1312703788 0.5195270777 4292791416
-0.2441390008 -0.1304997057 0.5187581182 4292857209
-0.2441920042 -0.1299515367 0.5188707709 4293119615
-0.2442448288 -0.1294030100 0.5189829469 4293251201
-0.2438819557 -0.1286349893 0.5182119608 4293251718
-0.2439342886 -0.1280867010 0.5183231235 4293251718
-0.2439863980 -0.1275380403 0.5184338689 4293251718
-0.2440383136 -0.1269890517 0.5185441971 4293120132
-0.2440900356 -0.1264396906 0.5186541080 4292987775
-0.2441415489 -0.1258900017 0.5187635422 4293053568
-0.2441928685 -0.1253399551 0.5188725591 4292659064
-0.2442439646 -0.1247895584 0.5189811587 4291343204
-0.2442948669 -0.1242388189 0.5190893412 4291869546
-0.2447618395 -0.1238984540 0.5200815201 4292659062
-0.2448124141 -0.1233460903 0.5201890469 4292922752
-0.2448627949 -0.1227933839 0.5202960968 4293185924
-0.2453294843 -0.1224482283 0.5212877393 4293383303
-0.2453795224 -0.1218939051 0.5213940740 4293383303
-0.2458460629 -0.1215452477 0.5223853588 4293449094
-0.2458957732 -0.1209893003 0.5224910378 4293712266
-0.2463621497 -0.1206371486 0.5234819651 4293778572
-0.2464115322 -0.1200795844 0.5235869288 4293712779
-0.2468777299 -0.1197239310 0.5245774984 4293778572
-0.2469267845 -0.1191647574 0.5246817470 4293778572
-0.2473928183 -0.1188056022 0.5256719589 4293778572
-0.2478587925 -0.1184442192 0.5266621113 4293844365
-0.2483247221 -0.1180806160 0.5276521444 4293844367
-0.2487906069 -0.1177147925 0.5286421180 4293910160
-0.2492564470 -0.1173467413 0.5296319127 4293910160
-0.2497222275 -0.1169764623 0.5306216478 4293910160
-0.2501879632 -0.1166039631 0.5316112041 4293779855
-0.2506536245 -0.1162292436 0.5326007009 4293779855
-0.2511192560 -0.1158522964 0.5335900784 4293714062
-0.2515847981 -0.1154731214 0.5345793366 4293779855
-0.2524682879 -0.1152825877 0.5364565849 4294040982
-0.2529338002 -0.1148980111 0.5374457240 4294106775
-0.2538174093 -0.1147001684 0.5393232703 4294107027
-0.2547011077 -0.1144981980 0.5412009954 4294041234
-0.2564215064 -0.1146662086 0.5448565483 4293778834
-0.2573055327 -0.1144540608 0.5467349887 4293778834
-0.2586081028 -0.1144229323 0.5495027304 4294106007
-0.2599108815 -0.1143857464 0.5522709489 4294171800
-0.2612139285 -0.1143425182 0.5550397038 4293648041
-0.2633545399 -0.1146578044 0.5595881939 4294371764
-0.2726112306 -0.1596111804 0.5806275606 4289437790
-0.2726753950 -0.1590034664 0.5807641745 4289832548
-0.2710888386 -0.1574368030 0.5773850679 4290291533
-0.2723903060 -0.1575480402 0.5801569819 4290291533
-0.2695640326 -0.1552754492 0.5741373897 4290422351
-0.2663233280 -0.1527784616 0.5672350526 4290488144
-0.2585378587 -0.1477004588 0.5506530404 4290619730
-0.2515747547 -0.1431271732 0.5358225107 4290488144
-0.2483269423 -0.1406917572 0.5289050341 4290553674
-0.2463172525 -0.1389702559 0.5246247053 4291014225
-0.2451331913 -0.1377221197 0.5221027732 4291080269
-0.2451887876 -0.1371731311 0.5222212076 4291146062
-0.2448306233 -0.1363933682 0.5214583278 4291605845
-0.2444720715 -0.1356150955 0.5206946731 4291869017
-0.2441131324 -0.1348383129 0.5199301839 4291934813
-0.2437538207 -0.1340630054 0.5191649199 4292066399
-0.2438080460 -0.1335158795 0.5192804337 4292263526
-0.2438620925 -0.1329683810 0.5193955302 4292395112
-0.2435018122 -0.1321957111 0.5186281800 4292133484
-0.2435553670 -0.1316484213 0.5187422037 4292462449
-0.2436087132 -0.1311007738 0.5188558698 4292594037
-0.2436618656 -0.1305527687 0.5189690590 4292791416
-0.2433003336 -0.1297833025 0.5181990266 4292923004
-0.2433529943 -0.1292355061 0.5183112025 4292988797
-0.2434054613 -0.1286873668 0.5184229612 4293185922
-0.2430429757 -0.1279205680 0.5176509023 4293185922
-0.2430949509 -0.1273726523 0.5177615881 4293251201
-0.2431467175 -0.1268243939 0.5178718567 4292922236
-0.2431982905 -0.1262757778 0.5179817080 4291934828
-0.2432496548 -0.1257268041 0.5180910826 4291869035
-0.2433008105 -0.1251775026 0.5182000399 4292329584
-0.2433517873 -0.1246278435 0.5183085799 4291079517
-0.2438178957 -0.1242895722 0.5193014145 4291935337
-0.2438685447 -0.1237382889 0.5194092393 4293119611
-0.2443345189 -0.1233965158 0.5204017162 4293054338
-0.2443848401 -0.1228436083 0.5205088854 4293185924
-0.2448506504 -0.1224983335 0.5215010047 4293514373
-0.2449006438 -0.1219438016 0.5216075182 4293580166
-0.2453663051 -0.1215950251 0.5225992799 4293580164
-0.2454159707 -0.1210388765 0.5227050781 4293777543
-0.2458814681 -0.1206865907 0.5236965418 4293844104
-0.2459308058 -0.1201288253 0.5238015652 4293778311
-0.2463961244 -0.1197730377 0.5247926712 4293778311
-0.2464451194 -0.1192136556 0.5248970389 4293844104
-0.2469102889 -0.1188543737 0.5258877873 4293844106
-0.2473753989 -0.1184928641 0.5268784165 4293844106
-0.2478404641 -0.1181291267 0.5278689265 4293909645
-0.2483054847 -0.1177631691 0.5288593769 4293909645
-0.2487704456 -0.1173949912 0.5298497081 4293844367
-0.2492353618 -0.1170245782 0.5308398604 4293844367
-0.2488664985 -0.1162624583 0.5300542712 4293844876
-0.2501650155 -0.1162770838 0.5328199267 4293844876
-0.2506297827 -0.1159000024 0.5338097811 4293714058
-0.2510944605 -0.1155206859 0.5347995162 4293714058
-0.2515590787 -0.1151391491 0.5357891321 4293975698
-0.2524409294 -0.1149453744 0.5376673341 4293975698
-0.2529054880 -0.1145584360 0.5386568308 4293975698
