VERSION 0.7
FIELDS x y z rgba
SIZE 4 4 4 4
TYPE F F F U
COUNT 1 1 1 1
WIDTH 920
HEIGHT 1
VIEWPOINT 0.0 0.0 0.0 1.0 0.0 0.0 0.0
POINTS 920
DATA ascii
-0.2838374674 -0.1308537126 0.5733433366 4291797541
-0.2838928401 -0.1302420944 0.5734551549 4292060713
-0.2839479744 -0.1296301186 0.5735665560 4292258351
-0.2844377756 -0.1292153597 0.5745559335 4292455730
-0.2844925225 -0.1286017299 0.5746665001 4292457017
-0.2849821150 -0.1281834394 0.5756554604 4292588603
-0.2850364447 -0.1275681704 0.5757651925 4292458046
-0.2855257988 -0.1271463633 0.5767536759 4292392253
-0.2860150635 -0.1267223209 0.5777420402 4292260420
-0.2865042686 -0.1262960583 0.5787301660 4292523592
-0.2874288857 -0.1260585487 0.5805978775 4292590412
-0.2879180014 -0.1256268770 0.5815858841 4292985170
-0.2888426781 -0.1253820956 0.5834537148 4293319097
-0.3014200628 -0.1799525023 0.6102286577 4289961828
-0.3002093732 -0.1785544157 0.6077776551 4288645968
-0.2985694706 -0.1769074649 0.6044576168 4290482477
-0.2965000272 -0.1750143468 0.6002680063 4290153512
-0.2940007448 -0.1728777885 0.5952082276 4290546203
-0.2919286788 -0.1710027158 0.5910133123 4290480410
-0.2894265950 -0.1688860208 0.5859477520 4290414615
-0.2873519063 -0.1670290381 0.5817475319 4290480408
-0.2861339450 -0.1656774580 0.5792817473 4290480408
-0.2849151492 -0.1643308699 0.5768142939 4290480408
-0.2841247022 -0.1632358730 0.5752140284 4290480408
-0.2833336592 -0.1621440649 0.5736125112 4290480408
-0.2829713821 -0.1613002270 0.5728790760 4290480408
-0.2826086581 -0.1604577750 0.5721448064 4290480408
-0.2822455466 -0.1596167237 0.5714096427 4290414613
-0.2818819880 -0.1587770730 0.5706736445 4290348820
-0.2815180421 -0.1579388231 0.5699367523 4290217234
-0.2811536491 -0.1571019739 0.5691990852 4289954062
-0.2807888389 -0.1562665403 0.5684605241 4289888269
-0.2804236412 -0.1554325074 0.5677211881 4289888269
-0.2804881930 -0.1548373699 0.5678519011 4289756172
-0.2805525362 -0.1542418301 0.5679821372 4289887758
-0.2801862955 -0.1534102112 0.5672406554 4289888271
-0.2802501023 -0.1528147608 0.5673698187 4289888271
-0.2807442844 -0.1524527371 0.5683703423 4289888271
-0.2808077633 -0.1518555582 0.5684987903 4290019857
-0.2808710039 -0.1512579769 0.5686268806 4290020627
-0.2809340358 -0.1506599933 0.5687544346 4290086420
-0.2809968293 -0.1500616074 0.5688816309 4290151443
-0.2810594141 -0.1494628191 0.5690082908 4290283029
-0.2811217904 -0.1488636285 0.5691345930 4290217236
-0.2807526588 -0.1480366439 0.5683872700 4290019857
-0.2808144689 -0.1474375874 0.5685124397 4289823248
-0.2808760703 -0.1468381286 0.5686371326 4289625869
-0.2809374630 -0.1462382823 0.5687614083 4288836866
-0.2809985876 -0.1456380337 0.5688852072 4288047360
-0.2806277871 -0.1448146105 0.5681344867 4287654400
-0.2802565694 -0.1439926475 0.5673829317 4288575497
-0.2798849344 -0.1431721300 0.5666305423 4289758995
-0.2799448967 -0.1425731033 0.5667519569 4290351132
-0.2795725167 -0.1417545974 0.5659980774 4290943007
-0.2796319425 -0.1411557347 0.5661183596 4291403558
-0.2792588472 -0.1403392404 0.5653630495 4291864363
-0.2793177366 -0.1397405416 0.5654822588 4292061742
-0.2789439261 -0.1389260739 0.5647254586 4292060974
-0.2790022492 -0.1383275390 0.5648435354 4291995181
-0.2794930041 -0.1379421651 0.5658370852 4291929388
-0.2795509696 -0.1373419613 0.5659544468 4291995181
-0.2800415456 -0.1369530559 0.5669476390 4292191275
-0.2805320621 -0.1365619153 0.5679406524 4292257068
-0.2814555466 -0.1363783628 0.5698102713 4292191014
-0.2819460332 -0.1359818280 0.5708032846 4292059428
-0.2824364603 -0.1355830580 0.5717961788 4291862312
-0.2824935913 -0.1349750459 0.5719118118 4291796519
-0.2829838097 -0.1345727444 0.5729042888 4291599908
-0.2830405533 -0.1339630485 0.5730191469 4291599908
-0.2835305929 -0.1335572153 0.5740112066 4291730978
-0.2835869193 -0.1329458654 0.5741252899 4291862564
-0.2836430371 -0.1323341429 0.5742388964 4291994148
-0.2836989164 -0.1317220777 0.5743520260 4292125734
-0.2837545574 -0.1311096251 0.5744646192 4292059943
-0.2833759785 -0.1302973032 0.5736982226 4292191529
-0.2838650942 -0.1298836768 0.5746884942 4292258353
-0.2839200199 -0.1292701662 0.5747996569 4292455732
-0.2844089270 -0.1288530082 0.5757894516 4292457017
-0.2848977447 -0.1284336299 0.5767790675 4292588603
-0.2849521041 -0.1278171837 0.5768890977 4292392253
-0.2854407132 -0.1273942739 0.5778782964 4292392253
-0.2859292030 -0.1269691437 0.5788672566 4292392772
-0.2864176333 -0.1265417635 0.5798560977 4292655944
-0.2873407006 -0.1263032407 0.5817248821 4292590420
-0.2878290415 -0.1258704662 0.5827135444 4293314143
-0.3004388213 -0.1797709167 0.6096129417 4290226562
-0.2996577919 -0.1786280125 0.6080281734 4288121186
-0.2984485328 -0.1772343367 0.6055744886 4289892409
-0.2968107462 -0.1755925864 0.6022512913 4289892409
-0.2947441339 -0.1737054884 0.5980579257 4290480410
-0.2922483385 -0.1715757549 0.5929937959 4290414617
-0.2901791036 -0.1697067171 0.5887951255 4290480408
-0.2876804769 -0.1675968915 0.5837252736 4290546201
-0.2864650190 -0.1662429720 0.5812590122 4290480408
-0.2852487266 -0.1648940444 0.5787910819 4290480408
-0.2844600081 -0.1637968123 0.5771906972 4290480408
-0.2836706638 -0.1627027690 0.5755890608 4290480408
-0.2828806937 -0.1616119295 0.5739861727 4290414615
-0.2825188041 -0.1607682556 0.5732518435 4290348822
-0.2821564972 -0.1599259824 0.5725167394 4290348822
-0.2822226882 -0.1593272388 0.5726510286 4290283029
-0.2814306319 -0.1582456231 0.5710439086 4290151443
-0.2810670733 -0.1574075520 0.5703061819 4289954064
-0.2807030976 -0.1565708816 0.5695676804 4289756685
-0.2803387046 -0.1557356119 0.5688282847 4289756685
-0.2804033160 -0.1551393569 0.5689593554 4289756172
-0.2804676890 -0.1545426697 0.5690900087 4289821965
-0.2801022530 -0.1537098289 0.5683484674 4289888271
-0.2801660895 -0.1531132460 0.5684780478 4289954064
-0.2802297175 -0.1525162607 0.5686071515 4290019857
-0.2807230353 -0.1521518677 0.5696080923 4290085650
-0.2807863057 -0.1515531540 0.5697364807 4290217236
-0.2808493674 -0.1509540230 0.5698644519 4290217236
-0.2809122205 -0.1503545046 0.5699919462 4290151443
-0.2809748352 -0.1497545689 0.5701190233 4290348822
-0.2806068659 -0.1489258260 0.5693723559 4290348822
-0.2806689441 -0.1483260244 0.5694983006 4290151443
-0.2807307839 -0.1477258205 0.5696238279 4289954834
-0.2807924151 -0.1471252143 0.5697488785 4289823248
-0.2808538079 -0.1465242207 0.5698734522 4289560076
-0.2804841399 -0.1456990242 0.5691233873 4289362697
-0.2805450261 -0.1450981647 0.5692468882 4289101317
-0.2801746130 -0.1442749500 0.5684953332 4289364489
-0.2798038125 -0.1434531957 0.5677428842 4289693453
-0.2798638046 -0.1428530216 0.5678646564 4289956625
-0.2794922590 -0.1420332789 0.5671107769 4290548503
-0.2795517147 -0.1414332539 0.5672314167 4291206433
-0.2791794538 -0.1406155229 0.5664760470 4291863591
-0.2792383730 -0.1400156617 0.5665955544 4292258349
-0.2792970538 -0.1394154280 0.5667146444 4291995179
-0.2793554962 -0.1388148069 0.5668332577 4291863593
-0.2794137299 -0.1382138282 0.5669513941 4291797287
-0.2794717252 -0.1376124620 0.5670691133 4291599908
-0.2799615264 -0.1372224838 0.5680629611 4291599392
-0.2804512978 -0.1368302703 0.5690566897 4291533599
-0.2809410095 -0.1364358366 0.5700503588 4291533597
-0.2818629444 -0.1362481266 0.5719211102 4291467804
-0.2823526263 -0.1358482838 0.5729146600 4291270945
-0.2824097872 -0.1352390945 0.5730306506 4291336738
-0.2828992605 -0.1348357052 0.5740238428 4291336736
-0.2829560041 -0.1342248619 0.5741389990 4291402529
-0.2830125391 -0.1336136311 0.5742536783 4291468576
-0.2830688357 -0.1330020428 0.5743678808 4291600162
-0.2831248939 -0.1323900968 0.5744816661 4291862564
-0.2836137116 -0.1319792718 0.5754734874 4291928357
-0.2836693823 -0.1313656569 0.5755864382 4291863334
-0.2832916379 -0.1305520684 0.5748199821 4292060713
-0.2833467424 -0.1299386770 0.5749318004 4292127281
-0.2838349342 -0.1295226663 0.5759223700 4292390453
-0.2838896513 -0.1289076209 0.5760334134 4292522812
-0.2843776345 -0.1284880787 0.5770235658 4292654398
-0.2848655283 -0.1280663013 0.5780135393 4292458046
-0.2853533626 -0.1276423037 0.5790033937 4292458046
-0.2854073644 -0.1270230263 0.5791129470 4292459331
-0.2863287628 -0.1267875880 0.5809825659 4292722503
-0.2872502804 -0.1265480518 0.5828523636 4292459363
-0.2877378464 -0.1261141598 0.5838416815 4293775223
-0.2986788452 -0.1784466058 0.6074106693 4288517506
-0.2978985608 -0.1773073226 0.6058238745 4289038402
-0.2966907620 -0.1759180427 0.6033675671 4289433160
-0.2950550914 -0.1742815226 0.6000412107 4290414615
-0.2929912806 -0.1724004447 0.5958440900 4290414615
-0.2904990017 -0.1702775657 0.5907756686 4290480408
-0.2884325683 -0.1684145927 0.5865732431 4290546201
-0.2863648832 -0.1665602326 0.5823683143 4290480408
-0.2851510048 -0.1652098745 0.5798996687 4290414615
-0.2843638957 -0.1641113013 0.5782989264 4290414615
-0.2835761607 -0.1630159318 0.5766969323 4290348822
-0.2827877998 -0.1619237661 0.5750936866 4290348822
-0.2824267149 -0.1610788703 0.5743594170 4290348822
-0.2820652425 -0.1602353752 0.5736243129 4290217236
-0.2821314633 -0.1596354991 0.5737589598 4290151443
-0.2813410163 -0.1585525572 0.5721514821 4290151443
-0.2809782922 -0.1577132493 0.5714138150 4290019857
-0.2806151509 -0.1568753570 0.5706752539 4289822478
-0.2802515626 -0.1560388654 0.5699359179 4289822478
-0.2803162038 -0.1554414630 0.5700673461 4289756685
-0.2799519002 -0.1546068937 0.5693264604 4289756685
-0.2800160050 -0.1540095806 0.5694568157 4289888271
-0.2800798714 -0.1534118652 0.5695867538 4290019857
-0.2801435590 -0.1528137326 0.5697162151 4290085650
-0.2797778845 -0.1519820988 0.5689725876 4290151443
-0.2802702188 -0.1516162604 0.5699737668 4290283029
-0.2803331912 -0.1510169208 0.5701019168 4290414615
-0.2803959846 -0.1504171789 0.5702295899 4290283799
-0.2804585397 -0.1498170197 0.5703567863 4290349592
-0.2805208564 -0.1492164731 0.5704835653 4290415385
-0.2801533043 -0.1483879387 0.5697360635 4290415385
-0.2802150846 -0.1477875113 0.5698617101 4290218006
-0.2802766562 -0.1471866816 0.5699868798 4289889041
-0.2803379893 -0.1465854645 0.5701116323 4289822478
-0.2803991139 -0.1459838450 0.5702359676 4289822478
-0.2800298631 -0.1451588571 0.5694850087 4289757966
-0.2800904512 -0.1445573866 0.5696082115 4289494794
-0.2797204554 -0.1437343955 0.5688557625 4289428999
-0.2797804773 -0.1431330591 0.5689778328 4289955343
-0.2794097662 -0.1423120797 0.5682239532 4290810903
-0.2794692516 -0.1417109072 0.5683449507 4291600419
-0.2795285285 -0.1411093473 0.5684654713 4291995431
-0.2791567445 -0.1402909011 0.5677093863 4292127017
-0.2792154551 -0.1396895200 0.5678288341 4292060713
-0.2792739570 -0.1390877515 0.5679477453 4291797541
-0.2793322206 -0.1384855956 0.5680662394 4291664931
-0.2798213959 -0.1380958557 0.5690611005 4291401759
-0.2798793018 -0.1374920309 0.5691788197 4291204123
-0.2803682983 -0.1370987445 0.5701732635 4291006744
-0.2812886536 -0.1369132251 0.5720449686 4291007255
-0.2813461125 -0.1363054812 0.5721618533 4291138841
-0.2818349600 -0.1359054893 0.5731559396 4291139872
-0.2823237181 -0.1355032623 0.5741499662 4291139872
-0.2823806703 -0.1348925382 0.5742657781 4291139872
-0.2824373841 -0.1342814565 0.5743810534 4291139872
-0.2824938595 -0.1336699873 0.5744959116 4291336736
-0.2825500965 -0.1330581754 0.5746102929 4291468322
-0.2830381989 -0.1326484978 0.5756029487 4291796771
-0.2830940485 -0.1320350170 0.5757164955 4291862564
-0.2831496596 -0.1314211637 0.5758296251 4291994920
-0.2827726603 -0.1306072474 0.5750629306 4292126506
-0.2832601666 -0.1301923692 0.5760543346 4292127794
-0.2833150625 -0.1295774430 0.5761659741 4292456759
-0.2838023603 -0.1291590482 0.5771569610 4292523582
-0.2838568687 -0.1285424680 0.5772678256 4292523582
-0.2847766876 -0.1283155531 0.5791384578 4292523328
-0.2852637470 -0.1278904378 0.5801289678 4292589121
-0.2853177786 -0.1272699833 0.5802388191 4292328523
-0.2858045995 -0.1268413514 0.5812288523 4292591695
-0.2867244780 -0.1266017109 0.5830995440 4292656509
-0.2876444161 -0.1263579726 0.5849704146 4294498713
-0.2977008224 -0.1782649308 0.6067922711 4289242015
-0.2969219387 -0.1771260947 0.6052047014 4288644426
-0.2961423993 -0.1759904176 0.6036158204 4289236563
-0.2949360311 -0.1746055782 0.6011568904 4290414613
-0.2928761840 -0.1727228612 0.5969583988 4290348820
-0.2908150852 -0.1708487421 0.5927573442 4290414613
-0.2887527347 -0.1689832211 0.5885537267 4290414613
-0.2866891623 -0.1671263129 0.5843476057 4290348822
-0.2854777575 -0.1657736301 0.5818784833 4290414615
-0.2842655480 -0.1644259393 0.5794076324 4290414615
-0.2839063406 -0.1635752171 0.5786755085 4290348822
-0.2831196785 -0.1624808162 0.5770720840 4290283029
-0.2823324203 -0.1613896191 0.5754674673 4290348822
-0.2819717526 -0.1605448872 0.5747323632 4290217236
-0.2820380330 -0.1599438936 0.5748673677 4290151443
-0.2816766202 -0.1591010541 0.5741307735 4290151443
-0.2808872759 -0.1580190808 0.5725218654 4290085650
-0.2805249691 -0.1571799517 0.5717833638 4289954064
-0.2801622152 -0.1563422382 0.5710439682 4289954064
-0.2802268863 -0.1557437032 0.5711758137 4289625869
-0.2798633873 -0.1549078971 0.5704349279 4289560076
-0.2799275219 -0.1543094665 0.5705656409 4289691662
-0.2795633376 -0.1534755826 0.5698233247 4289823248
-0.2796269059 -0.1528772265 0.5699529052 4289954064
-0.2796902955 -0.1522784829 0.5700821280 4290019857
-0.2797534466 -0.1516793221 0.5702108145 4290283029
-0.2798163891 -0.1510797590 0.5703390837 4290611994
-0.2798790932 -0.1504797786 0.5704669356 4290546971
-0.2799415886 -0.1498794109 0.5705943108 4290415385
-0.2800038755 -0.1492786407 0.5707212090 4290415385
-0.2800658941 -0.1486774683 0.5708476901 4290546971
-0.2801277339 -0.1480758935 0.5709736943 4290415385
-0.2801893353 -0.1474739313 0.5710992813 4289954834
-0.2802506983 -0.1468715519 0.5712243915 4289822478
-0.2798825800 -0.1460448056 0.5704740286 4289888271
-0.2799434364 -0.1454425752 0.5705980659 4289954583
-0.2795745730 -0.1446177959 0.5698462725 4289691411
-0.2796348631 -0.1440157145 0.5699691176 4289691662
-0.2796949446 -0.1434132308 0.5700915456 4290218006
-0.2797547877 -0.1428103596 0.5702135563 4290810646
-0.2793845534 -0.1419886649 0.5694589615 4291402783
-0.2794438601 -0.1413859576 0.5695797801 4291863330
-0.2795029283 -0.1407828629 0.5697001815 4292060709
-0.2795617580 -0.1401793957 0.5698201060 4291730978
-0.2796203792 -0.1395755410 0.5699395537 4291467806
-0.2796787620 -0.1389712989 0.5700585842 4291467041
-0.2797369063 -0.1383666843 0.5701770782 4291401248
-0.2802252769 -0.1379736364 0.5711725354 4291269662
-0.2802830637 -0.1373673528 0.5712903142 4291335455
-0.2807712257 -0.1369707584 0.5722853541 4291467806
-0.2812593579 -0.1365719289 0.5732802749 4291665185
-0.2817474306 -0.1361708641 0.5742750764 4291206179
-0.2818045616 -0.1355602741 0.5743914843 4291140386
-0.2822924256 -0.1351556629 0.5753859282 4291074593
-0.2823491395 -0.1345434040 0.5755015612 4291008800
-0.2824056447 -0.1339307725 0.5756167173 4291336736
-0.2824619114 -0.1333177835 0.5757313967 4291534115
-0.2825179398 -0.1327044219 0.5758455992 4291797541
-0.2830051482 -0.1322923601 0.5768386126 4291994920
-0.2830607891 -0.1316773295 0.5769520402 4292192556
-0.2826846242 -0.1308621615 0.5761852860 4292258349
-0.2827396989 -0.1302473396 0.5762975812 4292259893
-0.2832262814 -0.1298300922 0.5772894025 4292523065
-0.2832809687 -0.1292136312 0.5774008632 4292589375
-0.2837673426 -0.1287928373 0.5783921480 4292523582
-0.2842536271 -0.1283698082 0.5793833733 4292589121
-0.2847398221 -0.1279445440 0.5803743601 4292720707
-0.2852259576 -0.1275170445 0.5813652277 4292263257
-0.2857120335 -0.1270873100 0.5823559761 4292592222
-0.2866303027 -0.1268466562 0.5842276812 4293116826
-0.2875486910 -0.1266018748 0.5860995650 4294959544
-0.2963714004 -0.1771988273 0.6054531932 4289566827
-0.2955933809 -0.1760627180 0.6038637757 4288711518
-0.2943893075 -0.1746773422 0.6014040112 4290086697
-0.2931843698 -0.1732969284 0.5989424586 4290020904
-0.2911273539 -0.1714202613 0.5947402120 4290414615
-0.2890691161 -0.1695521921 0.5905354619 4290414615
-0.2870095968 -0.1676927507 0.5863280892 4290284058
-0.2853747606 -0.1660898179 0.5829883218 4290218265
-0.2845909894 -0.1649876982 0.5813871622 4290086931
-0.2833804488 -0.1636426747 0.5789141655 4290152724
-0.2830215394 -0.1627930254 0.5781809688 4290544912
-0.2826622427 -0.1619447619 0.5774469376 4290544912
-0.2818760574 -0.1608545482 0.5758408904 4290478870
-0.2815158069 -0.1600099802 0.5751048923 4290413077
-0.2811551392 -0.1591668129 0.5743681192 4290151441
-0.2807940543 -0.1583250612 0.5736304522 4290085648
-0.2804325521 -0.1574846953 0.5728919506 4290020108
-0.2800706327 -0.1566457450 0.5721525550 4290020108
-0.2797082961 -0.1558082104 0.5714123249 4289954064
-0.2797726691 -0.1552090496 0.5715438724 4289756685
-0.2794095874 -0.1543734223 0.5708021522 4289690892
-0.2794734538 -0.1537743509 0.5709326267 4289822478
-0.2791096568 -0.1529406607 0.5701894164 4289888271
-0.2791729569 -0.1523416936 0.5703187585 4289822478
-0.2792360485 -0.1517423093 0.5704476237 4290085648
-0.2792989314 -0.1511425227 0.5705760717 4290480406
-0.2793615758 -0.1505423337 0.5707040429 4290611992
-0.2794240117 -0.1499417424 0.5708315969 4290480406
-0.2794862092 -0.1493407488 0.5709586740 4290480406
-0.2795481980 -0.1487393528 0.5710852742 4290546199
-0.2796099484 -0.1481375545 0.5712114573 4290480406
-0.2796714902 -0.1475353539 0.5713371634 4290414613
-0.2797327936 -0.1469327658 0.5714624524 4290414867
-0.2797938883 -0.1463297904 0.5715872645 4290349074
-0.2794261873 -0.1455032378 0.5708360672 4290349843
-0.2794867456 -0.1449003816 0.5709597468 4290152464
-0.2795470655 -0.1442971528 0.5710830092 4290349073
-0.2796071470 -0.1436935216 0.5712057352 4290743831
-0.2796670198 -0.1430895030 0.5713280439 4291138589
-0.2797266543 -0.1424850971 0.5714498758 4291599140
-0.2793569565 -0.1416626871 0.5706946254 4291862310
-0.2794160545 -0.1410584450 0.5708153844 4291862310
-0.2794749141 -0.1404538155 0.5709356070 4291599138
-0.2795335650 -0.1398487985 0.5710554123 4291467552
-0.2795919776 -0.1392434090 0.5711747408 4291533345
-0.2800797224 -0.1388505995 0.5721711516 4291664931
-0.2801377773 -0.1382435113 0.5722897649 4291467806
-0.2806253433 -0.1378471553 0.5732857585 4291336220
-0.2806830108 -0.1372383982 0.5734035969 4291599392
-0.2811703682 -0.1368384808 0.5743992329 4291928357
-0.2816576660 -0.1364363432 0.5753946900 4291598887
-0.2817148268 -0.1358245909 0.5755114555 4291533094
-0.2817717195 -0.1352124661 0.5756277442 4291600160
-0.2818284035 -0.1345999688 0.5757434964 4291336988
-0.2818848491 -0.1339871138 0.5758588314 4291730214
-0.2819410563 -0.1333738714 0.5759736300 4291796007
-0.2824275494 -0.1329629719 0.5769675374 4292387368
-0.2824833691 -0.1323480755 0.5770815611 4292584747
-0.2825389802 -0.1317328066 0.5771951079 4292191525
-0.2825943232 -0.1311171800 0.5773081779 4292257318
-0.2826494277 -0.1305011958 0.5774207711 4291997489
-0.2831352353 -0.1300828457 0.5784132481 4292260661
-0.2831899524 -0.1294652075 0.5785250068 4292196667
-0.2836755514 -0.1290433109 0.5795170665 4292130874
-0.2841610909 -0.1286191940 0.5805088878 4292130374
-0.2846465111 -0.1281928271 0.5815005898 4292393546
-0.2855632603 -0.1279575080 0.5833733678 4292132459
-0.2860486209 -0.1275257319 0.5843649507 4292198252
-0.2869654298 -0.1272831112 0.5862379074 4292795071
-0.2953957617 -0.1770171523 0.6048324108 4290488705
-0.2950436771 -0.1761349440 0.6041114926 4288580708
-0.2938418984 -0.1747490317 0.6016508341 4289758251
-0.2926392555 -0.1733680964 0.5991884470 4289824044
-0.2914358079 -0.1719921231 0.5967242718 4290218006
-0.2893816233 -0.1701215059 0.5925183296 4290152213
-0.2873262167 -0.1682595164 0.5883097649 4290152213
-0.2856946886 -0.1666541547 0.5849691629 4290218006
-0.2849126160 -0.1655497849 0.5833678842 4290086931
-0.2837045789 -0.1642024368 0.5808943510 4290152724
-0.2820702791 -0.1626148224 0.5775480866 4290348048
-0.2829882205 -0.1625002474 0.5794275999 4290348048
-0.2817781270 -0.1611643285 0.5769498944 4290347798
-0.2814186811 -0.1603185385 0.5762138963 4290347798
-0.2810588479 -0.1594741493 0.5754771233 4290020623
-0.2806985676 -0.1586311609 0.5747394562 4289954830
-0.2799118459 -0.1575497687 0.5731286407 4289889037
-0.2795506716 -0.1567105055 0.5723890662 4289889037
-0.2796152830 -0.1561106145 0.5725213885 4290019857
-0.2792533636 -0.1552732587 0.5717803240 4289756685
-0.2793174684 -0.1546734720 0.5719115734 4289690892
-0.2789548039 -0.1538380384 0.5711690187 4289822478
-0.2790183723 -0.1532383412 0.5712991953 4289954064
-0.2790817022 -0.1526382267 0.5714288950 4289954064
-0.2791448236 -0.1520377100 0.5715581179 4290085648
-0.2792077363 -0.1514367908 0.5716869235 4290414613
-0.2792704105 -0.1508354545 0.5718152523 4290546199
-0.2793328762 -0.1502337158 0.5719431639 4290480406
-0.2793951035 -0.1496315747 0.5720705986 4290546199
-0.2794571221 -0.1490290463 0.5721975565 4290546199
-0.2790915370 -0.1481991559 0.5714489818 4290546199
-0.2791529894 -0.1475967318 0.5715748668 4290546199
-0.2792142630 -0.1469939202 0.5717002749 4290612246
-0.2792752683 -0.1463907063 0.5718252063 4290612246
-0.2793360651 -0.1457871050 0.5719497204 4290743832
-0.2793966532 -0.1451831013 0.5720737576 4290678039
-0.2794570029 -0.1445787102 0.5721973181 4290809624
-0.2795171440 -0.1439739317 0.5723204613 4291007003
-0.2795770466 -0.1433687508 0.5724430680 4291335968
-0.2796367109 -0.1427631974 0.5725652575 4291599140
-0.2796961665 -0.1421572566 0.5726869702 4291796519
-0.2797553837 -0.1415509135 0.5728082061 4291862312
-0.2798143625 -0.1409441978 0.5729290247 4291599138
-0.2798731327 -0.1403370947 0.5730493069 4291401759
-0.2799316645 -0.1397296190 0.5731691718 4291467552
-0.2799899578 -0.1391217560 0.5732885599 4291599138
-0.2804768980 -0.1387256235 0.5742855668 4291599392
-0.2805348337 -0.1381160766 0.5744041800 4291599392
-0.2810215652 -0.1377163976 0.5754007697 4291730978
-0.2810791135 -0.1371051669 0.5755186677 4291928357
-0.2815656662 -0.1367019415 0.5765148401 4291468322
-0.2816228271 -0.1360890269 0.5766319036 4291665701
-0.2816797793 -0.1354757249 0.5767484903 4291994150
-0.2817364931 -0.1348620653 0.5768646002 4291533599
-0.2817929387 -0.1342480332 0.5769802332 4291730213
-0.2818491757 -0.1336336285 0.5770953894 4291861799
-0.2819052041 -0.1330188662 0.5772100687 4292191016
-0.2823907733 -0.1326055527 0.5782042742 4292454188
-0.2824463844 -0.1319891214 0.5783181787 4292060974
-0.2825017571 -0.1313723177 0.5784315467 4292455732
-0.2825568914 -0.1307551563 0.5785444379 4292260156
-0.2830419540 -0.1303357184 0.5795376301 4292260156
-0.2830967009 -0.1297168881 0.5796496868 4292327228
-0.2835815251 -0.1292939037 0.5806424022 4292458814
-0.2840662897 -0.1288686842 0.5816349387 4292524619
-0.2845509648 -0.1284412146 0.5826273561 4292985170
-0.2850355506 -0.1280115098 0.5836195350 4291804280
-0.2859507203 -0.1277719885 0.5854933858 4292988554
-0.2948446572 -0.1770896316 0.6050800681 4291279254
-0.2944932878 -0.1762070954 0.6043589711 4288910706
-0.2937176526 -0.1750732809 0.6027671695 4289430836
-0.2925174236 -0.1736909002 0.6003041267 4289299250
-0.2913163602 -0.1723134965 0.5978392959 4290020373
-0.2896903157 -0.1706911623 0.5945023298 4290020373
-0.2876389921 -0.1688266248 0.5902926326 4289954830
-0.2860107720 -0.1672188044 0.5869511962 4290086416
-0.2848059833 -0.1658650190 0.5844786763 4290021140
-0.2840248942 -0.1647625118 0.5828757882 4289955347
-0.2823939025 -0.1631724685 0.5795286298 4290282516
-0.2828856409 -0.1628115922 0.5805377960 4290216723
-0.2816779315 -0.1614742577 0.5780593157 4290216725
-0.2813193500 -0.1606272310 0.5773234367 4290150932
-0.2805352509 -0.1595398784 0.5757143497 4289823757
-0.2801757157 -0.1586965770 0.5749765038 4289823757
-0.2798157632 -0.1578546613 0.5742377639 4289954834
-0.2794553936 -0.1570141762 0.5734982491 4289889041
-0.2790946066 -0.1561750919 0.5727578402 4290019857
-0.2791589499 -0.1555745751 0.5728898644 4289756685
-0.2787974477 -0.1547373980 0.5721479654 4289559306
-0.2788612545 -0.1541369706 0.5722789168 4289690892
-0.2784990072 -0.1533017308 0.5715355277 4289822478
-0.2785622776 -0.1527014077 0.5716654062 4289888271
-0.2786253393 -0.1521006674 0.5717948079 4290019857
-0.2786881924 -0.1514995247 0.5719237328 4290217236
-0.2787508070 -0.1508979648 0.5720522404 4290480406
-0.2788131833 -0.1502960175 0.5721803308 4290546199
-0.2788753808 -0.1496936530 0.5723078847 4290546199
-0.2789373100 -0.1490908861 0.5724350214 4290546199
-0.2789990604 -0.1484877318 0.5725617409 4290611992
-0.2786338627 -0.1476580352 0.5718122721 4290677785
-0.2786950469 -0.1470550001 0.5719378591 4290809371
-0.2787560225 -0.1464515626 0.5720629692 4290875164
-0.2788167596 -0.1458477378 0.5721876025 4290875164
-0.2788772583 -0.1452435106 0.5723118186 4290940957
-0.2789375484 -0.1446388960 0.5724354982 4291007004
-0.2789976299 -0.1440338939 0.5725587606 4291007004
-0.2790574729 -0.1434284896 0.5726816058 4291204383
-0.2791170776 -0.1428226978 0.5728039145 4291467555
-0.2791764438 -0.1422165334 0.5729258060 4291599140
-0.2792356014 -0.1416099668 0.5730472207 4291730726
-0.2797222435 -0.1412189603 0.5740458965 4291533347
-0.2797810435 -0.1406106949 0.5741665363 4291401761
-0.2798396051 -0.1400020570 0.5742866993 4291533088
-0.2803259194 -0.1396061629 0.5752847195 4291730467
-0.2803840935 -0.1389958262 0.5754041076 4291796260
-0.2804420590 -0.1383851171 0.5755230784 4291796260
-0.2809280455 -0.1379843652 0.5765203834 4291796258
-0.2809856236 -0.1373719573 0.5766385794 4291862051
-0.2810429633 -0.1367591918 0.5767562389 4291402781
-0.2811000943 -0.1361460239 0.5768734813 4291731746
-0.2811569870 -0.1355324984 0.5769901872 4292125223
-0.2812136114 -0.1349186003 0.5771064758 4291796258
-0.2812700272 -0.1343043298 0.5772222281 4291862053
-0.2813262045 -0.1336897016 0.5773375034 4291993639
-0.2813821733 -0.1330747008 0.5774523616 4292060713
-0.2818668783 -0.1326612383 0.5784471035 4292258092
-0.2819224596 -0.1320445687 0.5785611272 4292259131
-0.2819777727 -0.1314275265 0.5786746144 4292390717
-0.2824621201 -0.1310092360 0.5796686411 4292390975
-0.2825170457 -0.1303905249 0.5797813535 4292588354
-0.2830011845 -0.1299686879 0.5807749033 4292524093
-0.2834852338 -0.1295446008 0.5817682743 4292260921
-0.2839692235 -0.1291182786 0.5827614665 4292326989
-0.2844531238 -0.1286897063 0.5837545395 4293445470
-0.2849369347 -0.1282588989 0.5847474337 4292200603
-0.2858505249 -0.1280183643 0.5866223574 4294108600
-0.2935192883 -0.1760255396 0.6037362218 4289700998
-0.2927450538 -0.1748921871 0.6021437049 4289497667
-0.2923933268 -0.1740138382 0.6014202833 4288839737
-0.2911946774 -0.1726350039 0.5989547968 4289691922
-0.2899951935 -0.1712611467 0.5964875817 4289889301
-0.2883714139 -0.1696431786 0.5931476355 4289954315
-0.2863230407 -0.1677838117 0.5889343619 4290085901
-0.2851207554 -0.1664276719 0.5864614248 4289954834
-0.2839176357 -0.1650765538 0.5839867592 4289823248
-0.2831375599 -0.1639759243 0.5823822021 4290151445
-0.2823568583 -0.1628785133 0.5807763934 4290085652
-0.2815755308 -0.1617843062 0.5791692734 4290085652
-0.2812177539 -0.1609360576 0.5784333944 4290019859
-0.2808595598 -0.1600891948 0.5776966214 4289757964
-0.2800765932 -0.1590028405 0.5760861039 4289757964
-0.2797174454 -0.1581597030 0.5753474236 4289888787
-0.2793579102 -0.1573179662 0.5746078491 4289888787
-0.2785733044 -0.1562394798 0.5729939938 4290019857
-0.2790623307 -0.1558760107 0.5739998817 4289822478
-0.2787016332 -0.1550376117 0.5732579827 4289756685
-0.2783405483 -0.1542006284 0.5725152493 4289822478
-0.2784040570 -0.1535995752 0.5726459026 4289888271
-0.2780422270 -0.1527645141 0.5719016790 4289888271
-0.2781052291 -0.1521635652 0.5720312595 4290019857
-0.2781679928 -0.1515621990 0.5721603632 4290217236
-0.2782305479 -0.1509604156 0.5722889900 4290414613
-0.2782928646 -0.1503582448 0.5724171996 4290546199
-0.2783549726 -0.1497556567 0.5725449920 4290546199
-0.2784168720 -0.1491526812 0.5726722479 4290546199
-0.2784785330 -0.1485492885 0.5727990866 4290677785
-0.2785399854 -0.1479455084 0.5729255080 4290743578
-0.2786011994 -0.1473413259 0.5730513930 4290875164
-0.2786621749 -0.1467367411 0.5731768608 4290940957
-0.2787229717 -0.1461317539 0.5733018517 4290875164
-0.2787835002 -0.1455263793 0.5734263659 4290940957
-0.2788438201 -0.1449206173 0.5735504627 4290940957
-0.2789039314 -0.1443144530 0.5736740828 4290940957
-0.2789637744 -0.1437079012 0.5737972260 4291072797
-0.2790234387 -0.1431009620 0.5739198923 4291270176
-0.2790828347 -0.1424936354 0.5740420818 4291467554
-0.2791420221 -0.1418859065 0.5741638541 4291599140
-0.2792010009 -0.1412778050 0.5742850900 4291401761
-0.2796867192 -0.1408844143 0.5752841830 4291467554
-0.2797453105 -0.1402746141 0.5754047036 4291533345
-0.2802308500 -0.1398776472 0.5764034390 4291664931
-0.2802890837 -0.1392661482 0.5765231848 4291665185
-0.2803470492 -0.1386542767 0.5766424537 4291665185
-0.2804048061 -0.1380420178 0.5767612457 4291665185
-0.2808898687 -0.1376388818 0.5777589679 4291796771
-0.2809472680 -0.1370249242 0.5778769851 4291533597
-0.2810043991 -0.1364106089 0.5779945254 4291730976
-0.2810613215 -0.1357959062 0.5781115890 4291993637
-0.2811179757 -0.1351808459 0.5782281756 4291862051
-0.2811744213 -0.1345653981 0.5783442855 4291797287
-0.2812306285 -0.1339495927 0.5784598589 4291928873
-0.2812866271 -0.1333334148 0.5785750151 4291864620
-0.2813423574 -0.1327168643 0.5786896348 4292127792
-0.2818261683 -0.1323010176 0.5796847939 4292259391
-0.2818815112 -0.1316828132 0.5797986388 4292522563
-0.2819366157 -0.1310642213 0.5799120069 4292719680
-0.2824200392 -0.1306435317 0.5809063315 4292588094
-0.2829034030 -0.1302205920 0.5819005370 4292326714
-0.2833866775 -0.1297954172 0.5828946233 4292260921
-0.2838698924 -0.1293679923 0.5838885307 4292393059
-0.2843530178 -0.1289383173 0.5848822594 4293379954
-0.2852650583 -0.1286999434 0.5867581964 4293320902
-0.2928963602 -0.1767250597 0.6038343906 4290292884
-0.2925461829 -0.1758436859 0.6031125188 4289700747
-0.2921956182 -0.1749636531 0.6023897529 4289498706
-0.2918446064 -0.1740849912 0.6016661525 4288380225
-0.2910707295 -0.1729566455 0.6000707150 4289363477
-0.2902961969 -0.1718314737 0.5984739661 4289758235
-0.2886757255 -0.1702110469 0.5951331854 4289953802
-0.2870542407 -0.1685974449 0.5917903185 4290019595
-0.2854316831 -0.1669906676 0.5884453058 4290085650
-0.2842310965 -0.1656372100 0.5859701633 4289888271
-0.2834527194 -0.1645343453 0.5843654871 4290150932
-0.2826737463 -0.1634346843 0.5827594995 4290150932
-0.2818941474 -0.1623382270 0.5811523199 4290085652
-0.2811139226 -0.1612450033 0.5795437694 4290019859
-0.2807565629 -0.1603969187 0.5788070560 4289889550
-0.2799752057 -0.1593092233 0.5771961808 4289823757
-0.2796168923 -0.1584648639 0.5764575005 4289757202
-0.2792581916 -0.1576219052 0.5757179856 4289757202
-0.2784751952 -0.1565420926 0.5741037726 4289954066
-0.2789634466 -0.1561775655 0.5751103759 4289954066
-0.2781795263 -0.1551015079 0.5734942555 4290085650
-0.2782433033 -0.1544997245 0.5736257434 4290217236
-0.2778826356 -0.1536629349 0.5728821158 4290217236
-0.2775215209 -0.1528275609 0.5721377134 4290217236
-0.2775844336 -0.1522263885 0.5722674131 4290217236
-0.2776471674 -0.1516247988 0.5723966956 4290348822
-0.2777096331 -0.1510228068 0.5725255013 4290414615
-0.2777718902 -0.1504204124 0.5726538897 4290480408
-0.2778339386 -0.1498176008 0.5727818012 4290546199
-0.2778957784 -0.1492144018 0.5729092360 4290611992
-0.2779573798 -0.1486107856 0.5730362535 4290743578
-0.2780187428 -0.1480067819 0.5731627941 4290875164
-0.2780798972 -0.1474023759 0.5732888579 4290875164
-0.2781408429 -0.1467975676 0.5734144449 4290809371
-0.2782015502 -0.1461923569 0.5735396147 4290744348
-0.2782620192 -0.1455867589 0.5736643076 4290744348
-0.2783222795 -0.1449807733 0.5737885237 4290810141
-0.2788079679 -0.1445951313 0.5747898221 4290875934
-0.2788678706 -0.1439874321 0.5749133229 4291007518
-0.2789275348 -0.1433793306 0.5750363469 4291204897
-0.2789869905 -0.1427708417 0.5751588941 4291270945
-0.2790462077 -0.1421619803 0.5752809644 4291336738
-0.2791051865 -0.1415527165 0.5754025578 4291401761
-0.2795901597 -0.1411582381 0.5764023662 4291467554
-0.2796487808 -0.1405472755 0.5765232444 4291599138
-0.2797071636 -0.1399359405 0.5766435862 4291599138
-0.2797653079 -0.1393242031 0.5767635107 4291533599
-0.2798232436 -0.1387120932 0.5768828988 4291533599
-0.2803075910 -0.1383101195 0.5778814554 4291665185
-0.2803651392 -0.1376963258 0.5780000687 4291928357
-0.2804224491 -0.1370821446 0.5781182647 4291993126
-0.2804795504 -0.1364675909 0.5782359838 4291795747
-0.2805364132 -0.1358526647 0.5783531666 4291730724
-0.2805930078 -0.1352373511 0.5784698725 4291993896
-0.2806493938 -0.1346216798 0.5785861611 4291732523
-0.2811328173 -0.1342096031 0.5795826912 4291929902
-0.2811888158 -0.1335922480 0.5796981454 4291799857
-0.2812445760 -0.1329745203 0.5798131227 4292063029
-0.2813000977 -0.1323564351 0.5799276233 4292324669
-0.2817829847 -0.1319382042 0.5809231400 4292456255
-0.2818381190 -0.1313184351 0.5810368061 4292654138
-0.2823207676 -0.1308966428 0.5820318460 4292588345
-0.2828033566 -0.1304726154 0.5830267072 4291998786
-0.2832858562 -0.1300463229 0.5840214491 4292525130
-0.2841963172 -0.1298132986 0.5858983994 4292790415
-0.2851068377 -0.1295761466 0.5877755880 4294040482
-0.2917068005 -0.1784203947 0.6027622223 4289505436
-0.2917792797 -0.1777948439 0.6029119492 4289372823
-0.2918515205 -0.1771688312 0.6030612588 4289307030
-0.2915023267 -0.1762875915 0.6023396850 4289108358
-0.2915740311 -0.1756615490 0.6024878621 4288713600
-0.2912240624 -0.1747821122 0.6017646790 4289039194
-0.2912952304 -0.1741560549 0.6019117832 4287986506
-0.2905228436 -0.1730272770 0.6003157496 4289034779
-0.2897498608 -0.1719016880 0.5987185240 4289429537
-0.2885543406 -0.1705299467 0.5962482095 4289821965
-0.2873580158 -0.1691632122 0.5937762260 4289887758
-0.2861608565 -0.1678014845 0.5913024545 4289889041
-0.2836963832 -0.1657050252 0.5862100124 4289823248
-0.2850308716 -0.1658301055 0.5889675617 4290085652
-0.2825644314 -0.1637464166 0.5838710666 4290085652
-0.2817864716 -0.1626486480 0.5822635293 4290085397
-0.2814304233 -0.1617970169 0.5815278292 4290019604
-0.2798059881 -0.1602207124 0.5781711936 4289889554
-0.2807171047 -0.1600979716 0.5800539255 4289757968
-0.2795141041 -0.1587701440 0.5775681138 4289757204
-0.2791562080 -0.1579259634 0.5768285990 4289757204
-0.2787978947 -0.1570831835 0.5760881901 4289888273
-0.2784391940 -0.1562418193 0.5753469467 4289954066
-0.2780800462 -0.1554018706 0.5746048689 4290085650
-0.2777205110 -0.1545633376 0.5738618970 4290217236
-0.2777839899 -0.1539609283 0.5739930868 4290283029
-0.2774237096 -0.1531243175 0.5732486844 4290348822
-0.2770630419 -0.1522891372 0.5725033283 4290348822
-0.2771256566 -0.1516873389 0.5726327896 4290414615
-0.2771880925 -0.1510851234 0.5727617741 4290348822
-0.2772502899 -0.1504825056 0.5728902817 4290414615
-0.2777363062 -0.1501086503 0.5738945603 4290546199
-0.2777981460 -0.1495043039 0.5740223527 4290743578
-0.2778597772 -0.1488995552 0.5741496682 4290809371
-0.2779211700 -0.1482943892 0.5742765665 4290875164
-0.2779823542 -0.1476888359 0.5744029880 4290875164
-0.2780433297 -0.1470828801 0.5745289922 4290809371
-0.2781040668 -0.1464765370 0.5746544600 4290810141
-0.2781645656 -0.1458697766 0.5747795105 4290678555
-0.2782248557 -0.1452626288 0.5749040842 4290678553
-0.2782849073 -0.1446550936 0.5750281811 4290744346
-0.2787697017 -0.1442670822 0.5760298967 4290941725
-0.2788293958 -0.1436578333 0.5761532784 4291073311
-0.2788888812 -0.1430481821 0.5762761831 4291205152
-0.2789481282 -0.1424381584 0.5763985515 4291205152
-0.2790071368 -0.1418277323 0.5765205026 4291205152
-0.2794913352 -0.1414321959 0.5775210261 4291270945
-0.2795499861 -0.1408200711 0.5776422024 4291336736
-0.2796083987 -0.1402075589 0.5777629018 4291402529
-0.2796665728 -0.1395946741 0.5778831244 4291533345
-0.2797245383 -0.1389814019 0.5780029297 4291533345
-0.2797822654 -0.1383677423 0.5781221986 4291730978
-0.2802656889 -0.1379633844 0.5791211128 4291994150
-0.2803230286 -0.1373480260 0.5792396069 4292387886
-0.2803801596 -0.1367323101 0.5793576241 4291993128
-0.2804370224 -0.1361162066 0.5794751644 4291666214
-0.2804936767 -0.1354997307 0.5795922279 4292060972
-0.2805500925 -0.1348828822 0.5797087550 4291864882
-0.2806062698 -0.1342656761 0.5798248649 4291996468
-0.2810887396 -0.1338512003 0.5808218122 4291865652
-0.2811445296 -0.1332322955 0.5809370875 4292063031
-0.2812000811 -0.1326130331 0.5810518861 4292324924
-0.2816821933 -0.1321936995 0.5820480585 4292193338
-0.2821642458 -0.1317721158 0.5830441117 4292194627
-0.2826462090 -0.1313482821 0.5840400457 4292523592
-0.2831280828 -0.1309222132 0.5850358009 4292066663
-0.2836098969 -0.1304938793 0.5860313773 4292987765
-0.2845188677 -0.1302589029 0.5879095793 4293648580
-0.2905902565 -0.1794836819 0.6018362641 4289570464
-0.2906629741 -0.1788597405 0.6019868851 4289504661
-0.2907354832 -0.1782353520 0.6021370888 4288978317
-0.2908077836 -0.1776104718 0.6022867560 4288845448
-0.2908798456 -0.1769851446 0.6024360061 4288779655
-0.2905312479 -0.1761044860 0.6017140746 4288449914
-0.2906027734 -0.1754791439 0.6018621922 4288120949
-0.2906740904 -0.1748533249 0.6020098925 4288184921
-0.2903244197 -0.1739749014 0.6012856960 4287592784
-0.2899743021 -0.1730978489 0.6005606055 4288640287
-0.2892028093 -0.1719718277 0.5989627838 4288771873
-0.2888517678 -0.1710983962 0.5982357264 4289427469
-0.2876579762 -0.1697293222 0.5957632661 4289690641
-0.2864633203 -0.1683652401 0.5932890773 4289691662
-0.2848464847 -0.1667595059 0.5899404883 4289757455
-0.2840715647 -0.1656521559 0.5883355141 4290019859
-0.2828744650 -0.1643031538 0.5858561993 4290019859
-0.2820982039 -0.1632031351 0.5842485428 4289953813
-0.2813213170 -0.1621063203 0.5826395750 4289953813
-0.2805438340 -0.1610127538 0.5810292959 4289757201
-0.2801876962 -0.1601635963 0.5802916884 4289757201
-0.2794090807 -0.1590755731 0.5786791444 4289756950
-0.2790520191 -0.1582301408 0.5779396296 4289756950
-0.2786945403 -0.1573861390 0.5771992207 4289822480
-0.2783366442 -0.1565435380 0.5764580369 4289822480
-0.2775558531 -0.1554657221 0.5748409629 4289822478
-0.2776196003 -0.1548625827 0.5749729872 4289954064
-0.2772604823 -0.1540242434 0.5742291808 4290085650
-0.2773236632 -0.1534212083 0.5743600726 4290151443
-0.2769638002 -0.1525847912 0.5736147761 4290283031
-0.2766035497 -0.1517498195 0.5728686452 4290348824
-0.2766658962 -0.1511473805 0.5729977489 4290283029
-0.2767280340 -0.1505445391 0.5731264353 4290414615
-0.2772131562 -0.1501705647 0.5741312504 4290611992
-0.2772749662 -0.1495659947 0.5742591619 4290743578
-0.2773365080 -0.1489610076 0.5743867159 4290940957
-0.2773978710 -0.1483556330 0.5745137334 4290875164
-0.2774589658 -0.1477498561 0.5746403337 4290809373
-0.2775198817 -0.1471436769 0.5747664571 4290809373
-0.2775805295 -0.1465370953 0.5748921037 4290810141
-0.2780648768 -0.1461529136 0.5758951902 4290612762
-0.2781251967 -0.1455446184 0.5760200620 4290546969
-0.2781852782 -0.1449359208 0.5761445165 4290612762
-0.2782451212 -0.1443268359 0.5762684941 4290810139
-0.2783047855 -0.1437173635 0.5763920546 4291007518
-0.2783641815 -0.1431074888 0.5765150785 4291073311
-0.2784233689 -0.1424972266 0.5766376257 4291139104
-0.2789068222 -0.1421028674 0.5776389241 4291204382
-0.2789656520 -0.1414909065 0.5777607560 4291270175
-0.2790242434 -0.1408785582 0.5778821111 4291335968
-0.2790825963 -0.1402658075 0.5780029297 4291467554
-0.2791407108 -0.1396526843 0.5781233311 4291599140
-0.2791986167 -0.1390391886 0.5782432556 4291599140
-0.2796813250 -0.1386359930 0.5792429447 4291664931
-0.2797388434 -0.1380207837 0.5793620944 4291928103
-0.2797961235 -0.1374052167 0.5794807673 4292191277
-0.2798531651 -0.1367892474 0.5795989037 4292059691
-0.2799099982 -0.1361729205 0.5797165632 4291733036
-0.2799665928 -0.1355562061 0.5798338056 4292062001
-0.2800229490 -0.1349391341 0.5799505115 4291930677
-0.2805047035 -0.1345258206 0.5809482932 4292128056
-0.2805606723 -0.1339070499 0.5810642242 4292127794
-0.2810422480 -0.1334901750 0.5820615292 4292193587
-0.2810977995 -0.1328697354 0.5821766257 4292259391
-0.2815791368 -0.1324493140 0.5831735134 4292588356
-0.2820604146 -0.1320266277 0.5841702819 4292393321
-0.2825416028 -0.1316017061 0.5851668715 4292853872
-0.2834489644 -0.1313720793 0.5870460272 4292792992
-0.2839300632 -0.1309417039 0.5880424976 4294306231
-0.2894013226 -0.1811638921 0.6007558107 4289374112
-0.2894744873 -0.1805420667 0.6009076834 4289176733
-0.2895474732 -0.1799197495 0.6010591984 4289307290
-0.2896202207 -0.1792969704 0.6012102365 4288780946
-0.2896927595 -0.1786737293 0.6013607979 4288583299
-0.2897650898 -0.1780500114 0.6015109420 4288320127
-0.2898371816 -0.1774258316 0.6016606092 4288055672
-0.2899090648 -0.1768011749 0.6018098593 4287792500
-0.2895610929 -0.1759211123 0.6010874510 4287726189
-0.2896324396 -0.1752964407 0.6012355685 4287528810
-0.2897035778 -0.1746713072 0.6013832092 4287528024
-0.2893545032 -0.1737934798 0.6006586552 4287330645
-0.2890050411 -0.1729170084 0.5999331474 4288246307
-0.2890752852 -0.1722923070 0.6000790000 4288048928
-0.2883048058 -0.1711681336 0.5984795690 4289164046
-0.2875336707 -0.1700471342 0.5968788266 4289558804
-0.2867619395 -0.1689293385 0.5952768326 4289494029
-0.2855689824 -0.1675679386 0.5928004384 4289625615
-0.2843752205 -0.1662115604 0.5903223157 4289954066
-0.2831806242 -0.1648602039 0.5878425241 4289888273
-0.2824060917 -0.1637579501 0.5862346888 4289888022
-0.2816309333 -0.1626589000 0.5846256018 4289888022
-0.2808551788 -0.1615630686 0.5830152035 4289626129
-0.2804999650 -0.1607117802 0.5822778344 4289626129
-0.2797230482 -0.1596215069 0.5806651115 4289756950
-0.2789455652 -0.1585344523 0.5790511370 4289756950
-0.2785888910 -0.1576892138 0.5783107877 4289822480
-0.2782318294 -0.1568453908 0.5775695443 4289822480
-0.2778743505 -0.1560029685 0.5768274665 4289822478
-0.2775164545 -0.1551619619 0.5760845542 4289822478
-0.2771581411 -0.1543223858 0.5753407478 4289954064
-0.2767994404 -0.1534842402 0.5745961070 4290019857
-0.2768623531 -0.1528805643 0.5747267008 4290151445
-0.2765029073 -0.1520443559 0.5739805102 4290283031
-0.2765652835 -0.1514407694 0.5741100311 4290283029
-0.2766274512 -0.1508367956 0.5742390752 4290480408
-0.2766893804 -0.1502324045 0.5743676424 4290611992
-0.2771736383 -0.1498560458 0.5753728747 4290809371
-0.2772352397 -0.1492499262 0.5755007267 4290940957
-0.2772966027 -0.1486434042 0.5756281018 4290809371
-0.2773577571 -0.1480364799 0.5757550597 4290743580
-0.2774186730 -0.1474291533 0.5758815408 4290809373
-0.2774793804 -0.1468214244 0.5760075450 4290744348
-0.2779629230 -0.1464361846 0.5770113468 4290678555
-0.2780232728 -0.1458267272 0.5771365762 4290546969
-0.2780833840 -0.1452168822 0.5772613883 4290678555
-0.2781432569 -0.1446066350 0.5773857236 4291072543
-0.2782029212 -0.1439960003 0.5775095224 4291138336
-0.2782623768 -0.1433849782 0.5776329041 4291138590
-0.2783215642 -0.1427735537 0.5777558684 4291270176
-0.2783805728 -0.1421617568 0.5778782964 4291204383
-0.2788631022 -0.1417649984 0.5788800120 4291204383
-0.2789217234 -0.1411514878 0.5790016651 4291204382
-0.2789801061 -0.1405375898 0.5791228414 4291335968
-0.2790382504 -0.1399233043 0.5792436004 4291533347
-0.2790961862 -0.1393086314 0.5793638229 4291533347
-0.2791538835 -0.1386935711 0.5794835687 4291664933
-0.2796356678 -0.1382879913 0.5804836750 4291928105
-0.2796929777 -0.1376712471 0.5806026459 4291797800
-0.2797500491 -0.1370541155 0.5807211399 4291995179
-0.2798069119 -0.1364366114 0.5808391571 4291799342
-0.2798635066 -0.1358187348 0.5809566975 4291930928
-0.2799198925 -0.1352004707 0.5810737014 4291798837
-0.2804009020 -0.1347860694 0.5820721984 4292127802
-0.2804569006 -0.1341661364 0.5821884274 4292193328
-0.2809376717 -0.1337481737 0.5831864476 4292324914
-0.2814183831 -0.1333279610 0.5841843486 4292588619
-0.2818990052 -0.1329054832 0.5851820707 4292917584
-0.2823795974 -0.1324807703 0.5861796737 4292658059
-0.2828600705 -0.1320538074 0.5871770978 4293776540
-0.2878683209 -0.1819516420 0.5989544392 4289439646
-0.2879416347 -0.1813323349 0.5991070271 4289242267
-0.2880147398 -0.1807125658 0.5992591381 4289044371
-0.2880876362 -0.1800923049 0.5994107723 4288846992
-0.2881603241 -0.1794715822 0.5995619893 4288649100
-0.2882327735 -0.1788503975 0.5997127891 4288254342
-0.2883050144 -0.1782287359 0.5998631120 4287794302
-0.2883770466 -0.1776066124 0.6000129580 4287465337
-0.2884488702 -0.1769840121 0.6001623869 4287333232
-0.2885204852 -0.1763609499 0.6003113985 4287201646
-0.2885918617 -0.1757374406 0.6004598737 4287266404
-0.2882440686 -0.1748593003 0.5997362733 4287134818
-0.2883149087 -0.1742357612 0.5998836756 4287592788
-0.2883855402 -0.1736117601 0.6000306010 4287592788
-0.2880366743 -0.1727358848 0.5993047357 4287788347
-0.2881067693 -0.1721118689 0.5994505882 4287327796
-0.2881766260 -0.1714874208 0.5995959640 4287982870
-0.2874071300 -0.1703650951 0.5979948640 4288377628
-0.2866370082 -0.1692459583 0.5963925123 4289296653
-0.2858662605 -0.1681300104 0.5947888494 4289494032
-0.2850948870 -0.1670172662 0.5931838751 4289822480
-0.2839029133 -0.1656626612 0.5907038450 4289822480
-0.2831301987 -0.1645572335 0.5890960693 4289691157
-0.2823568881 -0.1634550393 0.5874870420 4289756950
-0.2815829217 -0.1623560488 0.5858767629 4289888788
-0.2808083892 -0.1612602919 0.5842651725 4289888788
-0.2800332010 -0.1601677686 0.5826522708 4290019598
-0.2792574167 -0.1590784788 0.5810381770 4289953805
-0.2789016962 -0.1582310796 0.5802980065 4289953803
-0.2785455585 -0.1573850960 0.5795570016 4289953803
-0.2781890035 -0.1565405279 0.5788151026 4290019857
-0.2774110734 -0.1554614753 0.5771965384 4290085650
-0.2770535946 -0.1546206623 0.5764527321 4290085397
-0.2771168351 -0.1540153474 0.5765843391 4290151190
-0.2767586410 -0.1531764567 0.5758390427 4290151192
-0.2764000297 -0.1523390114 0.5750929117 4290085399
-0.2764624357 -0.1517342925 0.5752227306 4289953813
-0.2765246332 -0.1511291713 0.5753521323 4290348571
-0.2765865922 -0.1505236328 0.5754811168 4290415132
-0.2766483426 -0.1499176919 0.5756095648 4290415132
-0.2771316767 -0.1495389640 0.5766152143 4290546967
-0.2771930695 -0.1489312947 0.5767430067 4290678553
-0.2772542536 -0.1483232081 0.5768702626 4290809876
-0.2773151994 -0.1477147341 0.5769971013 4290744083
-0.2773759365 -0.1471058577 0.5771234035 4290809111
-0.2778587043 -0.1467195600 0.5781279206 4290874904
-0.2779190838 -0.1461089551 0.5782535672 4290940698
-0.2779792249 -0.1454979479 0.5783786774 4291006491
-0.2776165903 -0.1446663588 0.5776241422 4291006491
-0.2780988514 -0.1442747563 0.5786275268 4291072284
-0.2781583071 -0.1436625719 0.5787512660 4291138590
-0.2782175243 -0.1430500001 0.5788745284 4291270176
-0.2778536379 -0.1422205567 0.5781173706 4291007518
-0.2783353329 -0.1418236792 0.5791195631 4291073311
-0.2783938646 -0.1412099302 0.5792413950 4291007520
-0.2784521878 -0.1405957937 0.5793627501 4291073313
-0.2785102725 -0.1399812847 0.5794836283 4291336485
-0.2785681486 -0.1393663883 0.5796040297 4291533864
-0.2790492177 -0.1389619708 0.5806049705 4291600168
-0.2791067064 -0.1383453608 0.5807245374 4291797547
-0.2791639566 -0.1377283931 0.5808436871 4292060206
-0.2792209685 -0.1371110231 0.5809623003 4291928620
-0.2792777717 -0.1364932954 0.5810804963 4291405358
-0.2797581851 -0.1360813677 0.5820800662 4291602737
-0.2802385688 -0.1356671751 0.5830795765 4291669302
-0.2807188630 -0.1352507472 0.5840789080 4291800888
-0.2807749510 -0.1346286982 0.5841956139 4292325181
-0.2812550366 -0.1342086941 0.5851945281 4292522560
-0.2813107669 -0.1335849613 0.5853104591 4291867998
-0.2817906141 -0.1331613958 0.5863088965 4292394342
-0.2863381803 -0.1827306598 0.5971506834 4289439394
-0.2864116132 -0.1821138859 0.5973038673 4289044636
-0.2864848375 -0.1814966351 0.5974566340 4288780948
-0.2865578830 -0.1808789074 0.5976089239 4288451983
-0.2870479226 -0.1805230975 0.5986308455 4288253827
-0.2871206105 -0.1799035370 0.5987824798 4288056448
-0.2871931195 -0.1792834997 0.5989336967 4287793528
