VERSION 0.7
FIELDS x y z rgba
SIZE 4 4 4 4
TYPE F F F U
COUNT 1 1 1 1
WIDTH 920
HEIGHT 1
VIEWPOINT 0.0 0.0 0.0 1.0 0.0 0.0 0.0
POINTS 920
DATA ascii
-0.2746215761 -0.1132673323 0.5713925958 4292326200
-0.2746690810 -0.1126519516 0.5714914203 4292390964
-0.2747163475 -0.1120362580 0.5715897083 4292390964
-0.2756166458 -0.1117662713 0.5734629631 4292457787
-0.2756635547 -0.1111480221 0.5735605359 4292655166
-0.2761370242 -0.1107005626 0.5745456815 4292590402
-0.2766103745 -0.1102508754 0.5755305886 4292327230
-0.2770836353 -0.1097989529 0.5765152574 4292196683
-0.2775568068 -0.1093448028 0.5774997473 4292788820
-0.2780298293 -0.1088884249 0.5784839988 4292134272
-0.2789299190 -0.1085961238 0.5803567767 4293121167
-0.2866453826 -0.1556949466 0.5977913737 4289373585
-0.2858671546 -0.1546098590 0.5961683989 4289039947
-0.2855094373 -0.1537548453 0.5954223871 4288710982
-0.2843088806 -0.1524495482 0.5929186940 4290022680
-0.2835288644 -0.1513743103 0.5912919641 4290088473
-0.2823268473 -0.1500783861 0.5887852311 4290089239
-0.2807025909 -0.1485645473 0.5853978395 4290023446
-0.2790773511 -0.1470577270 0.5820084810 4290023448
-0.2782944739 -0.1460003555 0.5803757906 4290089241
-0.2770892680 -0.1447260231 0.5778623819 4290155293
-0.2767269611 -0.1438955814 0.5771067739 4290286879
-0.2763642669 -0.1430666000 0.5763503909 4290352413
-0.2751570940 -0.1418041289 0.5738328695 4290286620
-0.2747933865 -0.1409799606 0.5730744004 4290352413
-0.2744292915 -0.1401572824 0.5723150373 4290483999
-0.2736424804 -0.1391213834 0.5706741810 4290484258
-0.2732774913 -0.1383025944 0.5699129701 4290418465
-0.2733345330 -0.1376981288 0.5700320005 4290418206
-0.2725462615 -0.1366695017 0.5683880448 4290418206
-0.2721800506 -0.1358551830 0.5676243305 4290483996
-0.2722361684 -0.1352524012 0.5677413344 4290615582
-0.2722920477 -0.1346492320 0.5678579211 4290418465
-0.2719248235 -0.1338375509 0.5670920610 4290352672
-0.2719801664 -0.1332345903 0.5672074556 4290155293
-0.2720353007 -0.1326312572 0.5673224330 4289957914
-0.2716670334 -0.1318222284 0.5665544271 4289694742
-0.2712983787 -0.1310147047 0.5657855868 4289760535
-0.2717759609 -0.1306156069 0.5667815804 4289827096
-0.2718300819 -0.1300117671 0.5668944716 4289761303
-0.2718839645 -0.1294075549 0.5670068860 4289695510
-0.2710904777 -0.1284017265 0.5653520823 4290024475
-0.2707200944 -0.1275990009 0.5645796061 4290221854
-0.2707730532 -0.1269965470 0.5646900535 4290485026
-0.2704019248 -0.1261959374 0.5639160872 4290813991
-0.2700304389 -0.1253968775 0.5631413460 4291142956
-0.2700825334 -0.1247952580 0.5632500052 4291209262
-0.2701343894 -0.1241932958 0.5633581877 4291209262
-0.2701860368 -0.1235909835 0.5634658337 4291472426
-0.2706616819 -0.1231814027 0.5644577742 4291669805
-0.2707129419 -0.1225774512 0.5645647049 4291867184
-0.2711883485 -0.1221643463 0.5655561686 4291867184
-0.2716636956 -0.1217489988 0.5665474534 4291801137
-0.2717143893 -0.1211421341 0.5666531920 4291735344
-0.2721894979 -0.1207232699 0.5676440597 4291669551
-0.2722398341 -0.1201147810 0.5677489638 4291603758
-0.2722899020 -0.1195059493 0.5678534508 4291669551
-0.2727646232 -0.1190822721 0.5688434243 4291669551
-0.2728143334 -0.1184718236 0.5689470768 4291669551
-0.2732887864 -0.1180446297 0.5699365735 4291735344
-0.2733380795 -0.1174325645 0.5700393915 4291932723
-0.2733871341 -0.1168201715 0.5701416731 4291998516
-0.2738611996 -0.1163881719 0.5711303353 4292064309
-0.2739098370 -0.1157741696 0.5712317824 4292195895
-0.2739582658 -0.1151598394 0.5713327527 4292130875
-0.2740064263 -0.1145451888 0.5714331865 4292130875
-0.2740543485 -0.1139302030 0.5715331435 4292326713
-0.2745276690 -0.1134908572 0.5725201964 4292326713
-0.2745751739 -0.1128742844 0.5726193190 4292588605
-0.2746224403 -0.1122573838 0.5727179050 4292720191
-0.2755211890 -0.1119863465 0.5745921731 4292787013
-0.2755680978 -0.1113668978 0.5746900439 4292984392
-0.2760407925 -0.1109183058 0.5756757855 4292525122
-0.2765133679 -0.1104674861 0.5766613483 4292656708
-0.2769858241 -0.1100144312 0.5776466727 4292394842
-0.2774582207 -0.1095591486 0.5786317587 4292723807
-0.2783567309 -0.1092689708 0.5805056691 4292726939
-0.2792553008 -0.1089746356 0.5823795795 4294174385
-0.2849018276 -0.1544455141 0.5955346823 4289436009
-0.2845447361 -0.1535910815 0.5947882533 4288054356
-0.2837668657 -0.1525121480 0.5931622386 4289366042
-0.2829883695 -0.1514365077 0.5915349126 4289629214
-0.2822092772 -0.1503641605 0.5899063945 4289826326
-0.2810089290 -0.1490719616 0.5873972774 4289826326
-0.2793870270 -0.1475626826 0.5840069652 4289826328
-0.2781850100 -0.1462817490 0.5814943910 4289826328
-0.2774031758 -0.1452263594 0.5798601508 4290023707
-0.2766207755 -0.1441743076 0.5782246590 4290221086
-0.2762588859 -0.1433440745 0.5774681568 4290352413
-0.2754753828 -0.1422977448 0.5758304000 4290286620
-0.2751125991 -0.1414714158 0.5750721097 4290352413
-0.2747493982 -0.1406465471 0.5743129253 4290418206
-0.2739643157 -0.1396083832 0.5726718307 4290418463
-0.2731786668 -0.1385735571 0.5710296035 4290352670
-0.2732357681 -0.1379679292 0.5711489320 4290286877
-0.2728708684 -0.1371499449 0.5703861713 4290286877
-0.2720837295 -0.1361224055 0.5687408447 4290418716
-0.2721398771 -0.1355184466 0.5688582063 4290616095
-0.2717737854 -0.1347049624 0.5680929422 4290615331
-0.2718293965 -0.1341011971 0.5682091713 4290615331
-0.2718847692 -0.1334970593 0.5683249235 4290549538
-0.2719399035 -0.1328925639 0.5684401989 4290681124
-0.2719948292 -0.1322876960 0.5685549974 4290878757
-0.2716270983 -0.1314779818 0.5677862763 4290878757
-0.2716814578 -0.1308733374 0.5678999424 4290944550
-0.2717356086 -0.1302683204 0.5680131316 4290878757
-0.2717895210 -0.1296629310 0.5681258440 4290879268
-0.2714204490 -0.1288564801 0.5673543215 4290945061
-0.2710509598 -0.1280515641 0.5665820241 4291010854
-0.2706810832 -0.1272481680 0.5658088326 4291208233
-0.2707338333 -0.1266441792 0.5659191012 4291537198
-0.2703632414 -0.1258429140 0.5651444793 4291734577
-0.2704154551 -0.1252391785 0.5652536154 4291668783
-0.2704674304 -0.1246350929 0.5653622150 4291668783
-0.2705191672 -0.1240306571 0.5654703975 4291603758
-0.2709941268 -0.1236190349 0.5664631724 4291669551
-0.2710454762 -0.1230129600 0.5665705204 4291735344
-0.2715201974 -0.1225978062 0.5675628185 4291735344
-0.2715711594 -0.1219900995 0.5676693916 4291735344
-0.2720456421 -0.1215714142 0.5686612129 4291669551
-0.2720962167 -0.1209620759 0.5687669516 4291735344
-0.2725704908 -0.1205398664 0.5697582364 4291735344
-0.2726206779 -0.1199289039 0.5698631406 4291801137
-0.2726706266 -0.1193175986 0.5699675679 4291801137
-0.2727203369 -0.1187059656 0.5700715184 4291735344
-0.2731940150 -0.1182776541 0.5710616708 4291801137
-0.2732433379 -0.1176644042 0.5711647272 4291932723
-0.2732924223 -0.1170508191 0.5712673068 4292064309
-0.2733412385 -0.1164368987 0.5713694096 4292130102
-0.2738143504 -0.1160025075 0.5723583698 4292195895
-0.2738628089 -0.1153869778 0.5724596381 4292130362
-0.2739109993 -0.1147711277 0.5725603700 4292196155
-0.2739589512 -0.1141549572 0.5726605654 4292392506
-0.2740066350 -0.1135384589 0.5727602839 4292326713
-0.2744790018 -0.1130967066 0.5737476945 4292523588
-0.2749512792 -0.1126527265 0.5747348666 4292720967
-0.2749983966 -0.1120333597 0.5748333931 4292722250
-0.2754703760 -0.1115858704 0.5758199692 4292919629
-0.2759422660 -0.1111361459 0.5768063664 4292395078
-0.2764140666 -0.1106841937 0.5777925849 4292460871
-0.2773110867 -0.1103993282 0.5796676278 4292198762
-0.2777827382 -0.1099419519 0.5806535482 4292790899
-0.2782542706 -0.1094823405 0.5816392303 4293517503
-0.2843568325 -0.1545087993 0.5957786441 4290555531
-0.2840004861 -0.1536540389 0.5950320363 4288384362
-0.2836437225 -0.1528007388 0.5942845941 4288512026
-0.2832865715 -0.1519488543 0.5935362577 4288906784
-0.2825092077 -0.1508742422 0.5919075012 4289301265
-0.2813113630 -0.1495796889 0.5893978477 4289367058
-0.2796927989 -0.1480679512 0.5860066414 4289432340
-0.2784933150 -0.1467846632 0.5834935308 4289498133
-0.2777132094 -0.1457270086 0.5818591118 4289826328
-0.2769325376 -0.1446726769 0.5802233815 4290089500
-0.2769919038 -0.1440588832 0.5803477764 4290286366
-0.2762101889 -0.1430093497 0.5787100196 4290154780
-0.2750074267 -0.1417464167 0.5761899352 4290154780
-0.2746450603 -0.1409202963 0.5754307508 4290154780
-0.2738616168 -0.1398807913 0.5737892985 4290155291
-0.2734983861 -0.1390585750 0.5730282068 4290155291
-0.2735555768 -0.1384508610 0.5731480718 4290221338
-0.2731916010 -0.1376306862 0.5723854899 4290287131
-0.2728272378 -0.1368120015 0.5716220737 4290287645
-0.2724624574 -0.1359948218 0.5708577633 4290419231
-0.2720972896 -0.1351791322 0.5700926781 4290484258
-0.2721529901 -0.1345732659 0.5702094436 4290615844
-0.2717871070 -0.1337596625 0.5694428086 4290747171
-0.2718422711 -0.1331539899 0.5695584416 4290944550
-0.2718972266 -0.1325479597 0.5696735382 4291076136
-0.2719519436 -0.1319415569 0.5697881579 4291076136
-0.2715847194 -0.1311311722 0.5690187812 4291207720
-0.2716389000 -0.1305249780 0.5691322684 4291207720
-0.2716928422 -0.1299184263 0.5692452788 4291208233
-0.2713245749 -0.1291107237 0.5684737563 4291208233
-0.2713779807 -0.1285043955 0.5685856342 4291143209
-0.2710090280 -0.1276987940 0.5678125620 4291340588
-0.2706396580 -0.1268947423 0.5670387149 4291668783
-0.2706921995 -0.1262892336 0.5671488047 4291668783
-0.2707445025 -0.1256833673 0.5672584176 4291668783
-0.2707965970 -0.1250771582 0.5673674941 4291668783
-0.2708484530 -0.1244705990 0.5674761534 4291537965
-0.2709000707 -0.1238636971 0.5675842762 4291472172
-0.2713741362 -0.1234487295 0.5685775876 4291472172
-0.2714253664 -0.1228401884 0.5686849356 4291537965
-0.2718992233 -0.1224216893 0.5696777701 4291603758
-0.2719500661 -0.1218115091 0.5697842836 4291603758
-0.2720006704 -0.1212009862 0.5698903203 4291669551
-0.2724741399 -0.1207776666 0.5708823204 4291735344
-0.2725243568 -0.1201655194 0.5709875226 4291801137
-0.2725743353 -0.1195530295 0.5710921884 4291866930
-0.2726240754 -0.1189402044 0.5711964369 4291866930
-0.2730969787 -0.1185107827 0.5721872449 4291866930
-0.2731463313 -0.1178963408 0.5722905993 4291932723
-0.2731954157 -0.1172815636 0.5723934770 4292064309
-0.2732442915 -0.1166664511 0.5724958777 4292195895
-0.2732928991 -0.1160510182 0.5725977421 4292195895
-0.2737650573 -0.1156142205 0.5735870004 4292064311
-0.2738132775 -0.1149971709 0.5736880302 4292261690
-0.2738612592 -0.1143798009 0.5737885237 4292458297
-0.2743330002 -0.1139382049 0.5747768879 4292392504
-0.2743805647 -0.1133192331 0.5748765469 4292457795
-0.2748520374 -0.1128741279 0.5758643746 4292655174
-0.2748991847 -0.1122535542 0.5759631991 4292656970
-0.2753703892 -0.1118049324 0.5769504309 4292854349
-0.2758415043 -0.1113540828 0.5779374838 4292395341
-0.2763125002 -0.1109009907 0.5789242983 4292132169
-0.2772079110 -0.1106150672 0.5808003545 4292067965
-0.2781033516 -0.1103249863 0.5826765299 4293515411
-0.2833925784 -0.1543440223 0.5951433182 4290819481
-0.2830368876 -0.1534898728 0.5943962932 4288977277
-0.2830995619 -0.1528632939 0.5945279002 4288381741
-0.2827431262 -0.1520111114 0.5937793851 4288118569
-0.2819672823 -0.1509360820 0.5921500921 4288644111
-0.2811908722 -0.1498643607 0.5905195475 4288775697
-0.2799946964 -0.1485735178 0.5880075693 4289103634
-0.2792170048 -0.1475093514 0.5863743424 4289235220
-0.2780193985 -0.1462279409 0.5838592649 4289628949
-0.2776598334 -0.1453909576 0.5831041932 4289892121
-0.2768803835 -0.1443367600 0.5814672709 4290023194
-0.2761003375 -0.1432858855 0.5798290968 4289957401
-0.2757393718 -0.1424551904 0.5790711045 4290088473
-0.2753780484 -0.1416259557 0.5783122182 4290022680
-0.2745964229 -0.1405832469 0.5766707659 4290023448
-0.2738142014 -0.1395438910 0.5750280619 4290155034
-0.2734514773 -0.1387209743 0.5742663145 4290221338
-0.2726681828 -0.1376874000 0.5726213455 4290287131
-0.2731450200 -0.1372908354 0.5736227036 4290287900
-0.2723608613 -0.1362611949 0.5719759464 4290353693
-0.2719964981 -0.1354442537 0.5712108016 4290484256
-0.2720522583 -0.1348372251 0.5713278651 4290615842
-0.2716871798 -0.1340223551 0.5705611706 4290747171
-0.2713217437 -0.1332090050 0.5697937012 4290878757
-0.2713766098 -0.1326027364 0.5699089766 4290878757
-0.2714312673 -0.1319961101 0.5700237751 4290878757
-0.2714857161 -0.1313891113 0.5701380372 4291141927
-0.2711189091 -0.1305789798 0.5693677664 4291339306
-0.2711727917 -0.1299722046 0.5694809556 4291339819
-0.2712264657 -0.1293650568 0.5695936084 4291339819
-0.2712798715 -0.1287575662 0.5697058439 4291274795
-0.2713330686 -0.1281497031 0.5698175430 4291406381
-0.2709646225 -0.1273434460 0.5690437555 4291472174
-0.2710172832 -0.1267358065 0.5691543221 4291472174
-0.2710697055 -0.1261278242 0.5692644119 4291668781
-0.2711218894 -0.1255194992 0.5693740249 4291668781
-0.2711738348 -0.1249108166 0.5694831014 4291537195
-0.2712255716 -0.1243017837 0.5695917606 4291471402
-0.2712770402 -0.1236924008 0.5696998835 4291471402
-0.2717502713 -0.1232740954 0.5706936717 4291537195
-0.2718013823 -0.1226630732 0.5708010197 4291668781
-0.2722743750 -0.1222412288 0.5717943311 4291734574
-0.2723250687 -0.1216285750 0.5719007850 4291800367
-0.2723755538 -0.1210155785 0.5720068216 4291866160
-0.2724258006 -0.1204022393 0.5721123219 4291931953
-0.2728982270 -0.1199742779 0.5731044412 4291997746
-0.2729480565 -0.1193593144 0.5732091069 4292063539
-0.2729976773 -0.1187440082 0.5733132958 4292063539
-0.2730470300 -0.1181283742 0.5734169483 4292063539
-0.2730961442 -0.1175124049 0.5735201240 4292195125
-0.2731450498 -0.1168961003 0.5736227632 4292326711
-0.2731936872 -0.1162794679 0.5737249255 4292326711
-0.2736650705 -0.1158415526 0.5747148395 4292326714
-0.2741363347 -0.1154014021 0.5757045746 4292392507
-0.2741844058 -0.1147818789 0.5758055449 4292458297
-0.2742322385 -0.1141620278 0.5759059787 4292458297
-0.2742798328 -0.1135418490 0.5760059357 4292393025
-0.2747505307 -0.1130956188 0.5769944191 4292656197
-0.2752211094 -0.1126471460 0.5779826641 4292854349
-0.2756915987 -0.1121964380 0.5789707303 4292920142
-0.2761619985 -0.1117434949 0.5799585581 4292198233
-0.2766322792 -0.1112883091 0.5809462070 4292198233
-0.2771024704 -0.1108308956 0.5819336176 4292661406
-0.2779963017 -0.1105397493 0.5838107467 4294503610
-0.2825931013 -0.1569121182 0.5948518515 4290426022
-0.2826569378 -0.1562864929 0.5949862003 4290031264
-0.2827205360 -0.1556604356 0.5951200724 4289637025
-0.2823662162 -0.1548049599 0.5943742394 4289439646
-0.2824292779 -0.1541789919 0.5945069790 4289437836
-0.2824921012 -0.1535526067 0.5946392417 4288714113
-0.2821367383 -0.1526995748 0.5938911438 4288251984
-0.2817809284 -0.1518479884 0.5931422114 4287462468
-0.2814247310 -0.1509978473 0.5923924446 4288184091
-0.2806498408 -0.1499257088 0.5907613039 4288315677
-0.2798743844 -0.1488568783 0.5891289711 4288709655
-0.2786798775 -0.1475697905 0.5866146088 4288841241
-0.2783216834 -0.1467291713 0.5858605504 4289234707
-0.2775444388 -0.1456703097 0.5842244625 4289432086
-0.2771853209 -0.1448335499 0.5834685564 4289826069
-0.2764069736 -0.1437803954 0.5818302035 4289957655
-0.2756280899 -0.1427305937 0.5801905990 4289956887
-0.2752675712 -0.1419001222 0.5794317126 4290022680
-0.2749066353 -0.1410711110 0.5786719918 4290154264
-0.2741261721 -0.1400294900 0.5770291090 4290220057
-0.2733451128 -0.1389912069 0.5753849745 4290155031
-0.2729828060 -0.1381685436 0.5746223330 4290286617
-0.2726200819 -0.1373473555 0.5738588572 4290287898
-0.2722569704 -0.1365276724 0.5730945468 4290419484
-0.2718934715 -0.1357094795 0.5723293424 4290615585
-0.2715295553 -0.1348928064 0.5715633035 4290681378
-0.2715850174 -0.1342851669 0.5716800690 4290681376
-0.2712203860 -0.1334705651 0.5709125400 4290747169
-0.2712753117 -0.1328631341 0.5710281134 4290812962
-0.2713299692 -0.1322553307 0.5711432099 4290878755
-0.2713844478 -0.1316471547 0.5712578297 4291207720
-0.2714386582 -0.1310386360 0.5713719726 4291405099
-0.2710723877 -0.1302278340 0.5706009865 4291339818
-0.2711260617 -0.1296195090 0.5707139969 4291339818
-0.2711795270 -0.1290108413 0.5708264709 4291471404
-0.2712327242 -0.1284018010 0.5709385276 4291602990
-0.2712857127 -0.1277924180 0.5710500479 4291602988
-0.2713384926 -0.1271826625 0.5711610913 4291537195
-0.2713910043 -0.1265725642 0.5712716579 4291471402
-0.2714433074 -0.1259621084 0.5713817477 4291471402
-0.2714953423 -0.1253512949 0.5714913011 4291471402
-0.2715471685 -0.1247401312 0.5716004372 4291405609
-0.2715987861 -0.1241286173 0.5717090368 4291471402
-0.2716501355 -0.1235167608 0.5718171000 4291602988
-0.2721225023 -0.1230951101 0.5728114247 4291800367
-0.2721734643 -0.1224816069 0.5729187131 4291866160
-0.2726455927 -0.1220564172 0.5739125609 4291931953
-0.2726961672 -0.1214412823 0.5740190148 4291931953
-0.2727465034 -0.1208258048 0.5741249323 4291931953
-0.2727966011 -0.1202099845 0.5742304325 4291931953
-0.2728464603 -0.1195938289 0.5743353963 4291997748
-0.2728960812 -0.1189773381 0.5744398236 4292063541
-0.2729454637 -0.1183605120 0.5745437741 4292129334
-0.2729946077 -0.1177433506 0.5746472478 4292195127
-0.2730435133 -0.1171258539 0.5747501850 4292260920
-0.2730921805 -0.1165080220 0.5748526454 4292260920
-0.2739849389 -0.1162481084 0.5767318606 4292195644
-0.2740332782 -0.1156277135 0.5768336058 4292195644
-0.2745036781 -0.1151841953 0.5778237581 4292196155
-0.2745516002 -0.1145621911 0.5779246688 4292393534
-0.2745992839 -0.1139398590 0.5780250430 4292590663
-0.2746467292 -0.1133171991 0.5781248808 4292853835
-0.2751165330 -0.1128676012 0.5791137815 4292854613
-0.2760089040 -0.1125881821 0.5809922218 4292854613
-0.2764785886 -0.1121331453 0.5819808841 4291673188
-0.2769481540 -0.1116758659 0.5829693079 4292725876
-0.2810219228 -0.1583817452 0.5929307938 4289769389
-0.2810861766 -0.1577590108 0.5930663347 4289637284
-0.2811501920 -0.1571358442 0.5932013988 4289439905
-0.2812139988 -0.1565122604 0.5933359861 4289439129
-0.2812775671 -0.1558882594 0.5934700966 4288846992
-0.2813408971 -0.1552638263 0.5936037898 4288649100
-0.2814040184 -0.1546389759 0.5937369466 4288188549
-0.2814669013 -0.1540137082 0.5938696265 4287596151
-0.2815295756 -0.1533880234 0.5940018892 4287398772
-0.2811748385 -0.1525356025 0.5932533741 4287332458
-0.2812369466 -0.1519100070 0.5933844447 4286674528
-0.2808814943 -0.1510595381 0.5926344395 4287789367
-0.2801081538 -0.1499869972 0.5910028219 4287855160
-0.2793342471 -0.1489177495 0.5893698931 4288249383
-0.2785597444 -0.1478518397 0.5877357721 4288380969
-0.2782023549 -0.1470099688 0.5869817138 4288906006
-0.2778445482 -0.1461695582 0.5862268209 4289037592
-0.2770684659 -0.1451117396 0.5845893025 4289562643
-0.2762917578 -0.1440572590 0.5829505920 4289891608
-0.2759325802 -0.1432231218 0.5821927190 4290022167
-0.2751548290 -0.1421743929 0.5805516839 4290087960
-0.2747947276 -0.1413441449 0.5797919631 4290219546
-0.2744342387 -0.1405153722 0.5790313482 4290285339
-0.2736549079 -0.1394748241 0.5773870349 4290089239
-0.2732935250 -0.1386499554 0.5766245127 4290220825
-0.2725131214 -0.1376152039 0.5749779344 4290287898
-0.2721508443 -0.1367942691 0.5742135644 4290419484
-0.2722069621 -0.1361843348 0.5743319392 4290680606
-0.2718439698 -0.1353654712 0.5735660791 4290877985
-0.2714805603 -0.1345480978 0.5727993846 4290747168
-0.2711167932 -0.1337322295 0.5720317960 4290812961
-0.2711717188 -0.1331236213 0.5721477270 4290879267
-0.2712264359 -0.1325146556 0.5722631216 4290945060
-0.2712808847 -0.1319053173 0.5723780990 4291207719
-0.2713351548 -0.1312956214 0.5724925399 4291405098
-0.2713891566 -0.1306855530 0.5726065040 4291273512
-0.2710234225 -0.1298740804 0.5718348026 4291273512
-0.2710768878 -0.1292642206 0.5719476342 4291405609
-0.2711301148 -0.1286540180 0.5720599890 4291602988
-0.2711831331 -0.1280434430 0.5721718073 4291537195
-0.2712359130 -0.1274325252 0.5722831488 4291471402
-0.2712884545 -0.1268212348 0.5723940730 4291405609
-0.2713407874 -0.1262096018 0.5725044012 4291339816
-0.2713928521 -0.1255976111 0.5726143122 4291471402
-0.2714447081 -0.1249852702 0.5727236867 4291471402
-0.2714963257 -0.1243725792 0.5728326440 4291471402
-0.2715477049 -0.1237595379 0.5729410052 4291602988
-0.2720192969 -0.1233367771 0.5739359856 4291800367
-0.2724907994 -0.1229117736 0.5749308467 4291931953
-0.2721210420 -0.1221070662 0.5741506815 4291931953
-0.2721715569 -0.1214916930 0.5742572546 4291931953
-0.2726425827 -0.1210628003 0.5752511024 4291997748
-0.2726927102 -0.1204457954 0.5753568411 4291866162
-0.2727425694 -0.1198284477 0.5754621029 4291931955
-0.2727922201 -0.1192107648 0.5755668283 4292063541
-0.2728416324 -0.1185927466 0.5756710768 4292063541
-0.2728908062 -0.1179743856 0.5757748485 4292195127
-0.2729397416 -0.1173556969 0.5758780837 4292260920
-0.2738309801 -0.1170969754 0.5777584910 4292326713
-0.2738795877 -0.1164757088 0.5778610706 4291999039
-0.2743493617 -0.1160323545 0.5788522363 4292064832
-0.2743975520 -0.1154094785 0.5789539218 4292131140
-0.2748670578 -0.1149625927 0.5799445510 4292394312
-0.2749148309 -0.1143381074 0.5800453424 4292722511
-0.2749623656 -0.1137132868 0.5801456571 4292854097
-0.2754314542 -0.1132616028 0.5811353922 4292789084
-0.2759004235 -0.1128076687 0.5821248889 4292920670
-0.2763693035 -0.1123514995 0.5831141472 4292396930
-0.2772600949 -0.1120636538 0.5849936604 4294107548
-0.2797379494 -0.1613150239 0.5916081071 4290162601
-0.2798031569 -0.1606951505 0.5917459726 4290031015
-0.2798681259 -0.1600748301 0.5918833613 4289703079
-0.2795175314 -0.1592175066 0.5911418796 4289374114
-0.2799973786 -0.1588329077 0.5921567082 4288848284
-0.2796461582 -0.1579765677 0.5914139152 4288453526
-0.2797101438 -0.1573554575 0.5915492177 4288124815
-0.2801896036 -0.1569668055 0.5925632715 4287861643
-0.2798374295 -0.1561119556 0.5918184519 4288320648
-0.2803166509 -0.1557206213 0.5928319097 4287728511
-0.2799638212 -0.1548667699 0.5920857787 4287464565
-0.2800266743 -0.1542435437 0.5922186971 4287267186
-0.2800893188 -0.1536199003 0.5923511386 4286872176
-0.2801517248 -0.1529958397 0.5924831629 4286609004
-0.2802139223 -0.1523713619 0.5926146507 4286281331
-0.2802758515 -0.1517464668 0.5927456617 4286149745
-0.2799210548 -0.1508966237 0.5919952989 4287263049
-0.2795658112 -0.1500482112 0.5912440419 4287328842
-0.2787934542 -0.1489785612 0.5896105766 4287919923
-0.2784372866 -0.1481339931 0.5888573527 4288117302
-0.2780807614 -0.1472908705 0.5881032944 4288511256
-0.2777237892 -0.1464492083 0.5873484015 4288511256
-0.2773664296 -0.1456090212 0.5865926147 4289167887
-0.2765914798 -0.1445522755 0.5849536657 4289562645
-0.2758159339 -0.1434988528 0.5833135247 4289824790
-0.2754571736 -0.1426649392 0.5825547576 4289956376
-0.2750979960 -0.1418325007 0.5817951560 4290153755
-0.2743208706 -0.1407872587 0.5801516771 4290219548
-0.2739608288 -0.1399587244 0.5793902278 4290023194
-0.2731826305 -0.1389192641 0.5777444839 4290220573
-0.2728216946 -0.1380946338 0.5769811273 4290287645
-0.2724603415 -0.1372715086 0.5762168765 4290353438
-0.2720985711 -0.1364498734 0.5754517913 4290483996
-0.2717364132 -0.1356297582 0.5746859312 4290747168
-0.2717919946 -0.1350188404 0.5748034716 4290681888
-0.2714291215 -0.1342007816 0.5740360618 4290747681
-0.2710658610 -0.1333842427 0.5732677579 4290880035
-0.2711206079 -0.1327740997 0.5733835101 4290880035
-0.2711750865 -0.1321635842 0.5734987855 4291076644
-0.2712293565 -0.1315527111 0.5736135840 4291208230
-0.2712834179 -0.1309414804 0.5737278461 4291208230
-0.2713372111 -0.1303298622 0.5738416314 4291208230
-0.2709719837 -0.1295177191 0.5730692148 4291274793
-0.2710252404 -0.1289063245 0.5731818676 4291406379
-0.2714972496 -0.1284928769 0.5741801262 4291340586
-0.2715501487 -0.1278798282 0.5742919445 4291340586
-0.2716028094 -0.1272664219 0.5744033456 4291340840
-0.2716552317 -0.1266526580 0.5745142102 4291340840
-0.2717074156 -0.1260385364 0.5746245384 4291471402
-0.2717593610 -0.1254240572 0.5747344494 4291405609
-0.2718110681 -0.1248092428 0.5748438239 4291471402
-0.2718625665 -0.1241940707 0.5749526620 4291602988
-0.2719137967 -0.1235785484 0.5750610828 4291800367
-0.2723845243 -0.1231524348 0.5760565400 4291931953
-0.2720156014 -0.1223464608 0.5752763152 4291931953
-0.2720661461 -0.1217299029 0.5753832459 4291866160
-0.2721164525 -0.1211129948 0.5754895806 4291931955
-0.2725865245 -0.1206817031 0.5764837265 4291866162
-0.2726364136 -0.1200631633 0.5765892863 4291931955
-0.2726860940 -0.1194442883 0.5766943097 4292063541
-0.2731557488 -0.1190081686 0.5776876211 4292063541
-0.2732050121 -0.1183876619 0.5777918100 4292129334
-0.2736744285 -0.1179480031 0.5787845850 4292326713
-0.2737233043 -0.1173258722 0.5788878798 4292392506
-0.2741924524 -0.1168826818 0.5798801184 4291999554
-0.2742409110 -0.1162589341 0.5799825788 4292196933
-0.2747098207 -0.1158122048 0.5809742212 4292394576
-0.2747578621 -0.1151868403 0.5810758471 4292591955
-0.2752264738 -0.1147365943 0.5820668936 4292723030
-0.2752740979 -0.1141096130 0.5821676254 4292723030
-0.2757424712 -0.1136558354 0.5831581354 4292723556
-0.2762107253 -0.1131998152 0.5841484666 4293118314
-0.2766788900 -0.1127415448 0.5851385593 4293647523
-0.2771469355 -0.1122810394 0.5861284137 4294964411
-0.2782347798 -0.1621366143 0.5898144841 4289703342
-0.2783001363 -0.1615192145 0.5899530053 4289505963
-0.2783652842 -0.1609013826 0.5900911093 4289637031
-0.2784301937 -0.1602831185 0.5902287364 4289308066
-0.2784948945 -0.1596644372 0.5903658867 4289044636
-0.2785593569 -0.1590453088 0.5905025601 4288584085
-0.2786236107 -0.1584257483 0.5906387568 4288123532
-0.2786876559 -0.1578057706 0.5907745361 4287860360
-0.2787514627 -0.1571853608 0.5909097791 4287597188
-0.2788150609 -0.1565645188 0.5910446048 4287268223
-0.2788784206 -0.1559432596 0.5911788940 4287136123
-0.2789415717 -0.1553215832 0.5913127661 4287004537
-0.2790044844 -0.1546994895 0.5914461613 4286806641
-0.2790671885 -0.1540769637 0.5915790796 4286609262
-0.2791296542 -0.1534540206 0.5917115211 4286411883
-0.2791919112 -0.1528306603 0.5918434262 4286346090
-0.2792539299 -0.1522068828 0.5919749141 4286346090
-0.2793157101 -0.1515826881 0.5921059251 4286346090
-0.2789615393 -0.1507334411 0.5913551450 4286411625
-0.2786069512 -0.1498856395 0.5906034708 4286345832
-0.2786678970 -0.1492620856 0.5907326341 4287066190
-0.2778965831 -0.1481944025 0.5890975595 4287000397
-0.2775407732 -0.1473509669 0.5883432627 4287919137
-0.2776007354 -0.1467289776 0.5884703994 4288248102
-0.2772442102 -0.1458875388 0.5877146125 4288839949
-0.2764708996 -0.1448294520 0.5860753059 4289037328
-0.2761134505 -0.1439918727 0.5853176117 4289299473
-0.2757556140 -0.1431557685 0.5845590234 4289496852
-0.2749807239 -0.1421058327 0.5829163790 4289825050
-0.2746219933 -0.1412736326 0.5821559429 4290088222
-0.2738460302 -0.1402294636 0.5805110335 4290285848
-0.2734864056 -0.1394011676 0.5797486305 4290285848
-0.2731263638 -0.1385743469 0.5789854527 4290352660
-0.2727659345 -0.1377490312 0.5782213807 4290747418
-0.2719879448 -0.1367155313 0.5765721202 4290746650
-0.2720438540 -0.1361028999 0.5766906738 4290878236
-0.2716822028 -0.1352820694 0.5759240985 4290944029
-0.2717376053 -0.1346696317 0.5760414600 4291075615
-0.2713752389 -0.1338508874 0.5752733350 4291141408
-0.2714300752 -0.1332386285 0.5753895640 4291338787
-0.2710670233 -0.1324219704 0.5746199489 4291273762
-0.2711213231 -0.1318099201 0.5747350454 4291273762
-0.2711753845 -0.1311974972 0.5748496652 4291274016
-0.2712292075 -0.1305847168 0.5749637485 4291274016
-0.2712828219 -0.1299715787 0.5750774145 4291274016
-0.2709181011 -0.1291587502 0.5743042827 4291274016
-0.2713893354 -0.1287441999 0.5753031969 4291340066
-0.2714422345 -0.1281299740 0.5754153728 4291603238
-0.2714948952 -0.1275153905 0.5755270123 4291603493
-0.2715473473 -0.1269004345 0.5756381750 4291340321
-0.2715995610 -0.1262851357 0.5757488608 4291668003
-0.2716515362 -0.1256694943 0.5758590102 4291733796
-0.2717032731 -0.1250534803 0.5759686828 4291733797
-0.2717547715 -0.1244371235 0.5760778785 4291733797
-0.2718060613 -0.1238204166 0.5761865973 4291800106
-0.2718570828 -0.1232033595 0.5762947798 4291931692
-0.2719078958 -0.1225859597 0.5764024258 4291866414
-0.2719584405 -0.1219682097 0.5765096545 4291932207
-0.2720087767 -0.1213501170 0.5766163468 4291997746
-0.2724780440 -0.1209177077 0.5776111484 4291997746
-0.2725279927 -0.1202979833 0.5777169466 4291932723
-0.2729970217 -0.1198620349 0.5787112713 4291998516
-0.2734659612 -0.1194238365 0.5797053576 4292064311
-0.2735153437 -0.1188011840 0.5798100233 4292130104
-0.2735644579 -0.1181781888 0.5799141526 4292196410
-0.2740329802 -0.1177351624 0.5809073448 4292327996
-0.2745014429 -0.1172898933 0.5819003582 4292195906
-0.2745499909 -0.1166639924 0.5820032954 4292261699
-0.2745982707 -0.1160377562 0.5821056962 4292393546
-0.2750662863 -0.1155876592 0.5830978155 4292854097
-0.2755342126 -0.1151353195 0.5840896964 4292985958
-0.2755819261 -0.1145061776 0.5841908455 4292854372
-0.2760495543 -0.1140503064 0.5851821899 4292922000
-0.2765170932 -0.1135921925 0.5861732960 4294237860
-0.2766686380 -0.1635639817 0.5878786445 4289900973
-0.2767343819 -0.1629495174 0.5880182981 4289900203
-0.2767998874 -0.1623346061 0.5881575346 4289637031
-0.2772784233 -0.1619606465 0.5891743302 4289242273
-0.2773436010 -0.1613439471 0.5893128514 4289044894
-0.2774085701 -0.1607268155 0.5894508958 4288847255
-0.2774733305 -0.1601092666 0.5895884633 4288518290
-0.2775378525 -0.1594912708 0.5897256136 4288123786
-0.2776021659 -0.1588728428 0.5898622274 4287663235
-0.2776662409 -0.1582539827 0.5899984241 4287399291
-0.2777301073 -0.1576347053 0.5901341438 4287201912
-0.2777937651 -0.1570149958 0.5902693868 4287004533
-0.2778571844 -0.1563948691 0.5904041529 4286872947
-0.2779203951 -0.1557743102 0.5905384421 4286807154
-0.2779833674 -0.1551533341 0.5906722546 4286741361
-0.2780461311 -0.1545319259 0.5908055902 4286675310
-0.2781086564 -0.1539101154 0.5909384489 4286477931
-0.2781709731 -0.1532878727 0.5910708308 4286411623
-0.2782330513 -0.1526652128 0.5912027359 4286411623
-0.2782948911 -0.1520421356 0.5913342237 4286346345
-0.2783565223 -0.1514186561 0.5914651752 4286346345
-0.2780030072 -0.1505700201 0.5907139778 4286280037
-0.2780641019 -0.1499466300 0.5908437967 4286214244
-0.2777098417 -0.1490999758 0.5900910497 4286475860
-0.2777704000 -0.1484766901 0.5902196765 4286410067
-0.2774154246 -0.1476320177 0.5894654393 4287263276
-0.2770600319 -0.1467887908 0.5887103081 4287526448
-0.2771196961 -0.1461661607 0.5888370872 4288707596
-0.2767635882 -0.1453249454 0.5880804062 4288970768
-0.2759914398 -0.1442679167 0.5864396691 4289101065
-0.2756344378 -0.1434305608 0.5856810808 4289166858
-0.2752770185 -0.1425946802 0.5849216580 4289233427
-0.2745032907 -0.1415458173 0.5832775831 4289628185
-0.2741449773 -0.1407138407 0.5825162530 4289892123
-0.2737862468 -0.1398833543 0.5817540288 4289957916
-0.2734271288 -0.1390543580 0.5809909701 4290220824
-0.2730676234 -0.1382268369 0.5802270174 4290549789
-0.2722913623 -0.1371910572 0.5785775781 4290614807
-0.2723473907 -0.1365763098 0.5786966681 4290680600
-0.2719866633 -0.1357533038 0.5779301524 4290680857
-0.2716255486 -0.1349317878 0.5771628618 4290812443
-0.2716807425 -0.1343178004 0.5772801042 4291009822
-0.2713189125 -0.1334983706 0.5765112638 4291207201
-0.2713735402 -0.1328845769 0.5766273737 4291273248
-0.2710109949 -0.1320672333 0.5758569837 4291273248
-0.2710650861 -0.1314536333 0.5759719014 4291339039
-0.2711189389 -0.1308396906 0.5760863423 4291339039
-0.2711725533 -0.1302253604 0.5762003064 4291142430
-0.2712259591 -0.1296106726 0.5763137341 4291076637
-0.2712791264 -0.1289956272 0.5764267445 4291208223
-0.2713320553 -0.1283802241 0.5765392184 4291471395
-0.2713847458 -0.1277644634 0.5766511559 4291602980
-0.2714371979 -0.1271483302 0.5767626166 4291405601
-0.2714894414 -0.1265318543 0.5768736005 4291404832
-0.2715414464 -0.1259150058 0.5769841075 4291536418
-0.2715931833 -0.1252978146 0.5770940781 4291602211
-0.2716447115 -0.1246802807 0.5772035718 4291668004
-0.2716960013 -0.1240623891 0.5773125887 4291734313
-0.2717470825 -0.1234441400 0.5774210691 4291800106
-0.2717978954 -0.1228255555 0.5775290132 4291865901
-0.2718484700 -0.1222066134 0.5776365399 4291865901
-0.2718988061 -0.1215873361 0.5777434707 4291866414
-0.2723672986 -0.1211538166 0.5787389874 4291998000
-0.2724172473 -0.1205328926 0.5788450837 4291932723
-0.2733040452 -0.1202800199 0.5807293653 4291998516
-0.2737722695 -0.1198397577 0.5817242861 4291998516
-0.2738217413 -0.1192149520 0.5818294287 4292064309
-0.2738709450 -0.1185898110 0.5819339752 4292130102
-0.2739199400 -0.1179643273 0.5820380449 4292195895
-0.2743875682 -0.1175179332 0.5830317140 4292130372
-0.2748551369 -0.1170692891 0.5840252042 4292393544
-0.2749035358 -0.1164408922 0.5841280222 4292394073
-0.2753708065 -0.1159887090 0.5851209760 4292723038
-0.2758379877 -0.1155342832 0.5861136913 4292854909
-0.2758858204 -0.1149029806 0.5862152576 4293183874
-0.2763527334 -0.1144450158 0.5872073770 4293645740
-0.2768195570 -0.1139848009 0.5881993175 4294961857
-0.2751708627 -0.1643656939 0.5860792398 4289900975
-0.2752367556 -0.1637537330 0.5862196088 4289768872
-0.2753024399 -0.1631413251 0.5863595009 4289439907
-0.2753679156 -0.1625284702 0.5864989161 4289242528
-0.2758454978 -0.1621575803 0.5875161290 4288913563
-0.2759106159 -0.1615429372 0.5876548290 4288518805
-0.2759755254 -0.1609278619 0.5877931118 4288189840
-0.2760402262 -0.1603123546 0.5879309177 4288320393
-0.2761047184 -0.1596964151 0.5880682468 4287991428
-0.2761689723 -0.1590800434 0.5882050991 4287662718
-0.2762330174 -0.1584632546 0.5883414745 4287333753
-0.2762968540 -0.1578460187 0.5884774327 4287135861
-0.2763604522 -0.1572283655 0.5886129141 4286938482
-0.2764238417 -0.1566102803 0.5887479186 4286872689
-0.2764869928 -0.1559917778 0.5888824463 4286741103
-0.2769632936 -0.1556050926 0.5898969173 4286675308
-0.2770261168 -0.1549848169 0.5900307298 4286609515
-0.2766751349 -0.1541337222 0.5892831683 4286609002
-0.2767374218 -0.1535135359 0.5894157887 4286543209
-0.2767994702 -0.1528929323 0.5895479918 4286411877
-0.2768613100 -0.1522718966 0.5896796584 4286346084
-0.2769229114 -0.1516504586 0.5898108482 4286346343
-0.2769842744 -0.1510286033 0.5899415612 4286214757
-0.2770454288 -0.1504063308 0.5900718570 4286149218
-0.2766921520 -0.1495597661 0.5893194079 4286017632
-0.2767527699 -0.1489376128 0.5894484520 4285886046
-0.2768131495 -0.1483150423 0.5895770788 4285754460
-0.2764587998 -0.1474709660 0.5888224244 4286475837
-0.2765186429 -0.1468485296 0.5889498591 4286607423
-0.2765782773 -0.1462256759 0.5890768170 4288115734
-0.2762229145 -0.1453841329 0.5883199573 4288444699
-0.2758671343 -0.1445440501 0.5875622034 4288771849
-0.2755109668 -0.1437054574 0.5868036151 4288771849
-0.2751543820 -0.1428683251 0.5860441327 4288838671
-0.2747973800 -0.1420326829 0.5852838159 4289233429
-0.2744399905 -0.1411985159 0.5845226049 4289366294
-0.2740822136 -0.1403658241 0.5837605596 4289563673
-0.2737240195 -0.1395346373 0.5829976201 4289957655
-0.2733654082 -0.1387049258 0.5822339058 4290155034
-0.2730064392 -0.1378767192 0.5814692378 4290351381
-0.2722314000 -0.1368410885 0.5798185468 4290351381
-0.2727029324 -0.1364327818 0.5808228850 4290351381
-0.2723428309 -0.1356081367 0.5800558925 4290482967
-0.2719823122 -0.1347849965 0.5792880058 4290680346
-0.2716214061 -0.1339633614 0.5785193443 4290877725
-0.2716761529 -0.1333474517 0.5786359310 4290944029
-0.2713145316 -0.1325279027 0.5778657198 4290944029
-0.2713687122 -0.1319122016 0.5779811144 4290944283
-0.2714226842 -0.1312961280 0.5780960917 4291010076
-0.2714763880 -0.1306796819 0.5782104731 4291010076
-0.2715298831 -0.1300628781 0.5783244371 4290944283
-0.2715831697 -0.1294457018 0.5784378648 4291075867
-0.2716361880 -0.1288281679 0.5785508752 4291470625
-0.2716889977 -0.1282102764 0.5786632895 4291602211
-0.2717415690 -0.1275920123 0.5787752867 4291404832
-0.2717939019 -0.1269734055 0.5788867474 4291601959
-0.2718459964 -0.1263544410 0.5789976716 4291601959
-0.2718978524 -0.1257351041 0.5791081190 4291601959
-0.2719494700 -0.1251154244 0.5792180896 4291667752
-0.2720008790 -0.1244954020 0.5793275833 4291733545
-0.2720520198 -0.1238750219 0.5794365406 4291733545
-0.2721029520 -0.1232542843 0.5795449615 4291602729
-0.2721536160 -0.1226332113 0.5796529055 4291668522
-0.2726215720 -0.1221989170 0.5806495547 4291734315
-0.2730894089 -0.1217623800 0.5816460252 4291865901
-0.2731395364 -0.1211383566 0.5817527771 4291931953
-0.2731894255 -0.1205139905 0.5818589926 4291997746
-0.2736568749 -0.1200726032 0.5828546286 4291997746
-0.2741242051 -0.1196289659 0.5838500261 4292129332
-0.2745914757 -0.1191830710 0.5848451853 4292260918
-0.2746406198 -0.1185544878 0.5849499106 4292392504
-0.2746895254 -0.1179255545 0.5850540400 4291999304
-0.2751563489 -0.1174748316 0.5860483050 4292328269
-0.2756230831 -0.1170218512 0.5870423913 4292197484
-0.2756713927 -0.1163900048 0.5871453285 4292526449
-0.2761378586 -0.1159334853 0.5881388187 4292658587
-0.2766042352 -0.1154747158 0.5891321301 4293316517
-0.2736096680 -0.1657677442 0.5841359496 4289901232
-0.2736759484 -0.1651587188 0.5842773914 4289703853
-0.2737419903 -0.1645492464 0.5844184160 4289637801
-0.2738078237 -0.1639393270 0.5845589638 4289374629
-0.2738734484 -0.1633289754 0.5846990347 4289242526
-0.2743501663 -0.1629625112 0.5857168436 4288913561
-0.2744154632 -0.1623503715 0.5858561993 4288715923
-0.2744805515 -0.1617377847 0.5859951377 4288452751
-0.2745454013 -0.1611247659 0.5861336589 4287992200
-0.2746100426 -0.1605113149 0.5862716436 4287597442
-0.2746744752 -0.1598974317 0.5864092112 4287596925
-0.2747386992 -0.1592831165 0.5865463018 4287333753
-0.2748026848 -0.1586683691 0.5866829157 4287135861
-0.2748664618 -0.1580532044 0.5868190527 4287070068
-0.2749300301 -0.1574375927 0.5869547725 4287004275
-0.2749933600 -0.1568215638 0.5870899558 4286872689
-0.2754688561 -0.1564393044 0.5881051421 4286741103
-0.2755318582 -0.1558215022 0.5882396102 4286675310
-0.2755946219 -0.1552032828 0.5883736610 4286675308
-0.2756571770 -0.1545846313 0.5885071754 4286609515
-0.2757194936 -0.1539655626 0.5886402726 4286674795
-0.2757816017 -0.1533460766 0.5887728333 4286543209
-0.2758435011 -0.1527261734 0.5889049768 4286411623
-0.2759051621 -0.1521058530 0.5890366435 4286345830
-0.2759666145 -0.1514851153 0.5891677737 4286280037
-0.2756146193 -0.1506381184 0.5884162784 4286214244
-0.2756755054 -0.1500174999 0.5885463357 4286017629
-0.2757361829 -0.1493964493 0.5886758566 4285951836
-0.2757966220 -0.1487749964 0.5888049006 4285885539
-0.2758568525 -0.1481531411 0.5889334679 4285753953
-0.2759168446 -0.1475308686 0.5890615582 4286081102
-0.2755628526 -0.1466879398 0.5883058310 4286081102
-0.2756223083 -0.1460658014 0.5884327888 4287261995
-0.2756815553 -0.1454432607 0.5885592103 4287590960
-0.2753265202 -0.1446028650 0.5878012776 4288377879
-0.2753852010 -0.1439804584 0.5879265666 4288443672
-0.2750294507 -0.1431420743 0.5871670246 4288837903
-0.2746733129 -0.1423051804 0.5864067078 4289035282
-0.2747311294 -0.1416834593 0.5865301490 4289102092
-0.2743742466 -0.1408485770 0.5857682228 4289299471
-0.2740169764 -0.1400151998 0.5850055218 4289693713
-0.2736593187 -0.1391832978 0.5842418671 4289956885
-0.2733012438 -0.1383529007 0.5834774375 4290022419
-0.2733575702 -0.1377329975 0.5835977197 4290088212
-0.2729987800 -0.1369046420 0.5828316808 4290154005
-0.2726395726 -0.1360778064 0.5820648670 4290219798
-0.2722799778 -0.1352524608 0.5812971592 4290351383
-0.2723351419 -0.1346338689 0.5814148784 4290482969
-0.2719748318 -0.1338106096 0.5806456804 4290615066
-0.2720294595 -0.1331921965 0.5807622671 4290680859
-0.2716684341 -0.1323710233 0.5799915195 4290746652
-0.2717224956 -0.1317528337 0.5801069736 4290878238
-0.2717763186 -0.1311342716 0.5802218914 4290944029
-0.2718299329 -0.1305153370 0.5803363323 4290878236
-0.2718833089 -0.1298960298 0.5804502368 4291075869
-0.2715206146 -0.1290787011 0.5796759725 4291404834
-0.2715734541 -0.1284596324 0.5797887444 4291536420
-0.2716260254 -0.1278401911 0.5799010396 4291404834
-0.2716783881 -0.1272203922 0.5800127983 4291535655
-0.2717305124 -0.1266002357 0.5801240206 4291535655
-0.2717823982 -0.1259797364 0.5802348256 4291536166
-0.2718340456 -0.1253588647 0.5803450942 4291601959
-0.2718854547 -0.1247376502 0.5804548264 4291667752
-0.2723530531 -0.1243061498 0.5814531446 4291667752
-0.2728205919 -0.1238723993 0.5824513435 4291668006
-0.2728714645 -0.1232482195 0.5825598836 4291733799
-0.2733387649 -0.1228109077 0.5835575461 4291799338
-0.2733892202 -0.1221850887 0.5836652517 4291930924
-0.2738562524 -0.1217442229 0.5846623778 4291931696
-0.2739063203 -0.1211167574 0.5847692490 4291997489
-0.2739561200 -0.1204889417 0.5848755836 4291997235
-0.2744227648 -0.1200432256 0.5858718157 4292128821
-0.2748892903 -0.1195952520 0.5868678093 4292260408
-0.2749385238 -0.1189645082 0.5869729519 4292326201
-0.2754048109 -0.1185129881 0.5879684091 4291933512
-0.2754536271 -0.1178806126 0.5880726576 4291999305
-0.2759196460 -0.1174255461 0.5890675783 4291540080
-0.2759680748 -0.1167915389 0.5891709328 4292066424
-0.2722500563 -0.1653360426 0.5826147199 4289703596
-0.2723160386 -0.1647286415 0.5827559233 4289374631
-0.2723818123 -0.1641207784 0.5828966498 4289177249
-0.2724473476 -0.1635124832 0.5830369592 4288914077
-0.2725127041 -0.1629037559 0.5831767917 4288650389
-0.2725778520 -0.1622945815 0.5833162069 4288321424
-0.2730533779 -0.1619284898 0.5843338370 4288058250
-0.2731181681 -0.1613175273 0.5844725370 4287729285
-0.2731827796 -0.1607061327 0.5846107602 4287400061
-0.2732471526 -0.1600943059 0.5847485065 4287071096
-0.2737222910 -0.1597218663 0.5857653618 4287201654
-0.2737863362 -0.1591082662 0.5859023929 4287004275
-0.2734389901 -0.1582562327 0.5851590037 4286872689
-0.2739137709 -0.1578797549 0.5861750841 4286872689
-0.2739771605 -0.1572648585 0.5863107443 4286872689
-0.2740403414 -0.1566495299 0.5864459276 4286806896
-0.2741032839 -0.1560337842 0.5865806341 4286675308
-0.2745776772 -0.1556509733 0.5875958204 4286609515
-0.2746402919 -0.1550334543 0.5877298117 4286674795
-0.2747026682 -0.1544155031 0.5878633261 4286674795
-0.2747648358 -0.1537971497 0.5879963636 4286609002
-0.2748267651 -0.1531783640 0.5881289244 4286543209
-0.2748885155 -0.1525591612 0.5882610083 4286477416
-0.2749499977 -0.1519395560 0.5883926153 4286345830
-0.2750112712 -0.1513195187 0.5885237455 4286148705
-0.2746599317 -0.1504731476 0.5877718329 4286082912
-0.2747206688 -0.1498532146 0.5879018307 4285886293
-0.2747811675 -0.1492328793 0.5880313516 4285886293
-0.2748414576 -0.1486121416 0.5881603360 4286082144
-0.2749015391 -0.1479909867 0.5882889032 4285950558
-0.2749613822 -0.1473694295 0.5884169340 4286015060
-0.2750209868 -0.1467474550 0.5885444880 4285883474
-0.2750803530 -0.1461250931 0.5886716247 4286277694
-0.2747263908 -0.1452838480 0.5879141092 4286409280
-0.2747852504 -0.1446616054 0.5880400538 4287459113
-0.2748438716 -0.1440389752 0.5881654620 4287524906
-0.2744888663 -0.1432002783 0.5874058008 4288508687
-0.2745469213 -0.1425777823 0.5875300765 4288706066
-0.2746047676 -0.1419548988 0.5876538157 4288969217
-0.2742487490 -0.1411187649 0.5868918896 4289166596
-0.2738923132 -0.1402841210 0.5861291289 4289298953
-0.2739492953 -0.1396619380 0.5862510800 4289627918
-0.2735921144 -0.1388293505 0.5854867697 4289824786
-0.2732345760 -0.1379982382 0.5847216249 4290022165
-0.2732906938 -0.1373767853 0.5848417282 4290285591
-0.2729324102 -0.1365477443 0.5840749741 4290351384
-0.2729879916 -0.1359264702 0.5841939449 4290351384
-0.2730433345 -0.1353048086 0.5843123794 4290417177
-0.2726840377 -0.1344784051 0.5835434794 4290548762
-0.2727388442 -0.1338569373 0.5836607218 4290680348
-0.2723788321 -0.1330326200 0.5828902721 4290548760
-0.2724330723 -0.1324113458 0.5830063820 4290746139
-0.2724871039 -0.1317897141 0.5831220150 4290812443
-0.2721260488 -0.1309680641 0.5823493600 4290812443
-0.2721795142 -0.1303466409 0.5824638009 4290878236
-0.2722327411 -0.1297248453 0.5825777054 4291141408
-0.2722857594 -0.1291026920 0.5826911330 4291338787
-0.2719233632 -0.1282843202 0.5819156170 4291338787
-0.2719758153 -0.1276623905 0.5820279121 4291404069
-0.2720280588 -0.1270401031 0.5821396112 4291404069
-0.2720800340 -0.1264174581 0.5822508931 4291535909
-0.2725472450 -0.1259865016 0.5832507014 4291601702
-0.2725988328 -0.1253622025 0.5833611488 4291535907
-0.2730658054 -0.1249276847 0.5843604803 4291470114
-0.2731170058 -0.1243017167 0.5844700336 4291535907
-0.2731679678 -0.1236753985 0.5845790505 4291667493
-0.2736345232 -0.1232360154 0.5855774879 4291667752
-0.2736850977 -0.1226080507 0.5856857300 4291799338
-0.2741514146 -0.1221651062 0.5866836309 4291930928
-0.2742015719 -0.1215354875 0.5867909789 4291996721
-0.2742514610 -0.1209055260 0.5868977904 4291996470
-0.2747173905 -0.1204577312 0.5878947973 4291996470
-0.2751832008 -0.1200076789 0.5888916254 4292062009
-0.2752325237 -0.1193747744 0.5889972448 4292062009
-0.2756980658 -0.1189211681 0.5899934769 4291209541
-0.2757470012 -0.1182866320 0.5900982022 4291143748
-0.2762122750 -0.1178294793 0.5910938978 4290685036
-0.2762607932 -0.1171933040 0.5911976695 4291408759
-0.2708930075 -0.1649038792 0.5810918212 4289440424
-0.2709587216 -0.1642980874 0.5812327266 4289045666
-0.2710241973 -0.1636918485 0.5813732743 4288913563
-0.2710894942 -0.1630851775 0.5815132856 4288584598
-0.2715641558 -0.1627234966 0.5825315118 4288058250
-0.2716291249 -0.1621150374 0.5826708674 4287729285
-0.2716938853 -0.1615061313 0.5828097463 4287531647
-0.2717584074 -0.1608968079 0.5829482079 4287202682
-0.2722327113 -0.1605287939 0.5839655995 4286873716
-0.2722969353 -0.1599176675 0.5841033459 4286676337
-0.2723609209 -0.1593061239 0.5842406154 4286938482
-0.2728349566 -0.1589331329 0.5852574706 4286938482
-0.2724882364 -0.1580817252 0.5845137239 4286938482
-0.2725515962 -0.1574688852 0.5846496224 4286938482
-0.2726147175 -0.1568556130 0.5847850442 4286872687
-0.2730882764 -0.1564772278 0.5858008862 4286741101
-0.2731510699 -0.1558621824 0.5859355330 4286674795
-0.2732136250 -0.1552467197 0.5860697627 4286674795
-0.2736869156 -0.1548633575 0.5870850086 4286609256
-0.2737491429 -0.1542461216 0.5872184634 4286609256
-0.2738111317 -0.1536284685 0.5873515010 4286543463
-0.2738729119 -0.1530103981 0.5874840021 4286411877
-0.2739344835 -0.1523919106 0.5876160264 4286411877
-0.2739958167 -0.1517729908 0.5877476335 4286280291
-0.2736454308 -0.1509267092 0.5869960189 4286147933
-0.2737062275 -0.1503079087 0.5871264338 4286147933
-0.2737667859 -0.1496886909 0.5872563720 4285886033
-0.2738271356 -0.1490690559 0.5873858333 4285951826
-0.2738872766 -0.1484490186 0.5875148177 4286344025
-0.2739471793 -0.1478285789 0.5876433253 4286212439
-0.2740068436 -0.1472077221 0.5877712965 4286015060
-0.2740662992 -0.1465864629 0.5878988504 4285883474
-0.2741255462 -0.1459648013 0.5880259275 4285818184
-0.2741845250 -0.1453427523 0.5881524682 4285818184
-0.2738309205 -0.1445026547 0.5873939395 4286276658
-0.2738893628 -0.1438807249 0.5875192881 4286408244
-0.2739475965 -0.1432584077 0.5876442194 4287588628
-0.2740056217 -0.1426356882 0.5877686739 4287917593
-0.2740633786 -0.1420125663 0.5878925920 4288574211
-0.2741209269 -0.1413890570 0.5880160332 4288705797
-0.2741782367 -0.1407651603 0.5881389976 4288772359
-0.2738223374 -0.1399298161 0.5873755217 4289035531
-0.2738791108 -0.1393060684 0.5874972939 4289035270
-0.2735224664 -0.1384727806 0.5867322683 4289298442
-0.2735787034 -0.1378491968 0.5868528485 4289693454
-0.2732213438 -0.1370179653 0.5860863328 4289825040
-0.2732770145 -0.1363945603 0.5862057805 4289825040
-0.2733324766 -0.1357707977 0.5863246918 4289825040
-0.2733877003 -0.1351466328 0.5864431262 4289956625
-0.2730289996 -0.1343185902 0.5856736898 4290154004
-0.2730836570 -0.1336946338 0.5857909918 4290219797
-0.2731381059 -0.1330702901 0.5859077573 4290548762
-0.2727783620 -0.1322449148 0.5851361156 4290746650
-0.2728322446 -0.1316207796 0.5852516890 4290812443
-0.2728859186 -0.1309962869 0.5853667855 4290812443
-0.2729393244 -0.1303714067 0.5854813457 4290944029
