VERSION 0.7
FIELDS x y z rgba
SIZE 4 4 4 4
TYPE F F F U
COUNT 1 1 1 1
WIDTH 920
HEIGHT 1
VIEWPOINT 0.0 0.0 0.0 1.0 0.0 0.0 0.0
POINTS 920
DATA ascii
-0.2958265543 -0.1413829327 0.5670295358 4290614555
-0.2954361141 -0.1405671537 0.5662811995 4290482969
-0.2954970896 -0.1399668455 0.5663980246 4290548762
-0.2951059043 -0.1391530782 0.5656482577 4290614555
-0.2951663136 -0.1385529637 0.5657640100 4290482969
-0.2952264845 -0.1379524767 0.5658793449 4290548762
-0.2952864170 -0.1373516172 0.5659942031 4290811934
-0.2953461111 -0.1367504001 0.5661086440 4290877725
-0.2949531972 -0.1359403133 0.5653554797 4290877725
-0.2950123250 -0.1353392899 0.5654688478 4291009311
-0.2950712144 -0.1347379088 0.5655817389 4291404069
-0.2951298654 -0.1341361552 0.5656941533 4291403810
-0.2947355211 -0.1333292574 0.5649383068 4291403810
-0.2947936058 -0.1327277124 0.5650496483 4291338019
-0.2948514521 -0.1321258247 0.5651605129 4291272226
-0.2944560349 -0.1313215494 0.5644025803 4291272226
-0.2945133150 -0.1307198703 0.5645123720 4291272226
-0.2945703566 -0.1301178485 0.5646216869 4291140897
-0.2946271300 -0.1295154840 0.5647305250 4291075104
-0.2946836948 -0.1289127618 0.5648389459 4291009565
-0.2942865491 -0.1281123012 0.5640777349 4290746393
-0.2943425179 -0.1275098175 0.5641850233 4290615318
-0.2943982482 -0.1269069910 0.5642918348 4291273248
-0.2944537401 -0.1263038367 0.5643982291 4291865131
-0.2945089936 -0.1257003248 0.5645040870 4291865131
-0.2945640087 -0.1250964850 0.5646095276 4291930926
-0.2946187556 -0.1244922951 0.5647144914 4291865133
-0.2946732640 -0.1238877773 0.5648189783 4292062764
-0.2951816618 -0.1234728768 0.5657934546 4291865385
-0.2952357829 -0.1228667572 0.5658971667 4291931178
-0.2952896357 -0.1222603098 0.5660004020 4291996971
-0.2953432500 -0.1216535270 0.5661031604 4292062510
-0.2953966260 -0.1210464090 0.5662054420 4291996717
-0.2959042788 -0.1206242591 0.5671784878 4291996717
-0.2959572077 -0.1200155541 0.5672799945 4292325682
-0.2960099280 -0.1194065288 0.5673810244 4292523063
-0.2960623801 -0.1187971681 0.5674815178 4292523063
-0.2961145639 -0.1181874946 0.5675815940 4292457270
-0.2961665094 -0.1175774932 0.5676811934 4292720442
-0.2962182164 -0.1169671714 0.5677802563 4293049409
-0.2967247665 -0.1165352687 0.5687512159 4293246788
-0.2967760563 -0.1159233749 0.5688495040 4293509447
-0.2968270779 -0.1153111681 0.5689473152 4293377861
-0.2968778312 -0.1146986410 0.5690445900 4293312068
-0.2973837852 -0.1142607778 0.5700143576 4293246275
-0.2978895903 -0.1138207242 0.5709838867 4293180482
-0.2979397774 -0.1132053807 0.5710800886 4293180482
-0.2979896665 -0.1125897244 0.5711757541 4293246275
-0.2980393171 -0.1119737625 0.5712708831 4293246275
-0.2985445261 -0.1115277633 0.5722392201 4293114689
-0.2985937297 -0.1109102443 0.5723335743 4293048896
-0.2990986407 -0.1104608104 0.5733013153 4292852030
-0.2991473973 -0.1098417416 0.5733948350 4292852030
-0.2996520102 -0.1093888655 0.5743620396 4292983616
-0.3001565039 -0.1089337990 0.5753290057 4293246788
-0.3002046645 -0.1083119437 0.5754213333 4293444167
-0.3007088304 -0.1078534424 0.5763877630 4293509960
-0.3007565439 -0.1072300375 0.5764791369 4293313095
-0.3017168939 -0.1069298834 0.5783199072 4293313095
-0.3022207320 -0.1064648181 0.5792856812 4293443914
-0.3027244508 -0.1059975624 0.5802511573 4293443914
-0.3032280505 -0.1055281237 0.5812164545 4293510475
-0.3037315309 -0.1050564945 0.5821815133 4293905233
-0.3042348623 -0.1045826823 0.5831462741 4293708881
-0.3047381043 -0.1041066796 0.5841108561 4293379916
-0.3052411973 -0.1036284864 0.5850751400 4293509194
-0.3062011600 -0.1033022925 0.5869151950 4293509194
-0.3067040741 -0.1028187796 0.5878791809 4293444681
-0.3072068393 -0.1023330763 0.5888428688 4293247302
-0.3072522581 -0.1016938612 0.5889298916 4293182022
-0.3077546656 -0.1012047455 0.5898929238 4293182022
-0.3077996075 -0.1005640104 0.5899790525 4293180229
-0.3083016872 -0.1000714749 0.5909414291 4293377608
-0.3083461523 -0.0994292274 0.5910266638 4291211321
-0.3088478744 -0.0989332721 0.5919883251 4288645394
-0.3093494773 -0.0984351411 0.5929497480 4287464788
-0.3103086054 -0.0980794802 0.5947881937 4290557059
-0.3425703943 -0.1867368370 0.6580272913 4288779920
-0.3422022760 -0.1858058423 0.6573201418 4287398267
-0.3413856626 -0.1846338660 0.6557515860 4290021914
-0.3396721482 -0.1829822063 0.6524602175 4289561363
-0.3254074156 -0.1746032834 0.6250597835 4289626128
-0.3326553404 -0.1777823120 0.6389819384 4289560335
-0.3116554916 -0.1658941507 0.5986443162 4289232913
-0.3090353906 -0.1638399363 0.5936114788 4289759257
-0.3068624735 -0.1620330215 0.5894376636 4290745639
-0.3060345054 -0.1609426737 0.5878472328 4290087709
-0.3047570586 -0.1596204638 0.5853934288 4289627411
-0.3039276898 -0.1585374326 0.5838003755 4289495825
-0.3026486635 -0.1572243422 0.5813435316 4289693204
-0.3009196818 -0.1556839049 0.5780223608 4289627411
-0.3018850386 -0.1555390656 0.5798767209 4289693204
-0.3001545966 -0.1540068984 0.5765527487 4289758997
-0.2993219793 -0.1529408842 0.5749534369 4289627409
-0.2984887064 -0.1518780887 0.5733528733 4289824788
-0.2981044650 -0.1510463655 0.5726147890 4289824788
-0.2977198064 -0.1502160579 0.5718759298 4289824788
-0.2973347008 -0.1493871808 0.5711361766 4289824786
-0.2969491780 -0.1485597342 0.5703956485 4289824786
-0.2965632081 -0.1477337182 0.5696542859 4289824786
-0.2966269553 -0.1471323967 0.5697767138 4290022165
-0.2962402403 -0.1463083476 0.5690339208 4290219544
-0.2963034213 -0.1457071751 0.5691552758 4290285337
-0.2959159613 -0.1448850930 0.5684109926 4290219797
-0.2959785759 -0.1442840695 0.5685312748 4290154004
-0.2955903411 -0.1434639692 0.5677855611 4290417176
-0.2952017188 -0.1426453292 0.5670390129 4290285590
-0.2952634394 -0.1420450062 0.5671575665 4290351381
-0.2948740423 -0.1412283480 0.5664095879 4290614553
-0.2949351966 -0.1406281888 0.5665270686 4290482967
-0.2949961126 -0.1400276572 0.5666441321 4290548760
-0.2946056426 -0.1392135620 0.5658940673 4290680346
-0.2946659923 -0.1386132091 0.5660099983 4290548760
-0.2947261333 -0.1380124837 0.5661255121 4290548760
-0.2947860062 -0.1374113858 0.5662404895 4290746139
-0.2943941355 -0.1366004199 0.5654878020 4290811932
-0.2944534421 -0.1359995157 0.5656017065 4290746139
-0.2945125103 -0.1353982538 0.5657151937 4290943772
-0.2945713699 -0.1347966343 0.5658282042 4291272737
-0.2941780686 -0.1339888275 0.5650727749 4291403810
-0.2942363620 -0.1333874017 0.5651847124 4291403810
-0.2942943871 -0.1327856332 0.5652961731 4291403812
-0.2939000428 -0.1319804490 0.5645387173 4291272226
-0.2939575016 -0.1313788891 0.5646490455 4291206433
-0.2940147221 -0.1307769865 0.5647590160 4291074847
-0.2940717041 -0.1301747262 0.5648684502 4290877725
-0.2941284478 -0.1295721084 0.5649774671 4290680346
-0.2937323749 -0.1287707388 0.5642166138 4290614807
-0.2937885225 -0.1281683594 0.5643244982 4290154256
-0.2938444614 -0.1275656372 0.5644319654 4289957388
-0.2939001620 -0.1269625723 0.5645389557 4290681111
-0.2939555943 -0.1263591498 0.5646454096 4291404580
-0.2940108180 -0.1257553995 0.5647514462 4291733545
-0.2940657735 -0.1251513213 0.5648570657 4291865131
-0.2941204906 -0.1245468929 0.5649621487 4291799338
-0.2941749394 -0.1239421219 0.5650667548 4292062764
-0.2946825325 -0.1235270649 0.5660417676 4291799592
-0.2947365940 -0.1229206994 0.5661455989 4291931178
-0.2947904170 -0.1223140061 0.5662489533 4291996971
-0.2948439717 -0.1217069700 0.5663518906 4291931178
-0.2953509986 -0.1212859154 0.5673257709 4291931178
-0.2958579063 -0.1208626628 0.5682994723 4291865131
-0.2954570353 -0.1200683415 0.5675294995 4292062510
-0.2955096960 -0.1194590628 0.5676306486 4292259889
-0.2955621183 -0.1188494563 0.5677313209 4292391475
-0.2956142724 -0.1182395294 0.5678315163 4292456757
-0.2956661880 -0.1176292822 0.5679312348 4292654136
-0.2961720824 -0.1171984598 0.5689029694 4292917308
-0.2962235808 -0.1165866330 0.5690019131 4293114687
-0.2962748110 -0.1159744859 0.5691003203 4293377861
-0.2963258028 -0.1153620258 0.5691982508 4293312068
-0.2968311012 -0.1149252430 0.5701688528 4293311555
-0.2973362803 -0.1144862622 0.5711392164 4293179969
-0.2973866761 -0.1138709784 0.5712360144 4293048896
-0.2974367738 -0.1132553816 0.5713322759 4293114689
-0.2974866629 -0.1126394719 0.5714280605 4293048896
-0.2979912162 -0.1121945381 0.5723972321 4293114689
-0.2980406582 -0.1115770712 0.5724921823 4293048896
-0.2985449135 -0.1111287028 0.5734608173 4292917310
-0.2985939085 -0.1105096787 0.5735549331 4292720444
-0.2990978956 -0.1100578606 0.5745230317 4292720444
-0.2991464436 -0.1094372869 0.5746163130 4292786237
-0.2996501327 -0.1089820415 0.5755838156 4292983616
-0.3001537025 -0.1085245982 0.5765510798 4293049923
-0.3006571829 -0.1080649644 0.5775181651 4293115716
-0.3011605144 -0.1076031476 0.5784850121 4293247556
-0.3016637266 -0.1071391329 0.5794516206 4293247556
-0.3017110825 -0.1065120324 0.5795425773 4293116230
-0.3022139966 -0.1060445905 0.5805085897 4293116230
-0.3027167916 -0.1055749580 0.5814744234 4293313609
-0.3032194674 -0.1051031351 0.5824399590 4293642574
-0.3037219942 -0.1046291217 0.5834052563 4293642574
-0.3042244315 -0.1041529253 0.5843703151 4293379402
-0.3047267199 -0.1036745310 0.5853351355 4293705544
-0.3056851029 -0.1033482105 0.5871760845 4293771337
-0.3061872125 -0.1028644964 0.5881405473 4293707337
-0.3066891730 -0.1023785919 0.5891047120 4293641544
-0.3067345321 -0.1017391011 0.5891919136 4293445192
-0.3072361648 -0.1012497768 0.5901554227 4293510985
-0.3072810471 -0.1006087735 0.5902416706 4293377612
-0.3077823222 -0.1001160294 0.5912045240 4293377612
-0.3078267574 -0.0994735137 0.5912898779 4290881324
-0.3083276749 -0.0989773497 0.5922520757 4288249604
-0.3083716035 -0.0983333290 0.5923364758 4288055116
-0.3088721931 -0.0978337526 0.5932980180 4290423664
-0.3093726337 -0.0973320007 0.5942592621 4291809732
-0.3406445980 -0.1860840768 0.6557270885 4289370765
-0.3402768672 -0.1851554215 0.6550191641 4287660147
-0.3394614160 -0.1839856803 0.6534494758 4289824790
-0.3377505839 -0.1823360622 0.6501561999 4289495825
-0.3212726712 -0.1727532595 0.6184368730 4289757455
-0.3106051385 -0.1663528532 0.5979022980 4289560076
-0.3079903126 -0.1642936915 0.5928689241 4289101841
-0.3062695861 -0.1627207398 0.5895565152 4289562392
-0.3049956262 -0.1613915861 0.5871042609 4290482720
-0.3055127263 -0.1610117853 0.5880996585 4290022169
-0.3042375147 -0.1596890241 0.5856449008 4289693202
-0.3034096360 -0.1586055607 0.5840512514 4289627409
-0.3021328449 -0.1572919339 0.5815935135 4289627409
-0.3004068434 -0.1557508856 0.5782710314 4289561616
-0.3013706505 -0.1556060165 0.5801262856 4289693202
-0.2987460494 -0.1536119133 0.5750740767 4289758995
-0.2979147136 -0.1525472850 0.5734737515 4289627407
-0.2975315154 -0.1517147124 0.5727360845 4289890579
-0.2971478701 -0.1508835554 0.5719976425 4289824786
-0.2967638075 -0.1500538290 0.5712583065 4289890579
-0.2959302664 -0.1489994377 0.5696538091 4289890579
-0.2964435816 -0.1486238688 0.5706418753 4289824786
-0.2960583270 -0.1477975249 0.5699003339 4289758993
-0.2961220145 -0.1471959800 0.5700228810 4289890579
-0.2957360148 -0.1463715881 0.5692798495 4290088212
-0.2957991362 -0.1457701921 0.5694013834 4290219798
-0.2954123914 -0.1449477822 0.5686569214 4290219795
-0.2954749465 -0.1443465203 0.5687773228 4290219795
-0.2950874567 -0.1435260922 0.5680313706 4290351381
-0.2951494455 -0.1429249942 0.5681507587 4290351381
-0.2947611809 -0.1421065629 0.5674033761 4290417174
-0.2948226333 -0.1415056139 0.5675216317 4290548760
-0.2948838174 -0.1409043074 0.5676394105 4290548760
-0.2944944799 -0.1400884092 0.5668899417 4290614553
-0.2945551276 -0.1394872665 0.5670067072 4290680087
-0.2946155071 -0.1388857514 0.5671229362 4290614294
-0.2942250967 -0.1380724311 0.5663714409 4290680087
-0.2942849398 -0.1374711096 0.5664865971 4290811673
-0.2943445444 -0.1368694156 0.5666013360 4290811673
-0.2939530313 -0.1360586733 0.5658476949 4290811673
-0.2940120697 -0.1354571730 0.5659613609 4291009052
-0.2940708697 -0.1348553002 0.5660745502 4291272224
-0.2936783135 -0.1340471804 0.5653188825 4291403810
-0.2937365174 -0.1334455162 0.5654309392 4291403810
-0.2937945127 -0.1328434944 0.5655425787 4291338017
-0.2938522696 -0.1322411299 0.5656537414 4291206431
-0.2934582829 -0.1314361989 0.5648953319 4291009054
-0.2935154736 -0.1308340430 0.5650054216 4290811675
-0.2935724258 -0.1302315444 0.5651150346 4290549014
-0.2931773663 -0.1294292659 0.5643545985 4290351635
-0.2932337523 -0.1288269907 0.5644630790 4290220049
-0.2932898700 -0.1282243729 0.5645711422 4290022670
-0.2933457494 -0.1276213974 0.5646787286 4290088463
-0.2934013903 -0.1270180941 0.5647858381 4290746393
-0.2934567928 -0.1264144331 0.5648924708 4291338787
-0.2935119569 -0.1258104444 0.5649986267 4291667752
-0.2935668826 -0.1252061129 0.5651043653 4291799338
-0.2936215401 -0.1246014386 0.5652095675 4291799338
-0.2936759591 -0.1239964291 0.5653143525 4291931178
-0.2937301397 -0.1233910844 0.5654186606 4291799592
-0.2942367494 -0.1229745969 0.5663938522 4291930665
-0.2942905128 -0.1223676503 0.5664973259 4291996458
-0.2943440378 -0.1217603758 0.5666003823 4291930665
-0.2948502302 -0.1213391572 0.5675747991 4291864872
-0.2949033678 -0.1207302809 0.5676770210 4291799338
-0.2949562073 -0.1201210842 0.5677787662 4291930924
-0.2954619825 -0.1196951345 0.5687524080 4291996717
-0.2950612009 -0.1189016998 0.5679808855 4292194096
-0.2951133251 -0.1182915270 0.5680812001 4292325171
-0.2951651812 -0.1176810265 0.5681810379 4292456757
-0.2952167988 -0.1170702055 0.5682803988 4292654136
-0.2957217395 -0.1166379526 0.5692523718 4292785722
-0.2957729101 -0.1160255596 0.5693508983 4292917308
-0.2958238721 -0.1154128388 0.5694489479 4292917308
-0.2958745360 -0.1147998124 0.5695465207 4292983103
-0.2963788509 -0.1143615991 0.5705173016 4292785724
-0.2968830764 -0.1139211878 0.5714879036 4292786237
-0.2969331443 -0.1133053377 0.5715842843 4292852030
-0.2969829738 -0.1126891673 0.5716801882 4292852030
-0.2970325351 -0.1120726988 0.5717756152 4292852030
-0.2975361049 -0.1116263345 0.5727449656 4292852030
-0.2980395854 -0.1111777872 0.5737141371 4292720444
-0.2980885208 -0.1105585024 0.5738083720 4292720444
-0.2981372178 -0.1099389195 0.5739021301 4292720444
-0.2986402214 -0.1094856709 0.5748703480 4292655165
-0.2986884713 -0.1088645384 0.5749632120 4292720958
-0.2991911769 -0.1084078550 0.5759308934 4292786751
-0.3001485169 -0.1081127897 0.5777737498 4292918337
-0.3006510437 -0.1076507792 0.5787410736 4293115716
-0.3006985486 -0.1070246622 0.5788325667 4293247302
-0.3016557693 -0.1067201793 0.5806751251 4293181509
-0.3021579385 -0.1062515974 0.5816417933 4293181509
-0.3026599884 -0.1057808250 0.5826082230 4293313349
-0.3031619191 -0.1053078547 0.5835744143 4293444935
-0.3036637306 -0.1048326939 0.5845403671 4293378889
-0.3041653931 -0.1043553501 0.5855060816 4293181510
-0.3051223457 -0.1040310860 0.5873481631 4293574211
-0.3060792983 -0.1037027240 0.5891903043 4293771590
-0.3056696355 -0.1029101685 0.5884016752 4293772877
-0.3061707914 -0.1024240628 0.5893663764 4293707084
-0.3062161207 -0.1017843038 0.5894536972 4293642825
-0.3067169487 -0.1012947783 0.5904177427 4293708618
-0.3067618012 -0.1006534994 0.5905040503 4293837650
-0.3077181578 -0.1003091559 0.5923449993 4293706064
-0.3077626228 -0.0996654108 0.5924305916 4290551591
-0.3078067899 -0.0990213901 0.5925155878 4287854080
-0.3078506887 -0.0983770937 0.5926001072 4289172823
-0.3078943193 -0.0977325216 0.5926840901 4290488683
-0.3083938658 -0.0972315073 0.5936457515 4289441184
-0.3107183576 -0.0972998291 0.5981202722 4291480767
-0.3387226462 -0.1854306161 0.6534243822 4289435267
-0.3383553028 -0.1845043004 0.6527157426 4288053614
-0.3375409842 -0.1833368093 0.6511449218 4289890579
-0.3358328640 -0.1816892177 0.6478497386 4289627407
-0.3287633657 -0.1771598905 0.6342121363 4289823246
-0.3181160092 -0.1707405299 0.6136724353 4289691660
-0.3105917275 -0.1660363674 0.5991575122 4289365013
-0.3075337112 -0.1637424529 0.5932583213 4289562392
-0.3062624037 -0.1624091417 0.5908058882 4290022678
-0.3049902916 -0.1610808372 0.5883518457 4289759506
-0.3037173152 -0.1597575396 0.5858961940 4289758995
-0.3028908968 -0.1586736441 0.5843019485 4289693202
-0.3016163409 -0.1573594809 0.5818432570 4289561616
-0.3007885814 -0.1562829167 0.5802463889 4289495823
-0.2999601662 -0.1552095860 0.5786483288 4289627409
-0.2991311252 -0.1541394591 0.5770490170 4289758995
-0.2987493575 -0.1533024162 0.5763126016 4289824786
-0.2979191542 -0.1522378623 0.5747110844 4289956372
-0.2970883548 -0.1511765420 0.5731083155 4289890579
-0.2967050970 -0.1503455788 0.5723690391 4289890579
-0.2963214219 -0.1495160460 0.5716288686 4289890579
-0.2954889238 -0.1484626532 0.5700229406 4289890579
-0.2964497507 -0.1483100057 0.5718764663 4289758993
-0.2951678336 -0.1470360309 0.5694035292 4289890579
-0.2952311337 -0.1464347839 0.5695255995 4290088212
-0.2952941954 -0.1458331496 0.5696473122 4290154005
-0.2953570187 -0.1452311277 0.5697684884 4290219797
-0.2949706614 -0.1444089115 0.5690231919 4290219797
-0.2945838869 -0.1435881555 0.5682770014 4290285590
-0.2946458161 -0.1429868191 0.5683965087 4290417176
-0.2942582965 -0.1421680599 0.5676489472 4290482969
-0.2943196595 -0.1415668875 0.5677673221 4290548762
-0.2943808138 -0.1409653276 0.5678852797 4290680089
-0.2944417298 -0.1403634101 0.5680028200 4290745882
-0.2940527797 -0.1395477355 0.5672525167 4290614296
-0.2936634123 -0.1387335360 0.5665013790 4290680089
-0.2937234342 -0.1381323338 0.5666171312 4290811673
-0.2937832177 -0.1375307739 0.5667324662 4290811673
-0.2938427627 -0.1369288415 0.5668473244 4290811673
-0.2934519947 -0.1361177713 0.5660935044 4290811673
-0.2935109735 -0.1355160326 0.5662072897 4291009052
-0.2931194603 -0.1347070038 0.5654520392 4291140638
-0.2931778729 -0.1341054738 0.5655647516 4291206690
-0.2932360470 -0.1335035712 0.5656769276 4291206690
-0.2928434610 -0.1326971799 0.5649195910 4291206431
-0.2929010689 -0.1320954859 0.5650307536 4291074845
-0.2929584384 -0.1314934492 0.5651414394 4290811673
-0.2930155694 -0.1308910549 0.5652516484 4290614294
-0.2926215827 -0.1300878674 0.5644915700 4290417428
-0.2926781476 -0.1294857115 0.5646007061 4290220049
-0.2927344739 -0.1288831830 0.5647093654 4290154256
-0.2923394144 -0.1280826628 0.5639472604 4290220049
-0.2923951745 -0.1274803877 0.5640547872 4290614807
-0.2924506664 -0.1268777698 0.5641618967 4290943772
-0.2925059497 -0.1262748092 0.5642685294 4291272737
-0.2925609648 -0.1256715059 0.5643746853 4291601702
-0.2926157415 -0.1250678599 0.5644803643 4291733799
-0.2931219339 -0.1246559471 0.5654568076 4291733799
-0.2931763232 -0.1240506917 0.5655617118 4291799592
-0.2932304442 -0.1234451011 0.5656661391 4291799592
-0.2932843566 -0.1228391752 0.5657700896 4291799079
-0.2933380008 -0.1222329214 0.5658736229 4291864872
-0.2938434482 -0.1218137369 0.5668486953 4291996458
-0.2938967049 -0.1212058812 0.5669513941 4291864872
-0.2944019139 -0.1207832322 0.5679259896 4291799338
-0.2944547236 -0.1201737821 0.5680278540 4291930924
-0.2945072949 -0.1195640042 0.5681293011 4291865131
-0.2945596278 -0.1189539060 0.5682302117 4291996717
-0.2946116924 -0.1183434725 0.5683307052 4292193839
-0.2946635187 -0.1177327260 0.5684306622 4292259632
-0.2947151065 -0.1171216518 0.5685301423 4292457011
-0.2952192128 -0.1166892350 0.5695026517 4292522804
-0.2952703536 -0.1160765812 0.5696012974 4292391477
-0.2953212559 -0.1154636145 0.5696994662 4292523063
-0.2953718901 -0.1148503348 0.5697972178 4292458038
-0.2958754003 -0.1144119427 0.5707684755 4292260659
-0.2959256172 -0.1137970909 0.5708653331 4292326965
-0.2964288294 -0.1133552492 0.5718361139 4292458551
-0.2964786291 -0.1127388328 0.5719321370 4292458551
-0.2965281606 -0.1121221036 0.5720276833 4292458551
-0.2970309258 -0.1116755605 0.5729975700 4292589624
-0.2975335717 -0.1112268269 0.5739672184 4292458038
-0.2980360985 -0.1107758954 0.5749366879 4292589626
-0.2980848551 -0.1101551130 0.5750306845 4292655419
-0.2981333137 -0.1095340177 0.5751242042 4292589883
-0.2981815338 -0.1089126244 0.5752171874 4292524090
-0.2986834049 -0.1084557548 0.5761853456 4292524090
-0.2996391654 -0.1081605777 0.5780290961 4292655676
-0.3001408875 -0.1076983735 0.5789969563 4292853055
-0.3001883626 -0.1070719957 0.5790885091 4292918848
-0.3006897867 -0.1066063568 0.5800558329 4293180995
-0.3011910617 -0.1061385274 0.5810228586 4293312581
-0.3016922474 -0.1056685075 0.5819896460 4293443904
-0.3021932840 -0.1051962972 0.5829561949 4293378111
-0.3026942015 -0.1047218964 0.5839225650 4293246533
-0.3031949997 -0.1042452976 0.5848886371 4293180740
-0.3036956787 -0.1037665159 0.5858544707 4293246527
-0.3046509326 -0.1034399271 0.5876972079 4293378113
-0.3051514030 -0.1029558107 0.5886626840 4293181771
-0.3056517541 -0.1024695039 0.5896278620 4293050185
-0.3061519563 -0.1019810066 0.5905928016 4293248067
-0.3061970472 -0.1013397425 0.5906798244 4293248067
-0.3071519434 -0.1009974480 0.5925219059 4293705799
-0.3071966469 -0.1003537104 0.5926080942 4293837385
-0.3072410524 -0.0997096971 0.5926937461 4290156322
-0.3072851896 -0.0990654007 0.5927789211 4287261440
-0.3077843785 -0.0985666364 0.5937418938 4289633120
-0.3082833886 -0.0980656892 0.5947045088 4290422636
-0.3087822795 -0.0975625515 0.5956668854 4287730568
-0.3097364902 -0.0972001776 0.5975076556 4289243807
-0.3372500539 -0.1850208938 0.6519805789 4288711283
-0.3364375830 -0.1838524938 0.6504098773 4287987560
-0.3360701501 -0.1829298437 0.6496995687 4290153751
-0.3343648016 -0.1812833995 0.6464027166 4289956372
-0.3273073137 -0.1767539680 0.6327589750 4290152213
-0.3166780770 -0.1703337133 0.6122102737 4290020627
-0.3105049431 -0.1663463861 0.6002762318 4289957152
-0.3074523211 -0.1640506238 0.5943748355 4289957152
-0.3057370484 -0.1624786705 0.5910588503 4289825297
-0.3035742939 -0.1606772542 0.5868777037 4289562125
-0.3023033738 -0.1593552381 0.5844207406 4289758995
-0.3014782369 -0.1582727134 0.5828255415 4289758995
-0.2993122637 -0.1564926952 0.5786382556 4289627411
-0.3007197380 -0.1565826386 0.5813592076 4289561618
-0.2985520959 -0.1548126936 0.5771686435 4289693202
-0.2986184061 -0.1542056650 0.5772968531 4289758995
-0.2977902293 -0.1531383544 0.5756958127 4289956372
-0.2974086404 -0.1523032933 0.5749580860 4290022165
-0.2965793014 -0.1512415558 0.5733547807 4289890579
-0.2961967587 -0.1504102647 0.5726152658 4289824786
-0.2958137989 -0.1495804042 0.5718749166 4289890579
-0.2954303920 -0.1487519592 0.5711337328 4289890579
-0.2954942882 -0.1481494308 0.5712572932 4289824786
-0.2951101661 -0.1473229527 0.5705146194 4289890579
-0.2947255969 -0.1464979202 0.5697711706 4290022419
-0.2947885990 -0.1458960474 0.5698930025 4290088212
-0.2948513925 -0.1452937871 0.5700143576 4290154005
-0.2944657505 -0.1444712579 0.5692688227 4290154005
-0.2945279479 -0.1438691467 0.5693891048 4290219798
-0.2941415608 -0.1430485994 0.5686420798 4290417177
-0.2942032218 -0.1424466521 0.5687612891 4290614042
-0.2938160598 -0.1416281015 0.5680128336 4290614042
-0.2938771546 -0.1410263181 0.5681309700 4290745628
-0.2934892476 -0.1402097642 0.5673810840 4290811421
-0.2935498059 -0.1396081597 0.5674980879 4290680089
-0.2931611538 -0.1387936324 0.5667467713 4290745882
-0.2932211161 -0.1381921917 0.5668627024 4290811675
-0.2932808399 -0.1375903934 0.5669781566 4290811675
-0.2928911150 -0.1367784441 0.5662247539 4290811673
-0.2925009727 -0.1359679699 0.5654705167 4290943259
-0.2925598323 -0.1353669167 0.5655842423 4290943259
-0.2926184237 -0.1347655058 0.5656975508 4291009052
-0.2926768064 -0.1341637224 0.5658103824 4291009054
-0.2922852635 -0.1333564222 0.5650534630 4291009054
-0.2923430502 -0.1327548623 0.5651651621 4291074845
-0.2924006283 -0.1321529299 0.5652764440 4291009052
-0.2920080125 -0.1313482672 0.5645174384 4290811671
-0.2920649946 -0.1307465732 0.5646276474 4290548499
-0.2921217382 -0.1301445067 0.5647373796 4290351635
-0.2921782732 -0.1295420974 0.5648466349 4290220049
-0.2917842567 -0.1287406683 0.5640848875 4290351635
-0.2918401957 -0.1281384975 0.5641930699 4290549014
-0.2918959260 -0.1275359839 0.5643007755 4291009052
-0.2919513881 -0.1269331127 0.5644080043 4291074845
-0.2920066118 -0.1263299137 0.5645147562 4291206431
-0.2920615673 -0.1257263571 0.5646210313 4291535396
-0.2925671041 -0.1253155619 0.5655983686 4291601700
-0.2926217020 -0.1247104034 0.5657038689 4291733286
-0.2926760316 -0.1241049096 0.5658088923 4291536420
-0.2927301228 -0.1234990731 0.5659134984 4291799592
-0.2927839756 -0.1228929013 0.5660175681 4291733286
-0.2932887673 -0.1224748194 0.5669934750 4291864872
-0.2933422029 -0.1218670532 0.5670967698 4292128044
-0.2938467860 -0.1214454994 0.5680722594 4291930665
-0.2938998044 -0.1208361313 0.5681747198 4291799592
-0.2939525843 -0.1202264354 0.5682767630 4291865385
-0.2940050960 -0.1196164116 0.5683783293 4291799338
-0.2940573990 -0.1190060601 0.5684793591 4291930924
-0.2941094041 -0.1183953807 0.5685799718 4292062510
-0.2941612005 -0.1177843809 0.5686800480 4291996717
-0.2946646810 -0.1173530519 0.5696533918 4292128303
-0.2947160304 -0.1167404726 0.5697526932 4292259889
-0.2947671413 -0.1161275730 0.5698515177 4292129073
-0.2948179841 -0.1155143529 0.5699498057 4292392245
-0.2953208387 -0.1150770411 0.5709219575 4292326961
-0.2953712940 -0.1144622490 0.5710194111 4292195375
-0.2958738506 -0.1140214875 0.5719910264 4292064559
-0.2959238589 -0.1134051234 0.5720877051 4292196145
-0.2959735990 -0.1127884537 0.5721838474 4292196145
-0.2964757383 -0.1123429835 0.5731545687 4292327731
-0.2965250313 -0.1117247492 0.5732499361 4292524342
-0.2970268726 -0.1112758294 0.5742201209 4292458549
-0.2975286245 -0.1108247191 0.5751900673 4292524342
-0.2975773215 -0.1102036759 0.5752841830 4292524342
-0.2976257503 -0.1095823273 0.5753778219 4292327733
-0.2981269956 -0.1091265157 0.5763468742 4292261940
-0.2986281514 -0.1086685136 0.5773156881 4292327733
-0.2991291583 -0.1082083210 0.5782842636 4292459319
-0.2996300757 -0.1077459306 0.5792526603 4292525112
-0.2996774912 -0.1071192920 0.5793443322 4292525112
-0.3001781106 -0.1066534668 0.5803121328 4293048897
-0.3006785810 -0.1061854437 0.5812796354 4293246276
-0.3011789322 -0.1057152301 0.5822469592 4293377851
-0.3016791940 -0.1052428260 0.5832140446 4293377851
-0.3021793067 -0.1047682241 0.5841808915 4293115717
-0.3026792705 -0.1042914316 0.5851474404 4293049924
-0.3036330044 -0.1039678603 0.5869911909 4292919102
-0.3041327894 -0.1034857333 0.5879574418 4292919102
-0.3046324551 -0.1030014157 0.5889233947 4292591177
-0.3051320016 -0.1025149077 0.5898891091 4292525384
-0.3051772714 -0.1018746048 0.5899766088 4292788284
-0.3056764603 -0.1013846695 0.5909416676 4292656698
-0.3061755002 -0.1008925438 0.5919064283 4293311289
-0.3066744208 -0.1003982276 0.5928709507 4293706047
-0.3067187965 -0.0997539386 0.5929567814 4289827098
-0.3067629039 -0.0991093665 0.5930420160 4286800640
-0.3068067431 -0.0984645262 0.5931267738 4289238363
-0.3073048890 -0.0979643241 0.5940898061 4290356844
-0.3078028858 -0.0974619314 0.5950525403 4287203970
-0.3087554872 -0.0971003622 0.5968940854 4288322451
-0.3353350461 -0.1843661517 0.6496734023 4288382830
-0.3349685669 -0.1834436208 0.6489633918 4288185451
-0.3341566920 -0.1822797060 0.6473904848 4290416936
-0.3324540257 -0.1806352884 0.6440917850 4290022178
-0.3271890581 -0.1770703197 0.6338914633 4289955610
-0.3170235455 -0.1708864570 0.6141969562 4290021403
-0.3104159534 -0.1666565537 0.6013954878 4290088989
-0.3078142107 -0.1645971388 0.5963549018 4290220575
-0.3056565821 -0.1627854407 0.5921747684 4290152726
-0.3043890297 -0.1614551544 0.5897190571 4289823761
-0.3031206429 -0.1601298749 0.5872616768 4289627156
-0.3022972941 -0.1590442061 0.5856665373 4289627156
-0.3010273576 -0.1577280760 0.5832061172 4289496083
-0.2988644242 -0.1559514552 0.5790157318 4289561876
-0.3007157743 -0.1562701911 0.5826025009 4289627668
-0.2981050313 -0.1542717963 0.5775444508 4289693461
-0.2972783148 -0.1532040536 0.5759428144 4289824786
-0.2964509726 -0.1521395594 0.5743399262 4289956372
-0.2960695922 -0.1513065100 0.5736010075 4289890833
-0.2956877649 -0.1504748911 0.5728613138 4289825040
-0.2953055203 -0.1496446878 0.5721207261 4289891094
-0.2949228287 -0.1488159299 0.5713793039 4289956887
-0.2949866652 -0.1482131630 0.5715030432 4289890840
-0.2946032584 -0.1473863572 0.5707601905 4289890840
-0.2946665287 -0.1467837393 0.5708827972 4290022167
-0.2942823470 -0.1459589005 0.5701385140 4290087960
-0.2938977480 -0.1451355070 0.5693933368 4290219284
-0.2939601541 -0.1445335448 0.5695142746 4290219284
-0.2940223217 -0.1439312100 0.5696346760 4290351124
-0.2940842509 -0.1433284879 0.5697546601 4290548503
-0.2936982512 -0.1425081491 0.5690068007 4290614296
-0.2937596142 -0.1419055909 0.5691257119 4290548503
-0.2933728397 -0.1410872489 0.5683764219 4290614296
-0.2934336662 -0.1404848546 0.5684942603 4290614296
-0.2934942245 -0.1398820877 0.5686115623 4290614296
-0.2931064069 -0.1390663087 0.5678601861 4290877468
-0.2931663990 -0.1384637207 0.5679764748 4291074845
-0.2927778065 -0.1376499534 0.5672236085 4291074845
-0.2928372622 -0.1370475590 0.5673387647 4291009050
-0.2924479246 -0.1362358332 0.5665845275 4290877464
-0.2925068140 -0.1356336176 0.5666986108 4290877466
-0.2921167314 -0.1348239332 0.5659428835 4290943259
-0.2921750546 -0.1342219263 0.5660558343 4291074845
-0.2922331393 -0.1336195469 0.5661683679 4290943259
-0.2918419838 -0.1328125000 0.5654105544 4290943259
-0.2918995023 -0.1322103292 0.5655219555 4291074845
-0.2919567823 -0.1316078156 0.5656329393 4290877979
-0.2915645540 -0.1308033913 0.5648730397 4290614807
-0.2916212678 -0.1302011013 0.5649829507 4290483221
-0.2916777432 -0.1295984536 0.5650923252 4290614807
-0.2917339504 -0.1289954633 0.5652012825 4290549014
-0.2913403511 -0.1281942874 0.5644387007 4290877979
-0.2913960218 -0.1275915205 0.5645465255 4291141151
-0.2914514244 -0.1269884109 0.5646538734 4291141151
-0.2919564545 -0.1265800148 0.5656323433 4291206944
-0.2915615439 -0.1257811785 0.5648671985 4291338530
-0.2916162312 -0.1251770407 0.5649731755 4291535907
-0.2921207845 -0.1247648150 0.5659506917 4291601700
-0.2921750844 -0.1241590753 0.5660558939 4291733288
-0.2922291160 -0.1235530004 0.5661605597 4291799081
-0.2927332819 -0.1231360212 0.5671373010 4291930154
-0.2927869260 -0.1225283369 0.5672412515 4291995947
-0.2928403020 -0.1219203249 0.5673446655 4291995947
-0.2928934395 -0.1213119775 0.5674476624 4292061740
-0.2933970392 -0.1208889931 0.5684232712 4291931178
-0.2934497595 -0.1202790439 0.5685254335 4291931178
-0.2935022414 -0.1196687743 0.5686271191 4291865385
-0.2935544848 -0.1190581769 0.5687283278 4291799592
-0.2936064899 -0.1184472516 0.5688290596 4291931178
-0.2941093147 -0.1180170104 0.5698032379 4292062764
-0.2941608727 -0.1174044982 0.5699031353 4292128557
-0.2942121923 -0.1167916656 0.5700025558 4292194350
-0.2942632437 -0.1161785126 0.5701014996 4292194864
-0.2943140566 -0.1155650392 0.5701999068 4292194864
-0.2943646312 -0.1149512529 0.5702978969 4292261168
-0.2948665023 -0.1145125106 0.5712701678 4292261168
-0.2949166298 -0.1138971522 0.5713673234 4292326961
-0.2954182327 -0.1134549603 0.5723391175 4292326961
-0.2954679132 -0.1128380299 0.5724353790 4292326961
-0.2959692478 -0.1123923883 0.5734066367 4292326961
-0.2960185111 -0.1117738932 0.5735020638 4292392754
-0.2960675359 -0.1111550927 0.5735970140 4292458547
-0.2965683639 -0.1107047424 0.5745673776 4292590135
-0.2975212634 -0.1104200110 0.5764135122 4292392756
-0.2975697219 -0.1097974554 0.5765073895 4292326963
-0.2985225618 -0.1095064357 0.5783534050 4292326963
-0.2985706329 -0.1088813841 0.5784465671 4292458549
-0.2990709245 -0.1084200516 0.5794157982 4292590135
-0.2995710969 -0.1079565287 0.5803848505 4292524342
-0.3000711501 -0.1074908078 0.5813536048 4292392756
-0.3005710840 -0.1070228890 0.5823221803 4292852030
-0.3006181717 -0.1063925475 0.5824133754 4293115202
-0.3011177778 -0.1059211865 0.5833813548 4292984644
-0.3016172647 -0.1054476425 0.5843490362 4292984644
-0.3016636968 -0.1048145145 0.5844389796 4293115968
-0.3026158810 -0.1044939533 0.5862837434 4293050175
-0.3031150103 -0.1040138230 0.5872507095 4292918587
-0.3040671349 -0.1036860198 0.5890954137 4292852794
-0.3041128516 -0.1030469835 0.5891839266 4292525882
-0.3046115637 -0.1025602669 0.5901501179 4292525882
-0.3046567738 -0.1019197032 0.5902377367 4292721972
-0.3051551580 -0.1014295593 0.5912033319 4292787765
-0.3056534231 -0.1009372249 0.5921686292 4292786487
-0.3061515093 -0.1004427075 0.5931336284 4293115452
-0.3061958551 -0.0997981429 0.5932195187 4289761818
-0.3066936135 -0.0993001983 0.5941838622 4286472192
-0.3067374825 -0.0986541212 0.5942688584 4287791186
-0.3072348833 -0.0981527567 0.5952325463 4289501804
-0.3077321351 -0.0976491943 0.5961959362 4287006835
-0.3086831868 -0.0972865224 0.5980384946 4289375383
-0.3338678777 -0.1839553416 0.6482257843 4288975484
-0.3330578208 -0.1827905327 0.6466529965 4288580726
-0.3326912820 -0.1818716824 0.6459413171 4290549549
-0.3309914172 -0.1802284122 0.6426409483 4290154791
-0.3257354200 -0.1766637564 0.6324360371 4290087717
-0.3178097308 -0.1716796607 0.6170478463 4290153510
-0.3107693195 -0.1672060639 0.6033784747 4290286125
-0.3081723452 -0.1651439965 0.5983362794 4290483504
-0.3060187101 -0.1633297503 0.5941548347 4290415644
-0.3043087125 -0.1617606133 0.5908347368 4289889300
-0.3030426800 -0.1604339033 0.5883766413 4289561618
-0.3022209108 -0.1593468934 0.5867811441 4289627411
-0.3009532988 -0.1580293179 0.5843200088 4289561876
-0.2987942398 -0.1562510580 0.5801280737 4289561876
-0.3001971543 -0.1563370973 0.5828519464 4289561876
-0.2967000008 -0.1538757980 0.5760619640 4289561876
-0.2963201702 -0.1530395746 0.5753244758 4289693202
-0.2959398925 -0.1522047818 0.5745861530 4289890581
-0.2951134145 -0.1511430889 0.5729815364 4289824788
-0.2947322130 -0.1503120512 0.5722413659 4289824788
-0.2944146097 -0.1488798410 0.5716247559 4289825301
-0.2944784164 -0.1482768506 0.5717486143 4289956887
-0.2940956950 -0.1474497169 0.5710055232 4290022680
-0.2941589355 -0.1468468606 0.5711283088 4290088212
-0.2937754691 -0.1460216939 0.5703837872 4290154005
-0.2933915555 -0.1451979727 0.5696384311 4290219285
-0.2934539020 -0.1445957720 0.5697594881 4290285078
-0.2935160398 -0.1439931989 0.5698800683 4290350871
-0.2935779095 -0.1433902532 0.5700002313 4290416664
-0.2931926250 -0.1425695866 0.5692521334 4290482456
-0.2932539284 -0.1419667900 0.5693712234 4290482456
-0.2933150232 -0.1413636208 0.5694897771 4290548250
-0.2929286361 -0.1405455023 0.5687396526 4290548250
-0.2929891646 -0.1399424970 0.5688571334 4290548249
-0.2926020622 -0.1391263902 0.5681055188 4290679835
-0.2926619947 -0.1385235637 0.5682219267 4290877468
-0.2922741473 -0.1377094686 0.5674688816 4291009054
-0.2923335433 -0.1371068358 0.5675842166 4290943261
-0.2919449210 -0.1362947822 0.5668296814 4290877468
-0.2920037508 -0.1356923282 0.5669438839 4290877468
-0.2916144133 -0.1348823309 0.5661879778 4290943261
-0.2916726768 -0.1342800707 0.5663011074 4290943261
-0.2917307019 -0.1336774677 0.5664137602 4290943261
-0.2913402617 -0.1328700781 0.5656557083 4290943261
-0.2913977504 -0.1322676837 0.5657672882 4291074847
-0.2914549708 -0.1316649169 0.5658783913 4291140640
-0.2910634577 -0.1308601797 0.5651182532 4290943261
-0.2911201417 -0.1302576512 0.5652282834 4290745880
-0.2911765575 -0.1296547502 0.5653378367 4290877466
-0.2912327349 -0.1290515214 0.5654469132 4290877979
-0.2912886739 -0.1284479350 0.5655555129 4291009565
-0.2913443744 -0.1278440058 0.5656636357 4291075358
-0.2913998365 -0.1272397339 0.5657713413 4291075358
-0.2914550304 -0.1266351044 0.5658785105 4291206944
-0.2915100157 -0.1260301471 0.5659852624 4291404323
-0.2911154926 -0.1252315789 0.5652192831 4291535909
-0.2916192114 -0.1248191893 0.5661973357 4291535909
-0.2916734815 -0.1242132038 0.5663026571 4291601702
-0.2921769619 -0.1237973347 0.5672802329 4291733288
-0.2922308147 -0.1231897399 0.5673847198 4291864361
-0.2922843993 -0.1225818098 0.5674887896 4291864361
-0.2923377454 -0.1219735518 0.5675923824 4291864874
-0.2923908532 -0.1213649511 0.5676954389 4291930667
-0.2928936183 -0.1209418103 0.5686716437 4291865385
-0.2929463089 -0.1203316152 0.5687739253 4291865385
-0.2929987311 -0.1197210923 0.5688757300 4291799592
-0.2930509448 -0.1191102415 0.5689770579 4291733799
-0.2931028903 -0.1184990704 0.5690779090 4291865385
-0.2931545675 -0.1178875715 0.5691782832 4291996971
-0.2936564088 -0.1174558997 0.5701526403 4292062764
-0.2937076688 -0.1168428138 0.5702521801 4292128557
-0.2937586904 -0.1162294149 0.5703512430 4292129071
-0.2938094735 -0.1156156883 0.5704498291 4292129071
-0.2938599885 -0.1150016487 0.5705479383 4292129582
-0.2943610549 -0.1145627350 0.5715207458 4292195375
-0.2944111526 -0.1139471233 0.5716180205 4292195375
-0.2949119210 -0.1135047525 0.5725902915 4292261168
-0.2949615717 -0.1128875688 0.5726867318 4292326961
-0.2954620719 -0.1124417409 0.5736584663 4292392754
-0.2955113053 -0.1118230000 0.5737540126 4292392754
-0.2960115075 -0.1113737151 0.5747252107 4292392754
-0.2960602939 -0.1107534096 0.5748199821 4292458549
-0.2970116138 -0.1104685664 0.5766669512 4292392756
-0.2970600426 -0.1098457575 0.5767610073 4292326963
-0.2975597382 -0.1093886271 0.5777311921 4292326963
-0.2980593145 -0.1089293063 0.5787011981 4292392756
-0.2985588014 -0.1084677950 0.5796709061 4292524342
-0.2986063957 -0.1078409255 0.5797633529 4292524342
-0.2991055548 -0.1073759645 0.5807325244 4292458549
-0.2996046245 -0.1069088057 0.5817014575 4292721210
-0.3001035452 -0.1064394563 0.5826701522 4292984382
-0.3006023467 -0.1059679016 0.5836386085 4292984643
-0.3015531301 -0.1056525558 0.5854846239 4292984643
-0.3020517528 -0.1051756665 0.5864527225 4293115968
-0.3030025065 -0.1048530713 0.5882986784 4292984382
-0.3035009503 -0.1043708399 0.5892664194 4292721208
-0.3039992452 -0.1038864106 0.5902339220 4292721208
-0.3040449619 -0.1032461450 0.5903226733 4292394298
-0.3045429587 -0.1027582809 0.5912895203 4292591677
-0.3045881987 -0.1021164879 0.5913774371 4292721719
-0.3046332002 -0.1014744118 0.5914647579 4292984891
-0.3055833280 -0.1011317000 0.5933095217 4292917819
-0.3056279123 -0.1004871503 0.5933960676 4293246784
-0.3056722283 -0.0998423174 0.5934820771 4289498392
-0.3061691523 -0.0993441567 0.5944469571 4285814016
-0.3066659570 -0.0988438129 0.5954115391 4285357621
-0.3071626127 -0.0983412787 0.5963758230 4287397204
-0.3076591492 -0.0978365541 0.5973398089 4288059269
-0.3086086810 -0.0974727720 0.5991833806 4291348919
-0.3319598436 -0.1832993180 0.6459140778 4290029975
-0.3315942585 -0.1823805869 0.6452027559 4288582529
-0.3307847977 -0.1812202632 0.6436277032 4290485818
-0.3295311630 -0.1798210442 0.6411884427 4290025267
-0.3247277141 -0.1764978468 0.6318420768 4290351922
-0.3181468844 -0.1722332090 0.6190373898 4290351922
-0.3111189306 -0.1677559167 0.6053626537 4290154038
-0.3085267246 -0.1656911969 0.6003188491 4289956659
-0.3063770533 -0.1638743877 0.5961361527 4290152991
-0.3046703041 -0.1623028219 0.5928151608 4290152991
-0.3034067154 -0.1609737575 0.5903565288 4289627409
-0.3021422923 -0.1596497148 0.5878962278 4289627409
-0.3008770347 -0.1583307087 0.5854343772 4289561876
-0.3000554740 -0.1572496891 0.5838357806 4289627669
-0.2987886369 -0.1559398472 0.5813708901 4289627669
-0.2975209951 -0.1546350569 0.5789043307 4289496083
-0.2966973484 -0.1535655409 0.5773017406 4289561363
-0.2958730757 -0.1524992734 0.5756978989 4289758742
-0.2954932153 -0.1516646594 0.5749588013 4289824790
-0.2951129079 -0.1508314759 0.5742188096 4289824790
-0.2947321832 -0.1499997079 0.5734779835 4289693461
-0.2939057350 -0.1489437073 0.5718699098 4289759254
-0.2944148779 -0.1485652328 0.5728605986 4289956885
-0.2935874760 -0.1475130171 0.5712506771 4290088471
-0.2936506569 -0.1469099224 0.5713735819 4290219797
-0.2932679057 -0.1460844278 0.5706288218 4290285590
-0.2928847373 -0.1452603787 0.5698832870 4290285080
-0.2929470241 -0.1446579546 0.5700044632 4290285080
-0.2925631106 -0.1438358873 0.5692574978 4290285080
-0.2926248312 -0.1432336271 0.5693776011 4290285080
-0.2926863432 -0.1426309794 0.5694972277 4290350871
-0.2927475870 -0.1420279443 0.5696164370 4290416664
-0.2928086221 -0.1414245367 0.5697352290 4290482457
-0.2924229801 -0.1406060904 0.5689848065 4290548250
-0.2924834490 -0.1400028467 0.5691024661 4290482456
-0.2920970619 -0.1391864121 0.5683506727 4290548249
-0.2921569645 -0.1385833472 0.5684671998 4290745628
-0.2917698026 -0.1377689391 0.5677139163 4290877214
-0.2913822532 -0.1369560063 0.5669597983 4290877468
-0.2914412618 -0.1363536865 0.5670746565 4290877468
-0.2915000319 -0.1357509941 0.5671890378 4290877468
-0.2915585935 -0.1351479441 0.5673029423 4290877468
-0.2911696434 -0.1343381852 0.5665461421 4290943261
-0.2912276089 -0.1337353289 0.5666589141 4290943261
-0.2908379138 -0.1329276115 0.5659006834 4290943261
-0.2908953130 -0.1323249787 0.5660123825 4291009054
-0.2909525037 -0.1317219883 0.5661236048 4291140640
-0.2910094261 -0.1311186403 0.5662344098 4291074847
-0.2906183302 -0.1303141415 0.5654734373 4290943261
-0.2906747162 -0.1297110170 0.5655831099 4291074847
-0.2907308340 -0.1291075349 0.5656923652 4291140640
-0.2907867432 -0.1285037100 0.5658010840 4291206433
-0.2908423841 -0.1278995425 0.5659093857 4291206433
-0.2908977866 -0.1272950172 0.5660172105 4291140640
-0.2909529507 -0.1266901493 0.5661244988 4291338019
-0.2910078764 -0.1260849535 0.5662313700 4291601191
-0.2910625637 -0.1254794002 0.5663378239 4291601191
-0.2911170125 -0.1248735115 0.5664437413 4291469605
-0.2911711931 -0.1242672801 0.5665491819 4291601702
-0.2916738987 -0.1238512546 0.5675272942 4291601702
-0.2917276919 -0.1232434139 0.5676319599 4291733288
-0.2917812169 -0.1226352379 0.5677361488 4291799081
-0.2918345332 -0.1220267341 0.5678398609 4291799081
-0.2923366427 -0.1216046885 0.5688168406 4291864874
-0.2923895419 -0.1209945753 0.5689197183 4291799592
-0.2924421728 -0.1203841344 0.5690221786 4291799592
-0.2924945652 -0.1197733656 0.5691241026 4291733799
-0.2925467193 -0.1191622689 0.5692256093 4291733799
-0.2930480838 -0.1187329516 0.5702010989 4291799592
-0.2930997908 -0.1181202680 0.5703017712 4291931178
-0.2931512892 -0.1175072566 0.5704019070 4291996971
-0.2932025194 -0.1168939248 0.5705016255 4292062764
-0.2937032580 -0.1164586172 0.5714759827 4291997485
-0.2937540710 -0.1158436984 0.5715748072 4292063278
-0.2938046455 -0.1152284667 0.5716732144 4292195118
-0.2938549221 -0.1146129146 0.5717710853 4292195118
-0.2943550646 -0.1141716242 0.5727441907 4292195118
-0.2944049537 -0.1135545000 0.5728412271 4292260911
-0.2949047983 -0.1131097525 0.5738138556 4292392497
-0.2949542403 -0.1124910638 0.5739100575 4292458290
-0.2950034440 -0.1118720621 0.5740057826 4292458290
-0.2955028117 -0.1114225984 0.5749774575 4292458290
-0.2960021198 -0.1109709442 0.5759489536 4292392756
-0.2965012789 -0.1105170846 0.5769202113 4292326963
-0.2965496778 -0.1098940149 0.5770143867 4292326963
-0.2974992990 -0.1096027717 0.5788621306 4292326963
-0.2979981601 -0.1091423109 0.5798327923 4292392756
-0.2980459929 -0.1085154936 0.5799258351 4292458549
-0.2985445261 -0.1080515906 0.5808959007 4292524342
-0.2985919118 -0.1074232161 0.5809880495 4292524342
-0.2990901172 -0.1069558635 0.5819575191 4292721461
-0.2995882332 -0.1064863205 0.5829266906 4292984633
-0.3000862300 -0.1060145795 0.5838956833 4292919102
-0.3010354340 -0.1056991071 0.5857425928 4292919102
-0.3015332222 -0.1052220166 0.5867112279 4293312577
-0.3020309210 -0.1047427356 0.5876795650 4293049405
-0.3025284708 -0.1042612568 0.5886477232 4292589876
-0.3034774959 -0.1039322391 0.5904942751 4292524083
-0.3035231829 -0.1032917053 0.5905832052 4292327992
-0.3040203452 -0.1028036401 0.5915505290 4292525371
-0.3045173883 -0.1023133770 0.5925176144 4292590135
-0.3050142825 -0.1018209234 0.5934844613 4292919100
-0.3055110276 -0.1013262719 0.5944510102 4292983612
-0.3055556118 -0.1006804928 0.5945377946 4293444163
-0.3060520291 -0.1001824066 0.5955036879 4289630238
-0.3065482974 -0.0996821374 0.5964692831 4286340608
-0.3070444167 -0.0991796702 0.5974346399 4286805590
-0.3075403869 -0.0986750051 0.5983996391 4288910966
-0.3080362082 -0.0981681570 0.5993643999 4291151801
-0.3301330507 -0.1819701493 0.6437507272 4288912785
-0.3293248415 -0.1808111668 0.6421747804 4290289226
-0.3280732334 -0.1794132143 0.6397342086 4289960261
-0.3246065378 -0.1768140942 0.6329742074 4290681404
-0.3193661571 -0.1732677221 0.6227555871 4290549818
-0.3132369816 -0.1692637652 0.6108039021 4290154806
-0.3093204796 -0.1664772481 0.6031667590 4290023220
-0.3071749210 -0.1646569818 0.5989829898 4290219305
-0.3050281107 -0.1628453583 0.5947967768 4289890340
-0.3037669957 -0.1615139544 0.5923376083 4289890583
-0.3025050163 -0.1601875573 0.5898768306 4289693204
-0.3012422025 -0.1588661969 0.5874143839 4289561618
-0.2995348275 -0.1573168188 0.5840850472 4289693204
-0.2987141013 -0.1562385857 0.5824846625 4289758742
-0.2974488139 -0.1549323648 0.5800173879 4289692949
-0.2961827219 -0.1536311805 0.5775485039 4289627411
-0.2958040833 -0.1527938992 0.5768101811 4289693204
-0.2954250276 -0.1519580483 0.5760710239 4289824788
-0.2950455248 -0.1511236131 0.5753310323 4289890581
-0.2942211628 -0.1500639319 0.5737235546 4289890581
-0.2933962047 -0.1490074992 0.5721148849 4289824788
-0.2939045131 -0.1486289054 0.5731061101 4289956626
-0.2935233414 -0.1478001922 0.5723627806 4290088212
-0.2931417227 -0.1469729394 0.5716186762 4290219797
-0.2927596867 -0.1461471170 0.5708736777 4290285590
-0.2923772335 -0.1453227401 0.5701279044 4290285078
-0.2924394608 -0.1447200775 0.5702492595 4290350871
-0.2925014794 -0.1441170424 0.5703701973 4290285078
-0.2921179533 -0.1432951838 0.5696223378 4290285078
-0.2921794057 -0.1426923126 0.5697421432 4290350870
-0.2922406197 -0.1420890391 0.5698615313 4290416663
-0.2923015952 -0.1414854079 0.5699803829 4290548249
-0.2919166684 -0.1406666189 0.5692297816 4290482456
-0.2919770777 -0.1400631517 0.5693476200 4290482710
-0.2920372486 -0.1394593120 0.5694649816 4290482710
-0.2916512489 -0.1386430860 0.5687122941 4290614294
-0.2912648320 -0.1378283501 0.5679587722 4290811673
-0.2908779979 -0.1370150894 0.5672044158 4290811673
-0.2909369469 -0.1364125311 0.5673193932 4290811673
-0.2909956872 -0.1358096153 0.5674339533 4290877466
-0.2910541594 -0.1352063268 0.5675479770 4290877466
-0.2906659245 -0.1343962252 0.5667909384 4290943261
-0.2907238603 -0.1337931454 0.5669038892 4290943261
-0.2903348804 -0.1329851002 0.5661454201 4290943261
-0.2903922498 -0.1323822290 0.5662572384 4291009054
-0.2904493809 -0.1317790002 0.5663686395 4291074847
-0.2905062735 -0.1311754137 0.5664795637 4291009054
-0.2905629277 -0.1305714697 0.5665900707 4291009054
-0.2901722193 -0.1297672242 0.5658282042 4291140640
-0.2902283072 -0.1291635036 0.5659375787 4291206431
-0.2902841568 -0.1285594404 0.5660464764 4291272224
-0.2903397381 -0.1279550195 0.5661548972 4291141151
-0.2903951108 -0.1273502558 0.5662628412 4291009565
-0.2904502153 -0.1267451644 0.5663703084 4291206944
-0.2905051112 -0.1261397153 0.5664772987 4291535909
-0.2905597389 -0.1255339235 0.5665838718 4291601702
-0.2906141281 -0.1249277815 0.5666899085 4291470116
-0.2911161482 -0.1245128661 0.5676688552 4291535909
-0.2911701500 -0.1239051223 0.5677741170 4291601702
-0.2912238836 -0.1232970431 0.5678789616 4291667495
-0.2912773788 -0.1226886213 0.5679832697 4291733288
-0.2913306355 -0.1220798641 0.5680871010 4291799081
-0.2918319404 -0.1216576546 0.5690646172 4291799081
-0.2918847799 -0.1210473031 0.5691676736 4291733799
-0.2919373810 -0.1204366162 0.5692701936 4291733799
-0.2919897437 -0.1198256016 0.5693722963 4291733799
-0.2920418382 -0.1192142516 0.5694739223 4291733799
-0.2925423682 -0.1187847704 0.5704499483 4291799592
-0.2925940752 -0.1181718335 0.5705507398 4291931178
-0.2926454842 -0.1175585687 0.5706510544 4291996971
-0.2926966846 -0.1169449911 0.5707508326 4292062764
-0.2931966186 -0.1165095046 0.5717257261 4291997739
-0.2932473719 -0.1158943400 0.5718246698 4291997739
-0.2932978868 -0.1152788550 0.5719231963 4292129071
-0.2933481634 -0.1146630570 0.5720211864 4292129071
-0.2938474715 -0.1142215878 0.5729948282 4292194864
