VERSION 0.7
FIELDS x y z rgba
SIZE 4 4 4 4
TYPE F F F U
COUNT 1 1 1 1
WIDTH 920
HEIGHT 1
VIEWPOINT 0.0 0.0 0.0 1.0 0.0 0.0 0.0
POINTS 920
DATA ascii
-0.3006853163 -0.1361103654 0.5483268499 4293117007
-0.3007460833 -0.1355285048 0.5484375954 4293182800
-0.3003365993 -0.1347354501 0.5476908684 4293051215
-0.3003967702 -0.1341538131 0.5478006005 4293380180
-0.3004567325 -0.1335718185 0.5479099751 4293511512
-0.3005164564 -0.1329894811 0.5480188727 4293379926
-0.3005759120 -0.1324067861 0.5481272936 4293445721
-0.3001646996 -0.1316174567 0.5473774076 4293774686
-0.3006941676 -0.1312403828 0.5483429432 4293972065
-0.3007529378 -0.1306566596 0.5484501123 4294235237
-0.3008114398 -0.1300725937 0.5485568047 4294367338
-0.3008697331 -0.1294881999 0.5486631393 4293972580
-0.3009277880 -0.1289034486 0.5487689376 4293446236
-0.3009855747 -0.1283183843 0.5488743782 4293051478
-0.3010431528 -0.1277329624 0.5489793420 4293577822
-0.3015716672 -0.1273461878 0.5499431491 4294301545
-0.3016288280 -0.1267591864 0.5500473976 4294630255
-0.3016857803 -0.1261718571 0.5501512289 4294696048
-0.3017424643 -0.1255841851 0.5502545834 4294432878
-0.3022704422 -0.1251914948 0.5512174368 4294564464
-0.3023267388 -0.1246022508 0.5513200760 4294761843
-0.3023827672 -0.1240126789 0.5514222383 4294301292
-0.3024385571 -0.1234227791 0.5515239835 4294038120
-0.3024941087 -0.1228325516 0.5516253114 4294301292
-0.3025494218 -0.1222420037 0.5517261624 4294169452
-0.3026044667 -0.1216511279 0.5518265367 4293972073
-0.3026592731 -0.1210599318 0.5519264936 4294037094
-0.3027138412 -0.1204684153 0.5520259738 4293971301
-0.3027681410 -0.1198765785 0.5521250367 4293905259
-0.3028222024 -0.1192844212 0.5522236228 4294300017
-0.3033485413 -0.1188771203 0.5531834364 4294564212
-0.3034021854 -0.1182834059 0.5532812476 4294498419
-0.3034555912 -0.1176893860 0.5533786416 4293513844
-0.3035087287 -0.1170950457 0.5534755588 4292658535
-0.3035616279 -0.1165004000 0.5535719991 4291346057
-0.3036142886 -0.1159054339 0.5536680222 4290490748
-0.3002167344 -0.1495833844 0.5485833883 4290620508
-0.2993488014 -0.1485431939 0.5469974279 4290686301
-0.2994144559 -0.1479678899 0.5471174121 4291474241
-0.2999471128 -0.1476221532 0.5480906963 4291671620
-0.2995451093 -0.1468161494 0.5473561287 4292261948
-0.2996100783 -0.1462397128 0.5474748611 4292459327
-0.2996748388 -0.1456629038 0.5475931764 4292328774
-0.2997393608 -0.1450857222 0.5477110744 4292262981
-0.2998036444 -0.1445081681 0.5478286147 4292066629
-0.2998677194 -0.1439302415 0.5479456782 4292198215
-0.3003994823 -0.1435755789 0.5489172935 4292460358
-0.2999951541 -0.1427732706 0.5481785536 4292526151
-0.3000585437 -0.1421942413 0.5482943058 4292853576
-0.3001216948 -0.1416148394 0.5484097004 4292853576
-0.3006528914 -0.1412550956 0.5493804216 4292984893
-0.3002472818 -0.1404549479 0.5486392379 4293050686
-0.3003097177 -0.1398744583 0.5487533212 4292590915
-0.3008405268 -0.1395109147 0.5497232676 4292525122
-0.3004339337 -0.1387123913 0.5489802361 4292722503
-0.3000268638 -0.1379153281 0.5482364893 4292722503
-0.3000882864 -0.1373343021 0.5483487248 4292590917
-0.3001494706 -0.1367529333 0.5484604836 4292854089
-0.3002104163 -0.1361711919 0.5485718846 4293248593
-0.3002711535 -0.1355891079 0.5486828089 4293248593
-0.2998623550 -0.1347957253 0.5479358435 4292919629
-0.2994531393 -0.1340038031 0.5471881032 4293380180
-0.2995129526 -0.1334224790 0.5472974181 4293577305
-0.3000420928 -0.1330490261 0.5482642651 4293379926
-0.3001015186 -0.1324661076 0.5483728647 4293445721
-0.2996909916 -0.1316764504 0.5476226807 4293643100
-0.2997498512 -0.1310937405 0.5477302670 4293840479
-0.3002783954 -0.1307152659 0.5486961007 4294235237
-0.2998668849 -0.1299273074 0.5479441285 4294301032
-0.2999250293 -0.1293435842 0.5480504036 4293906274
-0.2999829352 -0.1287595183 0.5481562018 4293511516
-0.3005109131 -0.1283760220 0.5491209030 4293182551
-0.3005684316 -0.1277903616 0.5492260456 4293577309
-0.3006257117 -0.1272043735 0.5493307114 4294366825
-0.3011533022 -0.1268161982 0.5502947569 4294761328
-0.3007395566 -0.1260313839 0.5495387316 4294761328
-0.3012668192 -0.1256407052 0.5505022407 4294629742
-0.3013232350 -0.1250524670 0.5506052971 4294629742
-0.3013793826 -0.1244639009 0.5507079363 4294629744
-0.3009642959 -0.1236814484 0.5499494672 4294169193
-0.3019620478 -0.1234784126 0.5517725945 4294169193
-0.3020175695 -0.1228879392 0.5518740416 4294300779
-0.3016015589 -0.1221063510 0.5511139035 4293840230
-0.3021278381 -0.1217060164 0.5520755649 4293577058
-0.3021826148 -0.1211145744 0.5521756411 4293708390
-0.3022371233 -0.1205228120 0.5522752404 4294103148
-0.3018198311 -0.1197436303 0.5515127182 4293907050
-0.3023454249 -0.1193383262 0.5524731874 4293907050
-0.3023992181 -0.1187456027 0.5525714159 4294103402
-0.3029246032 -0.1183368936 0.5535314679 4294234988
-0.3029779494 -0.1177426204 0.5536289811 4294497645
-0.3030310869 -0.1171480343 0.5537260175 4294431852
-0.3030839264 -0.1165531352 0.5538226366 4293447802
-0.3031365573 -0.1159579232 0.5539187789 4292329321
-0.3015379012 -0.1511606425 0.5521180630 4290424689
-0.3016045690 -0.1505804956 0.5522401929 4291539781
-0.2994054258 -0.1482643336 0.5482135415 4292261698
-0.2990044653 -0.1474574804 0.5474793315 4292393284
-0.2995361984 -0.1471103430 0.5484529138 4292720710
-0.2991345525 -0.1463045329 0.5477175117 4292852296
-0.2991992533 -0.1457274854 0.5478360057 4292918346
-0.2992637455 -0.1451500803 0.5479540825 4292918346
-0.2993279994 -0.1445723027 0.5480717421 4292590913
-0.2993920147 -0.1439941376 0.5481889248 4292788292
-0.2994557917 -0.1434156150 0.5483057499 4292854346
-0.2995193601 -0.1428367198 0.5484220982 4292854346
-0.2991153300 -0.1420355290 0.5476823449 4292853584
-0.2996457815 -0.1416778266 0.5486536026 4292787791
-0.2992410958 -0.1408777088 0.5479125977 4292919369
-0.2997713089 -0.1405174732 0.5488834381 4292985162
-0.2998336852 -0.1399367452 0.5489977002 4292590404
-0.2994280159 -0.1391382515 0.5482548475 4292524611
-0.2994898558 -0.1385577172 0.5483680964 4292721990
-0.2995514572 -0.1379768252 0.5484809279 4292787783
-0.2991446853 -0.1371808797 0.5477361083 4292590150
-0.2992057502 -0.1366001815 0.5478478670 4292787529
-0.2992665470 -0.1360191256 0.5479592681 4293248081
-0.2993271351 -0.1354377121 0.5480701327 4293248081
-0.2989189625 -0.1346448958 0.5473227501 4292985168
-0.2989789546 -0.1340636909 0.5474326611 4293511512
-0.2990387380 -0.1334821433 0.5475420952 4293511514
-0.2990982831 -0.1329002380 0.5476511121 4293445721
-0.2991575897 -0.1323179901 0.5477597117 4293708893
-0.2992166579 -0.1317353994 0.5478678346 4293708893
-0.2992754877 -0.1311524510 0.5479755402 4293774686
-0.2993340492 -0.1305691749 0.5480828285 4294169444
-0.2993924022 -0.1299855411 0.5481896996 4293971812
-0.2994505167 -0.1294015795 0.5482960939 4293971812
-0.2995083928 -0.1288172752 0.5484020710 4293906019
-0.2995660305 -0.1282326281 0.5485075712 4293642847
-0.2996234298 -0.1276476532 0.5486126542 4293642847
-0.2996805906 -0.1270623356 0.5487173200 4294234984
-0.3002073169 -0.1266749203 0.5496817827 4294629742
-0.3002640605 -0.1260880232 0.5497856736 4294761328
-0.3003205955 -0.1255007982 0.5498891473 4294695537
-0.3008469343 -0.1251087040 0.5508528948 4294629744
-0.2999627292 -0.1241307706 0.5492339134 4294629744
-0.3009589314 -0.1239307523 0.5510579944 4294498158
-0.3010145426 -0.1233412847 0.5511598587 4294498160
-0.3005995154 -0.1225596890 0.5503998995 4294234988
-0.3011250794 -0.1221613660 0.5513622165 4293511265
-0.3011799753 -0.1215709224 0.5514627099 4293248093
-0.3012346327 -0.1209801510 0.5515627861 4294235499
-0.3008182645 -0.1202009544 0.5508004427 4294432878
-0.3013431728 -0.1197976544 0.5517615676 4294302573
-0.3018680215 -0.1193921939 0.5527225137 4294170987
-0.3019217551 -0.1187992245 0.5528209209 4294235249
-0.3015041649 -0.1180215329 0.5520563126 4294037870
-0.3024996817 -0.1177958250 0.5538791418 4294562161
-0.3025527596 -0.1172009856 0.5539762974 4294759540
-0.3021342456 -0.1164242104 0.5532100201 4294563953
-0.3026581705 -0.1160103753 0.5541692972 4293906023
-0.3031820059 -0.1155943796 0.5551284552 4291673206
-0.3032341599 -0.1149973720 0.5552239418 4290686311
-0.2991963029 -0.1502924412 0.5489469767 4291670349
-0.2985283732 -0.1475227028 0.5477215052 4292591168
-0.2985934913 -0.1469461918 0.5478409529 4292918337
-0.2986583710 -0.1463693082 0.5479600430 4293049923
-0.2987230420 -0.1457920372 0.5480786562 4293246537
-0.2987874746 -0.1452143937 0.5481969118 4293246537
-0.2988516688 -0.1446363926 0.5483146906 4292984131
-0.2985129654 -0.1432554126 0.5476932526 4292985158
-0.2985763848 -0.1426771879 0.5478096008 4292985158
-0.2986395955 -0.1420985907 0.5479255319 4292854087
-0.2987025380 -0.1415196359 0.5480410457 4292788294
-0.2987652719 -0.1409403235 0.5481561422 4292853576
-0.2988277674 -0.1403606385 0.5482708216 4292919369
-0.2989520431 -0.1392001659 0.5484988689 4292458816
-0.2990138531 -0.1386193931 0.5486122370 4292656197
-0.2990754247 -0.1380382627 0.5487251878 4292656197
-0.2986693680 -0.1372420043 0.5479801297 4292458564
-0.2982628644 -0.1364471912 0.5472343564 4292524357
-0.2983235419 -0.1358668059 0.5473456383 4292919115
-0.2983839810 -0.1352860779 0.5474565625 4293050701
-0.2985041440 -0.1341235489 0.5476770401 4293774425
-0.2980959117 -0.1333324462 0.5469280481 4293445721
-0.2981553078 -0.1327512115 0.5470370650 4293511514
-0.2982144952 -0.1321696490 0.5471456051 4293906272
-0.2982734144 -0.1315877289 0.5472537279 4293774686
-0.2983321249 -0.1310054660 0.5473614335 4293840479
-0.2983905673 -0.1304228604 0.5474686623 4294103651
-0.2984488010 -0.1298399121 0.5475754738 4293840226
-0.2985067666 -0.1292566210 0.5476818681 4294037605
-0.2985645235 -0.1286729872 0.5477877855 4294037605
-0.2986220121 -0.1280890256 0.5478933454 4293774433
-0.2986792922 -0.1275047213 0.5479983687 4293774435
-0.2992052734 -0.1271193326 0.5489634275 4294103400
-0.2992621660 -0.1265334338 0.5490677953 4294432365
-0.2993187904 -0.1259472072 0.5491716862 4294695537
-0.2993751764 -0.1253606528 0.5492751598 4294432365
-0.2994313240 -0.1247737706 0.5493781567 4294629744
-0.2999566495 -0.1243811995 0.5503420234 4294629746
-0.2995429039 -0.1235990077 0.5495828986 4294432367
-0.3000679016 -0.1232039407 0.5505461097 4294366574
-0.3001231551 -0.1226148233 0.5506474972 4294234988
-0.3001781702 -0.1220253780 0.5507484674 4293577058
-0.3002874851 -0.1208455265 0.5509489775 4293117018
-0.3003417552 -0.1202551126 0.5510485768 4294038120
-0.3008658886 -0.1198516488 0.5520102382 4294629746
-0.3013899624 -0.1194460243 0.5529717207 4294300781
-0.3009733856 -0.1186673865 0.5522074699 4294234988
-0.3014971018 -0.1182592735 0.5531683564 4294432367
-0.3016032875 -0.1170712635 0.5533631444 4294366574
-0.3021265864 -0.1166585013 0.5543233156 4294826610
-0.3021791279 -0.1160627902 0.5544196963 4294629231
-0.3027021885 -0.1156466231 0.5553793907 4293709933
-0.3027543128 -0.1150493622 0.5554749966 4292920417
-0.3028061986 -0.1144517958 0.5555701852 4291016319
-0.3028577864 -0.1138539240 0.5556648374 4290358389
-0.3782006204 -0.1942285895 0.6953161359 4289506175
-0.3713236153 -0.1899383366 0.6826728582 4289308796
-0.3005097508 -0.1518743038 0.5524826646 4291668524
-0.3019702733 -0.1519955993 0.5551677942 4292063282
-0.3001784682 -0.1504805386 0.5518736243 4292130364
-0.2988504171 -0.1492043138 0.5494319797 4292327743
-0.2984512746 -0.1483953893 0.5486981273 4292262979
-0.2985166609 -0.1478181332 0.5488183498 4292394565
-0.2981167436 -0.1470111459 0.5480831265 4292722762
-0.2981815934 -0.1464340240 0.5482023358 4292788555
-0.2982462049 -0.1458565444 0.5483211279 4293050185
-0.2983105779 -0.1452786773 0.5484395027 4293050185
-0.2983747423 -0.1447004229 0.5485574603 4293050437
-0.2984386683 -0.1441218108 0.5486750007 4293116230
-0.2985023856 -0.1435428262 0.5487921238 4292854340
-0.2981000543 -0.1427404433 0.5480524898 4292788547
-0.2976973355 -0.1419394910 0.5473120213 4292919367
-0.2982261181 -0.1415824443 0.5482842326 4292919367
-0.2982887924 -0.1410028785 0.5483994484 4293246283
-0.2983512580 -0.1404229701 0.5485143065 4293312076
-0.2984134853 -0.1398426890 0.5486286879 4292721988
-0.2984754741 -0.1392620355 0.5487426519 4292590402
-0.2985372245 -0.1386810392 0.5488561988 4292721990
-0.2981321812 -0.1378838867 0.5481114984 4292721990
-0.2981933653 -0.1373030841 0.5482240319 4292393025
-0.2977875769 -0.1365079433 0.5474779606 4292458818
-0.2978482246 -0.1359273195 0.5475894213 4292721990
-0.2979086041 -0.1353463531 0.5477004647 4292919369
-0.2979687750 -0.1347650290 0.5478110909 4293774424
-0.2970944345 -0.1337627172 0.5462036729 4293840217
-0.2976211607 -0.1333919168 0.5471720099 4293379669
-0.2972132266 -0.1326019615 0.5464220047 4293511255
-0.2972722650 -0.1320210695 0.5465305448 4293774686
-0.2973310649 -0.1314398348 0.5466386676 4293643100
-0.2973896265 -0.1308582425 0.5467463136 4293774684
-0.2974479496 -0.1302763075 0.5468535423 4294037856
-0.2975060344 -0.1296940446 0.5469603539 4293906019
-0.2980317473 -0.1293144375 0.5479268432 4294037605
-0.2980894446 -0.1287305653 0.5480329394 4293906019
-0.2981469035 -0.1281463653 0.5481386185 4293577054
-0.2982041240 -0.1275618225 0.5482438207 4293774433
-0.2982611358 -0.1269769520 0.5483485460 4294103398
-0.2987861931 -0.1265901476 0.5493139029 4294300779
-0.2988427877 -0.1260036826 0.5494179130 4294629744
-0.2988991141 -0.1254168898 0.5495215058 4294366572
-0.2989552319 -0.1248297542 0.5496246815 4294892916
-0.2990111113 -0.1242422983 0.5497273803 4294827123
-0.2985979617 -0.1234606951 0.5489678383 4294169193
-0.2991220951 -0.1230663955 0.5499314666 4294037607
-0.2996461689 -0.1226699278 0.5508949757 4294498158
-0.2997011542 -0.1220802367 0.5509960651 4294103400
-0.2997558713 -0.1214902252 0.5510966778 4292853333
-0.2998103797 -0.1208998859 0.5511968136 4292919639
-0.2998646200 -0.1203092337 0.5512965918 4293643362
-0.2999186218 -0.1197182536 0.5513958335 4294759020
-0.2999723554 -0.1191269606 0.5514946580 4294693227
-0.3004953861 -0.1187208518 0.5524562001 4294562409
-0.3000791073 -0.1179434210 0.5516909361 4294628202
-0.3010714948 -0.1177184731 0.5535154343 4294104431
-0.3011244237 -0.1171240658 0.5536127090 4294301810
-0.3011770844 -0.1165293381 0.5537095666 4294498419
-0.3012295365 -0.1159343049 0.5538059473 4294498419
-0.3017517030 -0.1155188978 0.5547659993 4294891886
-0.3018037081 -0.1149223149 0.5548616052 4294760300
-0.3023256361 -0.1145035028 0.5558211207 4292725107
-0.3019069731 -0.1137282252 0.5550513864 4291277661
-0.3836172223 -0.1974134594 0.7067176104 4290488158
-0.3818501830 -0.1957225204 0.7034622431 4290356572
-0.3749833703 -0.1914352924 0.6908118725 4291275055
-0.3685767353 -0.1874101758 0.6790092587 4291340848
-0.3014193475 -0.1526457071 0.5552887917 4291603505
-0.3010226190 -0.1518286318 0.5545579195 4291866677
-0.2992336452 -0.1503138244 0.5512621999 4292064569
-0.2992997468 -0.1497344077 0.5513839722 4292393534
-0.2979732156 -0.1484608501 0.5489401817 4292590915
-0.2980385721 -0.1478833705 0.5490605831 4292656708
-0.2976393700 -0.1470760554 0.5483251214 4292854087
-0.2977041602 -0.1464987099 0.5484445095 4293051466
-0.2977687120 -0.1459209919 0.5485634208 4293117259
-0.2973684371 -0.1451161504 0.5478259921 4292722501
-0.2974324524 -0.1445385814 0.5479439497 4292854087
-0.2974962294 -0.1439606398 0.5480614305 4292985673
-0.2975597680 -0.1433823407 0.5481784940 4292919882
-0.2971580625 -0.1425805241 0.5474384427 4292985675
-0.2972210646 -0.1420023739 0.5475545526 4292788296
-0.2972838283 -0.1414238662 0.5476701856 4292590917
-0.2973463833 -0.1408449858 0.5477854013 4292657221
-0.2974087000 -0.1402657479 0.5479001403 4292459842
-0.2974707782 -0.1396861374 0.5480145216 4292524611
-0.2975326180 -0.1391061693 0.5481284857 4292656197
-0.2975942194 -0.1385258436 0.5482419729 4292787783
-0.2971898019 -0.1377292871 0.5474969149 4292656197
-0.2977167666 -0.1373641044 0.5484676957 4292524609
-0.2973116636 -0.1365686506 0.5477214456 4292787781
-0.2973722517 -0.1359878033 0.5478330851 4293051468
-0.2969664037 -0.1351943612 0.5470854044 4293183054
-0.2970264554 -0.1346137077 0.5471959710 4293314386
-0.2966198623 -0.1338222921 0.5464469194 4293380179
-0.2966793180 -0.1332418621 0.5465564728 4293577305
-0.2962719798 -0.1324524879 0.5458060503 4293840477
-0.2963308692 -0.1318722665 0.5459145904 4293709153
-0.2963895500 -0.1312917024 0.5460226536 4293774946
-0.2964479625 -0.1307107955 0.5461302996 4294038120
-0.2965061665 -0.1301295459 0.5462374687 4294169706
-0.2965641022 -0.1295479536 0.5463442802 4294366570
-0.2970889509 -0.1291691214 0.5473111272 4294103398
-0.2971465290 -0.1285859346 0.5474172235 4294169193
-0.2972038686 -0.1280024052 0.5475228429 4293313884
-0.2972609699 -0.1274185479 0.5476279855 4293642849
-0.2977852821 -0.1270337701 0.5485939384 4294103400
-0.2978419960 -0.1264483184 0.5486984253 4293906019
-0.2978984714 -0.1258625239 0.5488024354 4293840226
-0.2979546785 -0.1252764165 0.5489060283 4294432365
-0.2980106771 -0.1246899590 0.5490091443 4294958966
-0.2980664074 -0.1241031811 0.5491118431 4294695537
-0.2981218994 -0.1235160679 0.5492140651 4293971814
-0.2981771529 -0.1229286343 0.5493158698 4293577315
-0.2982321680 -0.1223408729 0.5494171977 4294235245
-0.2987551987 -0.1219439209 0.5503807664 4294432878
-0.2988098264 -0.1213545799 0.5504813790 4293972327
-0.2988641858 -0.1207649261 0.5505815148 4293905258
-0.2989183068 -0.1201749519 0.5506812334 4294628981
-0.2989721596 -0.1195846498 0.5507804751 4294300777
-0.2990258038 -0.1189940348 0.5508792996 4294234984
-0.2995479703 -0.1185886860 0.5518412590 4294696048
-0.2996011674 -0.1179965138 0.5519392490 4294432876
-0.3001230955 -0.1175877526 0.5529007912 4293841511
-0.3001759052 -0.1169940233 0.5529980659 4294104683
-0.3002284467 -0.1163999736 0.5530948639 4294103913
-0.3002807498 -0.1158056185 0.5531912446 4294432878
-0.3003328145 -0.1152109578 0.5532871485 4294564464
-0.3008539677 -0.1147950664 0.5542472005 4294432878
-0.3013750315 -0.1143770143 0.5552071333 4293906296
-0.3014265001 -0.1137795672 0.5553019643 4292919401
-0.3014777005 -0.1131818146 0.5553963184 4291472232
-0.3024680018 -0.1129344851 0.5572206974 4290814302
-0.3774496615 -0.1946378052 0.6967810988 4290290506
-0.3742962778 -0.1922440082 0.6909598708 4290422092
-0.3697528541 -0.1891520470 0.6825726032 4291471919
-0.3647441864 -0.1858416945 0.6733264923 4291537712
-0.3000089526 -0.1522429585 0.5538237095 4291801139
-0.2977603972 -0.1504911631 0.5496727824 4292064311
-0.2987528145 -0.1503799856 0.5515048504 4292064056
-0.2974290252 -0.1491035968 0.5490611196 4292393021
-0.2970311642 -0.1482949257 0.5483266115 4292459327
-0.2970963717 -0.1477181017 0.5484470129 4292525120
-0.2971613407 -0.1471409202 0.5485669374 4292788294
-0.2972261012 -0.1465633512 0.5486864448 4293051466
-0.2968268096 -0.1457576454 0.5479493737 4293051464
-0.2968910038 -0.1451802254 0.5480679274 4292722499
-0.2969549894 -0.1446024328 0.5481860042 4292656706
-0.2965546250 -0.1437992305 0.5474469066 4292854085
-0.2961538434 -0.1429974586 0.5467070937 4292788294
-0.2957526445 -0.1421971321 0.5459664464 4292788294
-0.2962797880 -0.1418429017 0.5469395518 4292525122
-0.2963424027 -0.1412650645 0.5470551848 4292327743
-0.2964048088 -0.1406868547 0.5471703410 4292393536
-0.2964669764 -0.1401082873 0.5472851396 4292327743
-0.2965289056 -0.1395293623 0.5473994613 4292261439
-0.2965906262 -0.1389500797 0.5475133657 4292458818
-0.2961871326 -0.1381535381 0.5467684865 4292721990
-0.2967133224 -0.1377904117 0.5477399230 4292721990
-0.2967743576 -0.1372100413 0.5478525162 4292721988
-0.2963698506 -0.1364151537 0.5471058488 4292919367
-0.2964303195 -0.1358349770 0.5472174287 4293117261
-0.2960250974 -0.1350421309 0.5464693904 4293248847
-0.2956194282 -0.1342507303 0.5457205176 4292853835
-0.2961446345 -0.1338818371 0.5466900468 4292985421
-0.2957383096 -0.1330915689 0.5459399819 4293577305
-0.2957974076 -0.1325114667 0.5460490584 4294169442
-0.2953903675 -0.1317232549 0.5452976227 4294366825
-0.2954488993 -0.1311433613 0.5454056859 4294366825
-0.2959732711 -0.1307690740 0.5463737249 4294432878
-0.2960314453 -0.1301875859 0.5464810729 4294498671
-0.2960893512 -0.1296057552 0.5465880036 4294695535
-0.2961470187 -0.1290235817 0.5466944575 4294563949
-0.2962044775 -0.1284410805 0.5468004942 4294432365
-0.2967282236 -0.1280595809 0.5477674007 4293511263
-0.2967852652 -0.1274754852 0.5478727221 4293642849
-0.2968420982 -0.1268910319 0.5479775667 4293774435
-0.2973654866 -0.1265048534 0.5489438176 4293577054
-0.2974219024 -0.1259188354 0.5490479469 4293840226
-0.2974781096 -0.1253324747 0.5491516590 4294169193
-0.2975340486 -0.1247457787 0.5492549539 4294827123
-0.2975897491 -0.1241587549 0.5493577719 4294695537
-0.2976451814 -0.1235714033 0.5494601130 4294300779
-0.2977004051 -0.1229837239 0.5495620966 4294235499
-0.2977553904 -0.1223957241 0.5496635437 4294696050
-0.2982776463 -0.1219986081 0.5506276488 4294498671
-0.2983322144 -0.1214090288 0.5507283807 4293906534
-0.2979188263 -0.1206297576 0.5499653220 4294432367
-0.2984406054 -0.1202289090 0.5509284735 4294827125
-0.2984944582 -0.1196383610 0.5510278940 4294498156
-0.2985480428 -0.1190475002 0.5511268377 4294300777
-0.2990694046 -0.1186419874 0.5520892739 4294629997
-0.2991226017 -0.1180495694 0.5521874428 4294695790
-0.2996437252 -0.1176406443 0.5531494617 4294432876
-0.2996964753 -0.1170466617 0.5532468557 4294301290
-0.2997490168 -0.1164523661 0.5533438325 4294301292
-0.2998012602 -0.1158577651 0.5534403324 4294367085
-0.2998532951 -0.1152628511 0.5535363555 4294432878
-0.3003736734 -0.1148467958 0.5544969440 4294235499
-0.3004252613 -0.1142503321 0.5545921922 4293840236
-0.3009453714 -0.1138308644 0.5555523634 4293313892
-0.3019342422 -0.1135856137 0.5573778152 4292788069
-0.3024542332 -0.1131608784 0.5583377481 4292919655
-0.3757464588 -0.1957021505 0.6950620413 4291541646
-0.3739852011 -0.1940161735 0.6918039918 4290094200
-0.3726846278 -0.1925754845 0.6893981695 4290617911
-0.3034809828 -0.1561924964 0.5613842010 4291275841
-0.3072455525 -0.1574985385 0.5683479309 4291997746
-0.2972142398 -0.1511346102 0.5497918129 4291997748
-0.2968181372 -0.1503231525 0.5490591526 4292129334
-0.2973465025 -0.1499796212 0.5500364900 4291998518
-0.2969497740 -0.1491691917 0.5493026376 4292327483
-0.2965526283 -0.1483601779 0.5485679507 4292327483
-0.2966177762 -0.1477831453 0.5486884713 4292459069
-0.2962198555 -0.1469760835 0.5479524136 4292787779
-0.2962844372 -0.1463991851 0.5480719209 4293050951
-0.2963488102 -0.1458219141 0.5481909513 4293116744
-0.2959498167 -0.1450173259 0.5474529266 4292919365
-0.2960136533 -0.1444402039 0.5475709438 4292853572
-0.2960772514 -0.1438627094 0.5476886034 4292853572
-0.2956771553 -0.1430606097 0.5469484925 4292919367
-0.2952766418 -0.1422599554 0.5462076664 4292721988
-0.2948757112 -0.1414607465 0.5454660058 4292393536
-0.2954018414 -0.1411060095 0.5464392304 4292261950
-0.2954640985 -0.1405284852 0.5465543866 4292261950
-0.2955261171 -0.1399506032 0.5466691256 4292261950
-0.2955879271 -0.1393723488 0.5467834473 4292458818
-0.2956494987 -0.1387937367 0.5468973517 4292590404
-0.2957108319 -0.1382147521 0.5470107794 4292787783
-0.2953076065 -0.1374193579 0.5462648869 4292919369
-0.2958327830 -0.1370557249 0.5472363830 4292853574
-0.2958934307 -0.1364756823 0.5473485589 4292919367
-0.2954892218 -0.1356819421 0.5466008782 4292985673
-0.2955493033 -0.1351020932 0.5467120409 4293117259
-0.2956091464 -0.1345218867 0.5468227267 4293051468
-0.2947389781 -0.1335201263 0.5452131033 4292985675
-0.2952631712 -0.1331507415 0.5461826921 4293643352
-0.2948571444 -0.1323616207 0.5454316139 4294038110
-0.2944507003 -0.1315739900 0.5446797609 4293972065
-0.2945090830 -0.1309947968 0.5447878242 4294037858
-0.2950326204 -0.1306212693 0.5457562208 4294300777
-0.2950906157 -0.1300404668 0.5458635092 4294498156
-0.2951484025 -0.1294593215 0.5459704399 4294629742
-0.2952059507 -0.1288778335 0.5460768938 4294629742
-0.2957289815 -0.1284983605 0.5470443964 4294563951
-0.2957861423 -0.1279152781 0.5471501350 4293840228
-0.2958430648 -0.1273318529 0.5472553968 4293774435
-0.2958997488 -0.1267480850 0.5473602414 4293577056
-0.2964222729 -0.1263626814 0.5483268499 4293445468
-0.2964785695 -0.1257773340 0.5484309793 4294037605
-0.2965346277 -0.1251916587 0.5485346317 4294169193
-0.2965904176 -0.1246056408 0.5486379266 4294563951
-0.2966459990 -0.1240192950 0.5487406850 4294629744
-0.2967013419 -0.1234326288 0.5488430858 4294432365
-0.2967564166 -0.1228456274 0.5489449501 4294761843
-0.2972779572 -0.1224505305 0.5499097109 4294959222
-0.2973326445 -0.1218619570 0.5500108600 4294564464
-0.2973870933 -0.1212730631 0.5501115918 4294103913
-0.2974413037 -0.1206838414 0.5502118468 4294432365
-0.2974952459 -0.1200942993 0.5503116846 4294366572
-0.2980160713 -0.1196920425 0.5512750745 4294103398
-0.2980696261 -0.1191009283 0.5513741374 4293971812
-0.2985902131 -0.1186952591 0.5523371696 4294169446
-0.2981759906 -0.1179177612 0.5515708923 4294564204
-0.2982288003 -0.1173257083 0.5516685843 4294695535
-0.2982813716 -0.1167333350 0.5517658591 4294234984
-0.2988013029 -0.1163226888 0.5527276397 4294235245
-0.2988534570 -0.1157287657 0.5528240800 4294235245
-0.2993731201 -0.1153147072 0.5537853837 4294432626
-0.2994248569 -0.1147192344 0.5538811088 4294235247
-0.2994763553 -0.1141234487 0.5539762974 4293840226
-0.2999956012 -0.1137047485 0.5549368262 4293642847
-0.3005147576 -0.1132838801 0.5558971763 4293643613
-0.3015019596 -0.1130363569 0.5577233434 4294367336
-0.3740454316 -0.1967579722 0.6933399439 4292399012
-0.3722882867 -0.1950669289 0.6900828481 4290622601
-0.3705300093 -0.1933825314 0.6868236661 4290882140
-0.3683096468 -0.1914651692 0.6827079058 4290553175
-0.3019995093 -0.1563719809 0.5597938299 4291275568
-0.3657096326 -0.1886072010 0.6778884530 4291472947
-0.3002908826 -0.1542503685 0.5566266179 4291734574
-0.2994355857 -0.1531943530 0.5550412536 4291866160
-0.2985796630 -0.1521415263 0.5534547567 4292194614
-0.2972615361 -0.1508576572 0.5510113835 4292194614
-0.2964042425 -0.1498121321 0.5494222641 4291866932
-0.2960081100 -0.1490022838 0.5486879945 4292130104
-0.2960734367 -0.1484254003 0.5488091111 4292195897
-0.2956765294 -0.1476174891 0.5480734110 4292261690
-0.2957413197 -0.1470407397 0.5481934547 4292590655
-0.2953436673 -0.1462347806 0.5474563837 4292919620
-0.2954078913 -0.1456581801 0.5475754738 4293051206
-0.2954719067 -0.1450812072 0.5476940870 4292853827
-0.2950731814 -0.1442777216 0.5469549894 4292919365
-0.2951366305 -0.1437009126 0.5470725894 4292853572
-0.2951998413 -0.1431237161 0.5471897721 4292853574
-0.2948000431 -0.1423227340 0.5464487076 4292656195
-0.2943997979 -0.1415231973 0.5457068086 4292393536
-0.2944621444 -0.1409467161 0.5458223820 4292393536
-0.2945242524 -0.1403698772 0.5459374785 4292327743
-0.2945861518 -0.1397926658 0.5460522175 4292327743
-0.2946477830 -0.1392150819 0.5461664796 4292458816
-0.2947092056 -0.1386371553 0.5462803245 4292524609
-0.2947704196 -0.1380588561 0.5463937521 4292721986
-0.2948313653 -0.1374801993 0.5465067625 4292787779
-0.2948921025 -0.1369011849 0.5466193557 4292787779
-0.2949526012 -0.1363218129 0.5467314720 4292853572
-0.2945490181 -0.1355286539 0.5459833741 4292854085
-0.2950729132 -0.1351620108 0.5469545126 4292985671
-0.2946686745 -0.1343699694 0.5462051630 4293314638
-0.2942639887 -0.1335794032 0.5454550982 4293183052
-0.2943231463 -0.1330000907 0.5455647111 4293840730
-0.2939177454 -0.1322115660 0.5448132157 4293709144
-0.2939763367 -0.1316324621 0.5449218154 4293050961
-0.2940346897 -0.1310530305 0.5450299978 4293248340
-0.2940928042 -0.1304732412 0.5451377630 4293774686
-0.2941506803 -0.1298931241 0.5452450514 4294103651
-0.2942083180 -0.1293126494 0.5453519225 4294169191
-0.2947306335 -0.1289352179 0.5463200212 4294563949
-0.2947878838 -0.1283531487 0.5464261770 4294563949
-0.2948449254 -0.1277707368 0.5465319157 4294103398
-0.2949016988 -0.1271879971 0.5466371775 4294103400
-0.2954235077 -0.1268046200 0.5476043820 4293577056
-0.2954798937 -0.1262202859 0.5477089286 4293248089
-0.2955360711 -0.1256356090 0.5478130579 4293971812
-0.2955920100 -0.1250506192 0.5479167104 4294498158
-0.2956476808 -0.1244652867 0.5480199456 4294432365
-0.2957031429 -0.1238796264 0.5481227040 4294629744
-0.2957583368 -0.1232936308 0.5482250452 4294432365
-0.2962791622 -0.1229005530 0.5491904020 4294827636
-0.2963339686 -0.1223129854 0.5492920280 4294959222
-0.2963885367 -0.1217250973 0.5493931770 4294696050
-0.2964428365 -0.1211368814 0.5494938493 4294498671
-0.2969631255 -0.1207378805 0.5504582524 4294498669
-0.2965507507 -0.1199594811 0.5496938825 4294169704
-0.2970707119 -0.1195579842 0.5506576896 4293971814
-0.2975905836 -0.1191543192 0.5516213179 4294037607
-0.2976438403 -0.1185626537 0.5517200828 4294169193
-0.2976968884 -0.1179706603 0.5518183708 4294629744
-0.2977496386 -0.1173783541 0.5519161820 4294761330
-0.2978021801 -0.1167857349 0.5520135164 4294234986
-0.2978544533 -0.1161928028 0.5521104336 4294037868
-0.2983734310 -0.1157807559 0.5530724525 4294037868
-0.2984252870 -0.1151862666 0.5531685948 4294432628
-0.2989440262 -0.1147708073 0.5541300774 4294169456
-0.2985282838 -0.1139963716 0.5533594489 4293906019
-0.2995139062 -0.1137558967 0.5551864505 4293774433
-0.3000322878 -0.1133348569 0.5561473370 4293577558
-0.3010179698 -0.1130872443 0.5579743981 4294103902
-0.3015362322 -0.1126609296 0.5589350462 4294239160
-0.3015868068 -0.1120587066 0.5590288639 4294964425
-0.3710533679 -0.1963524818 0.6892126799 4290886302
-0.3706789911 -0.1953893900 0.6885173321 4290619728
-0.3693841100 -0.1939445287 0.6861121655 4290290763
-0.3667916656 -0.1910694242 0.6812968254 4291274812
-0.3636527956 -0.1886838377 0.6754665375 4291274795
-0.3595913649 -0.1858344227 0.6679226160 4291209002
-0.3016459644 -0.1552661061 0.5602920055 4291406379
-0.2971075177 -0.1523168534 0.5518620610 4291801137
-0.2985562980 -0.1524434537 0.5545530915 4292194615
-0.2977012992 -0.1513925046 0.5529649854 4291997236
-0.2959237695 -0.1498778462 0.5496633053 4291866932
-0.2955283225 -0.1490676701 0.5489287972 4291998518
-0.2951324582 -0.1482589096 0.5481935143 4292064311
-0.2947361767 -0.1474515796 0.5474573970 4292130104
-0.2948008180 -0.1468755156 0.5475774407 4292327483
-0.2944037616 -0.1460701078 0.5468399525 4292590655
-0.2944678366 -0.1454941928 0.5469589829 4292787779
-0.2945317030 -0.1449179053 0.5470775962 4292656193
-0.2945953012 -0.1443412304 0.5471957922 4292853572
-0.2941968739 -0.1435388625 0.5464556813 4292721986
-0.2942599356 -0.1429623514 0.5465728045 4292524607
-0.2938607335 -0.1421619505 0.5458313227 4292393021
-0.2939232588 -0.1415856034 0.5459474921 4292327743
-0.2939855456 -0.1410088986 0.5460631847 4292327743
-0.2940476239 -0.1404318213 0.5461784601 4292327743
-0.2941094637 -0.1398543864 0.5462933183 4292327743
-0.2941710651 -0.1392765790 0.5464077592 4292393023
-0.2942324281 -0.1386984140 0.5465217233 4292393023
-0.2938308716 -0.1379027218 0.5457758307 4292393021
-0.2943544984 -0.1375409961 0.5467484593 4292524607
-0.2939522862 -0.1367464066 0.5460013747 4292590400
-0.2935496271 -0.1359532773 0.5452534556 4292590400
-0.2940727770 -0.1355886757 0.5462251306 4292721986
-0.2932062745 -0.1345840394 0.5446156859 4292853572
-0.2928024530 -0.1337944120 0.5438656211 4292985160
-0.2933249772 -0.1334278286 0.5448361635 4293050953
-0.2933839858 -0.1328492016 0.5449457765 4293840730
-0.2934427857 -0.1322702169 0.5450549722 4293709144
-0.2935013175 -0.1316908896 0.5451637506 4293050961
-0.2935596406 -0.1311112195 0.5452720523 4293314133
-0.2936176956 -0.1305312067 0.5453799367 4293708893
-0.2936755419 -0.1299508512 0.5454873443 4293840479
-0.2937331498 -0.1293701380 0.5455943346 4294234984
-0.2942546606 -0.1289925575 0.5465630293 4294695535
-0.2938476801 -0.1282077134 0.5458070636 4294498156
-0.2943688631 -0.1278276145 0.5467751622 4294300777
-0.2944256067 -0.1272446364 0.5468805432 4294300777
-0.2944821417 -0.1266613156 0.5469855666 4293642847
-0.2950029969 -0.1262765229 0.5479530096 4292984917
-0.2950591147 -0.1256916225 0.5480572581 4293445468
-0.2951149940 -0.1251063794 0.5481610298 4294695537
-0.2951706350 -0.1245208085 0.5482643843 4294366572
-0.2952260375 -0.1239349097 0.5483673215 4294498158
-0.2952812016 -0.1233486757 0.5484697819 4294695537
-0.2953361273 -0.1227621213 0.5485718250 4294761843
-0.2958559990 -0.1223676354 0.5495374203 4294827636
-0.2959105372 -0.1217795014 0.5496386886 4294696050
-0.2959648073 -0.1211910397 0.5497395396 4294696050
-0.2964842916 -0.1207918823 0.5507044196 4294696303
-0.2965381742 -0.1202018559 0.5508045554 4294301545
-0.2965918183 -0.1196115017 0.5509041548 4294235245
-0.2966451943 -0.1190208271 0.5510033369 4294432624
-0.2971641123 -0.1186157539 0.5519672036 4294497906
-0.2972171009 -0.1180235222 0.5520656109 4294629492
-0.2972698510 -0.1174309701 0.5521635413 4294695539
-0.2973223329 -0.1168381050 0.5522610545 4294300781
-0.2973745763 -0.1162449270 0.5523580909 4294103659
-0.2978927493 -0.1158327013 0.5533205867 4294037866
-0.2984108627 -0.1154183149 0.5542829633 4294169456
-0.2975298166 -0.1144635230 0.5526464581 4293840491
-0.2985139191 -0.1142260581 0.5544744134 4293906280
-0.2990315855 -0.1138070151 0.5554359555 4293906280
-0.3000157475 -0.1135624126 0.5572639704 4293445721
-0.3005333245 -0.1131380945 0.5582253337 4293643100
-0.3001172841 -0.1123621091 0.5574525595 4294038923
-0.3011013269 -0.1121091247 0.5592803955 4294962595
-0.3694456816 -0.1966699213 0.6876451373 4291014776
-0.3690721691 -0.1957078427 0.6869499087 4289369951
-0.3682390153 -0.1945045143 0.6853991747 4290420259
-0.3674051762 -0.1933042705 0.6838471293 4290683431
-0.3656519055 -0.1916256398 0.6805837750 4291010341
-0.3629785776 -0.1894740015 0.6756079793 4291076134
-0.3079126477 -0.1600929201 0.5731143355 4291077414
-0.3024663329 -0.1566357315 0.5629772544 4291274793
-0.2960977554 -0.1527253538 0.5511234999 4291537967
-0.2952446640 -0.1516747475 0.5495355725 4291669553
-0.2949168086 -0.1502865255 0.5489253402 4291865650
-0.2945876420 -0.1489003599 0.5483126640 4291801139
-0.2941923738 -0.1480921805 0.5475769639 4291801139
-0.2942571938 -0.1475162655 0.5476976037 4291932725
-0.2938611507 -0.1467100233 0.5469604731 4292064311
-0.2939254045 -0.1461342573 0.5470800996 4292261690
-0.2935286462 -0.1453299671 0.5463415980 4292393021
-0.2935923636 -0.1447543502 0.5464601517 4292327228
-0.2936558425 -0.1441783607 0.5465782881 4292721986
-0.2932579815 -0.1433765590 0.5458378196 4292590400
-0.2933209240 -0.1428007334 0.5459549427 4292393021
-0.2929223180 -0.1420009136 0.5452130437 4292261435
-0.2929846942 -0.1414252520 0.5453291535 4292327228
-0.2930468321 -0.1408492178 0.5454447865 4292327228
-0.2931087613 -0.1402728260 0.5455600619 4292327743
-0.2931704521 -0.1396960616 0.5456749201 4292393536
-0.2932319343 -0.1391189396 0.5457893014 4292393023
-0.2932931483 -0.1385414600 0.5459032655 4292327230
-0.2933541536 -0.1379636079 0.5460168123 4292261435
-0.2929528654 -0.1371690482 0.5452699065 4292327228
-0.2934754789 -0.1368068457 0.5462426543 4292393021
-0.2930735350 -0.1360133886 0.5454944968 4292458814
-0.2926711738 -0.1352213919 0.5447455645 4292524607
-0.2931932807 -0.1348562986 0.5457174182 4292721986
-0.2927902639 -0.1340654343 0.5449672341 4292656195
-0.2919242084 -0.1330651641 0.5433552265 4292853574
-0.2924457192 -0.1326980889 0.5443259478 4293445972
-0.2925043404 -0.1321197897 0.5444350839 4293643351
-0.2925627530 -0.1315411478 0.5445438027 4293445719
-0.2926209271 -0.1309621632 0.5446521044 4293643098
-0.2926788926 -0.1303828210 0.5447599292 4293708893
-0.2927365899 -0.1298031509 0.5448673368 4293643100
-0.2927940786 -0.1292231232 0.5449743271 4294300777
-0.2928512990 -0.1286427677 0.5450808406 4294695535
-0.2933717668 -0.1282646954 0.5460495949 4294234984
-0.2929650843 -0.1274810284 0.5452926159 4294103398
-0.2934852540 -0.1271004379 0.5462608337 4294169191
-0.2940053642 -0.1267176718 0.5472289324 4293840226
-0.2940616012 -0.1261337847 0.5473335981 4293379675
-0.2941175997 -0.1255495548 0.5474377871 4293511261
-0.2941733599 -0.1249650046 0.5475415587 4294103400
-0.2942288816 -0.1243801117 0.5476449132 4293708642
-0.2942841649 -0.1237948984 0.5477477908 4293774433
-0.2943391800 -0.1232093498 0.5478502512 4294234984
-0.2948583364 -0.1228168830 0.5488165021 4294103911
-0.2949129641 -0.1222297549 0.5489182472 4294169704
-0.2949673831 -0.1216423064 0.5490195155 4293906534
-0.2950215340 -0.1210545301 0.5491203070 4293840741
-0.2955401242 -0.1206561401 0.5500855446 4294301030
-0.2955938876 -0.1200667918 0.5501856208 4294235237
-0.2956474125 -0.1194771230 0.5502852201 4294301292
-0.2957006693 -0.1188871339 0.5503844023 4294564464
-0.2962187231 -0.1184828207 0.5513486266 4294629492
-0.2962715924 -0.1178912744 0.5514469743 4294563699
-0.2963241935 -0.1172994003 0.5515449643 4294695537
-0.2963765860 -0.1167072207 0.5516424179 4294563951
-0.2964287102 -0.1161147207 0.5517394543 4294301292
-0.2969460189 -0.1157032698 0.5527023077 4294038120
-0.2974632382 -0.1152896360 0.5536649823 4293774694
-0.2975147665 -0.1146943495 0.5537609458 4293577315
-0.2980317473 -0.1142773032 0.5547231436 4294037866
-0.2985486090 -0.1138580889 0.5556852221 4294169452
-0.2999970615 -0.1137900874 0.5583811998 4293774948
-0.2995820940 -0.1130131483 0.5576088428 4293840741
-0.3010812700 -0.1123334020 0.5603992343 4294960261
-0.3673824370 -0.1967380345 0.6852213740 4291017373
-0.3665514588 -0.1955334395 0.6836714745 4289697348
-0.3661780953 -0.1945754439 0.6829751134 4289631555
-0.3653458655 -0.1933760941 0.6814228296 4291076898
-0.3640544116 -0.1919381022 0.6790140867 4291076898
-0.3618448377 -0.1900233179 0.6748929024 4291273512
-0.3591752052 -0.1878770441 0.6699137092 4291339305
-0.2959396839 -0.1541865766 0.5519703031 4291340586
-0.2983014584 -0.1547989100 0.5563753843 4291472172
-0.2969918251 -0.1535038352 0.5539326668 4291340588
-0.2956813276 -0.1522137523 0.5514884591 4291274795
-0.2943700254 -0.1509286612 0.5490426421 4291668783
-0.2939765453 -0.1501177102 0.5483087301 4291997748
-0.2935826182 -0.1493081599 0.5475740433 4291734576
-0.2931882739 -0.1485000402 0.5468385220 4291668783
-0.2932531536 -0.1479251832 0.5469595194 4291668781
-0.2933177948 -0.1473499537 0.5470800996 4291866160
-0.2929223776 -0.1465442926 0.5463426113 4292063539
-0.2929864824 -0.1459691972 0.5464621782 4292063539
-0.2925903201 -0.1451654881 0.5457232594 4292064311
-0.2926538885 -0.1445905566 0.5458418131 4292064311
-0.2927172184 -0.1440152377 0.5459599495 4292656448
-0.2927803099 -0.1434395611 0.5460776091 4292590655
-0.2923827469 -0.1426388770 0.5453361273 4292261690
-0.2919847667 -0.1418396384 0.5445938110 4292261690
-0.2920469940 -0.1412646472 0.5447098613 4292327483
-0.2921090126 -0.1406892985 0.5448255539 4292261690
-0.2921707630 -0.1401135921 0.5449407697 4292393021
-0.2922323346 -0.1395375133 0.5450555682 4292327228
-0.2922936380 -0.1389610618 0.5451699495 4292260921
-0.2923547328 -0.1383842677 0.5452838540 4292260921
-0.2924156189 -0.1378071010 0.5453974009 4292195127
-0.2924762368 -0.1372295767 0.5455104709 4292260920
-0.2925366461 -0.1366516948 0.5456231236 4292261690
-0.2925968170 -0.1360734403 0.5457353592 4292393276
-0.2921951711 -0.1352811307 0.5449862480 4292459069
-0.2922547758 -0.1347030997 0.5450974107 4292590655
-0.2923141718 -0.1341246963 0.5452082157 4293050951
-0.2919114530 -0.1333349794 0.5444570780 4292919365
-0.2915082872 -0.1325467527 0.5437051058 4292854089
-0.2915668190 -0.1319691390 0.5438142419 4293183054
-0.2916250825 -0.1313911676 0.5439229608 4293511512
-0.2916831374 -0.1308128685 0.5440312028 4293445719
-0.2917409241 -0.1302342117 0.5441390276 4293445721
-0.2917985022 -0.1296552122 0.5442464352 4293643100
-0.2918558419 -0.1290758848 0.5443533659 4294037605
-0.2923755646 -0.1286998391 0.5453227162 4294498156
-0.2924325466 -0.1281189024 0.5454289913 4294037605
-0.2924892604 -0.1275376230 0.5455347896 4293971812
-0.2925457656 -0.1269560158 0.5456401110 4293971812
-0.2930649817 -0.1265740246 0.5466085672 4294103398
-0.2931210995 -0.1259908229 0.5467132330 4293971812
-0.2931769490 -0.1254072785 0.5468174219 4293840226
-0.2932325900 -0.1248234063 0.5469211936 4294300779
-0.2932879627 -0.1242391989 0.5470244884 4294037607
-0.2933431268 -0.1236546636 0.5471273661 4293708640
-0.2933980227 -0.1230698004 0.5472297668 4294432363
-0.2939162850 -0.1226781085 0.5481963754 4294103911
-0.2939708233 -0.1220916659 0.5482980609 4294103911
-0.2940250933 -0.1215048954 0.5483993292 4293643362
-0.2945429683 -0.1211085245 0.5493652225 4293643362
-0.2945968509 -0.1205201820 0.5494657159 4294037348
-0.2946504951 -0.1199315190 0.5495657325 4294234727
-0.2947038710 -0.1193425283 0.5496653318 4294432365
-0.2952212095 -0.1189402416 0.5506302118 4294498158
-0.2952741981 -0.1183496863 0.5507290363 4294432367
-0.2953269482 -0.1177588180 0.5508274436 4294498160
-0.2953794301 -0.1171676293 0.5509253740 4294761332
-0.2954316735 -0.1165761352 0.5510228276 4294695539
-0.2954836786 -0.1159843206 0.5511198044 4294366572
-0.2960001230 -0.1155736297 0.5520830154 4293971814
-0.2965164781 -0.1151607633 0.5530461073 4293577567
-0.2965678871 -0.1145661548 0.5531420112 4293643360
-0.2970840037 -0.1141498759 0.5541046262 4294103911
-0.2971349955 -0.1135537177 0.5541997552 4294169704
-0.2981159091 -0.1133107990 0.5560292602 4293906532
-0.2986317277 -0.1128880009 0.5569913983 4294103911
-0.2991474569 -0.1124630347 0.5579532981 4294103400
-0.2996630967 -0.1120358855 0.5589150190 4294629744
-0.3006440401 -0.1117796004 0.5607445836 4294503368
-0.3653233945 -0.1968001425 0.6827954054 4292201368
-0.3649513423 -0.1958418638 0.6821000576 4289043304
-0.3641214073 -0.1946403533 0.6805488467 4289697076
-0.3632907569 -0.1934419125 0.6789963841 4290091834
-0.3624594212 -0.1922465712 0.6774425507 4290550302
-0.3607118726 -0.1905706227 0.6741763949 4291076646
-0.3575896323 -0.1881785095 0.6683408618 4291273515
-0.2967619300 -0.1555521935 0.5546529293 4291273515
-0.2986618578 -0.1559278667 0.5582038760 4291340586
-0.2968969941 -0.1543899029 0.5549053550 4291537965
-0.2955893576 -0.1530960947 0.5524613261 4291471919
-0.2942808568 -0.1518072784 0.5500157475 4291537712
-0.2938885093 -0.1509945840 0.5492824316 4291537965
-0.2930371165 -0.1499486417 0.5476911664 4291406379
-0.2926438153 -0.1491396725 0.5469560623 4291537197
-0.2927088737 -0.1485649794 0.5470776558 4291471404
-0.2927736938 -0.1479898989 0.5471988320 4291405609
-0.2923792899 -0.1471833885 0.5464617014 4291734574
-0.2924435735 -0.1466084570 0.5465818644 4291997746
-0.2925076485 -0.1460331529 0.5467015505 4291997746
-0.2921121716 -0.1452291161 0.5459624529 4292063541
-0.2921756804 -0.1446539462 0.5460811257 4292129334
-0.2922389805 -0.1440784186 0.5461994410 4292655678
-0.2918424308 -0.1432768703 0.5454582572 4292655678
-0.2919051647 -0.1427014917 0.5455755591 4292260918
-0.2915078700 -0.1419019252 0.5448330045 4292326711
-0.2915700674 -0.1413267255 0.5449492335 4292327481
-0.2916320264 -0.1407511532 0.5450650454 4292195895
-0.2916937470 -0.1401752084 0.5451803803 4292261690
-0.2917552590 -0.1395989060 0.5452953577 4292064311
-0.2918165326 -0.1390222311 0.5454098582 4292195125
-0.2918775678 -0.1384451985 0.5455240011 4292195125
-0.2919383943 -0.1378678083 0.5456376672 4292129332
-0.2919989824 -0.1372900456 0.5457509160 4292063539
-0.2915986776 -0.1364963055 0.5450026989 4292064563
-0.2916587293 -0.1359187365 0.5451149344 4292064563
-0.2917185426 -0.1353408247 0.5452266932 4291998516
-0.2908562124 -0.1343367696 0.5436150432 4292064309
-0.2913764119 -0.1339719445 0.5445872545 4293380171
-0.2909742892 -0.1331828237 0.5438356996 4292985413
-0.2910329998 -0.1326053292 0.5439454317 4292459329
-0.2910914421 -0.1320274770 0.5440546870 4292854087
-0.2911496758 -0.1314492822 0.5441635251 4293445973
-0.2912076712 -0.1308707446 0.5442719460 4293314387
-0.2912654579 -0.1302918643 0.5443798900 4293314133
-0.2913229764 -0.1297126412 0.5444874167 4293906270
-0.2913802862 -0.1291330606 0.5445945263 4293774433
-0.2918992043 -0.1287568808 0.5455644131 4294366570
-0.2914941609 -0.1279729009 0.5448073745 4294103398
-0.2920128107 -0.1275942028 0.5457767248 4294103398
-0.2920692563 -0.1270123422 0.5458822250 4293840226
-0.2925876975 -0.1266302019 0.5468512177 4294103398
-0.2926437557 -0.1260467619 0.5469560027 4294234984
-0.2926995754 -0.1254629940 0.5470603108 4293840226
-0.2927551866 -0.1248788759 0.5471642017 4294432365
-0.2928105295 -0.1242944300 0.5472676754 4294366572
-0.2928656340 -0.1237096563 0.5473706722 4293774433
-0.2929205000 -0.1231245548 0.5474731922 4294629742
-0.2934379578 -0.1227327064 0.5484403968 4294169704
-0.2934924364 -0.1221460253 0.5485422015 4294103911
-0.2940096855 -0.1217507422 0.5495089293 4293445983
-0.2940637767 -0.1211624816 0.5496100187 4293511776
-0.2941175997 -0.1205739006 0.5497106314 4294233448
-0.2941712141 -0.1199849918 0.5498107672 4294496620
-0.2942245603 -0.1193957627 0.5499104857 4294431852
-0.2947410941 -0.1189933121 0.5508759022 4294234473
-0.2947940230 -0.1184025109 0.5509749055 4293906023
-0.2948467433 -0.1178113967 0.5510733724 4294103402
-0.2948991954 -0.1172199696 0.5511714220 4294366320
-0.2949514091 -0.1166282222 0.5512689948 4294103148
-0.2950033844 -0.1160361618 0.5513661504 4294300268
-0.2950550914 -0.1154437885 0.5514628291 4293905510
-0.2955705822 -0.1150316894 0.5524262190 4293577054
-0.2956218719 -0.1144377664 0.5525221229 4293906019
-0.2961370945 -0.1140222549 0.5534850955 4294169957
-0.2966522276 -0.1136045679 0.5544478893 4293972578
-0.2976315916 -0.1133615524 0.5562783480 4293644383
-0.2981466353 -0.1129385829 0.5572409630 4293973348
-0.2981970906 -0.1123384610 0.5573352575 4294301290
-0.2991763949 -0.1120861173 0.5591655970 4293840739
-0.3001557887 -0.1118297353 0.5609961152 4293910194
-0.3006705046 -0.1113971323 0.5619581342 4294964424
-0.3628972769 -0.1958998591 0.6796718240 4290159197
-0.3625254929 -0.1949447691 0.6789755225 4288909130
-0.3612398803 -0.1935017258 0.6765676737 4289958954
-0.3604101241 -0.1923072785 0.6750136614 4290287919
-0.3591228127 -0.1908730716 0.6726025939 4291010592
-0.3569205701 -0.1889598519 0.6684780121 4291405350
-0.3524314463 -0.1858498603 0.6600703597 4291601963
-0.3003897071 -0.1577812880 0.5626011491 4291601963
-0.2986289561 -0.1562350094 0.5593034625 4291275055
-0.2941226363 -0.1532653570 0.5508635044 4291275055
-0.2928166687 -0.1519754976 0.5484175682 4291406130
-0.2924251258 -0.1511637717 0.5476842523 4291537716
-0.2924908996 -0.1505891234 0.5478074551 4291538217
-0.2920986116 -0.1497793049 0.5470727086 4291340838
-0.2917707860 -0.1483969092 0.5464587212 4291274025
-0.2918354571 -0.1478225142 0.5465798974 4291339818
-0.2918999195 -0.1472477317 0.5467005968 4291602990
-0.2915058136 -0.1464423239 0.5459624529 4291931955
-0.2915697098 -0.1458676904 0.5460821390 4291997748
-0.2916333973 -0.1452926844 0.5462014079 4291997746
-0.2916968465 -0.1447172910 0.5463202596 4292129332
-0.2913013399 -0.1439148933 0.5455795527 4292458297
-0.2909054160 -0.1431139410 0.5448380113 4292655676
-0.2909680009 -0.1425392479 0.5449551940 4292589883
-0.2910303771 -0.1419641823 0.5450720191 4292326711
-0.2910925150 -0.1413887441 0.5451883674 4292524090
-0.2906951904 -0.1405908465 0.5444442630 4292129332
-0.2907567620 -0.1400155872 0.5445595980 4292129332
-0.2908181250 -0.1394399554 0.5446745157 4291931953
-0.2908792496 -0.1388639659 0.5447890162 4291931953
-0.2909401655 -0.1382876188 0.5449030399 4291931953
-0.2910008430 -0.1377109140 0.5450167060 4291931953
-0.2910612822 -0.1371338367 0.5451299548 4291866160
-0.2906616032 -0.1363406777 0.5443813205 4291931953
-0.2907215059 -0.1357638091 0.5444935560 4291997746
-0.2907811701 -0.1351865679 0.5446052551 4291932725
-0.2903804183 -0.1343959868 0.5438547134 4291932725
-0.2899792492 -0.1336068958 0.5431033373 4292787779
-0.2900380194 -0.1330304295 0.5432134271 4293511502
-0.2900965810 -0.1324536204 0.5433230996 4292590655
-0.2901549041 -0.1318764538 0.5434323549 4293116999
-0.2902129889 -0.1312989444 0.5435411930 4292787779
-0.2902708650 -0.1307210922 0.5436495543 4292721986
-0.2907893360 -0.1303494722 0.5446205735 4293248330
-0.2908468246 -0.1297700107 0.5447282791 4293774674
