VERSION 0.7
FIELDS x y z rgba
SIZE 4 4 4 4
TYPE F F F U
COUNT 1 1 1 1
WIDTH 920
HEIGHT 1
VIEWPOINT 0.0 0.0 0.0 1.0 0.0 0.0 0.0
POINTS 920
DATA ascii
-0.2813925743 -0.1106883883 0.5583827496 4291217345
-0.2818835676 -0.1102600470 0.5593571067 4291743689
-0.2819312215 -0.1096570864 0.5594516397 4292401619
-0.2824219465 -0.1092252955 0.5604254603 4292336084
-0.2833560407 -0.1089618132 0.5622789860 4291875533
-0.2838466763 -0.1085246652 0.5632525682 4291349191
-0.2847807705 -0.1082539335 0.5651061535 4292007121
-0.2852712870 -0.1078114361 0.5660794973 4292270293
-0.2857616544 -0.1073667258 0.5670526028 4292599258
-0.2866957486 -0.1070855856 0.5689061880 4292928993
-0.2876298726 -0.1068003401 0.5707597733 4293257958
-0.2885640264 -0.1065109894 0.5726134777 4293257704
-0.2894982100 -0.1062175333 0.5744672418 4292797153
-0.2908765078 -0.1060819179 0.5772022605 4292600805
-0.2922549844 -0.1059402898 0.5799376369 4293192942
-0.2936336100 -0.1057926416 0.5826733112 4293192942
-0.2950123847 -0.1056389734 0.5854093432 4293982458
-0.3162521720 -0.1854711622 0.6289427876 4288454827
-0.3154603541 -0.1843097359 0.6273680329 4286678416
-0.3151025176 -0.1834044009 0.6266564131 4285296763
-0.3147442341 -0.1825003922 0.6259438396 4284638833
-0.3139506578 -0.1813465357 0.6243656278 4284505959
-0.3122865260 -0.1796952486 0.6210561395 4284111201
-0.3088811934 -0.1770532429 0.6142838001 4283650650
-0.3019927442 -0.1724374294 0.6005845070 4283453271
-0.2946654856 -0.1676024795 0.5860124826 4283453271
-0.2899466455 -0.1642777771 0.5766279101 4283255892
-0.2865316570 -0.1617097855 0.5698364377 4283321172
-0.2848570645 -0.1601352692 0.5665060878 4283715930
-0.2836170793 -0.1588115245 0.5640401244 4283189586
-0.2823762894 -0.1574927866 0.5615724921 4282860621
-0.2806987762 -0.1559369415 0.5582363605 4282794828
-0.2803281844 -0.1551116258 0.5574993491 4283321172
-0.2795210779 -0.1540473998 0.5558941960 4283979102
-0.2791495323 -0.1532258093 0.5551552773 4284110688
-0.2787775397 -0.1524056494 0.5544155240 4283584342
-0.2779687941 -0.1513492912 0.5528071523 4282926412
-0.2780323625 -0.1507695615 0.5529335737 4282925897
-0.2776591480 -0.1499536633 0.5521913767 4282991690
-0.2772855461 -0.1491391808 0.5514482856 4282794311
-0.2769114971 -0.1483261287 0.5507044196 4282399553
-0.2765370309 -0.1475145072 0.5499597788 4282136381
-0.2765991390 -0.1469364464 0.5500832796 4282267967
-0.2762239575 -0.1461267918 0.5493371487 4282530626
-0.2762855291 -0.1455488801 0.5494595766 4282596419
-0.2759096324 -0.1447411925 0.5487120152 4282399040
-0.2759706676 -0.1441634148 0.5488333702 4282267454
-0.2755940557 -0.1433577091 0.5480843782 4282333247
-0.2752169967 -0.1425534636 0.5473345518 4282399040
-0.2752771974 -0.1419763714 0.5474542379 4282267454
-0.2748994529 -0.1411741227 0.5467029810 4282333247
-0.2749591172 -0.1405971944 0.5468216538 4282399040
-0.2745806277 -0.1397969425 0.5460689664 4282267454
-0.2742017210 -0.1389981508 0.5453154445 4282267708
-0.2738224268 -0.1382008344 0.5445610881 4282004536
-0.2738809288 -0.1376251876 0.5446774364 4281938743
-0.2739392221 -0.1370491683 0.5447933674 4281938743
-0.2739972770 -0.1364727914 0.5449088812 4282004536
-0.2740551233 -0.1358960420 0.5450239182 4281938743
-0.2741127610 -0.1353189349 0.5451384783 4282135098
-0.2741701603 -0.1347414553 0.5452526808 4282200891
-0.2742273510 -0.1341636181 0.5453664064 4282529856
-0.2742843032 -0.1335854083 0.5454796553 4282793028
-0.2743410468 -0.1330068558 0.5455924869 4282990407
-0.2743975520 -0.1324279308 0.5457049012 4283121993
-0.2744538486 -0.1318486631 0.5458168387 4283056200
-0.2745099068 -0.1312690377 0.5459283590 4282924614
-0.2745657563 -0.1306890547 0.5460394025 4282990407
-0.2746213675 -0.1301087141 0.5461500287 4282924614
-0.2742372751 -0.1293207705 0.5453861356 4282792767
-0.2742923498 -0.1287406683 0.5454956889 4282858560
-0.2743472159 -0.1281602085 0.5456047654 4282858562
-0.2744018435 -0.1275793910 0.5457134247 4283055941
-0.2748960853 -0.1272017658 0.5466963053 4282924357
-0.2753902674 -0.1268219203 0.5476791263 4282924357
-0.2754443884 -0.1262382120 0.5477867126 4282858821
-0.2754982710 -0.1256541610 0.5478938818 4283187786
-0.2755519152 -0.1250697672 0.5480006337 4282990407
-0.2760456204 -0.1246838942 0.5489824414 4284503646
-0.2760989070 -0.1240978837 0.5490884185 4287004034
-0.2757115364 -0.1233145520 0.5483180285 4286609276
-0.2757642865 -0.1227288023 0.5484229326 4283780943
-0.2762573957 -0.1223378330 0.5494036078 4284373080
-0.2763097584 -0.1217504814 0.5495077372 4285952366
-0.2763618827 -0.1211627945 0.5496113896 4286083952
-0.2764137685 -0.1205747724 0.5497146249 4287730057
-0.2764654458 -0.1199864224 0.5498173237 4290164398
-0.2765168548 -0.1193977445 0.5499196053 4290361775
-0.2765680552 -0.1188087389 0.5500214696 4290624947
-0.2770602107 -0.1184079498 0.5510001779 4291348923
-0.2771109939 -0.1178173497 0.5511012077 4291151544
-0.2771615684 -0.1172264293 0.5512018204 4290559405
-0.2772119045 -0.1166351810 0.5513018966 4291019956
-0.2772620022 -0.1160436124 0.5514015555 4290954163
-0.2777534425 -0.1156355664 0.5523788929 4290493612
-0.2782448232 -0.1152253151 0.5533560514 4289704609
-0.2787360847 -0.1148128584 0.5543330908 4290823090
-0.2787854970 -0.1142171845 0.5544313192 4291217594
-0.2792765200 -0.1138012633 0.5554078817 4291020215
-0.2797674835 -0.1133831367 0.5563842654 4290493872
-0.2802583277 -0.1129628047 0.5573604703 4290625458
-0.2803069949 -0.1123630404 0.5574572086 4291151293
-0.2807976007 -0.1119392514 0.5584328771 4291217086
-0.2808458507 -0.1113379151 0.5585288405 4291151550
-0.2813362181 -0.1109106615 0.5595040321 4291809480
-0.2813840508 -0.1103077605 0.5595991611 4292138447
-0.2823166251 -0.1100495383 0.5614538193 4292598998
-0.2823641300 -0.1094441339 0.5615482926 4292204240
-0.2828540206 -0.1090090126 0.5625225902 4291085759
-0.2833438218 -0.1085716933 0.5634966493 4290625466
-0.2842763066 -0.1083008572 0.5653511286 4291809740
-0.2847659886 -0.1078581810 0.5663249493 4292599256
-0.2852555513 -0.1074132994 0.5672985911 4293059807
-0.2861880064 -0.1071320549 0.5691530108 4293257958
-0.2871205211 -0.1068466976 0.5710075498 4292994786
-0.2880530655 -0.1065572351 0.5728620887 4292731614
-0.2889856398 -0.1062636673 0.5747167468 4292600028
-0.2903615236 -0.1061280072 0.5774530768 4293127149
-0.2912942171 -0.1058252603 0.5793079138 4293258735
-0.2931138277 -0.1058386341 0.5829266310 4293324528
-0.3143841922 -0.1847838163 0.6266119480 4288323241
-0.3140273094 -0.1838786155 0.6259005666 4286152072
-0.3136699498 -0.1829747409 0.6251882911 4285165177
-0.3128781915 -0.1818200052 0.6236102581 4285099384
-0.3120857775 -0.1806683987 0.6220308542 4284440166
-0.3099902570 -0.1787687987 0.6178541780 4283979615
-0.3065906465 -0.1761293262 0.6110782623 4283584857
-0.3001485467 -0.1717638075 0.5982382894 4283650650
-0.2937031388 -0.1674249172 0.5853916407 4283453271
-0.2889926732 -0.1640997529 0.5760030150 4283255892
-0.2860184610 -0.1617774963 0.5700749755 4283453271
-0.2843469083 -0.1602023393 0.5667433739 4283321685
-0.2831092179 -0.1588780731 0.5642764568 4283386965
-0.2818706930 -0.1575588137 0.5618079305 4282926414
-0.2806313336 -0.1562445760 0.5593377352 4282531656
-0.2802615464 -0.1554180533 0.5586006641 4282597449
-0.2794560492 -0.1543525010 0.5569951534 4282794826
-0.2790853083 -0.1535296887 0.5562562346 4282794826
-0.2787141502 -0.1527082920 0.5555165410 4282729033
-0.2783426046 -0.1518883258 0.5547759533 4282794826
-0.2775349319 -0.1508329809 0.5531661510 4282925897
-0.2771624327 -0.1500167549 0.5524237156 4283057483
-0.2767895162 -0.1492019594 0.5516804457 4282860104
-0.2764162123 -0.1483885944 0.5509364009 4282465346
-0.2760424912 -0.1475766599 0.5501914620 4282267967
-0.2756683528 -0.1467661709 0.5494457483 4282333760
-0.2757300735 -0.1461884230 0.5495688319 4282465346
-0.2757915854 -0.1456102878 0.5496914387 4282531139
-0.2754164040 -0.1448022872 0.5489436388 4282267967
-0.2754773796 -0.1442243010 0.5490651727 4282202174
-0.2751014829 -0.1434182823 0.5483159423 4282333760
-0.2747251689 -0.1426137090 0.5475658774 4282399553
-0.2747853100 -0.1420364082 0.5476857424 4282333760
-0.2744082808 -0.1412338465 0.5469342470 4282399553
-0.2740308344 -0.1404327303 0.5461819768 4282465346
-0.2740901113 -0.1398561448 0.5463001728 4282267967
-0.2732747197 -0.1388348937 0.5446749330 4282267708
-0.2733334005 -0.1382594109 0.5447918773 4282004536
-0.2733918428 -0.1376835406 0.5449084044 4281938743
-0.2730125487 -0.1368879378 0.5441523790 4282004536
-0.2730704546 -0.1363122463 0.5442678332 4281938489
-0.2731281817 -0.1357362121 0.5443828702 4281872696
-0.2736234367 -0.1353763938 0.5453699827 4281872696
-0.2736808062 -0.1347987056 0.5454843044 4281938489
-0.2737379074 -0.1342206448 0.5455981493 4282135868
-0.2737948298 -0.1336422116 0.5457115769 4282333247
-0.2738515139 -0.1330634356 0.5458245873 4282727235
-0.2739079893 -0.1324842870 0.5459371209 4282924614
-0.2739642262 -0.1319047958 0.5460491776 4282858821
-0.2740202248 -0.1313249469 0.5461608768 4282793028
-0.2740760148 -0.1307447255 0.5462720394 4282858821
-0.2736929655 -0.1299559027 0.5455085635 4282793028
-0.2737482190 -0.1293759197 0.5456187129 4282793280
-0.2742420435 -0.1290019900 0.5466029644 4282793280
-0.2742969394 -0.1284203678 0.5467123389 4282858562
-0.2743515968 -0.1278384030 0.5468212962 4282792769
-0.2744060159 -0.1272560954 0.5469298363 4282595649
-0.2744602263 -0.1266734302 0.5470378399 4282727235
-0.2745142281 -0.1260904372 0.5471454263 4282793028
-0.2745679617 -0.1255070865 0.5472525954 4282924614
-0.2750608921 -0.1251232773 0.5482350588 4283121993
-0.2751142681 -0.1245383099 0.5483414531 4286411643
-0.2751674354 -0.1239530072 0.5484473705 4287859341
-0.2752203643 -0.1233673617 0.5485528708 4284964449
-0.2752730548 -0.1227813810 0.5486578941 4283911759
-0.2757653296 -0.1223902702 0.5496390462 4284767068
-0.2758176327 -0.1218026802 0.5497433543 4286215538
-0.2758697271 -0.1212147623 0.5498471260 4286018159
-0.2759215534 -0.1206265092 0.5499504805 4287860875
-0.2759731710 -0.1200379282 0.5500533581 4289242528
-0.2760245502 -0.1194490120 0.5501557589 4289177503
-0.2760757208 -0.1188597754 0.5502577424 4289374882
-0.2765670121 -0.1184588298 0.5512369871 4290164394
-0.2766177654 -0.1178679988 0.5513381362 4290624945
-0.2766683102 -0.1172768399 0.5514388680 4290427819
-0.2767185867 -0.1166853532 0.5515390635 4290559405
-0.2767686546 -0.1160935536 0.5516388416 4291019956
-0.2772592604 -0.1156853437 0.5526167154 4290559405
-0.2777497768 -0.1152749360 0.5535944104 4289704355
-0.2777992785 -0.1146802902 0.5536930561 4291086008
-0.2782895863 -0.1142664105 0.5546702743 4291743939
-0.2787797749 -0.1138503253 0.5556473136 4291678146
-0.2792699039 -0.1134320349 0.5566241741 4291020216
-0.2797599435 -0.1130115390 0.5576009154 4291217595
-0.2798085511 -0.1124115363 0.5576977730 4291611842
-0.2802983224 -0.1119875759 0.5586739779 4291809221
-0.2803465426 -0.1113860011 0.5587700605 4291809480
-0.2808360457 -0.1109585762 0.5597457290 4291875273
-0.2813254893 -0.1105289459 0.5607212782 4291414722
-0.2818148136 -0.1100971177 0.5616965890 4291546308
-0.2818622589 -0.1094914600 0.5617911220 4291480515
-0.2823513448 -0.1090561748 0.5627658963 4290690999
-0.2828403115 -0.1086186767 0.5637404919 4291151552
-0.2833291590 -0.1081789732 0.5647148490 4292204240
-0.2842600048 -0.1079048887 0.5665701628 4292796635
-0.2847487628 -0.1074598283 0.5675442815 4292796635
-0.2856796086 -0.1071784720 0.5693996549 4292665049
-0.2866104841 -0.1068930104 0.5712550282 4292336084
-0.2875414193 -0.1066034362 0.5731105208 4292467670
-0.2884723842 -0.1063097566 0.5749660134 4293059807
-0.2898458838 -0.1061740518 0.5777035952 4293455344
-0.2912195325 -0.1060323343 0.5804414749 4293586930
-0.2925933599 -0.1058845818 0.5831797123 4293850102
-0.3120873570 -0.1838407665 0.6234140396 4288191655
-0.3125966489 -0.1834469885 0.6244313717 4286020486
-0.3118067086 -0.1822913885 0.6228534579 4285625469
-0.3114493191 -0.1813911945 0.6221395135 4286086020
-0.3102248907 -0.1799895614 0.6196936965 4284835181
-0.3081328869 -0.1780919135 0.6155147552 4283716700
-0.3043056428 -0.1752045006 0.6078696251 4283519321
-0.2983083725 -0.1710894853 0.5958896875 4283650907
-0.2923079729 -0.1669992954 0.5839034915 4283387478
-0.2880396247 -0.1639214605 0.5753772259 4283321685
-0.2855045795 -0.1618451178 0.5703133345 4283321685
-0.2838360965 -0.1602693498 0.5669804215 4283124306
-0.2826007009 -0.1589445472 0.5645126104 4282992205
-0.2813644409 -0.1576247811 0.5620431304 4282794826
-0.2805616856 -0.1565523595 0.5604395270 4282663240
-0.2797583044 -0.1554831713 0.5588347316 4282729033
-0.2793888152 -0.1546577364 0.5580966473 4282794312
-0.2790189087 -0.1538337022 0.5573577285 4282596933
-0.2786485851 -0.1530110836 0.5566179752 4282531140
-0.2778430283 -0.1519520879 0.5550088286 4282662726
-0.2770368457 -0.1508963257 0.5533984900 4282794312
-0.2766650915 -0.1500798017 0.5526558757 4282991691
-0.2762928903 -0.1492646933 0.5519123673 4282860105
-0.2759203017 -0.1484510154 0.5511680841 4282465347
-0.2751120031 -0.1474055201 0.5495534539 4282202175
-0.2751738727 -0.1468279511 0.5496770740 4282202175
-0.2748000622 -0.1460185796 0.5489303470 4282202175
-0.2748613954 -0.1454411447 0.5490528941 4282202175
-0.2749225497 -0.1448633373 0.5491750240 4282202175
-0.2745476961 -0.1440564692 0.5484262109 4282136382
-0.2746082842 -0.1434787959 0.5485472679 4282399554
-0.2742327154 -0.1426739097 0.5477970243 4282596933
-0.2742927969 -0.1420964003 0.5479170084 4282465347
-0.2739164829 -0.1412935108 0.5471653342 4282531140
-0.2735397518 -0.1404920816 0.5464128256 4282596933
-0.2731626332 -0.1396921277 0.5456594825 4282333761
-0.2727850974 -0.1388936341 0.5449053645 4282333247
-0.2728437185 -0.1383179128 0.5450224280 4282070075
-0.2729021311 -0.1377418339 0.5451390743 4281938489
-0.2729603052 -0.1371653825 0.5452553034 4282004282
-0.2725814283 -0.1363700181 0.5444985032 4282004282
-0.2726390660 -0.1357937455 0.5446135998 4281938489
-0.2731335163 -0.1354338080 0.5456013083 4281938489
-0.2731907964 -0.1348558962 0.5457157493 4281938489
-0.2732478678 -0.1342776120 0.5458297729 4282004282
-0.2733047307 -0.1336989701 0.5459433198 4282135868
-0.2733613551 -0.1331199557 0.5460564494 4282464063
-0.2734177709 -0.1325405985 0.5461691022 4282727235
-0.2734739482 -0.1319608688 0.5462813377 4282661442
-0.2739675641 -0.1315910071 0.5472673774 4282595649
-0.2740233839 -0.1310096383 0.5473788977 4282661442
-0.2736411691 -0.1302195787 0.5466153622 4282595649
-0.2741343677 -0.1298458576 0.5476005673 4282399294
-0.2737515271 -0.1290569454 0.5468358397 4282399294
-0.2738063633 -0.1284750998 0.5469453335 4282595903
-0.2738609612 -0.1278929114 0.5470544696 4282464317
-0.2739153504 -0.1273103654 0.5471630692 4282464063
-0.2739695013 -0.1267274767 0.5472712517 4282595649
-0.2744618952 -0.1263460815 0.5482547879 4282530627
-0.2745156586 -0.1257615685 0.5483622551 4282399041
-0.2745692432 -0.1251767278 0.5484692454 4282530626
-0.2746225595 -0.1245915294 0.5485758185 4285425518
-0.2751144469 -0.1242040917 0.5495583415 4286740862
-0.2751674056 -0.1236172840 0.5496641397 4285030244
-0.2752201259 -0.1230301410 0.5497694612 4284503896
-0.2752726376 -0.1224426553 0.5498743057 4284438103
-0.2753248811 -0.1218548343 0.5499787331 4286412917
-0.2753769159 -0.1212666854 0.5500826836 4286149745
-0.2754287124 -0.1206782013 0.5501861572 4287466117
-0.2754803002 -0.1200893819 0.5502891541 4288255633
-0.2755316198 -0.1195002347 0.5503916740 4288782491
-0.2760222554 -0.1191004142 0.5513717532 4289637800
-0.2760731876 -0.1185096651 0.5514734983 4290427568
-0.2761239111 -0.1179185957 0.5515748262 4291151291
-0.2761743963 -0.1173272058 0.5516756773 4291217337
-0.2762246430 -0.1167354882 0.5517759919 4290822579
-0.2767145634 -0.1163283885 0.5527547002 4290822577
-0.2767644227 -0.1157350838 0.5528542995 4290493612
-0.2772541046 -0.1153245121 0.5538324714 4289375390
-0.2773035765 -0.1147296280 0.5539312363 4290362285
-0.2777930200 -0.1143155843 0.5549089909 4290823350
-0.2778420746 -0.1137191206 0.5550069809 4291152315
-0.2783312798 -0.1133016124 0.5559841990 4290954425
-0.2788204253 -0.1128818989 0.5569612384 4291349183
-0.2793094516 -0.1124599800 0.5579381585 4292204492
-0.2797984183 -0.1120358557 0.5589148402 4292007113
-0.2798465788 -0.1114340350 0.5590110421 4291678407
-0.2803352475 -0.1110064462 0.5599872470 4291678407
-0.2808238566 -0.1105766520 0.5609632730 4291217856
-0.2813123465 -0.1101446524 0.5619390607 4291349442
-0.2813597620 -0.1095387489 0.5620337725 4291546308
-0.2818479836 -0.1091032848 0.5630090237 4291151550
-0.2823361456 -0.1086656153 0.5639840961 4291019966
-0.2828241587 -0.1082257405 0.5649589896 4291875275
-0.2837533951 -0.1079515517 0.5668151975 4292401877
-0.2842412889 -0.1075063124 0.5677897930 4292401877
-0.2851705253 -0.1072248518 0.5696460009 4292270291
-0.2860998213 -0.1069392860 0.5715023279 4292072912
-0.2870291173 -0.1066496000 0.5733586550 4292072912
-0.2879584432 -0.1063558012 0.5752150416 4292401877
-0.2893295586 -0.1062200591 0.5779538751 4293126379
-0.2907007933 -0.1060782894 0.5806930661 4293586930
-0.3106601834 -0.1834069788 0.6219430566 4288060067
-0.3103040457 -0.1825065017 0.6212300658 4285888898
-0.3099474609 -0.1816073358 0.6205161810 4285757055
-0.3095904589 -0.1807095110 0.6198014617 4286414985
-0.3083679974 -0.1793100387 0.6173540950 4285427318
-0.3067120910 -0.1776649207 0.6140390038 4283650907
-0.3024589121 -0.1745284647 0.6055240631 4283453528
-0.2973378301 -0.1709120274 0.5952716470 4283585114
-0.2913481891 -0.1668210775 0.5832803249 4283321685
-0.2875204980 -0.1639898568 0.5756173134 4283321685
-0.2849901021 -0.1619126946 0.5705513954 4283058511
-0.2828914523 -0.1600911319 0.5663499236 4282992718
-0.2816582322 -0.1587667167 0.5638809800 4282860619
-0.2808575928 -0.1576906741 0.5622780919 4282729033
-0.2796227932 -0.1563754082 0.5598060489 4282729033
-0.2792544365 -0.1555482447 0.5590686202 4282729033
-0.2788856626 -0.1547224820 0.5583302975 4282728518
-0.2785164714 -0.1538981348 0.5575911999 4282728518
-0.2781468630 -0.1530752033 0.5568512678 4282662725
-0.2777768373 -0.1522536874 0.5561104417 4282531139
-0.2774063945 -0.1514335871 0.5553688407 4282794312
-0.2770355642 -0.1506149173 0.5546264052 4283123277
-0.2766642869 -0.1497976780 0.5538831353 4282991691
-0.2762926221 -0.1489818543 0.5531390309 4282531140
-0.2754860222 -0.1479341388 0.5515242219 4282136382
-0.2751134038 -0.1471221000 0.5507782698 4282070589
-0.2747403979 -0.1463115066 0.5500314832 4282004796
-0.2743670046 -0.1455023438 0.5492839217 4281939003
-0.2739931643 -0.1446946412 0.5485355258 4282136382
-0.2744889259 -0.1443458945 0.5495280623 4282136382
-0.2741144896 -0.1435392499 0.5487784147 4282531140
-0.2737396359 -0.1427340508 0.5480279326 4282728519
-0.2737996578 -0.1421563178 0.5481480956 4282662213
-0.2734240592 -0.1413531154 0.5473961830 4282662213
-0.2730480731 -0.1405513883 0.5466434360 4282662213
-0.2726716697 -0.1397511065 0.5458899140 4282464834
-0.2727305591 -0.1391746253 0.5460077524 4282333761
-0.2723534405 -0.1383763701 0.5452528000 4282004796
-0.2724117637 -0.1378000677 0.5453695655 4281873210
-0.2724699080 -0.1372233927 0.5454859138 4281939003
-0.2720917463 -0.1364277154 0.5447288752 4282070076
-0.2721493542 -0.1358512342 0.5448441505 4282070076
-0.2726429403 -0.1354911625 0.5458323359 4282004282
-0.2727001905 -0.1349130273 0.5459469557 4282004282
-0.2727572024 -0.1343345195 0.5460610986 4282135868
-0.2728140056 -0.1337556541 0.5461748242 4282201661
-0.2737437785 -0.1336026043 0.5480362177 4282333247
-0.2738003135 -0.1330211610 0.5481494069 4282530626
-0.2738566101 -0.1324393600 0.5482621193 4282595649
-0.2739126980 -0.1318572015 0.5483744144 4282529856
-0.2739685774 -0.1312746853 0.5484862924 4282595649
-0.2740241885 -0.1306918114 0.5485976338 4282529856
-0.2736424804 -0.1299010813 0.5478334427 4282201915
-0.2736975849 -0.1293184310 0.5479437709 4282201915
-0.2737524509 -0.1287354231 0.5480536222 4282399040
-0.2733697295 -0.1279473603 0.5472873449 4282267454
-0.2734240592 -0.1273645908 0.5473961234 4282399041
-0.2734781504 -0.1267814785 0.5475044847 4282399041
-0.2739696801 -0.1263999492 0.5484884977 4282596420
-0.2740234435 -0.1258152127 0.5485960841 4282530627
-0.2740769386 -0.1252301335 0.5487032533 4282596419
-0.2741302252 -0.1246447042 0.5488098860 4283912279
-0.2746212780 -0.1242571175 0.5497930050 4284767842
-0.2746741772 -0.1236700788 0.5498989224 4284504670
-0.2747268677 -0.1230827048 0.5500043631 4284175701
-0.2747792900 -0.1224949881 0.5501093864 4284899424
-0.2748315036 -0.1219069436 0.5502138734 4286741882
-0.2748835087 -0.1213185564 0.5503179431 4287070847
-0.2749352455 -0.1207298413 0.5504215956 4288649879
-0.2749867737 -0.1201407909 0.5505247116 4288978844
-0.2750380635 -0.1195514128 0.5506274104 4288847770
-0.2755278349 -0.1191514358 0.5516079664 4289308321
-0.2755787373 -0.1185604557 0.5517098904 4289967017
-0.2756294012 -0.1179691553 0.5518112779 4290361775
-0.2756798565 -0.1173775196 0.5519122481 4290296235
-0.2757300436 -0.1167855710 0.5520127416 4290493614
-0.2762191296 -0.1163783148 0.5529919267 4290625200
-0.2762689292 -0.1157847717 0.5530916452 4290427821
-0.2767578065 -0.1153740436 0.5540703535 4289572770
-0.2768072188 -0.1147789210 0.5541692376 4290757044
-0.2772958279 -0.1143647209 0.5551474690 4291415233
-0.2773448527 -0.1137680188 0.5552455783 4291744198
-0.2778332233 -0.1133503467 0.5562233329 4290822839
-0.2783215046 -0.1129304692 0.5572009087 4290493874
-0.2788097262 -0.1125083864 0.5581783056 4291217597
-0.2788580060 -0.1119075865 0.5582749248 4290757046
-0.2793459594 -0.1114820316 0.5592518449 4290428340
-0.2802737951 -0.1112288907 0.5611093640 4291349442
-0.2803215683 -0.1106243059 0.5612050295 4291941579
-0.2808092535 -0.1101921350 0.5621813536 4292336337
-0.2812968194 -0.1097577587 0.5631574392 4292073165
-0.2817842960 -0.1093211696 0.5641334057 4291481028
-0.2822716832 -0.1088823751 0.5651091337 4291217858
-0.2827589512 -0.1084413752 0.5660846829 4291612616
-0.2832461298 -0.1079981700 0.5670599937 4291810510
-0.2841737866 -0.1077197641 0.5689171553 4291810510
-0.2846608162 -0.1072711870 0.5698921680 4292073682
-0.2855884731 -0.1069855094 0.5717493296 4292271061
-0.2865161598 -0.1066957191 0.5736066103 4292270291
-0.2874438763 -0.1064018086 0.5754638910 4292336084
-0.2883716226 -0.1061037779 0.5773212314 4292797155
-0.2901813984 -0.1061241999 0.5809444189 4293652464
-0.3092354238 -0.1829726994 0.6204703450 4288191394
-0.3088797927 -0.1820736676 0.6197567582 4285691260
-0.3085237145 -0.1811759770 0.6190423369 4285296502
-0.3077355921 -0.1800271124 0.6174609661 4285362295
-0.3069468141 -0.1788813919 0.6158783436 4284834924
-0.3052937686 -0.1772374362 0.6125615239 4283387478
-0.3010481298 -0.1741015017 0.6040427685 4283518551
-0.2959361374 -0.1704854220 0.5937857628 4284044895
-0.2908214331 -0.1668905616 0.5835232735 4283386965
-0.2870007455 -0.1640581936 0.5758571625 4283386965
-0.2844749689 -0.1619801968 0.5707892776 4283123793
-0.2819477320 -0.1599126458 0.5657185316 4283058000
-0.2811492085 -0.1588329673 0.5641162992 4283058000
-0.2799174488 -0.1575130671 0.5616447926 4282729035
-0.2786848247 -0.1561981738 0.5591716170 4282859851
-0.2787499428 -0.1556132436 0.5593022108 4282662472
-0.2783818841 -0.1547871679 0.5585637689 4282530886
-0.2780134082 -0.1539625078 0.5578244328 4282596679
-0.2776445150 -0.1531392634 0.5570842624 4282399300
-0.2772752345 -0.1523174345 0.5563432574 4282596679
-0.2773388624 -0.1517341137 0.5564709306 4282859592
-0.2765353918 -0.1506780386 0.5548588037 4283122764
-0.2770319283 -0.1503309906 0.5558550954 4283057484
-0.2757939100 -0.1490443498 0.5533710718 4282531140
-0.2754225433 -0.1482296437 0.5526258945 4282136382
-0.2750507593 -0.1474163830 0.5518799424 4282004796
-0.2746785581 -0.1466045529 0.5511331558 4282004283
-0.2747400105 -0.1460248530 0.5512564182 4281872697
-0.2739329636 -0.1449852288 0.5496371388 4282070076
-0.2735595703 -0.1441777498 0.5488879085 4282399041
-0.2736200392 -0.1435996443 0.5490093231 4282860105
-0.2732459307 -0.1427941322 0.5482586026 4283649621
-0.2733058929 -0.1422161758 0.5483789444 4282925898
-0.2729310393 -0.1414126754 0.5476267934 4282728519
-0.2725557685 -0.1406106204 0.5468738675 4282596420
-0.2721801102 -0.1398100406 0.5461201072 4282530627
-0.2722389102 -0.1392333359 0.5462380648 4282201921
-0.2722975016 -0.1386562586 0.5463556647 4282070335
-0.2719208002 -0.1378582418 0.5455998182 4282004542
-0.2719788849 -0.1372813582 0.5457163453 4282004542
-0.2716014683 -0.1364853680 0.5449590683 4282070589
-0.2720943391 -0.1361264735 0.5459480286 4282136382
-0.2721517682 -0.1355484724 0.5460631847 4282070589
-0.2726444900 -0.1351860613 0.5470518470 4282136382
-0.2727015316 -0.1346064061 0.5471663475 4282070589
-0.2727583647 -0.1340263933 0.5472803712 4282202175
-0.2732507885 -0.1336591989 0.5482683778 4282333761
-0.2733072639 -0.1330775321 0.5483816862 4282333761
-0.2733635306 -0.1324955076 0.5484945774 4282333760
-0.2734195590 -0.1319131255 0.5486070514 4282399553
-0.2734753788 -0.1313303858 0.5487189889 4282399553
-0.2735309601 -0.1307472885 0.5488305092 4282202174
-0.2731499672 -0.1299562454 0.5480661392 4282333758
-0.2732050121 -0.1293733716 0.5481765866 4282267965
-0.2732598484 -0.1287901402 0.5482865572 4282333501
-0.2733144462 -0.1282065660 0.5483961105 4282465087
-0.2729321122 -0.1274187714 0.5476289988 4282596419
-0.2729861736 -0.1268354356 0.5477374792 4282596419
-0.2734768689 -0.1264537573 0.5487220287 4282596166
-0.2735305727 -0.1258687824 0.5488297343 4282596166
-0.2740210593 -0.1254836172 0.5498139262 4282596420
-0.2740743756 -0.1248970255 0.5499208570 4283254350
-0.2741274536 -0.1243100986 0.5500273705 4283845970
-0.2746176124 -0.1239201576 0.5510108471 4284240728
-0.2746703029 -0.1233316138 0.5511166453 4283846220
-0.2747227848 -0.1227427274 0.5512219071 4286083182
-0.2747750580 -0.1221535131 0.5513267517 4286148974
-0.2748270631 -0.1215639561 0.5514311194 4285359458
-0.2748788595 -0.1209740639 0.5515350103 4285952874
-0.2749303877 -0.1203838438 0.5516384840 4286808183
-0.2749817073 -0.1197932884 0.5517414212 4286611576
-0.2750328183 -0.1192024052 0.5518439412 4287664264
-0.2750836611 -0.1186111942 0.5519459844 4289703847
-0.2751342654 -0.1180196553 0.5520475507 4290624949
-0.2751846611 -0.1174277961 0.5521486402 4290098601
-0.2752348185 -0.1168356016 0.5522492528 4290361773
-0.2757230699 -0.1164281964 0.5532289147 4290559152
-0.2757728398 -0.1158344150 0.5533287525 4290361773
-0.2762608528 -0.1154235303 0.5543079972 4289770149
-0.2763102055 -0.1148281693 0.5544070005 4291217595
-0.2767980099 -0.1144138053 0.5553857684 4291547073
-0.2768469751 -0.1138168648 0.5554839969 4292402382
-0.2773345113 -0.1133990288 0.5564622283 4291941317
-0.2778219581 -0.1129789948 0.5574402809 4290691250
-0.2783093452 -0.1125567406 0.5584182143 4291217343
-0.2787966132 -0.1121322885 0.5593959093 4291348929
-0.2792838216 -0.1117056236 0.5603734255 4291151804
-0.2797709107 -0.1112767458 0.5613508224 4291612355
-0.2798186541 -0.1106719226 0.5614465475 4292072904
-0.2803054750 -0.1102395803 0.5624234080 4292533455
-0.2807922363 -0.1098050326 0.5634000301 4292139210
-0.2812788785 -0.1093682721 0.5643764734 4291283901
-0.2817654014 -0.1089293063 0.5653526783 4291218622
-0.2822518647 -0.1084881276 0.5663287044 4291284415
-0.2831779122 -0.1082127765 0.5681868196 4291612612
-0.2836642265 -0.1077662334 0.5691626072 4292402128
-0.2845902741 -0.1074836105 0.5710207224 4292731611
-0.2850764692 -0.1070316955 0.5719961524 4292994783
-0.2860025167 -0.1067417935 0.5738542676 4292665819
-0.2873686850 -0.1066110358 0.5765954852 4292139475
-0.2882948816 -0.1063119397 0.5784538388 4292337887
-0.2892210782 -0.1060087234 0.5803122520 4293522161
-0.3073826134 -0.1822826117 0.6181302071 4288059808
-0.3074579835 -0.1816403568 0.6182817817 4285362295
-0.3071024120 -0.1807441264 0.6175667644 4284506986
-0.3063155413 -0.1795966178 0.6159844398 4284178021
-0.3050971329 -0.1782005727 0.6135342717 4284176994
-0.3034468293 -0.1765586734 0.6102156043 4283584857
-0.2992086411 -0.1734241843 0.6016927958 4283848029
-0.2949681580 -0.1703073084 0.5931653976 4284374373
-0.2898626924 -0.1667118967 0.5828986168 4284110688
-0.2860488594 -0.1638792902 0.5752291679 4283650137
-0.2835276127 -0.1618013680 0.5701591372 4283124306
-0.2814365923 -0.1599792540 0.5659541488 4283321685
-0.2806395590 -0.1588991582 0.5643513799 4283255377
-0.2794100642 -0.1575787365 0.5618789196 4282926412
-0.2781797647 -0.1562633365 0.5594048500 4282860105
-0.2778127491 -0.1554364413 0.5586668253 4282662726
-0.2774453163 -0.1546109766 0.5579279065 4282662726
-0.2770774662 -0.1537868977 0.5571881533 4282596933
-0.2767091990 -0.1529642493 0.5564476252 4282267968
-0.2767729759 -0.1523811221 0.5565758944 4282465347
-0.2764039934 -0.1515603960 0.5558338761 4282793799
-0.2760345936 -0.1507410854 0.5550910234 4283188557
-0.2760975361 -0.1501585692 0.5552175641 4283123277
-0.2752945423 -0.1491067708 0.5536028147 4282596933
-0.2749238908 -0.1482917666 0.5528574586 4282070589
-0.2749859095 -0.1477108002 0.5529821515 4281939003
-0.2746145427 -0.1468977481 0.5522353649 4281938490
-0.2742427588 -0.1460861266 0.5514877439 4281872697
-0.2743039131 -0.1455058306 0.5516107678 4282070076
-0.2739314437 -0.1446961910 0.5508616567 4282333248
-0.2735585272 -0.1438880116 0.5501117706 4283123277
-0.2736188471 -0.1433083862 0.5502330661 4284175965
-0.2732452154 -0.1425021887 0.5494817495 4283320656
-0.2728711963 -0.1416974366 0.5487295985 4282794312
-0.2724967599 -0.1408941597 0.5479766130 4282464834
-0.2721219063 -0.1400923431 0.5472227931 4282333248
-0.2721807659 -0.1395145059 0.5473411679 4282136382
-0.2722393870 -0.1389362961 0.5474590659 4281873210
-0.2718635201 -0.1381370425 0.5467032194 4281807417
-0.2723560035 -0.1377787441 0.5476935506 4282004796
-0.2719795108 -0.1369806081 0.5469364524 4282136382
-0.2720371485 -0.1364018321 0.5470523834 4282202175
-0.2720946074 -0.1358226836 0.5471678972 4282333761
-0.2725865841 -0.1354592294 0.5481572151 4282333761
-0.2726436555 -0.1348784268 0.5482720733 4282333247
-0.2727005482 -0.1342972666 0.5483863950 4282333247
-0.2727572024 -0.1337157488 0.5485003591 4282399040
-0.2728136182 -0.1331338584 0.5486137867 4282464833
-0.2728698254 -0.1325516105 0.5487268567 4282530626
-0.2729257941 -0.1319690049 0.5488393903 4282399040
-0.2729815543 -0.1313860416 0.5489515066 4282333247
-0.2730370760 -0.1308027208 0.5490632057 4282464833
-0.2730923891 -0.1302190423 0.5491744280 4282267965
-0.2727118433 -0.1294282526 0.5484091640 4282267965
-0.2727666199 -0.1288448125 0.5485192537 4282267965
-0.2728211582 -0.1282609999 0.5486289859 4282399551
-0.2728754580 -0.1276768595 0.5487381816 4282596419
-0.2729295492 -0.1270923465 0.5488469601 4282596419
-0.2729834318 -0.1265075058 0.5489552617 4282530627
-0.2730370462 -0.1259223223 0.5490631461 4282596420
-0.2735267282 -0.1255369931 0.5500478148 4282728005
-0.2735799849 -0.1249501854 0.5501549244 4282991177
-0.2740694284 -0.1245613694 0.5511391759 4282727487
-0.2741223276 -0.1239729375 0.5512455702 4283319624
-0.2741749883 -0.1233841628 0.5513514280 4284898395
-0.2742274106 -0.1227950528 0.5514568686 4287069564
-0.2742796242 -0.1222056001 0.5515618324 4284635735
-0.2743315697 -0.1216158122 0.5516663790 4283319875
-0.2743833065 -0.1210256889 0.5517703891 4283123779
-0.2744348347 -0.1204352379 0.5518739820 4283386951
-0.2744860947 -0.1198444515 0.5519770980 4283781709
-0.2745371461 -0.1192533374 0.5520797372 4284110674
-0.2745879292 -0.1186618879 0.5521818995 4286150771
-0.2746385038 -0.1180701181 0.5522835851 4289966765
-0.2746888399 -0.1174780205 0.5523847938 4291414465
-0.2747389376 -0.1168855950 0.5524855256 4291217086
-0.2752263844 -0.1164780259 0.5534657240 4290953912
-0.2752760649 -0.1158840135 0.5535656810 4290295982
-0.2757632732 -0.1154729649 0.5545454025 4290033323
-0.2758125961 -0.1148773655 0.5546445847 4290888632
-0.2762995362 -0.1144628450 0.5556238294 4290559667
-0.2763484418 -0.1138656661 0.5557221770 4291612355
-0.2768351734 -0.1134476736 0.5567009449 4292007111
-0.2773217857 -0.1130274683 0.5576794744 4291414974
-0.2778083086 -0.1126050577 0.5586578846 4291677894
-0.2782947719 -0.1121804342 0.5596361160 4292072652
-0.2787811160 -0.1117535979 0.5606141686 4291612355
-0.2792673707 -0.1113245562 0.5615919828 4291612355
-0.2797535658 -0.1108933091 0.5625696778 4291809732
-0.2798010707 -0.1102869809 0.5626652241 4292336076
-0.2802869678 -0.1098522618 0.5636423230 4292270796
-0.2807727754 -0.1094153300 0.5646193027 4290889143
-0.2812584937 -0.1089761853 0.5655959845 4290889143
-0.2821829617 -0.1087038964 0.5674550533 4291218108
-0.2826685309 -0.1082593873 0.5684315562 4291546819
-0.2831540108 -0.1078126654 0.5694078207 4292599507
-0.2836393714 -0.1073637307 0.5703838468 4293125855
-0.2845637798 -0.1070778370 0.5722427964 4292796890
-0.2854882181 -0.1067878231 0.5741017461 4292336854
-0.2864126861 -0.1064936891 0.5759608150 4292928991
-0.2882158756 -0.1065201908 0.5795869827 4293126633
-0.2891405523 -0.1062159017 0.5814464092 4293916149
-0.3059635162 -0.1818472296 0.6166538000 4288454568
-0.3056087792 -0.1809520274 0.6159388423 4285757055
-0.3052535951 -0.1800581664 0.6152229905 4284704367
-0.3048979640 -0.1791656315 0.6145062447 4284441195
-0.3036816120 -0.1777708381 0.6120547652 4284111712
-0.3016039133 -0.1758792102 0.6078672409 4283782747
-0.2973731756 -0.1727461666 0.5993404388 4284176992
-0.2935706079 -0.1698798239 0.5916765332 4284176992
-0.2889048457 -0.1665329486 0.5822729468 4283913820
-0.2850979269 -0.1637001038 0.5746002793 4283387476
-0.2830119729 -0.1618686318 0.5703961253 4283124304
-0.2809247971 -0.1600457877 0.5661895275 4283124304
-0.2801292837 -0.1589652896 0.5645862222 4283123791
-0.2789020836 -0.1576443315 0.5621128678 4282992205
-0.2772428989 -0.1560856700 0.5587688684 4282860105
-0.2773077786 -0.1555012167 0.5588995814 4282399554
-0.2769410610 -0.1546754241 0.5581605434 4282465347
-0.2765739262 -0.1538510472 0.5574206114 4282531140
-0.2762063742 -0.1530280858 0.5566798449 4282399554
-0.2758384347 -0.1522065401 0.5559382439 4282662726
-0.2759018242 -0.1516236961 0.5560660362 4282925385
-0.2755331695 -0.1508040875 0.5553230047 4283188557
-0.2751640677 -0.1499858946 0.5545790792 4283057484
-0.2747945487 -0.1491691321 0.5538343787 4282596933
-0.2739924788 -0.1481201798 0.5522178411 4282136382
-0.2740543187 -0.1475399286 0.5523424745 4282136382
-0.2741159499 -0.1469592750 0.5524666905 4282201662
-0.2737449110 -0.1461473405 0.5517188311 4282135869
-0.2733734548 -0.1453368664 0.5509701967 4282201662
-0.2738668919 -0.1449859291 0.5519647002 4282201662
-0.2734948099 -0.1441764981 0.5512147546 4282860105
-0.2731223106 -0.1433685422 0.5504640341 4284044379
-0.2731823623 -0.1427883208 0.5505850315 4283189070
-0.2728091478 -0.1419823468 0.5498328805 4282531140
-0.2724355459 -0.1411778331 0.5490798950 4282267455
-0.2720614970 -0.1403747797 0.5483260751 4282267455
-0.2716870904 -0.1395732015 0.5475714207 4282201662
-0.2717456520 -0.1389947683 0.5476894379 4281938490
-0.2718040049 -0.1384159625 0.5478070974 4282070076
-0.2718621492 -0.1378367841 0.5479242802 4282530627
-0.2714864016 -0.1370383203 0.5471669436 4282530626
-0.2715440094 -0.1364593357 0.5472830534 4282399040
-0.2720352411 -0.1360970289 0.5482731462 4282662212
-0.2720925212 -0.1355163753 0.5483885407 4282596419
-0.2721495628 -0.1349353641 0.5485034585 4282596419
-0.2722063661 -0.1343539804 0.5486180186 4282662212
-0.2722629607 -0.1337722391 0.5487320423 4282596419
-0.2723193169 -0.1331901252 0.5488456488 4282530626
-0.2723754942 -0.1326076537 0.5489588380 4282596419
-0.2724314034 -0.1320248246 0.5490715504 4282530626
-0.2724871039 -0.1314416379 0.5491838455 4282465087
-0.2725425959 -0.1308580935 0.5492956638 4282596673
-0.2725978494 -0.1302741915 0.5494070053 4282465344
-0.2726528645 -0.1296899319 0.5495179296 4282531137
-0.2722727358 -0.1288994104 0.5487517715 4282531137
-0.2723272145 -0.1283153892 0.5488615632 4282596930
-0.2719463706 -0.1275269687 0.5480940342 4282793798
-0.2724355459 -0.1271462888 0.5490798950 4282728005
-0.2724893391 -0.1265612096 0.5491883159 4282662212
-0.2725429237 -0.1259757876 0.5492963195 4282793798
-0.2725962996 -0.1253900230 0.5494038463 4282859845
-0.2730849683 -0.1250032932 0.5503887534 4282794052
-0.2735735774 -0.1246143356 0.5513735414 4282990657
-0.2736264169 -0.1240256727 0.5514800549 4284109138
-0.2736790180 -0.1234366670 0.5515860319 4287464321
-0.2737314105 -0.1228473186 0.5516916513 4286806391
-0.2737835646 -0.1222576424 0.5517967343 4284240464
-0.2738354802 -0.1216676235 0.5519014001 4284174671
-0.2738871574 -0.1210772693 0.5520055294 4284504666
-0.2739385962 -0.1204865798 0.5521092415 4284833631
-0.2739898264 -0.1198955625 0.5522124767 4285228902
-0.2740408182 -0.1193042099 0.5523152351 4285492074
-0.2740915716 -0.1187125370 0.5524175167 4285492072
-0.2745786309 -0.1183086187 0.5533991456 4287926413
-0.2746289968 -0.1177153438 0.5535007119 4291216318
-0.2746791244 -0.1171217412 0.5536017418 4292532178
-0.2747290134 -0.1165278107 0.5537022948 4291940809
-0.2747786939 -0.1159335598 0.5538023710 4291743430
-0.2752650380 -0.1155223623 0.5547826290 4291612101
-0.2753143013 -0.1149265245 0.5548819304 4290822585
-0.2758004367 -0.1145118400 0.5558616519 4289704358
-0.2758492827 -0.1139144227 0.5559601188 4290493874
-0.2763351798 -0.1134962663 0.5569393635 4291349183
-0.2768209577 -0.1130758971 0.5579184294 4291349183
-0.2777440250 -0.1128310114 0.5597788692 4291546308
-0.2782297134 -0.1124052703 0.5607577562 4291546308
-0.2782777846 -0.1118015349 0.5608546138 4291283390
-0.2787632048 -0.1113723293 0.5618329644 4291678148
-0.2792485356 -0.1109409034 0.5628111362 4291612353
-0.2797337770 -0.1105072722 0.5637891293 4291480767
-0.2802189291 -0.1100714281 0.5647668839 4291876038
-0.2807039618 -0.1096333712 0.5657444596 4291020729
-0.2811889052 -0.1091931090 0.5667218566 4291349694
-0.2816737592 -0.1087506339 0.5676990151 4291481280
-0.2821584940 -0.1083059460 0.5686759949 4291349442
-0.2826431394 -0.1078590453 0.5696527958 4292204751
-0.2831276655 -0.1074099392 0.5706292987 4292928476
-0.2840504348 -0.1071239337 0.5724891424 4292533718
-0.2849732637 -0.1068338156 0.5743489861 4292204500
-0.2863345742 -0.1067029685 0.5770927072 4293257188
-0.2872575223 -0.1064036489 0.5789528489 4293586669
-0.2890577316 -0.1064231843 0.5825811028 4294113013
-0.3045468628 -0.1814113408 0.6151756644 4288520361
-0.3041926324 -0.1805176139 0.6144601107 4286086020
-0.3042670786 -0.1798789203 0.6146105528 4284638574
-0.3034828007 -0.1787341535 0.6130263209 4284704367
-0.3022685349 -0.1773406267 0.6105735302 4284374884
-0.3001944721 -0.1754500419 0.6063839793 4283782747
-0.2964009047 -0.1725676507 0.5987210870 4283848540
-0.2926052213 -0.1697010547 0.5910539031 4283585368
-0.2883777022 -0.1666020304 0.5825144649 4283321683
-0.2845777571 -0.1637680382 0.5748386979 4283255890
-0.2824956775 -0.1619358361 0.5706329346 4283782234
-0.2804123759 -0.1601122618 0.5664247274 4283716441
-0.2791881859 -0.1587866843 0.5639519095 4283913307
-0.2783934474 -0.1577098817 0.5623465776 4283584342
-0.2771677375 -0.1563934535 0.5598706603 4283189070
-0.2768021524 -0.1555659324 0.5591322184 4282794312
-0.2764361799 -0.1547398269 0.5583928823 4282530627
-0.2756390870 -0.1536750197 0.5567827821 4282464834
-0.2757029533 -0.1530918628 0.5569118261 4282596420
-0.2753356993 -0.1522700042 0.5561700463 4282662213
-0.2749680579 -0.1514495611 0.5554273725 4282793799
-0.2746000290 -0.1506305486 0.5546839237 4282859592
-0.2750939131 -0.1502840668 0.5556815863 4282662726
-0.2742939591 -0.1492314488 0.5540657043 4282399554
-0.2734933794 -0.1481820792 0.5524485707 4282267968
-0.2735551596 -0.1476016045 0.5525733829 4282399554
-0.2736167312 -0.1470207423 0.5526977181 4282399041
-0.2732464075 -0.1462084949 0.5519496799 4282201662
-0.2728756964 -0.1453977078 0.5512008667 4282201662
-0.2733682692 -0.1450466514 0.5521958470 4282004283
-0.2729969323 -0.1442369074 0.5514457226 4282333761
-0.2730572224 -0.1436559409 0.5515674949 4283123277
-0.2726851404 -0.1428481936 0.5508159399 4282662726
-0.2723126709 -0.1420419067 0.5500635505 4282202175
-0.2719397843 -0.1412370801 0.5493103266 4282135869
-0.2719989121 -0.1406573504 0.5494297743 4282201662
-0.2716253102 -0.1398545206 0.5486751199 4282135869
-0.2712513208 -0.1390531808 0.5479196310 4282070076
-0.2713096142 -0.1384741515 0.5480374098 4282596420
-0.2713676989 -0.1378947645 0.5481547117 4283385936
-0.2714255452 -0.1373149902 0.5482715964 4283056970
-0.2714831829 -0.1367348582 0.5483880639 4282530626
-0.2715406120 -0.1361543536 0.5485040545 4282859591
-0.2715978324 -0.1355734766 0.5486195683 4282728005
-0.2716548145 -0.1349922419 0.5487346649 4282662212
-0.2717115581 -0.1344106346 0.5488493443 4282925384
-0.2717680931 -0.1338286698 0.5489635468 4282925384
-0.2718244195 -0.1332463324 0.5490773320 4282662212
-0.2718805075 -0.1326636374 0.5491906404 4282794052
-0.2719363868 -0.1320805848 0.5493034720 4282925638
-0.2719920278 -0.1314971745 0.5494158864 4282859845
-0.2720474601 -0.1309134066 0.5495278239 4282859845
-0.2716686726 -0.1301214248 0.5487627387 4282794311
-0.2717235684 -0.1295378804 0.5488736033 4282662725
-0.2717782259 -0.1289539784 0.5489840508 4282465346
-0.2718326747 -0.1283697188 0.5490939617 4282465346
-0.2718868852 -0.1277851164 0.5492035151 4282596419
-0.2719408870 -0.1272001714 0.5493125319 4282596419
-0.2719946504 -0.1266148686 0.5494211316 4282530880
-0.2720481753 -0.1260292232 0.5495292544 4282596673
-0.2721014619 -0.1254432350 0.5496369600 4282859073
-0.2721545398 -0.1248568967 0.5497441888 4283122245
-0.2726422548 -0.1244687289 0.5507292747 4284240467
-0.2731298804 -0.1240783483 0.5517143011 4286082671
-0.2731824219 -0.1234891191 0.5518204570 4287661701
-0.2732347548 -0.1228995398 0.5519261360 4285095774
-0.2728516757 -0.1221148670 0.5511523485 4284108878
-0.2729034722 -0.1215255558 0.5512569547 4284240464
-0.2729550302 -0.1209359169 0.5513610840 4283911759
-0.2734417617 -0.1205378771 0.5523443222 4284043345
-0.2734929323 -0.1199466288 0.5524476767 4284109908
-0.2735438645 -0.1193550453 0.5525505543 4285228389
-0.2735945880 -0.1187631339 0.5526530147 4285754733
-0.2740807831 -0.1183590591 0.5536351204 4286610042
-0.2741311193 -0.1177655458 0.5537367463 4289110687
-0.2741811872 -0.1171717122 0.5538379550 4291610821
-0.2742310464 -0.1165775508 0.5539386272 4292400592
-0.2747167349 -0.1161674559 0.5549196601 4292334799
-0.2747661769 -0.1155717000 0.5550195575 4292006602
-0.2752516270 -0.1151581332 0.5560001135 4291809223
-0.2753006816 -0.1145607904 0.5560992360 4291283136
-0.2757858634 -0.1141437367 0.5570793152 4290362034
-0.2762709856 -0.1137244701 0.5580592155 4290164909
-0.2767559886 -0.1133029982 0.5590389371 4290757046
-0.2772409320 -0.1128793061 0.5600184798 4291875527
-0.2777257860 -0.1124534011 0.5609979033 4291414976
-0.2782105207 -0.1120252907 0.5619770885 4291086009
-0.2782583833 -0.1114200503 0.5620737076 4291283388
-0.2787428796 -0.1109884605 0.5630523562 4291480767
-0.2787902951 -0.1103816405 0.5631482005 4291480767
-0.2792745233 -0.1099465787 0.5641263127 4291809731
-0.2801957726 -0.1096804142 0.5659872293 4290954422
-0.2806798816 -0.1092399731 0.5669651031 4290888630
-0.2811639011 -0.1087973267 0.5679427981 4291480767
-0.2816478014 -0.1083524674 0.5689202547 4291217343
-0.2821316123 -0.1079053879 0.5698975325 4291677894
-0.2826153040 -0.1074561030 0.5708745718 4292467413
-0.2835364342 -0.1071699932 0.5727352500 4292467413
-0.2848952413 -0.1070441902 0.5754799843 4292204500
-0.2858165205 -0.1067488790 0.5773409605 4293059809
-0.2871755958 -0.1066119522 0.5800862312 4293389290
-0.2880969942 -0.1063074321 0.5819474459 4293981427
-0.3031326830 -0.1809749603 0.6136959195 4288191394
-0.3027789295 -0.1800826937 0.6129797101 4286414983
-0.3028531075 -0.1794455796 0.6131299138 4284506986
-0.3007847071 -0.1775434464 0.6089424491 4284112228
-0.3021436334 -0.1776659489 0.6116935611 4284177251
-0.2987875044 -0.1750203967 0.6048990488 4283453528
-0.2950007319 -0.1721386462 0.5972326398 4283453528
-0.2912118435 -0.1692727208 0.5895620584 4283387735
-0.2874208987 -0.1664226353 0.5818872452 4283453271
-0.2840569615 -0.1638358980 0.5750768781 4283387478
-0.2815495729 -0.1617563814 0.5700006485 4284703336
-0.2798992991 -0.1601786762 0.5666596293 4285953403
-0.2786774039 -0.1588525772 0.5641859174 4286084476
-0.2778841853 -0.1577753574 0.5625800490 4284373858
-0.2766607702 -0.1564584076 0.5601031780 4283189070
-0.2762959003 -0.1556305736 0.5593645573 4283057484
-0.2759306431 -0.1548041552 0.5586250424 4282794312
-0.2751350701 -0.1537389308 0.5570144057 4282399554
-0.2751988769 -0.1531555653 0.5571435690 4282399041
-0.2748323679 -0.1523333937 0.5564015508 4282333248
-0.2744654417 -0.1515126377 0.5556587577 4282333761
-0.2736678123 -0.1504567415 0.5540439487 4282333761
-0.2745911777 -0.1503467262 0.5559132695 4282333248
-0.2737927139 -0.1492936909 0.5542967916 4282267455
-0.2729936838 -0.1482439190 0.5526791215 4282333248
-0.2730553746 -0.1476632208 0.5528040528 4282464834
-0.2731168866 -0.1470821351 0.5529285669 4282202175
-0.2731781900 -0.1465006620 0.5530526638 4281939003
-0.2728082836 -0.1456886381 0.5523037910 4282004796
-0.2728690505 -0.1451072991 0.5524268150 4282004796
-0.2724984288 -0.1442972571 0.5516764522 4282135869
-0.2725586593 -0.1437160671 0.5517984033 4282530627
-0.2721872926 -0.1429080218 0.5510466099 4282399041
-0.2718155682 -0.1421014220 0.5502939820 4282070076
-0.2718749642 -0.1415209174 0.5504142642 4281873210
-0.2715024948 -0.1407163292 0.5496602058 4281939003
-0.2711296082 -0.1399132013 0.5489053130 4282004796
-0.2711881697 -0.1393334121 0.5490238667 4282004796
-0.2708145678 -0.1385322958 0.5482674837 4282728519
-0.2708725929 -0.1379526854 0.5483849645 4283583828
-0.2709304094 -0.1373727024 0.5485020280 4283123276
-0.2709879875 -0.1367923468 0.5486186147 4282531139
-0.2710453570 -0.1362116188 0.5487347245 4282859591
-0.2711025178 -0.1356305182 0.5488504171 4282793798
-0.2711594403 -0.1350490600 0.5489656925 4282991177
-0.2712161541 -0.1344672441 0.5490804911 4283122763
-0.2712726295 -0.1338850409 0.5491948128 4282991177
-0.2713288963 -0.1333024949 0.5493087173 4282925384
-0.2713849247 -0.1327195764 0.5494222045 4283057224
-0.2714407444 -0.1321363002 0.5495352149 4283057224
-0.2714963257 -0.1315526664 0.5496477485 4282925638
-0.2715516984 -0.1309686750 0.5497598648 4282925638
-0.2711736560 -0.1301763803 0.5489944816 4283057484
-0.2712284923 -0.1295925975 0.5491055250 4282662726
-0.2712831199 -0.1290084720 0.5492160916 4282399553
-0.2713375092 -0.1284240037 0.5493261814 4282399553
-0.2713916600 -0.1278391778 0.5494357944 4282530880
-0.2714456022 -0.1272539943 0.5495449901 4282596673
-0.2714993060 -0.1266684681 0.5496537089 4282793280
-0.2715527713 -0.1260825992 0.5497620106 4282793280
-0.2716060281 -0.1254963726 0.5498698354 4282793278
-0.2716590762 -0.1249098107 0.5499771833 4283451208
-0.2721458972 -0.1245215088 0.5509628057 4285424741
-0.2726326883 -0.1241309792 0.5519483089 4287793289
-0.2726852000 -0.1235415190 0.5520545840 4285885290
-0.2727374732 -0.1229517087 0.5521604419 4284569430
-0.2723551393 -0.1221667230 0.5513864160 4284503124
-0.2724068761 -0.1215771884 0.5514911413 4284042573
-0.2728929222 -0.1211802736 0.5524751544 4283451210
-0.2729442716 -0.1205891222 0.5525791049 4283319624
-0.2729954123 -0.1199976355 0.5526826382 4283780173
-0.2734810710 -0.1195959598 0.5536658764 4283845966
-0.2735318244 -0.1190028712 0.5537685752 4284043345
-0.2735823095 -0.1184094548 0.5538708568 4284438103
-0.2736325860 -0.1178157106 0.5539726019 4285491815
-0.2741177380 -0.1174079999 0.5549548268 4289307809
-0.2741676271 -0.1168126538 0.5550557971 4291150525
-0.2742172778 -0.1162169874 0.5551562905 4291611076
-0.2742666602 -0.1156210005 0.5552563071 4290558386
-0.2747512758 -0.1152072698 0.5562373996 4289768870
-0.2748002708 -0.1146096885 0.5563365817 4290559156
-0.2757202089 -0.1143731624 0.5581990480 4291217086
-0.2757689059 -0.1137730479 0.5582975745 4291151293
-0.2762530744 -0.1133514121 0.5592778325 4290427570
-0.2767371833 -0.1129275560 0.5602579117 4290559667
