VERSION 0.7
FIELDS x y z rgba
SIZE 4 4 4 4
TYPE F F F U
COUNT 1 1 1 1
WIDTH 920
HEIGHT 1
VIEWPOINT 0.0 0.0 0.0 1.0 0.0 0.0 0.0
POINTS 920
DATA ascii
-0.2505167425 -0.1425865442 0.5545587540 4292593105
-0.2505729795 -0.1420022696 0.5546832681 4293711586
-0.2506290376 -0.1414175928 0.5548073053 4292991975
-0.2506848574 -0.1408325285 0.5549309254 4292268252
-0.2511416674 -0.1404714584 0.5559421182 4292532454
-0.2511971593 -0.1398846805 0.5560649633 4293453556
-0.2512524724 -0.1392975003 0.5561873913 4293256438
-0.2513075471 -0.1387099475 0.5563093424 4292203750
-0.2509608865 -0.1379013658 0.5555419326 4290954199
-0.2506138384 -0.1370942742 0.5547736883 4290559441
-0.2502664030 -0.1362886727 0.5540046096 4290296527
-0.2487132102 -0.1348311156 0.5505663753 4290099148
-0.2467572242 -0.1331638396 0.5462364554 4290098891
-0.2448001653 -0.1315056086 0.5419042110 4290098891
-0.2456564307 -0.1313613951 0.5437996984 4290163913
-0.2428935617 -0.1292865872 0.5376836658 4290032327
-0.2425426543 -0.1285032630 0.5369068384 4290032068
-0.2425936908 -0.1279336363 0.5370197892 4290163654
-0.2422421277 -0.1271524280 0.5362415910 4290230734
-0.2418901771 -0.1263727546 0.5354624987 4289967562
-0.2407327294 -0.1251759678 0.5329002738 4289704132
-0.2403798848 -0.1244012788 0.5321192145 4289769925
-0.2393677235 -0.1215225309 0.5298786163 4291084503
-0.2390131056 -0.1207546368 0.5290936232 4291807968
-0.2390612513 -0.1201909855 0.5292001963 4293387000
-0.2384448498 -0.1175352260 0.5278357267 4294767871
-0.2384918034 -0.1169717908 0.5279396176 4294109941
-0.2385385484 -0.1164080277 0.5280430913 4294307320
-0.2389887869 -0.1160399392 0.5290398002 4294239989
-0.2390351892 -0.1154745594 0.5291424990 4293516266
-0.2394852489 -0.1151029542 0.5301387906 4293380828
-0.2399352491 -0.1147291064 0.5311349034 4292920277
-0.2407892048 -0.1145452112 0.5330252647 4292788945
-0.2416432500 -0.1143571585 0.5349158645 4292788945
-0.2424973994 -0.1141649485 0.5368066430 4293248468
-0.2437558770 -0.1141579002 0.5395925045 4293906398
-0.2466318458 -0.1148981974 0.5459589362 4294892264
-0.2499130517 -0.1158121452 0.5532224178 4294959085
-0.2483416647 -0.1144731417 0.5497438908 4293704908
-0.2508148551 -0.1149962693 0.5552186370 4292454841
-0.2512656450 -0.1145849600 0.5562165380 4292586425
-0.2525257468 -0.1145385057 0.5590059757 4293639113
-0.2525993586 -0.1547140032 0.5605471730 4292599523
-0.2526598275 -0.1541280746 0.5606813431 4290165182
-0.2527200878 -0.1535417289 0.5608150363 4287665048
-0.2527801394 -0.1529549509 0.5609483123 4291011506
-0.2528399825 -0.1523677707 0.5610811114 4291735229
-0.2532985210 -0.1520195603 0.5620986819 4292779952
-0.2533580661 -0.1514306217 0.5622307658 4292319401
-0.2530183196 -0.1506037116 0.5614768267 4292711591
-0.2526781857 -0.1497782469 0.5607220531 4291658903
-0.2523376644 -0.1489542425 0.5599663854 4291923616
-0.2515973747 -0.1478969157 0.5583236217 4292778925
-0.2512559891 -0.1470767409 0.5575660467 4292254123
-0.2509141862 -0.1462580115 0.5568075776 4291990951
-0.2501723766 -0.1452087909 0.5551614165 4291596960
-0.2498297393 -0.1443939209 0.5544010401 4291465374
-0.2494866997 -0.1435805261 0.5536397696 4291269025
-0.2495431900 -0.1429977715 0.5537651181 4291729576
-0.2491994798 -0.1421863735 0.5530024171 4292658385
-0.2492554635 -0.1416037679 0.5531266332 4293447901
-0.2493112534 -0.1410207450 0.5532504320 4292860389
-0.2497670949 -0.1406627744 0.5542620420 4292465631
-0.2498225570 -0.1400780380 0.5543850660 4292466661
-0.2498778105 -0.1394929290 0.5545077324 4293321970
-0.2499328554 -0.1389074326 0.5546298623 4293914367
-0.2499877065 -0.1383215338 0.5547515750 4293651196
-0.2500423193 -0.1377352625 0.5548728108 4292401645
-0.2496959567 -0.1369288117 0.5541041493 4291085785
-0.2493492067 -0.1361238658 0.5533346534 4290625492
-0.2482001334 -0.1348846108 0.5507847667 4290428113
-0.2466492802 -0.1334336549 0.5473431945 4290493649
-0.2467020899 -0.1328539550 0.5474604368 4290296270
-0.2427424192 -0.1301230937 0.5386734605 4290295499
-0.2435965985 -0.1299803704 0.5405689478 4290229706
-0.2440495044 -0.1296202987 0.5415740013 4290295240
-0.2420934886 -0.1279845089 0.5372334123 4290361033
-0.2409395427 -0.1267804205 0.5346726775 4290296267
-0.2406382114 -0.1254352331 0.5340039730 4289704130
-0.2402862161 -0.1246592924 0.5332228541 4290427853
-0.2399338335 -0.1238849014 0.5324409008 4290953429
-0.2388259023 -0.1221351475 0.5299822688 4291018452
-0.2396787703 -0.1219803542 0.5318748951 4290952659
-0.2385206223 -0.1208028421 0.5293048024 4292794091
-0.2379537374 -0.1175822392 0.5280467868 4293582572
-0.2380006313 -0.1170185953 0.5281508565 4292793052
-0.2380473167 -0.1164546236 0.5282545090 4292924638
-0.2384966612 -0.1160864085 0.5292516351 4292989152
-0.2393489033 -0.1159110889 0.5311428308 4292791773
-0.2397982180 -0.1155374423 0.5321399570 4293118169
-0.2410536855 -0.1155479997 0.5349259377 4293052376
-0.2406966984 -0.1147834137 0.5341337323 4293117910
-0.2419523597 -0.1147856563 0.5369201899 4293183703
-0.2432082593 -0.1147818267 0.5397071838 4293511640
-0.2436576039 -0.1143931299 0.5407043695 4294103777
-0.2445103526 -0.1141906157 0.5425966978 4294826985
-0.2461703122 -0.1143588945 0.5462803245 4294958828
-0.2478306592 -0.1145191565 0.5499648452 4294100177
-0.2494913787 -0.1146714091 0.5536502004 4292192180
-0.2515562475 -0.1150002331 0.5582323670 4292650935
-0.2520062327 -0.1145845950 0.5592309237 4293177279
-0.2532639802 -0.1145320386 0.5620220304 4294501093
-0.2512801290 -0.1542862505 0.5589973927 4292994794
-0.2513402998 -0.1537019610 0.5591312647 4290955213
-0.2517980635 -0.1533595473 0.5601496100 4288060321
-0.2518579662 -0.1527734995 0.5602828264 4290288040
-0.2519176304 -0.1521870345 0.5604155660 4291735486
-0.2519771159 -0.1516001523 0.5605478883 4292714672
-0.2520363927 -0.1510128677 0.5606797338 4292319914
-0.2516972125 -0.1501875222 0.5599251986 4292911280
-0.2513576448 -0.1493636221 0.5591697693 4292187557
-0.2510176599 -0.1485411674 0.5584135056 4291858852
-0.2506773174 -0.1477201730 0.5576563478 4292648368
-0.2503365874 -0.1469006240 0.5568983555 4292779954
-0.2499954700 -0.1460825354 0.5561395288 4292385196
-0.2492551506 -0.1450338662 0.5544925928 4292188327
-0.2489131540 -0.1442196369 0.5537317991 4292056741
-0.2481718063 -0.1431766897 0.5520825982 4291927725
-0.2482280284 -0.1425955892 0.5522077084 4292125104
-0.2482840717 -0.1420141011 0.5523323417 4292658898
-0.2483398914 -0.1414322108 0.5524565578 4292856277
-0.2483955175 -0.1408499330 0.5525802970 4292663010
-0.2488503754 -0.1404927671 0.5535921454 4292728803
-0.2489056736 -0.1399087757 0.5537151694 4292466147
-0.2489607781 -0.1393243968 0.5538377166 4292663526
-0.2490156591 -0.1387396157 0.5539598465 4293322229
-0.2494701445 -0.1383762211 0.5549708605 4294111743
-0.2491248250 -0.1375689209 0.5542026758 4293454846
-0.2491790950 -0.1369829923 0.5543234348 4291875814
-0.2484330386 -0.1359588206 0.5526637435 4291086043
-0.2476864457 -0.1349380165 0.5510028601 4290757078
-0.2465390563 -0.1337035745 0.5484504104 4290756820
-0.2453909516 -0.1324743927 0.5458963513 4290559441
-0.2442421317 -0.1312505156 0.5433406830 4290492878
-0.2426921129 -0.1298177093 0.5398924947 4290690257
-0.2435446084 -0.1296717525 0.5417889357 4290821584
-0.2407913655 -0.1276106685 0.5356640816 4290624205
-0.2412426323 -0.1272535473 0.5366680026 4290033349
-0.2400905788 -0.1260524094 0.5341051221 4289572798
-0.2401405424 -0.1254850924 0.5342162848 4290098888
-0.2397892922 -0.1247088686 0.5334349275 4290888404
-0.2387333661 -0.1223894730 0.5310858488 4290688715
-0.2379793376 -0.1214147061 0.5294084549 4291017680
-0.2384289652 -0.1210547760 0.5304086804 4291741144
-0.2384770662 -0.1204897612 0.5305156708 4292267488
-0.2385249585 -0.1199243963 0.5306222439 4292661216
-0.2377693802 -0.1189568192 0.5289413929 4292463837
-0.2378167063 -0.1183926910 0.5290466547 4292528855
-0.2374620289 -0.1176291853 0.5282576680 4292594648
-0.2375088632 -0.1170653403 0.5283618569 4292331473
-0.2379574478 -0.1166982874 0.5293597579 4292463059
-0.2380039543 -0.1161328182 0.5294632316 4292724951
-0.2380502373 -0.1155670211 0.5295661688 4292856537
-0.2389007062 -0.1153894067 0.5314581394 4293446621
-0.2393489927 -0.1150143370 0.5324553847 4293512414
-0.2401995808 -0.1148293763 0.5343475938 4293578461
-0.2418551147 -0.1150230169 0.5380305052 4293512668
-0.2410960495 -0.1140661091 0.5363419056 4293643226
-0.2439596355 -0.1148179173 0.5427122116 4294103777
-0.2472267151 -0.1157444790 0.5499801636 4294564067
-0.2460648119 -0.1145923138 0.5473954082 4294761446
-0.2485274374 -0.1151248738 0.5528737307 4294429656
-0.2485734969 -0.1145318151 0.5529761910 4291929522
-0.2498281747 -0.1144924238 0.5557673573 4292847287
-0.2506800592 -0.1142632216 0.5576624870 4293110459
-0.2511289120 -0.1138471067 0.5586609840 4293840340
-0.2519808710 -0.1136105135 0.5605562329 4294962419
-0.2500234842 -0.1532754004 0.5575795174 4291613141
-0.2504801452 -0.1529347152 0.5585979223 4288586663
-0.2505397797 -0.1523503214 0.5587309003 4289499807
-0.2505991757 -0.1517655253 0.5588634014 4291276218
-0.2506583929 -0.1511802971 0.5589954257 4292387504
-0.2507174015 -0.1505946517 0.5591270328 4292255918
-0.2507762015 -0.1500086039 0.5592581630 4293044919
-0.2504372895 -0.1491853446 0.5585023761 4292715954
-0.2500979900 -0.1483635157 0.5577456951 4291795369
-0.2497583181 -0.1475431621 0.5569881797 4292321713
-0.2494182438 -0.1467242539 0.5562297702 4292714674
-0.2490777820 -0.1459068060 0.5554704666 4292254123
-0.2483389527 -0.1448586732 0.5538228154 4292057769
-0.2479976416 -0.1440450847 0.5530616641 4291991976
-0.2472577691 -0.1430026889 0.5514116883 4291995315
-0.2473138422 -0.1424223185 0.5515367389 4292258487
-0.2473697066 -0.1418415606 0.5516613126 4292462033
-0.2474253774 -0.1412604004 0.5517854691 4292001482
-0.2474808395 -0.1406788528 0.5519091487 4292268250
-0.2475360930 -0.1400969177 0.5520323515 4292794594
-0.2479898483 -0.1397392601 0.5530442595 4292466401
-0.2480447888 -0.1391556114 0.5531668067 4292466401
-0.2480995208 -0.1385715604 0.5532888770 4292861676
-0.2485530078 -0.1382089853 0.5543001890 4293782778
-0.2486074120 -0.1376232356 0.5544214845 4293849599
-0.2482624650 -0.1368171424 0.5536522269 4292796914
-0.2475179285 -0.1357935220 0.5519918203 4291481056
-0.2467728257 -0.1347732842 0.5503302217 4290888919
-0.2456277907 -0.1335393190 0.5477766395 4290822613
-0.2436830699 -0.1318782419 0.5434396863 4290822613
-0.2449338138 -0.1319482177 0.5462290049 4290822097
-0.2421883494 -0.1298691183 0.5401062965 4290953683
-0.2422396392 -0.1292964071 0.5402206779 4290887890
-0.2414910942 -0.1282984912 0.5385513306 4290493132
-0.2407419980 -0.1273040026 0.5368807912 4290164935
-0.2407923341 -0.1267339885 0.5369930863 4290230728
-0.2388421297 -0.1251157373 0.5326438546 4290821843
-0.2392918020 -0.1247583777 0.5336467028 4290953429
-0.2389409542 -0.1239834130 0.5328642726 4290426828
-0.2385897487 -0.1232099980 0.5320810080 4290229449
-0.2378377616 -0.1222323477 0.5304040313 4291017423
-0.2382867038 -0.1218726411 0.5314052105 4291543767
-0.2375339121 -0.1208990589 0.5297263861 4291674324
-0.2379825115 -0.1205377132 0.5307268500 4292134875
-0.2376296222 -0.1197701767 0.5299398899 4292594396
-0.2376771867 -0.1192052215 0.5300459266 4292528603
-0.2377245277 -0.1186399311 0.5301514864 4292659158
-0.2377716601 -0.1180743054 0.5302566290 4292790744
-0.2378185987 -0.1175083444 0.5303612947 4292922070
-0.2378653288 -0.1169420481 0.5304654837 4292987863
-0.2379118502 -0.1163754165 0.5305692554 4293249755
-0.2379581481 -0.1158084497 0.5306724906 4293512927
-0.2384056151 -0.1154354960 0.5316703916 4293840865
-0.2392544448 -0.1152536720 0.5335633755 4293709279
-0.2397018820 -0.1148752719 0.5345612168 4293709277
-0.2409524173 -0.1148775518 0.5373500586 4293577691
-0.2418015450 -0.1146832481 0.5392436981 4293708504
-0.2430524975 -0.1146743223 0.5420334935 4294103262
-0.2443037033 -0.1146593094 0.5448237658 4294366688
-0.2455551326 -0.1146382093 0.5476146340 4294695653
-0.2472087592 -0.1147976741 0.5513023734 4294890209
-0.2488627732 -0.1149491221 0.5549910069 4292061110
-0.2497129291 -0.1147230640 0.5568869710 4293109946
-0.2505631745 -0.1144928262 0.5587830544 4293373118
-0.2502066791 -0.1137099713 0.5579880476 4293443015
-0.2498498261 -0.1129287109 0.5571922064 4294959081
-0.2487093657 -0.1528483778 0.5560261011 4292336351
-0.2491649389 -0.1525094509 0.5570446253 4289573045
-0.2492242903 -0.1519267112 0.5571773052 4289041566
-0.2492834330 -0.1513435543 0.5573095083 4290554805
-0.2493423820 -0.1507599801 0.5574412942 4292322737
-0.2494011223 -0.1501760036 0.5575726628 4292651702
-0.2494596690 -0.1495916098 0.5577035546 4293243838
-0.2491213232 -0.1487699002 0.5569471121 4292980666
-0.2487825900 -0.1479496509 0.5561898351 4291861932
-0.2488403469 -0.1473658830 0.5563189387 4292125104
-0.2485009432 -0.1465476155 0.5555601716 4292584115
-0.2481611520 -0.1457308084 0.5548005104 4292320943
-0.2474238127 -0.1446832269 0.5531520844 4292191151
-0.2470831573 -0.1438702792 0.5523905158 4292191151
-0.2467421144 -0.1430588067 0.5516280532 4292391615
-0.2464006990 -0.1422487944 0.5508647561 4292654787
-0.2464563996 -0.1416687667 0.5509892702 4292265681
-0.2465119064 -0.1410883516 0.5511133671 4291212993
-0.2465672046 -0.1405075341 0.5512369871 4291544781
-0.2466223091 -0.1399263293 0.5513601899 4292597469
-0.2466772050 -0.1393447369 0.5514829159 4292597985
-0.2471298426 -0.1389865726 0.5524948835 4292597985
-0.2471844107 -0.1384032667 0.5526168942 4292729832
-0.2476369143 -0.1380415112 0.5536285043 4293321969
-0.2476911545 -0.1374564916 0.5537497401 4293915135
-0.2473468930 -0.1366510391 0.5529801250 4293651964
-0.2470022589 -0.1358470917 0.5522096157 4292402156
-0.2462587506 -0.1348264813 0.5505474210 4291349468
-0.2451161444 -0.1335920393 0.5479929447 4291085269
-0.2443714440 -0.1325791627 0.5463280678 4291151062
-0.2432274818 -0.1313543618 0.5437705517 4291084754
-0.2424816191 -0.1303492486 0.5421030521 4291018961
-0.2409373969 -0.1289206445 0.5386507511 4290821582
-0.2393923104 -0.1274992675 0.5351964831 4290624203
-0.2406398356 -0.1275659502 0.5379855037 4291084497
-0.2386944294 -0.1259417534 0.5336362720 4291347669
-0.2387441695 -0.1253749728 0.5337474346 4291412440
-0.2387937009 -0.1248078272 0.5338581800 4291017682
-0.2380442321 -0.1238248125 0.5321826339 4291017169
-0.2380931973 -0.1232588664 0.5322921276 4291214548
-0.2377423793 -0.1224867180 0.5315078497 4291871190
-0.2377908528 -0.1219210252 0.5316162109 4292200155
-0.2378391176 -0.1213549897 0.5317240953 4292658907
-0.2378871888 -0.1207886115 0.5318315625 4292527321
-0.2371352613 -0.1198177785 0.5301505327 4292526548
-0.2379826903 -0.1196548268 0.5320450664 4292723927
-0.2380301356 -0.1190874204 0.5321511626 4293117910
-0.2376772463 -0.1183204874 0.5313621759 4293052117
-0.2377241999 -0.1177533641 0.5314671397 4293248977
-0.2373706549 -0.1169886217 0.5306767821 4293117391
-0.2378174812 -0.1166181117 0.5316756964 4293314006
-0.2382642478 -0.1162453517 0.5326745510 4293642971
-0.2383104563 -0.1156759411 0.5327778459 4293905116
-0.2391576320 -0.1154931039 0.5346718431 4293773530
-0.2396042496 -0.1151136085 0.5356702805 4293511128
-0.2404515594 -0.1149234101 0.5375645757 4293511128
-0.2412989438 -0.1147290468 0.5394590497 4293904856
-0.2425473481 -0.1147201359 0.5422500372 4294168028
-0.2437959760 -0.1147051305 0.5450415015 4294431711
-0.2454459071 -0.1148717403 0.5487301350 4294826469
-0.2466950864 -0.1148435846 0.5515229106 4294956003
-0.2475432754 -0.1146235615 0.5534191728 4292520891
-0.2483915538 -0.1143993512 0.5553156137 4293503164
-0.2488385588 -0.1139871180 0.5563149452 4293963715
-0.2496869117 -0.1137555167 0.5582115650 4293374399
-0.2501338124 -0.1133378074 0.5592107177 4294954459
-0.2473979443 -0.1524208933 0.5544710159 4292796902
-0.2478524297 -0.1520837098 0.5554895997 4290362561
-0.2479115129 -0.1515026242 0.5556220412 4288977311
-0.2479703873 -0.1509211361 0.5557540059 4290227378
-0.2480290681 -0.1503392160 0.5558854938 4292257971
-0.2480875552 -0.1497568935 0.5560165644 4293047487
-0.2481458336 -0.1491741538 0.5561472178 4293442244
-0.2478080541 -0.1483540237 0.5553901792 4293179072
-0.2482617944 -0.1480074525 0.5564070940 4291863215
-0.2479234338 -0.1471883655 0.5556487441 4291797422
-0.2471885532 -0.1461365372 0.5540017486 4292124593
-0.2468493283 -0.1453212947 0.5532414913 4292124593
-0.2465097308 -0.1445075274 0.5524803400 4291929776
-0.2461697310 -0.1436952204 0.5517183542 4291929776
-0.2458293736 -0.1428843886 0.5509555340 4292458948
-0.2454886138 -0.1420750320 0.5501918197 4292985292
-0.2451474816 -0.1412671506 0.5494272709 4292331990
-0.2452027351 -0.1406883895 0.5495510697 4291081923
-0.2452577800 -0.1401092559 0.5496744514 4290689471
-0.2457095683 -0.1397555023 0.5506870151 4292268503
-0.2457643151 -0.1391746402 0.5508096814 4292531676
-0.2458188385 -0.1385933906 0.5509319305 4292465883
-0.2462703735 -0.1382347196 0.5519438982 4292466658
-0.2467218786 -0.1378737837 0.5529558063 4292861416
-0.2467759699 -0.1372895092 0.5530770421 4293717757
-0.2464323789 -0.1364846975 0.5523070097 4293980927
-0.2464859635 -0.1359006017 0.5524271131 4293717503
-0.2457440645 -0.1348796040 0.5507643223 4292204264
-0.2446038723 -0.1336447001 0.5482089520 4291282646
-0.2438607961 -0.1326314509 0.5465435386 4291151060
-0.2427192479 -0.1314061880 0.5439850688 4291084754
-0.2415769994 -0.1301862150 0.5414250493 4290821582
-0.2408321053 -0.1291850805 0.5397555828 4290755789
-0.2388922125 -0.1275496334 0.5354079008 4291018961
-0.2393406928 -0.1271930933 0.5364130139 4291608788
-0.2389925122 -0.1264129281 0.5356326699 4291871960
-0.2382455468 -0.1254245639 0.5339585543 4291345105
-0.2382950187 -0.1248572096 0.5340694189 4291147726
-0.2379457206 -0.1240816712 0.5332865715 4292067801
-0.2372460067 -0.1225352436 0.5317183733 4292658394
-0.2372944206 -0.1219693497 0.5318269134 4292921566
-0.2373426259 -0.1214031056 0.5319349170 4292657107
-0.2373906225 -0.1208365262 0.5320425034 4292393935
-0.2370393574 -0.1200674623 0.5312552452 4292327626
-0.2378851473 -0.1199035048 0.5331508517 4292525005
-0.2371812761 -0.1183674932 0.5315732956 4292458437
-0.2380269170 -0.1181968004 0.5334685445 4292852418
-0.2372748554 -0.1172324941 0.5317830443 4292918211
-0.2385199219 -0.1172537133 0.5345734954 4292983501
-0.2385664135 -0.1166825071 0.5346776843 4293444052
-0.2390124053 -0.1163054556 0.5356772542 4293772247
-0.2398580909 -0.1161196977 0.5375726223 4293838040
-0.2403040379 -0.1157371923 0.5385720730 4293641431
-0.2407499254 -0.1153524444 0.5395714045 4293641431
-0.2415957451 -0.1151560992 0.5414670706 4294166745
-0.2424416542 -0.1149555817 0.5433629155 4294232538
-0.2436877936 -0.1149396300 0.5461558104 4294365405
-0.2445339411 -0.1147298142 0.5480521917 4294825956
-0.2457804829 -0.1147026271 0.5508459210 4294955232
-0.2466268837 -0.1144834906 0.5527428985 4292586684
-0.2474733442 -0.1142601818 0.5546399951 4293633980
-0.2479193807 -0.1138487607 0.5556396842 4294226117
-0.2483653277 -0.1134350821 0.5566391349 4293438395
-0.2488112152 -0.1130191535 0.5576384664 4294820048
-0.2464836240 -0.1522365361 0.5538004041 4293191915
-0.2465426326 -0.1516575217 0.5539329648 4291349711
-0.2469960004 -0.1513198316 0.5549516082 4289502117
-0.2470547110 -0.1507390589 0.5550835133 4289896875
-0.2471132278 -0.1501578689 0.5552150011 4292262082
-0.2471715361 -0.1495762765 0.5553460121 4292985805
-0.2472296506 -0.1489942670 0.5554765463 4293443533
-0.2472875714 -0.1484118551 0.5556066632 4293180361
-0.2469501644 -0.1475928724 0.5548486114 4292061884
-0.2466123700 -0.1467753649 0.5540896654 4291469747
-0.2462741882 -0.1459593028 0.5533298254 4291732919
-0.2459356338 -0.1451447010 0.5525691509 4291996091
-0.2455966920 -0.1443315744 0.5518076420 4291864501
-0.2452573776 -0.1435199082 0.5510452390 4291732915
-0.2445220053 -0.1424791664 0.5493929982 4292525254
-0.2445775867 -0.1419010013 0.5495178699 4292722633
-0.2442371249 -0.1410937607 0.5487529039 4292265421
-0.2442922145 -0.1405157447 0.5488767028 4291015354
-0.2443470955 -0.1399373412 0.5490000248 4290422966
-0.2444017828 -0.1393585503 0.5491229296 4291344068
-0.2448524684 -0.1390042901 0.5501354933 4292399325
-0.2449068427 -0.1384237856 0.5502576828 4292662497
-0.2453573793 -0.1380659342 0.5512699485 4292467941
-0.2454114407 -0.1374837160 0.5513913631 4292467941
-0.2454652786 -0.1369011104 0.5515123606 4292994542
-0.2455189228 -0.1363181174 0.5516328812 4294113023
-0.2455723584 -0.1357347518 0.5517529249 4294113023
-0.2448319644 -0.1347143203 0.5500894189 4293323509
-0.2444879115 -0.1339146942 0.5493164062 4291810019
-0.2421585768 -0.1320343167 0.5440828800 4290888917
-0.2434016168 -0.1321044564 0.5468757153 4290690511
-0.2410706133 -0.1302375048 0.5416383743 4290690511
-0.2403273135 -0.1292360127 0.5399683714 4291412690
-0.2391861677 -0.1280252635 0.5374044180 4291478483
-0.2380443066 -0.1268198341 0.5348389149 4291544018
-0.2384916842 -0.1264628172 0.5358440876 4291017674
-0.2369511873 -0.1250544339 0.5323828459 4291017674
-0.2373980880 -0.1246976554 0.5333869457 4291478225
-0.2370494753 -0.1239227802 0.5326036811 4292331222
-0.2370983064 -0.1233564317 0.5327134132 4292528601
-0.2367490381 -0.1225837022 0.5319286585 4293182424
-0.2371953726 -0.1222226769 0.5329315066 4292985045
-0.2368455380 -0.1214511618 0.5321455002 4293310928
-0.2368934751 -0.1208843738 0.5322532058 4293047756
-0.2369412035 -0.1203172356 0.5323604345 4293178313
-0.2373870313 -0.1199510247 0.5333620906 4293178313
-0.2374344319 -0.1193822548 0.5334686041 4293374921
-0.2374816239 -0.1188131422 0.5335746408 4293440714
-0.2375286072 -0.1182436943 0.5336802006 4293506507
-0.2387712449 -0.1182662249 0.5364722013 4293506507
-0.2376219630 -0.1171037853 0.5338899493 4293244105
-0.2384658754 -0.1169243827 0.5357860923 4293770449
-0.2397087365 -0.1169353798 0.5385785103 4293706454
-0.2401539981 -0.1165530756 0.5395789742 4293509075
-0.2417962104 -0.1167464778 0.5432686806 4293312979
-0.2410443425 -0.1157817170 0.5415793657 4293576151
-0.2422877401 -0.1157741249 0.5443730354 4294035672
-0.2431321442 -0.1155706644 0.5462702513 4294298844
-0.2439766228 -0.1153630316 0.5481676459 4294823648
-0.2452205867 -0.1153390706 0.5509625673 4294957033
-0.2456658632 -0.1149352342 0.5519630313 4294955749
-0.2461110651 -0.1145291477 0.5529633164 4292849345
-0.2465561926 -0.1141207963 0.5539634228 4293046210
-0.2470012605 -0.1137101948 0.5549634099 4293506761
-0.2474462390 -0.1132973358 0.5559632182 4293308867
-0.2478911579 -0.1128822193 0.5569628477 4293374660
-0.2483359873 -0.1124648452 0.5579622984 4294958055
-0.2451768070 -0.1518082470 0.5522423387 4293389551
-0.2452355474 -0.1512308866 0.5523746610 4291810519
-0.2456878275 -0.1508949399 0.5533933640 4289700523
-0.2457462698 -0.1503158212 0.5535249710 4289568937
-0.2458045185 -0.1497363001 0.5536562204 4292328904
-0.2458625734 -0.1491563618 0.5537869334 4292921041
-0.2459204197 -0.1485760212 0.5539172292 4293445332
-0.2455838770 -0.1477580965 0.5531591773 4293050574
-0.2460355312 -0.1474141032 0.5541765094 4292260290
-0.2456983924 -0.1465972215 0.5534171462 4291207602
-0.2453608960 -0.1457818002 0.5526569486 4291996605
-0.2450229973 -0.1449678540 0.5518958569 4291996605
-0.2442900687 -0.1439228505 0.5502449870 4291602614
-0.2439513206 -0.1431127638 0.5494819880 4291799993
-0.2436122000 -0.1423041523 0.5487181544 4292197059
-0.2432726920 -0.1414970160 0.5479534268 4292328645
-0.2433278263 -0.1409201324 0.5480776429 4291870663
-0.2429876477 -0.1401150227 0.5473114252 4290620596
-0.2430422902 -0.1395382881 0.5474345088 4290291378
-0.2434920073 -0.1391871274 0.5484474301 4290488757
-0.2435463369 -0.1386086792 0.5485697985 4291938258
-0.2439959049 -0.1382539123 0.5495824218 4292727774
-0.2444454581 -0.1378968954 0.5505949855 4292598244
-0.2444993556 -0.1373154074 0.5507164001 4292729830
-0.2445530295 -0.1367335469 0.5508373380 4292927722
-0.2446065247 -0.1361512840 0.5509577990 4293519859
-0.2442639023 -0.1353492886 0.5501860976 4293915133
-0.2439209223 -0.1345487982 0.5494135022 4294178303
-0.2435775548 -0.1337498128 0.5486401320 4293125877
-0.2424415201 -0.1325192750 0.5460812449 4291415259
-0.2417009920 -0.1315096319 0.5444133282 4290822097
-0.2405636162 -0.1302887350 0.5418514609 4291282648
-0.2398219258 -0.1292868704 0.5401808619 4292004316
-0.2386832088 -0.1280756593 0.5376160145 4291609558
-0.2375437915 -0.1268697828 0.5350495577 4291083980
-0.2375936210 -0.1263017952 0.5351617932 4291083980
-0.2372465283 -0.1255235374 0.5343799591 4291674321
-0.2368990481 -0.1247468293 0.5335972905 4292134872
-0.2365512103 -0.1239716709 0.5328137875 4292855515
-0.2365999818 -0.1234051138 0.5329236388 4292855515
-0.2362514883 -0.1226321012 0.5321387053 4293378007
-0.2366969138 -0.1222709566 0.5331419706 4293049042
-0.2363478541 -0.1214991510 0.5323557258 4293309645
-0.2363957316 -0.1209321618 0.5324636102 4293178059
-0.2368407845 -0.1205671132 0.5334660411 4293244106
-0.2368883193 -0.1199984774 0.5335731506 4293244106
-0.2369356602 -0.1194295064 0.5336797833 4293440715
-0.2373804152 -0.1190596148 0.5346815586 4293506508
-0.2378251255 -0.1186874807 0.5356832147 4293505994
-0.2382697761 -0.1183130890 0.5366847515 4293637580
-0.2383165210 -0.1177398935 0.5367900729 4293178312
-0.2395568639 -0.1177531630 0.5395838022 4293573070
-0.2400014400 -0.1173710600 0.5405851603 4293639891
-0.2408440411 -0.1171803921 0.5424830914 4293574098
-0.2412885725 -0.1167928278 0.5434843898 4293508817
-0.2417330444 -0.1164030060 0.5444855094 4293706196
-0.2421774566 -0.1160109341 0.5454865098 4294034902
-0.2430202067 -0.1158064529 0.5473847389 4294298074
-0.2430661023 -0.1152200177 0.5474880934 4294955234
-0.2439088672 -0.1150091067 0.5493863821 4294955491
-0.2443530858 -0.1146070510 0.5503869653 4294955235
-0.2447972447 -0.1142027378 0.5513873696 4293375689
-0.2452413291 -0.1137961745 0.5523876548 4292979902
-0.2456853539 -0.1133873537 0.5533877611 4293506246
-0.2449325472 -0.1124269515 0.5516921282 4293505217
-0.2461741716 -0.1123807952 0.5544887781 4293176252
-0.2466178834 -0.1119661704 0.5554882288 4294233049
-0.2470615357 -0.1115492880 0.5564875007 4294962169
-0.2443240136 -0.1510466337 0.5517016649 4292402656
-0.2443823814 -0.1504695863 0.5518334508 4290359224
-0.2444405556 -0.1498921365 0.5519648194 4289109157
-0.2444985360 -0.1493142694 0.5520957708 4291935688
-0.2445563227 -0.1487360001 0.5522262454 4292593618
-0.2446139157 -0.1481573135 0.5523562431 4293183702
-0.2446713001 -0.1475782245 0.5524858832 4292723151
-0.2447284907 -0.1469987333 0.5526149869 4292392904
-0.2443919480 -0.1461834311 0.5518550277 4290813872
-0.2440550029 -0.1453695744 0.5510942340 4291866302
-0.2437177002 -0.1445572078 0.5503325462 4291866302
-0.2433799952 -0.1437462866 0.5495700240 4291603641
-0.2430419177 -0.1429368556 0.5488066077 4292064192
-0.2427034676 -0.1421288848 0.5480423570 4292131525
-0.2423646301 -0.1413224041 0.5472772121 4291934146
-0.2420254201 -0.1405173987 0.5465112329 4291410114
-0.2420800924 -0.1399417818 0.5466347337 4290225840
-0.2421345711 -0.1393657923 0.5467577577 4290554035
-0.2421888560 -0.1387894154 0.5468803048 4289830312
-0.2426374555 -0.1384377480 0.5478932858 4290753471
-0.2426914275 -0.1378596425 0.5480151176 4292398296
-0.2431398928 -0.1375043839 0.5490278006 4292597217
-0.2435883284 -0.1371468604 0.5500404239 4292531424
-0.2436418533 -0.1365657300 0.5501613021 4292861159
-0.2436951846 -0.1359842122 0.5502817035 4292992745
-0.2429581881 -0.1349634230 0.5486175418 4293453555
-0.2426157892 -0.1341645271 0.5478443503 4294440447
-0.2430634797 -0.1338022649 0.5488552451 4294178303
-0.2407439500 -0.1319214106 0.5436176062 4292533481
-0.2415863574 -0.1317769140 0.5455198288 4291479512
-0.2400560230 -0.1303399056 0.5420641899 4291545305
-0.2393159419 -0.1293376535 0.5403930545 4291872730
-0.2381796688 -0.1281259954 0.5378272533 4291412179
-0.2366469651 -0.1267077774 0.5343663096 4291215311
-0.2370924652 -0.1263514757 0.5353722572 4291412690
-0.2363502234 -0.1253629476 0.5336962342 4292331224
-0.2356074750 -0.1243778616 0.5320190191 4292594396
-0.2352602333 -0.1236043200 0.5312349796 4293182683
-0.2353087813 -0.1230394617 0.5313445926 4293116890
-0.2357533425 -0.1226804405 0.5323484540 4293573846
-0.2358015627 -0.1221139356 0.5324573517 4293179088
-0.2362459600 -0.1217513606 0.5334607959 4293374668
-0.2358973920 -0.1209798828 0.5326737165 4293374668
-0.2363415509 -0.1206147149 0.5336766243 4293375692
-0.2375788987 -0.1206501350 0.5364707112 4293309899
-0.2368330061 -0.1196771562 0.5347864032 4293309899
-0.2372769415 -0.1193061844 0.5357888341 4293375692
-0.2381176949 -0.1191315129 0.5376873016 4293440714
-0.2385616004 -0.1187550873 0.5386896729 4293638093
-0.2386084348 -0.1181797609 0.5387954712 4293441484
-0.2390521616 -0.1177997813 0.5397974253 4293507277
-0.2398930192 -0.1176122651 0.5416961312 4293704656
-0.2403367013 -0.1172268242 0.5426980257 4293704656
-0.2411776632 -0.1170319244 0.5445969701 4293835472
-0.2416213155 -0.1166410074 0.5455987453 4294032851
-0.2420649081 -0.1162478328 0.5466004014 4294362070
-0.2421108782 -0.1156624779 0.5467042327 4294625242
-0.2425542623 -0.1152657568 0.5477054119 4294888928
-0.2429975867 -0.1148667783 0.5487064719 4294954978
-0.2430430651 -0.1142785102 0.5488091707 4294955489
-0.2434861660 -0.1138759777 0.5498097539 4293770701
-0.2435312867 -0.1132860854 0.5499116182 4292978875
-0.2439741790 -0.1128800139 0.5509117246 4293636805
-0.2448150814 -0.1126548648 0.5528104901 4293832642
-0.2452578992 -0.1122433096 0.5538104177 4293306298
-0.2457006425 -0.1118295044 0.5548102260 4293507788
-0.2457450330 -0.1112331524 0.5549104214 4294959603
-0.2426295877 -0.1503762305 0.5492529869 4292863207
-0.2434717268 -0.1502857953 0.5511594415 4291084230
-0.2435297370 -0.1497090757 0.5512907505 4288847268
-0.2435875386 -0.1491319537 0.5514215827 4290950591
-0.2436451614 -0.1485544145 0.5515519977 4292332244
-0.2433101386 -0.1477381736 0.5507936478 4292527313
-0.2433672696 -0.1471607536 0.5509229302 4292329934
-0.2434241921 -0.1465829164 0.5510517955 4292196808
-0.2434809357 -0.1460046768 0.5511802435 4290617776
-0.2427518666 -0.1449569166 0.5495298505 4291274935
-0.2424151301 -0.1441461146 0.5487675071 4291867072
-0.2420780063 -0.1433367878 0.5480043888 4291735740
-0.2417405099 -0.1425289363 0.5472403765 4292196291
-0.2414026409 -0.1417225450 0.5464755297 4292131525
-0.2410643846 -0.1409176439 0.5457097888 4291868353
-0.2407257557 -0.1401142180 0.5449432135 4291014584
-0.2407801747 -0.1395402998 0.5450664163 4290093482
-0.2412279248 -0.1391930431 0.5460799932 4290488240
-0.2412820458 -0.1386173964 0.5462025404 4289567138
-0.2413359582 -0.1380413771 0.5463245511 4289503145
-0.2417834550 -0.1376892030 0.5473375916 4291542728
-0.2422309220 -0.1373347640 0.5483505726 4292267223
-0.2422844172 -0.1367557049 0.5484716296 4292267223
-0.2427317500 -0.1363976747 0.5494842529 4292925669
-0.2427849174 -0.1358169019 0.5496046543 4292925669
-0.2416552156 -0.1345771253 0.5470473170 4292861159
-0.2421020269 -0.1342170238 0.5480587482 4293650675
-0.2417600155 -0.1334193498 0.5472845435 4294243583
-0.2398397475 -0.1317563802 0.5429375172 4293980412
-0.2410748899 -0.1318285465 0.5457335711 4292992751
-0.2391531914 -0.1301761866 0.5413833261 4291874270
-0.2388093621 -0.1293883771 0.5406049490 4291674583
-0.2376755327 -0.1281762570 0.5380382538 4291608790
-0.2361461073 -0.1267575026 0.5345760584 4291938006
-0.2361957282 -0.1261900663 0.5346883535 4292135385
-0.2354550213 -0.1252021194 0.5330116153 4292659676
-0.2355040759 -0.1246358603 0.5331225991 4292659676
-0.2351576984 -0.1238610819 0.5323385000 4293116631
-0.2352062464 -0.1232950687 0.5324484706 4293248217
-0.2352546155 -0.1227287129 0.5325579047 4293574357
-0.2353027612 -0.1221619993 0.5326669216 4293179599
-0.2357462645 -0.1217993051 0.5336709023 4293243852
-0.2353984714 -0.1210275441 0.5328835845 4293309645
-0.2358417213 -0.1206622496 0.5338869691 4293375692
-0.2362849265 -0.1202947050 0.5348902941 4293309899
-0.2363322228 -0.1197243631 0.5349973440 4293309898
-0.2375671417 -0.1197524369 0.5377929211 4293375691
-0.2384063005 -0.1195758060 0.5396925807 4293309898
-0.2380572706 -0.1188019812 0.5389024019 4293441484
-0.2388963997 -0.1186198816 0.5408020020 4293703887
-0.2397356480 -0.1184336096 0.5427018404 4293638094
-0.2393859774 -0.1176587641 0.5419102907 4293769680
-0.2406215966 -0.1176608652 0.5447074175 4293769680
-0.2410644740 -0.1172711104 0.5457100272 4293900752
-0.2411107421 -0.1166871712 0.5458147526 4294098131
-0.2415534258 -0.1162938625 0.5468168855 4294296277
-0.2415993363 -0.1157082990 0.5469207764 4294691035
-0.2416450381 -0.1151224002 0.5470242500 4294822621
-0.2420873791 -0.1147242412 0.5480256081 4294955492
-0.2421327233 -0.1141367182 0.5481282473 4294954722
-0.2425748557 -0.1137350127 0.5491291285 4294164178
-0.2430169135 -0.1133310497 0.5501298308 4292978362
-0.2430617511 -0.1127406135 0.5502313375 4293702085
-0.2427091449 -0.1119665951 0.5494331121 4293897924
-0.2439453900 -0.1119233295 0.5522316694 4293634752
-0.2443870902 -0.1115113124 0.5532315969 4293177796
-0.2448287159 -0.1110970303 0.5542312860 4294956006
-0.2421129793 -0.1504342854 0.5494650602 4293126379
-0.2421709001 -0.1498596370 0.5495965481 4291939539
-0.2422286421 -0.1492845863 0.5497275591 4289176233
-0.2426776141 -0.1489493549 0.5507464409 4289965236
-0.2427350581 -0.1483725607 0.5508768559 4292267991
-0.2427922934 -0.1477953345 0.5510067344 4292134095
-0.2424576581 -0.1469802707 0.5502473116 4292134095
-0.2425144166 -0.1464031786 0.5503761172 4291934662
-0.2421791106 -0.1455900818 0.5496151447 4290684595
-0.2418434173 -0.1447784603 0.5488533378 4290815154
-0.2415073514 -0.1439683139 0.5480906367 4291933635
-0.2411709130 -0.1431596279 0.5473270416 4291605183
-0.2412263155 -0.1425842643 0.5474528074 4291868355
-0.2401045561 -0.1413157731 0.5449070334 4292000455
-0.2401593029 -0.1407424361 0.5450312495 4291737283
-0.2398213446 -0.1399396658 0.5442643166 4290553263
-0.2398755997 -0.1393664628 0.5443874598 4289829540
-0.2399296761 -0.1387928873 0.5445101261 4290290861
-0.2403763086 -0.1384451389 0.5455237627 4289501345
-0.2404300570 -0.1378698498 0.5456457734 4288976800
-0.2408765703 -0.1375185102 0.5466590524 4290029488
-0.2409300059 -0.1369415075 0.5467803478 4291148227
-0.2417694926 -0.1368090361 0.5486855507 4292003536
-0.2418227047 -0.1362293810 0.5488063097 4292398296
-0.2418757081 -0.1356493384 0.5489265919 4292398296
-0.2415351421 -0.1348493099 0.5481536388 4292399325
-0.2419811189 -0.1344881356 0.5491657853 4292596704
-0.2404593080 -0.1330360174 0.5457121134 4293190381
-0.2401175350 -0.1322414726 0.5449364781 4293979897
-0.2393816561 -0.1312325895 0.5432664156 4293848314
-0.2390390486 -0.1304420233 0.5424889326 4292729833
-0.2379082888 -0.1292250752 0.5399227142 4292069339
-0.2371708006 -0.1282264590 0.5382490158 4291871960
-0.2360387146 -0.1270192266 0.5356798172 4292659930
-0.2356942147 -0.1262395233 0.5348979235 4292659930
-0.2357435673 -0.1256715208 0.5350099206 4292921819
-0.2357927114 -0.1251031607 0.5351215005 4292856026
-0.2354472727 -0.1243261993 0.5343375206 4293116888
-0.2351014614 -0.1235507801 0.5335527062 4293248474
-0.2347552925 -0.1227769181 0.5327671170 4293509847
-0.2348033786 -0.1222100034 0.5328762531 4293115089
-0.2348512709 -0.1216427460 0.5329849124 4293309899
-0.2348989546 -0.1210751384 0.5330931544 4293309899
-0.2353412956 -0.1207097247 0.5340970159 4293637580
-0.2357836068 -0.1203420535 0.5351008177 4293571787
-0.2366208881 -0.1201727465 0.5370010138 4293374921
-0.2362729609 -0.1194002777 0.5362113714 4293506507
-0.2371102273 -0.1192255095 0.5381115079 4293375689
-0.2379475981 -0.1190465689 0.5400118828 4293375689
-0.2383897305 -0.1186666638 0.5410153270 4293571788
-0.2388318032 -0.1182845011 0.5420185924 4293571788
-0.2392738312 -0.1179000810 0.5430217385 4293703887
-0.2397157997 -0.1175134033 0.5440247655 4293769680
-0.2397620529 -0.1169315130 0.5441297293 4293769679
-0.2402038276 -0.1165412888 0.5451323390 4293901265
-0.2406455427 -0.1161487997 0.5461347699 4294033621
-0.2406913191 -0.1155639812 0.5462386608 4294494172
-0.2407368720 -0.1149788275 0.5463420153 4294888160
-0.2407822162 -0.1143933460 0.5464449525 4294822367
-0.2412234396 -0.1139947176 0.5474463105 4294821595
-0.2412684411 -0.1134076193 0.5475484133 4294624216
-0.2417094558 -0.1130054370 0.5485492945 4293174973
-0.2421504110 -0.1126010045 0.5495499969 4293635524
-0.2425912768 -0.1121943146 0.5505505204 4293766851
-0.2430320829 -0.1117853671 0.5515509248 4293701058
-0.2434728146 -0.1113741621 0.5525511503 4293439174
-0.2439134717 -0.1109606996 0.5535511971 4294623448
-0.2439573705 -0.1103655249 0.5536508560 4294962421
-0.2408151627 -0.1500060111 0.5479007959 4293258735
-0.2408728302 -0.1494330317 0.5480319858 4292334811
-0.2409303039 -0.1488596499 0.5481627584 4289703091
-0.2413781732 -0.1485261768 0.5491816998 4289176749
-0.2414353490 -0.1479510367 0.5493118167 4291940055
-0.2414923310 -0.1473754793 0.5494414568 4291872463
-0.2415491194 -0.1467995346 0.5495706797 4291872463
-0.2416057140 -0.1462231725 0.5496994257 4291672516
-0.2416621149 -0.1456464082 0.5498277545 4290685621
-0.2409360558 -0.1445997506 0.5481758118 4290289837
-0.2409918755 -0.1440240592 0.5483028293 4291671490
-0.2402648777 -0.1429822147 0.5466487408 4291606210
-0.2403201312 -0.1424075812 0.5467744470 4291606210
-0.2399836928 -0.1416015625 0.5460090041 4292001481
-0.2396468669 -0.1407970190 0.5452426672 4291540930
-0.2393096834 -0.1399939656 0.5444754958 4289961126
-0.2393638641 -0.1394205838 0.5445988178 4289303196
-0.2394178659 -0.1388467997 0.5447216034 4289501345
-0.2394716591 -0.1382726431 0.5448440313 4289106587
-0.2399172634 -0.1379234493 0.5458579063 4288845212
-0.2399707437 -0.1373475790 0.5459795594 4288450454
-0.2404162288 -0.1369947940 0.5469931364 4289503657
-0.2404693961 -0.1364172101 0.5471140742 4291740619
-0.2409147322 -0.1360608339 0.5481272936 4292002511
-0.2401826680 -0.1350402385 0.5464617014 4292002511
-0.2410202324 -0.1349018663 0.5483673215 4292069333
-0.2402874231 -0.1338842809 0.5467000604 4292135126
-0.2399467826 -0.1330879182 0.5459250212 4291940057
-0.2396057695 -0.1322930753 0.5451491475 4292597987
-0.2384786308 -0.1310679018 0.5425847173 4293387249
-0.2385296673 -0.1304929703 0.5427008271 4293518835
-0.2377944142 -0.1294896156 0.5410279632 4293187820
-0.2370586097 -0.1284896731 0.5393539071 4292529890
-0.2363222837 -0.1274931729 0.5376785994 4293052892
-0.2363720089 -0.1269224733 0.5377917290 4292987099
-0.2348480225 -0.1255104840 0.5343243480 4293183451
-0.2352904826 -0.1251521558 0.5353310704 4293183451
-0.2341587245 -0.1239582375 0.5327560902 4293379288
-0.2342071533 -0.1233918294 0.5328662992 4293510874
-0.2342553884 -0.1228250638 0.5329760313 4293838040
-0.2343034148 -0.1222579479 0.5330852866 4293574868
-0.2343512326 -0.1216904819 0.5331940651 4293506508
-0.2343988568 -0.1211226732 0.5333024263 4293506508
-0.2352343202 -0.1209597439 0.5352032781 4293703116
-0.2348875850 -0.1201876774 0.5344144106 4293571530
-0.2357230484 -0.1200192794 0.5363152027 4293505735
-0.2357700914 -0.1194472313 0.5364222527 4293637321
-0.2362112552 -0.1190736219 0.5374259949 4293506761
-0.2366523892 -0.1186977550 0.5384296775 4293572554
-0.2374879569 -0.1185165048 0.5403307676 4293505997
-0.2379290611 -0.1181351766 0.5413343310 4293571790
-0.2383701056 -0.1177515835 0.5423377752 4293769680
-0.2388110906 -0.1173657328 0.5433411002 4293835473
-0.2396468222 -0.1171706542 0.5452425480 4293704657
-0.2396928817 -0.1165872589 0.5453473330 4293770450
-0.2397387326 -0.1160035208 0.5454516411 4293968086
-0.2397843599 -0.1154194549 0.5455555320 4294362844
-0.2402248979 -0.1150242388 0.5465577841 4294953697
-0.2402701825 -0.1144385412 0.5466608405 4293637580
-0.2403152585 -0.1138525158 0.5467633605 4293833673
-0.2407554388 -0.1134524494 0.5477648973 4294886361
-0.2411955595 -0.1130501330 0.5487662554 4293240766
-0.2404491752 -0.1120924652 0.5470680594 4293306559
-0.2416800261 -0.1120553240 0.5498685241 4293504708
-0.2417242378 -0.1114647686 0.5499690771 4293504708
-0.2421639264 -0.1110553518 0.5509694815 4293701319
-0.2422077656 -0.1104631796 0.5510692000 4293964491
-0.2430430651 -0.1102297455 0.5529696941 4294762218
-0.2395775020 -0.1490059793 0.5464657545 4292861668
-0.2396347225 -0.1484342515 0.5465962887 4290493120
-0.2400814742 -0.1481025368 0.5476152897 4288848554
-0.2401383966 -0.1475290656 0.5477451086 4291019723
-0.2401951104 -0.1469551921 0.5478745103 4291807699
-0.2402516454 -0.1463809013 0.5480034351 4291478734
-0.2403079718 -0.1458062083 0.5481319427 4291476165
-0.2399739176 -0.1449953467 0.5473699570 4290686649
-0.2400297672 -0.1444207877 0.5474973321 4289765289
-0.2396950424 -0.1436119229 0.5467338562 4291146942
-0.2393599302 -0.1428045481 0.5459694862 4291739337
-0.2390244454 -0.1419986337 0.5452042818 4291739337
-0.2390792519 -0.1414252818 0.5453292727 4292002509
-0.2383523583 -0.1403912455 0.5436712503 4291344579
-0.2384065837 -0.1398189813 0.5437949300 4289698213
-0.2380696982 -0.1390180588 0.5430265069 4289106076
-0.2381234318 -0.1384459734 0.5431491137 4288974490
-0.2381769866 -0.1378734857 0.5432712436 4288777111
-0.2386215031 -0.1375260651 0.5442851782 4288515733
-0.2386747450 -0.1369518787 0.5444065928 4287726217
-0.2391191274 -0.1366008669 0.5454202294 4288055696
-0.2391720563 -0.1360249668 0.5455409288 4290753209
-0.2396163046 -0.1356703639 0.5465542674 4291936205
-0.2396689206 -0.1350927651 0.5466742516 4291936205
-0.2393296212 -0.1342949718 0.5459003448 4292067793
-0.2389899492 -0.1334986985 0.5451256037 4292265172
-0.2386499047 -0.1327039450 0.5443499684 4291741395
-0.2383095026 -0.1319107115 0.5435734987 4292004567
-0.2379687130 -0.1311189830 0.5427961946 4292728803
-0.2372354418 -0.1301137358 0.5411236286 4293518319
-0.2365016192 -0.1291119009 0.5394498110 4293977077
-0.2353749871 -0.1279003322 0.5368800163 4293450733
-0.2366018891 -0.1279673874 0.5396785140 4293513443
-0.2358668000 -0.1269720644 0.5380018353 4293052892
-0.2343461066 -0.1255595237 0.5345331430 4293248474
-0.2343950272 -0.1249917150 0.5346447825 4293380060
-0.2340510637 -0.1242151335 0.5338602066 4293641433
-0.2340995073 -0.1236475706 0.5339707136 4293707226
-0.2337548882 -0.1228731349 0.5331846476 4294099674
-0.2338028401 -0.1223058179 0.5332940221 4293968088
-0.2338505983 -0.1217381582 0.5334029794 4293769167
-0.2338981628 -0.1211701408 0.5335114598 4293703374
-0.2343387008 -0.1208044738 0.5345162749 4293899725
-0.2343859226 -0.1202348173 0.5346239805 4293768139
-0.2352196425 -0.1200663745 0.5365256667 4293571528
-0.2356600314 -0.1196939349 0.5375301838 4293703114
-0.2361003906 -0.1193192452 0.5385345817 4293572554
-0.2365406901 -0.1189422980 0.5395389199 4293638347
-0.2369809300 -0.1185630858 0.5405430794 4293637583
-0.2374211252 -0.1181816161 0.5415471792 4293637583
-0.2378612608 -0.1177978963 0.5425511003 4293900753
-0.2371196747 -0.1168297008 0.5408595800 4294032339
-0.2383473963 -0.1168305576 0.5436599255 4293967058
-0.2387872785 -0.1164410189 0.5446633101 4294032851
-0.2388329953 -0.1158580333 0.5447675586 4293967828
-0.2392726839 -0.1154649407 0.5457704663 4294099414
-0.2393180430 -0.1148803234 0.5458739400 4294163924
-0.2393631935 -0.1142953783 0.5459769368 4292519099
-0.2394081354 -0.1137100980 0.5460794568 4292715192
-0.2394528538 -0.1131244972 0.5461814404 4294360017
-0.2402864844 -0.1129093617 0.5480828881 4293306557
-0.2403309196 -0.1123211756 0.5481842756 4293306557
-0.2407698482 -0.1119161248 0.5491854548 4293569731
-0.2408139259 -0.1113263220 0.5492860079 4293635524
-0.2412526459 -0.1109177247 0.5502866507 4293897672
-0.2416912764 -0.1105068699 0.5512871742 4293700293
-0.2417348474 -0.1099141613 0.5513865352 4294102235
-0.2417781949 -0.1093211323 0.5514854193 4294961913
-0.2382849306 -0.1485784650 0.5448979139 4293388525
-0.2387306988 -0.1482498497 0.5459172726 4291283149
-0.2387875319 -0.1476784497 0.5460472107 4288717738
-0.2388441861 -0.1471066475 0.5461767912 4290230977
-0.2389006466 -0.1465344429 0.5463058949 4291677396
-0.2389569134 -0.1459618211 0.5464345813 4291085259
-0.2390129864 -0.1453888118 0.5465627909 4291477192
-0.2386795133 -0.1445795298 0.5458002090 4290753469
-0.2383456528 -0.1437717229 0.5450367332 4289568168
-0.2384009510 -0.1431993693 0.5451632142 4290884028
-0.2380664349 -0.1423935592 0.5443982482 4291806159
-0.2381212562 -0.1418213546 0.5445235968 4291806159
-0.2377860695 -0.1410175711 0.5437571406 4291871439
-0.2374505252 -0.1402152628 0.5429897904 4291147716
-0.2375045717 -0.1396437585 0.5431134105 4289764520
-0.2371683568 -0.1388434917 0.5423445702 4289435555
-0.2372219414 -0.1382721364 0.5424671173 4289302942
-0.2372753322 -0.1377003938 0.5425891876 4289105563
-0.2373285145 -0.1371282637 0.5427107811 4288252561
-0.2377719283 -0.1367803514 0.5437247753 4287792010
-0.2378247976 -0.1362065226 0.5438457131 4287266180
-0.2382680774 -0.1358550191 0.5448593497 4289305763
-0.2383206487 -0.1352794766 0.5449795723 4291738310
-0.2383730114 -0.1347035617 0.5450993180 4291672517
-0.2384251654 -0.1341272593 0.5452185869 4291803851
-0.2384771407 -0.1335505843 0.5453374386 4292132816
-0.2381378561 -0.1327555329 0.5445615649 4291871954
-0.2374071032 -0.1317449659 0.5428905487 4292200919
-0.2374582142 -0.1311700046 0.5430073738 4292267739
-0.2371178269 -0.1303795278 0.5422289968 4292728290
-0.2367770821 -0.1295905709 0.5414497852 4293648111
-0.2348701507 -0.1279501617 0.5370891690 4293779697
-0.2349198759 -0.1273803711 0.5372028351 4293646825
-0.2345777601 -0.1265988648 0.5364205241 4292923102
-0.2346269935 -0.1260293126 0.5365331173 4293182681
-0.2335006893 -0.1248310506 0.5339575410 4293314267
-0.2343329936 -0.1246806234 0.5358607769 4293968604
-0.2328617722 -0.1227145568 0.5324965119 4294229977
-0.2333016992 -0.1223536283 0.5335025191 4294098391
-0.2338365167 -0.1208517551 0.5347254872 4293768909
-0.2342761010 -0.1204837114 0.5357307196 4293703116
-0.2339306325 -0.1197116897 0.5349407196 4293834702
-0.2347625494 -0.1195409372 0.5368431211 4293834702
-0.2352019101 -0.1191670746 0.5378478169 4293572554
-0.2356412262 -0.1187909544 0.5388523936 4293572554
-0.2360804826 -0.1184125766 0.5398569107 4293637581
-0.2365196943 -0.1180319339 0.5408612490 4293571788
-0.2369588464 -0.1176490411 0.5418654680 4293900495
-0.2373979539 -0.1172638834 0.5428695679 4294097874
-0.2378369868 -0.1168764681 0.5438735485 4294163667
-0.2378827780 -0.1162945703 0.5439782739 4294229460
-0.2383216172 -0.1159035936 0.5449817777 4293835472
-0.2383670658 -0.1153200641 0.5450857282 4293638093
-0.2384122908 -0.1147361994 0.5451891422 4292913857
-0.2384573072 -0.1141519994 0.5452920794 4291992755
-0.2385021001 -0.1135674790 0.5453945398 4292057260
-0.2385466844 -0.1129826233 0.5454964638 4293702085
-0.2385910600 -0.1123974398 0.5455979705 4293569472
-0.2390290052 -0.1119964421 0.5465994477 4293569472
-0.2394668907 -0.1115931869 0.5476007462 4293569218
-0.2395107597 -0.1110050976 0.5477010608 4293766597
-0.2399484217 -0.1105982885 0.5487018824 4294160328
-0.2399919480 -0.1100085899 0.5488014221 4293831363
-0.2404293865 -0.1095982417 0.5498017073 4293443022
-0.2404725403 -0.1090069264 0.5499004126 4294959345
-0.2374397814 -0.1478236467 0.5443478227 4291810268
-0.2374963611 -0.1472539306 0.5444775224 4288980912
-0.2379409075 -0.1469234675 0.5454966426 4289638842
-0.2379972041 -0.1463519931 0.5456257463 4291808471
-0.2380532920 -0.1457801163 0.5457543135 4291216334
-0.2377207726 -0.1449709684 0.5449919701 4291280074
-0.2373878658 -0.1441632658 0.5442287922 4291016902
-0.2374431938 -0.1435920596 0.5443556309 4289766063
-0.2374983430 -0.1430204362 0.5444820523 4290226614
-0.2371644825 -0.1422152966 0.5437166691 4291476934
-0.2368302643 -0.1414116174 0.5429504514 4291937485
-0.2368846387 -0.1408406943 0.5430750847 4291805129
-0.2365497649 -0.1400390416 0.5423073769 4291344578
-0.2362145036 -0.1392388791 0.5415387750 4290619575
-0.2362681180 -0.1386686563 0.5416616797 4290159024
-0.2363215387 -0.1380980462 0.5417841673 4290159792
-0.2363747656 -0.1375270486 0.5419061780 4289765034
-0.2364277840 -0.1369556785 0.5420277119 4289041824
-0.2364806086 -0.1363839060 0.5421488285 4288252308
