VERSION 0.7
FIELDS x y z rgba
SIZE 4 4 4 4
TYPE F F F U
COUNT 1 1 1 1
WIDTH 920
HEIGHT 1
VIEWPOINT 0.0 0.0 0.0 1.0 0.0 0.0 0.0
POINTS 920
DATA ascii
-0.2894657850 -0.1418401003 0.5354586244 4285234473
-0.2890649736 -0.1410495937 0.5347172022 4284971301
-0.2886637151 -0.1402605176 0.5339749455 4284839715
-0.2887254953 -0.1396971196 0.5340892076 4284576541
-0.2883235216 -0.1389100403 0.5333456397 4284379162
-0.2883847356 -0.1383468360 0.5334588885 4284313369
-0.2879820168 -0.1375617385 0.5327139497 4284247576
-0.2880427241 -0.1369987279 0.5328261852 4284247576
-0.2881031632 -0.1364353597 0.5329380631 4284247576
-0.2876994014 -0.1356528252 0.5321910977 4284313371
-0.2877593040 -0.1350896657 0.5323019624 4284510750
-0.2873547971 -0.1343091577 0.5315536261 4284708127
-0.2874141634 -0.1337461919 0.5316634774 4284708127
-0.2874733210 -0.1331828833 0.5317729115 4284642588
-0.2875322402 -0.1326192170 0.5318819284 4284839967
-0.2875909209 -0.1320552230 0.5319904685 4284971553
-0.2871847153 -0.1312784404 0.5312390327 4284905760
-0.2872428596 -0.1307146549 0.5313466191 4285234976
-0.2873007953 -0.1301505417 0.5314537287 4285498148
-0.2873584926 -0.1295860708 0.5315604806 4285366813
-0.2874159515 -0.1290212721 0.5316668153 4285432606
-0.2874732018 -0.1284561306 0.5317726731 4285892636
-0.2875302136 -0.1278906465 0.5318781734 4285958429
-0.2871216238 -0.1271188110 0.5311223865 4285892890
-0.2871780992 -0.1265535802 0.5312268138 4285958683
-0.2872343361 -0.1259880066 0.5313308239 4285827862
-0.2868247032 -0.1252188385 0.5305731297 4285893655
-0.2868804038 -0.1246535257 0.5306761265 4285959702
-0.2864700258 -0.1238864437 0.5299170613 4286157081
-0.2865251601 -0.1233213991 0.5300190449 4286354458
-0.2865800858 -0.1227560267 0.5301205516 4286486044
-0.2866347432 -0.1221903265 0.5302217007 4286551837
-0.2866891623 -0.1216243058 0.5303223729 4286749216
-0.2872096300 -0.1212548092 0.5312851667 4287208999
-0.2872636914 -0.1206872240 0.5313851237 4287669550
-0.2873175144 -0.1201193184 0.5314847231 4287603759
-0.2873710990 -0.1195510998 0.5315838456 4287340587
-0.2874244750 -0.1189825609 0.5316825509 4287537713
-0.2879442573 -0.1186059341 0.5326440930 4287932471
-0.2879972458 -0.1180358380 0.5327420831 4287998012
-0.2880499959 -0.1174654290 0.5328396559 4287800633
-0.2881024778 -0.1168947071 0.5329367518 4287932219
-0.2881547511 -0.1163236722 0.5330334306 4287866426
-0.2882067859 -0.1157523319 0.5331296921 4287867196
-0.2882585526 -0.1151806787 0.5332254767 4288064575
-0.2883101106 -0.1146087199 0.5333208442 4288064575
-0.2883614302 -0.1140364558 0.5334157348 4287998782
-0.2884125113 -0.1134638861 0.5335102081 4288064059
-0.2884633541 -0.1128910109 0.5336042643 4287998266
-0.2889815569 -0.1124998778 0.5345628262 4288196413
-0.2890319824 -0.1119254678 0.5346561670 4288064827
-0.2890821695 -0.1113507673 0.5347490311 4287867448
-0.2891321182 -0.1107757613 0.5348414183 4287735862
-0.2896497846 -0.1103787720 0.5357989669 4288196411
-0.2896993160 -0.1098022461 0.5358906388 4288722755
-0.2902167439 -0.1094018742 0.5368477106 4288920134
-0.2902658880 -0.1088238209 0.5369386077 4289051720
-0.2907830179 -0.1084200665 0.5378952622 4289249099
-0.2913000882 -0.1080141589 0.5388517380 4289314892
-0.2918170691 -0.1076060832 0.5398080349 4289380685
-0.2923339605 -0.1071958542 0.5407642126 4289512271
-0.2923821807 -0.1066126153 0.5408533812 4289314891
-0.2928988039 -0.1061990038 0.5418090820 4289051719
-0.2929466069 -0.1056142524 0.5418975353 4288854592
-0.2929941714 -0.1050292179 0.5419855118 4288525627
-0.2930414975 -0.1044438928 0.5420730114 4288394039
-0.2935574949 -0.1040244624 0.5430275202 4288262453
-0.2936044037 -0.1034376398 0.5431143045 4288262453
-0.2936510444 -0.1028505415 0.5432005525 4288262453
-0.2936974168 -0.1022631600 0.5432863832 4288065328
-0.2942127883 -0.1018379182 0.5442396998 4288328500
-0.2947280705 -0.1014105231 0.5451928973 4288854843
-0.2947738469 -0.1008204371 0.5452775359 4288986429
-0.2952888310 -0.1003896743 0.5462301970 4288853814
-0.2953341901 -0.0997980908 0.5463140607 4288722228
-0.2958488762 -0.0993639678 0.5472661853 4288787772
-0.2963634431 -0.0989276841 0.5482180119 4288787772
-0.2968779206 -0.0984892473 0.5491697192 4288591155
-0.2973922789 -0.0980486572 0.5501211882 4288459569
-0.2983763814 -0.0977598727 0.5519416332 4288393271
-0.2988905907 -0.0973140374 0.5528927445 4288459064
-0.2994046509 -0.0968660489 0.5538436770 4288588159
-0.2999185920 -0.0964159071 0.5547943711 4288522366
-0.3728147447 -0.2068600059 0.6910586953 4289047717
-0.3733636439 -0.2063956261 0.6920761466 4286415997
-0.3729938269 -0.2054229975 0.6913906336 4286285904
-0.3726234734 -0.2044516206 0.6907041669 4286285904
-0.3727122545 -0.2037327141 0.6908686757 4285365307
-0.3718813658 -0.2025126517 0.6893285513 4284444205
-0.3715095818 -0.2015450597 0.6886394024 4284246822
-0.3725169897 -0.2013243735 0.6905067563 4284312615
-0.3712245226 -0.1998613328 0.6881110072 4284642083
-0.3018343747 -0.1618811637 0.5594877005 4284510497
-0.2982230783 -0.1593301445 0.5527937412 4284378911
-0.2959908247 -0.1575279236 0.5486559868 4284378911
-0.2951385975 -0.1564665288 0.5470762849 4284313118
-0.2938251793 -0.1551650912 0.5446416736 4284247325
-0.2929715514 -0.1541109234 0.5430594087 4284181532
-0.2921172976 -0.1530599445 0.5414758921 4284181532
-0.2926449478 -0.1527337134 0.5424540043 4284115739
-0.2917897403 -0.1516864300 0.5408686996 4284115739
-0.2913949490 -0.1508810520 0.5401369333 4284115739
-0.2914609015 -0.1503149420 0.5402591825 4284247325
-0.2910653353 -0.1495114863 0.5395259857 4284444959
-0.2906693816 -0.1487094611 0.5387920141 4284642338
-0.2902729809 -0.1479088366 0.5380572081 4284708131
-0.2907993197 -0.1475781351 0.5390328765 4284642338
-0.2904022932 -0.1467785537 0.5382969379 4284773924
-0.2900048196 -0.1459804028 0.5375601649 4284773924
-0.2896069288 -0.1451836675 0.5368226171 4284642338
-0.2896706164 -0.1446190029 0.5369406939 4284773924
-0.2892719805 -0.1438242346 0.5362017751 4284708131
-0.2888729274 -0.1430308819 0.5354620218 4284708131
-0.2893980443 -0.1426948607 0.5364354253 4285037094
-0.2885359228 -0.1416755468 0.5348374248 4285234473
-0.2885982096 -0.1411117464 0.5349528193 4284773922
-0.2881976664 -0.1403223574 0.5342103839 4284708129
-0.2882594168 -0.1397587508 0.5343248248 4284576543
-0.2878581285 -0.1389713436 0.5335809588 4284379164
-0.2879193127 -0.1384079009 0.5336943865 4284247578
-0.2875172794 -0.1376225054 0.5329492092 4284247578
-0.2875779271 -0.1370592564 0.5330616236 4284181783
-0.2876383662 -0.1364956647 0.5331736207 4284115990
-0.2872352600 -0.1357128173 0.5324264765 4284182298
-0.2872951329 -0.1351494193 0.5325374603 4284642849
-0.2868913114 -0.1343685985 0.5317888856 4284577054
-0.2869506478 -0.1338054091 0.5318989158 4284182296
-0.2870097756 -0.1332418770 0.5320084691 4284248087
-0.2870686352 -0.1326779872 0.5321176052 4284642845
-0.2871273160 -0.1321137547 0.5322263241 4285037345
-0.2871857285 -0.1315491796 0.5323346257 4285366310
-0.2867798805 -0.1307726651 0.5315823555 4285169183
-0.2868377864 -0.1302083135 0.5316896439 4285366562
-0.2868954241 -0.1296436191 0.5317965150 4285235225
-0.2869528532 -0.1290785819 0.5319029689 4285366811
-0.2870100737 -0.1285132170 0.5320090055 4285958429
-0.2870670259 -0.1279475093 0.5321146250 4286155808
-0.2866591811 -0.1271753460 0.5313585997 4286090265
-0.2867155969 -0.1266098768 0.5314631462 4286024472
-0.2863070071 -0.1258397996 0.5307058096 4285893655
-0.2863628864 -0.1252745986 0.5308093429 4285893655
-0.2859535515 -0.1245066002 0.5300506353 4285959702
-0.2860088646 -0.1239416525 0.5301531553 4286222874
-0.2860639691 -0.1233763695 0.5302553177 4286354460
-0.2861188352 -0.1228107661 0.5303570032 4286354460
-0.2861734629 -0.1222448424 0.5304582715 4286354458
-0.2862278521 -0.1216785908 0.5305590630 4286486044
-0.2867475152 -0.1213089451 0.5315223336 4286815009
-0.2868015468 -0.1207411289 0.5316224694 4287275560
-0.2868553102 -0.1201729923 0.5317221880 4287407146
-0.2869088650 -0.1196045354 0.5318214297 4287209767
-0.2869622111 -0.1190357581 0.5319202542 4287340332
-0.2870152891 -0.1184666678 0.5320186615 4287669297
-0.2875341475 -0.1180886552 0.5329804420 4287735092
-0.2875868380 -0.1175180078 0.5330781341 4287603506
-0.2876393199 -0.1169470549 0.5331754088 4287538229
-0.2876915336 -0.1163757816 0.5332722068 4287538229
-0.2877435386 -0.1158042029 0.5333685875 4287670069
-0.2877952754 -0.1152323112 0.5334644914 4287801655
-0.2878468037 -0.1146601140 0.5335599780 4287801655
-0.2878980637 -0.1140876114 0.5336550474 4287670069
-0.2879491150 -0.1135148033 0.5337496400 4287472688
-0.2879999280 -0.1129416898 0.5338438153 4287406895
-0.2885173261 -0.1125504002 0.5348029137 4287406894
-0.2885677218 -0.1119757518 0.5348963141 4287406894
-0.2886178792 -0.1114008054 0.5349892974 4287406894
-0.2886677980 -0.1108255610 0.5350818634 4287406894
-0.2891846597 -0.1104284152 0.5360398889 4287999285
-0.2892341912 -0.1098516434 0.5361316800 4288525629
-0.2897508144 -0.1094511077 0.5370892882 4288525629
-0.2897998989 -0.1088728085 0.5371803641 4288657215
-0.2898487747 -0.1082942262 0.5372709036 4288854592
-0.2908325493 -0.1080628112 0.5390944481 4289051971
-0.2908810973 -0.1074817702 0.5391844511 4289183557
-0.2913971245 -0.1070723087 0.5401409268 4289315143
-0.2919130325 -0.1066606864 0.5410972834 4289117762
-0.2919609845 -0.1060769111 0.5411861539 4288920383
-0.2924766541 -0.1056619063 0.5421420336 4288723004
-0.2925241888 -0.1050766185 0.5422301292 4288459832
-0.2925714552 -0.1044910550 0.5423177481 4288460086
-0.2930866778 -0.1040714458 0.5432727933 4288262707
-0.2931335568 -0.1034843773 0.5433596373 4288459315
-0.2931801677 -0.1028970182 0.5434460640 4288459315
-0.2932265103 -0.1023093909 0.5435319543 4288130350
-0.2937411070 -0.1018839702 0.5444858074 4288327729
-0.2937870324 -0.1012948453 0.5445709825 4288920120
-0.2943013310 -0.1008660570 0.5455242991 4288920120
-0.2948155403 -0.1004351154 0.5464774370 4288590901
-0.2948608398 -0.0998432785 0.5465614200 4288656694
-0.2953747511 -0.0994089693 0.5475140214 4288985151
-0.2958885729 -0.0989724994 0.5484663844 4289050944
-0.2964022458 -0.0985338837 0.5494185686 4288919609
-0.2969157994 -0.0980931073 0.5503705740 4288788023
-0.2978983819 -0.0978042036 0.5521919131 4288394041
-0.2984117866 -0.0973581746 0.5531435609 4288328248
-0.2989250720 -0.0969099998 0.5540949702 4288457333
-0.2994382381 -0.0964596644 0.5550462008 4289115263
-0.3707439005 -0.2069004923 0.6886379123 4292073440
-0.3708334565 -0.2061851472 0.6888042092 4288389525
-0.3709227145 -0.2054692954 0.6889700294 4286678907
-0.3691569567 -0.1999200732 0.6856902242 4284575273
-0.3012735546 -0.1625354737 0.5596002936 4284444706
-0.3013441861 -0.1619516909 0.5597314835 4284378913
-0.2977388203 -0.1593995839 0.5530346632 4284313120
-0.2941315174 -0.1568613350 0.5463343263 4284247327
-0.2932804227 -0.1558021754 0.5447534323 4284181534
-0.2924286723 -0.1547461897 0.5431713462 4284181534
-0.2938757837 -0.1549054831 0.5458592772 4284181534
-0.2921032608 -0.1533683389 0.5425668955 4284247327
-0.2917100191 -0.1525598466 0.5418364406 4284049946
-0.2913163304 -0.1517527550 0.5411052704 4284049946
-0.2909222543 -0.1509470642 0.5403732061 4284049946
-0.2905277312 -0.1501427889 0.5396404266 4284115739
-0.2905932963 -0.1495769620 0.5397622585 4284378911
-0.2901980281 -0.1487746090 0.5390280485 4284576290
-0.2902630568 -0.1482089162 0.5391488671 4284642083
-0.2898670435 -0.1474084854 0.5384132266 4284642083
-0.2899315357 -0.1468429416 0.5385330319 4284576545
-0.2895347774 -0.1460444629 0.5377960801 4284773924
-0.2891376019 -0.1452473998 0.5370583534 4284708131
-0.2892012298 -0.1446825266 0.5371765494 4284773924
-0.2888032794 -0.1438874304 0.5364373922 4284642336
-0.2888664007 -0.1433227211 0.5365545750 4284576543
-0.2884677052 -0.1425295770 0.5358140469 4284773922
-0.2880686224 -0.1417378932 0.5350727439 4284839715
-0.2881308496 -0.1411738694 0.5351883173 4284642336
-0.2877309918 -0.1403841525 0.5344456434 4284642336
-0.2877926826 -0.1398203224 0.5345602632 4284576543
-0.2873921096 -0.1390326023 0.5338161588 4284444957
-0.2874532640 -0.1384689361 0.5339297652 4284247576
-0.2875141799 -0.1379049271 0.5340428948 4284115990
-0.2871125340 -0.1371197551 0.5332968831 4283984404
-0.2871729136 -0.1365559250 0.5334090590 4283852818
-0.2867705226 -0.1357727647 0.5326616168 4283919124
-0.2868303657 -0.1352091432 0.5327727795 4284379675
-0.2868899703 -0.1346451789 0.5328834653 4284642845
-0.2864865363 -0.1338645965 0.5321341157 4284379673
-0.2865456045 -0.1333008260 0.5322438478 4284379928
-0.2866044343 -0.1327367127 0.5323531032 4284708893
-0.2866630554 -0.1321722567 0.5324620008 4285037856
-0.2867214382 -0.1316074580 0.5325704813 4284972063
-0.2867796123 -0.1310423166 0.5326784849 4284840216
-0.2863741517 -0.1302660406 0.5319253802 4285169181
-0.2864317596 -0.1297011226 0.5320323706 4285235225
-0.2864891589 -0.1291358620 0.5321390033 4285432604
-0.2865463197 -0.1285702586 0.5322451591 4285827611
-0.2866032422 -0.1280043274 0.5323508978 4286024990
-0.2861960828 -0.1272318363 0.5315946341 4285959448
-0.2862524688 -0.1266661435 0.5316993594 4285762069
-0.2858445942 -0.1258957535 0.5309417248 4285762583
-0.2854363024 -0.1251268536 0.5301833749 4285696790
-0.2854917943 -0.1245619953 0.5302864909 4285828376
-0.2855470777 -0.1239968166 0.5303891301 4286091548
-0.2856021523 -0.1234313101 0.5304914117 4286288413
-0.2856569588 -0.1228654757 0.5305932164 4286222620
-0.2857115567 -0.1222993135 0.5306946039 4286157079
-0.2857659161 -0.1217328310 0.5307955742 4286157079
-0.2862847745 -0.1213630438 0.5317593813 4286420249
-0.2863387764 -0.1207949892 0.5318596363 4286617628
-0.2863925099 -0.1202266216 0.5319594741 4286946595
-0.2864460349 -0.1196579337 0.5320588946 4287012388
-0.2864993215 -0.1190889254 0.5321578383 4287077929
-0.2865523696 -0.1185195968 0.5322563648 4287275308
-0.2870704234 -0.1181414351 0.5332186818 4287341104
-0.2871230841 -0.1175705567 0.5333164930 4287209518
-0.2871755362 -0.1169993579 0.5334138870 4287341104
-0.2872277200 -0.1164278537 0.5335108042 4287341104
-0.2872796655 -0.1158560365 0.5336073041 4287341102
-0.2873313725 -0.1152839139 0.5337033868 4287406895
-0.2873828709 -0.1147114784 0.5337989926 4287472688
-0.2878999710 -0.1143237278 0.5347594619 4287341102
-0.2879510522 -0.1137497500 0.5348543525 4287209515
-0.2880018950 -0.1131754667 0.5349488258 4287143722
-0.2880524993 -0.1126008853 0.5350428224 4286946343
-0.2881028652 -0.1120259985 0.5351363420 4286880550
-0.2881529927 -0.1114508063 0.5352294445 4287012390
-0.2882028520 -0.1108753234 0.5353221297 4287209769
-0.2887189388 -0.1104780138 0.5362806916 4287736113
-0.2887684107 -0.1099010035 0.5363726020 4288065078
-0.2892842591 -0.1095003039 0.5373307467 4288065076
-0.2893333137 -0.1089217663 0.5374218822 4288394041
-0.2898488939 -0.1085176766 0.5383795500 4288854076
-0.2898975611 -0.1079376191 0.5384699106 4289051455
-0.2904129028 -0.1075301468 0.5394271016 4289117246
-0.2904611528 -0.1069485769 0.5395167470 4289183039
-0.2909761965 -0.1065377221 0.5404734612 4289117246
-0.2914911807 -0.1061247066 0.5414299965 4288854074
-0.2915388346 -0.1055403948 0.5415185094 4288788281
-0.2920535505 -0.1051239967 0.5424745679 4288722488
-0.2921008170 -0.1045381725 0.5425623655 4288590902
-0.2926152349 -0.1041183993 0.5435178876 4288393523
-0.2926620543 -0.1035310701 0.5436048508 4288393522
-0.2927086353 -0.1029434726 0.5436913371 4288459315
-0.2927549481 -0.1023555845 0.5437774062 4288261936
-0.2932687700 -0.1019299924 0.5447317958 4288261936
-0.2933146656 -0.1013406143 0.5448170304 4288525108
-0.2933602929 -0.1007509604 0.5449017882 4288459315
-0.2938736379 -0.1003207713 0.5458552837 4288459316
-0.2943868935 -0.0998884365 0.5468086004 4288590902
-0.2949000001 -0.0994539410 0.5477617383 4288853822
-0.2958811820 -0.0991742089 0.5495842099 4288853822
-0.2963941693 -0.0987344608 0.5505370498 4288722488
-0.2964386940 -0.0981375277 0.5506197810 4288525109
-0.2974197567 -0.0978485048 0.5524420142 4288196660
-0.2979323566 -0.0974022895 0.5533941388 4288262453
-0.2989133894 -0.0971061215 0.5552163720 4288918388
-0.2989572287 -0.0965033993 0.5552977920 4290957971
-0.3698602319 -0.2053042799 0.6884167194 4287008123
-0.3685754836 -0.2038289160 0.6860254407 4286615372
-0.3700376153 -0.2038722485 0.6887468696 4286154821
-0.3696678281 -0.2029040307 0.6880586147 4285233721
-0.3692975640 -0.2019370794 0.6873694062 4284575791
-0.3684684932 -0.2007217407 0.6858263016 4284509479
-0.3676387668 -0.1995094568 0.6842818856 4284509479
-0.3663497865 -0.1980523467 0.6818827391 4284247327
-0.2976430655 -0.1602932662 0.5539997220 4284247327
-0.2949603200 -0.1582385153 0.5490063429 4284181534
-0.2941114008 -0.1571748704 0.5474262834 4284115741
-0.2924116552 -0.1550570726 0.5442625284 4284115739
-0.2920871079 -0.1536768973 0.5436584949 4284181532
-0.2916946709 -0.1528671831 0.5429280400 4283918360
-0.2913017869 -0.1520588845 0.5421968102 4283984153
-0.2904489338 -0.1510130316 0.5406093597 4284049946
-0.2905147970 -0.1504464746 0.5407319069 4284115739
-0.2901206315 -0.1496423781 0.5399982929 4284378911
-0.2901859581 -0.1490759552 0.5401198864 4284510497
-0.2893310785 -0.1480384469 0.5385286808 4284576290
-0.2898558378 -0.1477075070 0.5395054221 4284707876
-0.2894601822 -0.1469072849 0.5387690067 4284642336
-0.2890641093 -0.1461084783 0.5380318165 4284642336
-0.2891280353 -0.1455428600 0.5381507874 4284708129
-0.2887312174 -0.1447460055 0.5374122262 4284708129
-0.2883339822 -0.1439505816 0.5366728306 4284708129
-0.2879363298 -0.1431566030 0.5359327197 4284642336
-0.2884598672 -0.1428203434 0.5369071364 4284773922
-0.2876006663 -0.1418001801 0.5353079438 4284773922
-0.2876628637 -0.1412359476 0.5354236364 4284839713
-0.2872637212 -0.1404459029 0.5346807241 4284708127
-0.2873253524 -0.1398818493 0.5347954631 4284510748
-0.2869254947 -0.1390938014 0.5340511799 4284247576
-0.2869865894 -0.1385299265 0.5341649055 4284115990
-0.2865859568 -0.1377438903 0.5334192514 4283984404
-0.2866465151 -0.1371801943 0.5335319638 4283852818
-0.2867068648 -0.1366161555 0.5336442590 4283787025
-0.2863051891 -0.1358326674 0.5328966379 4284116756
-0.2863649726 -0.1352688223 0.5330079198 4284182549
-0.2859625518 -0.1344873607 0.5322589278 4284511514
-0.2860217988 -0.1339237243 0.5323691964 4284445721
-0.2860808372 -0.1333597451 0.5324790478 4284248342
-0.2856773734 -0.1325808764 0.5317280889 4284643100
-0.2857358456 -0.1320171058 0.5318369269 4285037854
-0.2857940793 -0.1314529777 0.5319453478 4284708889
-0.2858521044 -0.1308885217 0.5320533514 4284774934
-0.2859099209 -0.1303237230 0.5321609378 4285169692
-0.2859674692 -0.1297585815 0.5322681069 4285432602
-0.2860248387 -0.1291930825 0.5323747993 4285564188
-0.2856190205 -0.1284191310 0.5316194892 4285761818
-0.2856758237 -0.1278538853 0.5317252278 4285959197
-0.2857323885 -0.1272882968 0.5318304896 4286025241
-0.2857887447 -0.1267223805 0.5319353938 4285827862
-0.2853815556 -0.1259516478 0.5311775208 4285630743
-0.2849739790 -0.1251824349 0.5304188728 4285630743
-0.2850294411 -0.1246173531 0.5305221081 4285828122
-0.2846211493 -0.1238502339 0.5297621489 4286091294
-0.2846760452 -0.1232854128 0.5298643708 4286157340
-0.2847307622 -0.1227202713 0.5299661756 4286157340
-0.2847852111 -0.1221548021 0.5300675035 4286157338
-0.2848394513 -0.1215890050 0.5301684737 4286091545
-0.2853574455 -0.1212199926 0.5311325788 4286222872
-0.2854112983 -0.1206526384 0.5312328339 4286157079
-0.2854649127 -0.1200849563 0.5313326716 4286486046
-0.2859825492 -0.1197112873 0.5322961211 4286946597
-0.2855714560 -0.1189486384 0.5315309763 4287143722
-0.2860887945 -0.1185724884 0.5324938893 4287209515
-0.2861415744 -0.1180026159 0.5325921178 4287143723
-0.2861941159 -0.1174324229 0.5326899290 4286946344
-0.2862464190 -0.1168619171 0.5327872634 4287012137
-0.2867632508 -0.1164798886 0.5337492824 4287077930
-0.2868151665 -0.1159078330 0.5338459015 4287142953
-0.2868668437 -0.1153354719 0.5339420438 4287208746
-0.2869182825 -0.1147627980 0.5340378284 4287340332
-0.2874346077 -0.1143748909 0.5349988341 4287274539
-0.2874856591 -0.1138006747 0.5350938439 4286946343
-0.2875364721 -0.1132261530 0.5351883769 4286880550
-0.2875870168 -0.1126513332 0.5352825522 4286815011
-0.2876373529 -0.1120762080 0.5353761911 4286749218
-0.2876874506 -0.1115007773 0.5354694128 4286815011
-0.2877372801 -0.1109250486 0.5355622172 4287078183
-0.2882525623 -0.1105275825 0.5365213156 4287472939
-0.2883020341 -0.1099503264 0.5366133451 4287538732
-0.2883512378 -0.1093727723 0.5367048979 4287670318
-0.2888661027 -0.1089706868 0.5376632214 4288130869
-0.2893808782 -0.1085664332 0.5386214256 4288722490
-0.2898955941 -0.1081600189 0.5395794511 4289051455
-0.2899440527 -0.1075784937 0.5396696329 4289117248
-0.2899922729 -0.1069966704 0.5397593975 4289183041
-0.2905065417 -0.1065856442 0.5407165885 4289051453
-0.2910207510 -0.1061724648 0.5416736603 4288788281
-0.2910683751 -0.1055878997 0.5417622924 4288722490
-0.2915822864 -0.1051713303 0.5427188873 4288722490
-0.2916294932 -0.1045852676 0.5428067446 4288656184
-0.2921431661 -0.1041653156 0.5437628031 4288590391
-0.2921899557 -0.1035777405 0.5438498855 4288393010
-0.2922364771 -0.1029898822 0.5439364910 4288393010
-0.2922827899 -0.1024017483 0.5440226793 4288393010
-0.2927958071 -0.1019759774 0.5449775457 4288327217
-0.2928416431 -0.1013863459 0.5450628996 4288327219
-0.2928872705 -0.1007964388 0.5451477766 4288327219
-0.2933998108 -0.1003660783 0.5461018085 4288261936
-0.2939122617 -0.0999335572 0.5470556021 4288459315
-0.2944245934 -0.0994988829 0.5480092168 4288788283
-0.2954042554 -0.0992190391 0.5498326421 4288788283
-0.2959164381 -0.0987791047 0.5507859588 4288460086
-0.2968960404 -0.0984921232 0.5526093245 4288131121
-0.2969404459 -0.0978927687 0.5526919365 4287868461
-0.2979199588 -0.0975995883 0.5545151234 4288000047
-0.2984317541 -0.0971500799 0.5554676652 4288261727
-0.2989434004 -0.0966984257 0.5564200282 4290959240
-0.3681635559 -0.2063117325 0.6866782904 4291481303
-0.3682526350 -0.2055985183 0.6868444085 4287535231
-0.3678844571 -0.2046305835 0.6861577034 4287074680
-0.3679728806 -0.2039172202 0.6863226295 4286549577
-0.3662321568 -0.2021936327 0.6830759645 4286089026
-0.3676916063 -0.2022373974 0.6857979894 4285233721
-0.3673216999 -0.2012727410 0.6851080656 4284641584
-0.3664937317 -0.2000595778 0.6835638285 4284510247
-0.3656651080 -0.1988494694 0.6820182800 4284247075
-0.3639202118 -0.1971464455 0.6787638664 4284313118
-0.3008198142 -0.1623396724 0.5610724092 4284247325
-0.2972263992 -0.1597845256 0.5543702245 4284115739
-0.2950053513 -0.1579791754 0.5502276421 4283984153
-0.2936993539 -0.1566711664 0.5477917790 4283984153
-0.2928508222 -0.1556116492 0.5462091565 4284049946
-0.2920016348 -0.1545553058 0.5446252823 4284115739
-0.2911518216 -0.1535021365 0.5430402756 4284181532
-0.2916772068 -0.1531746835 0.5440201759 4283918360
-0.2912851274 -0.1523651630 0.5432888865 4283918360
-0.2904338241 -0.1513179839 0.5417010784 4284050201
-0.2900407910 -0.1505121738 0.5409680605 4284313373
-0.2901063859 -0.1499450058 0.5410903692 4284444959
-0.2897126079 -0.1491411179 0.5403559208 4284510752
-0.2893184125 -0.1483386308 0.5396206975 4284510752
-0.2898424864 -0.1480066776 0.5405981541 4284576545
-0.2889882028 -0.1469715685 0.5390048027 4284576541
-0.2890523970 -0.1464052051 0.5391244888 4284576541
-0.2886567116 -0.1456066072 0.5383865237 4284576541
-0.2887203395 -0.1450403929 0.5385051966 4284510748
-0.2883239090 -0.1442437470 0.5377658010 4284642334
-0.2874671221 -0.1432193816 0.5361677408 4284839713
-0.2875297964 -0.1426547617 0.5362846851 4284773920
-0.2871321142 -0.1418624222 0.5355429053 4284773920
-0.2871942520 -0.1412979662 0.5356587768 4284905506
-0.2867958248 -0.1405076236 0.5349156857 4284773920
-0.2868573964 -0.1399433315 0.5350305438 4284576795
-0.2864582539 -0.1391549706 0.5342860222 4284445209
-0.2865192890 -0.1385908723 0.5343999267 4284247830
-0.2865801156 -0.1380264163 0.5345133543 4284050451
-0.2861799002 -0.1372406036 0.5337668657 4283918865
-0.2862401903 -0.1366763264 0.5338793397 4283787279
-0.2858392298 -0.1358925253 0.5331314802 4283919377
-0.2858989537 -0.1353284568 0.5332428813 4284248342
-0.2859584689 -0.1347640455 0.5333539248 4284313880
-0.2855564654 -0.1339828223 0.5326040983 4284248087
-0.2856154442 -0.1334186047 0.5327140689 4284445466
-0.2852126658 -0.1326394230 0.5319628716 4284577052
-0.2852711082 -0.1320754141 0.5320718884 4284577305
-0.2853293121 -0.1315110773 0.5321804285 4284511512
-0.2853873074 -0.1309463978 0.5322885513 4284774934
-0.2854450643 -0.1303813607 0.5323963165 4285235485
-0.2855025828 -0.1298159957 0.5325036049 4285367322
-0.2855598927 -0.1292502731 0.5326104760 4285367322
-0.2851547897 -0.1284759939 0.5318549275 4285499159
-0.2852115631 -0.1279105246 0.5319607854 4285630745
-0.2852680683 -0.1273447126 0.5320662260 4285696790
-0.2848619223 -0.1265730858 0.5313087106 4285630997
-0.2849179208 -0.1260075122 0.5314130783 4285499161
-0.2845110297 -0.1252379864 0.5306542516 4285564954
-0.2845664620 -0.1246726662 0.5307576060 4285828124
-0.2841588855 -0.1239052266 0.5299974084 4285959710
-0.2842137516 -0.1233401820 0.5300997496 4286091035
-0.2842684090 -0.1227748096 0.5302016735 4286222621
-0.2843228281 -0.1222091019 0.5303031802 4286288667
-0.2843770087 -0.1216430813 0.5304042697 4286157081
-0.2844309807 -0.1210767329 0.5305048823 4286091286
-0.2849480212 -0.1207063347 0.5314692855 4286091286
-0.2850016057 -0.1201384217 0.5315692425 4286288667
-0.2850549519 -0.1195701882 0.5316687226 4286683425
-0.2855716646 -0.1191951334 0.5326324701 4286880550
-0.2856246531 -0.1186253428 0.5327312350 4287012136
-0.2856773734 -0.1180552319 0.5328296423 4286880550
-0.2857298851 -0.1174848080 0.5329275131 4286617378
-0.2857821286 -0.1169140637 0.5330250263 4286617378
-0.2858341634 -0.1163430139 0.5331220627 4286748964
-0.2863500714 -0.1159595922 0.5340842605 4287011622
-0.2864017189 -0.1153869927 0.5341805816 4287011622
-0.2864530981 -0.1148140803 0.5342764854 4287011620
-0.2865042686 -0.1142408624 0.5343719125 4287011620
-0.2865552008 -0.1136673391 0.5344668627 4286683423
-0.2866058946 -0.1130935103 0.5345614552 4286551837
-0.2866563499 -0.1125193760 0.5346555114 4286617630
-0.2871712446 -0.1121263802 0.5356158614 4286815009
-0.2872212827 -0.1115507111 0.5357092023 4286815007
-0.2872710824 -0.1109747440 0.5358021259 4287143972
-0.2873206735 -0.1103984714 0.5358945727 4287407144
-0.2873699963 -0.1098219082 0.5359866023 4287275558
-0.2878841758 -0.1094218194 0.5369455814 4287341862
-0.2879330814 -0.1088437289 0.5370368361 4287802413
-0.2889122367 -0.1086151525 0.5388631225 4288327732
-0.2894261479 -0.1082085744 0.5398216248 4288722490
-0.2894745767 -0.1076268032 0.5399119854 4288919867
-0.2895227671 -0.1070447341 0.5400018692 4289051453
-0.2900362611 -0.1066335440 0.5409595966 4288919867
-0.2905496657 -0.1062201858 0.5419171453 4288656695
-0.2905972600 -0.1056353822 0.5420058966 4288590904
-0.2906446159 -0.1050502881 0.5420942307 4288590904
-0.2911575735 -0.1046323180 0.5430509448 4288590391
-0.2912045121 -0.1040457189 0.5431385040 4288656184
-0.2912511826 -0.1034588367 0.5432255864 4288393012
-0.2917636931 -0.1030362695 0.5441814661 4288327219
-0.2918099463 -0.1024478823 0.5442677736 4288327219
-0.2923221886 -0.1020219326 0.5452231169 4288261426
-0.2923680246 -0.1014320552 0.5453085899 4288327219
-0.2924135923 -0.1008418947 0.5453936458 4288458805
-0.2929253578 -0.1004113480 0.5463481545 4288261936
-0.2934370041 -0.0999786481 0.5473024845 4288327729
-0.2939485610 -0.0995437875 0.5482565761 4288525625
-0.2949266732 -0.0992638320 0.5500808358 4288657211
-0.2959047854 -0.0989798382 0.5519052148 4288394039
-0.2964161336 -0.0985366181 0.5528589487 4288065074
-0.2964605093 -0.0979370102 0.5529416800 4287802666
-0.2974384725 -0.0976437032 0.5547657609 4287868459
-0.2979494631 -0.0971940085 0.5557188392 4288327253
-0.2984603345 -0.0967421606 0.5566716790 4290564215
-0.2989710867 -0.0962881520 0.5576243401 4293192426
-0.3657355011 -0.2053765506 0.6835656762 4291218131
-0.3658240736 -0.2046665996 0.6837311983 4287337850
-0.3659123778 -0.2039561421 0.6838961840 4287008885
-0.3655440509 -0.2029917538 0.6832078099 4286418503
-0.3656316996 -0.2022811621 0.6833716631 4286089538
-0.3652625084 -0.2013183981 0.6826816201 4285365818
-0.3626094162 -0.1991031170 0.6777229309 4284773681
-0.3645226955 -0.1993966997 0.6812988520 4284642346
-0.3632382452 -0.1979397833 0.6788982153 4284181795
-0.3614958823 -0.1962396353 0.6756417155 4284444959
-0.3007840812 -0.1626573503 0.5621703863 4284379166
-0.2944533825 -0.1586223841 0.5503382087 4284247580
-0.2972661257 -0.1595203131 0.5555952787 4283984408
-0.2936758101 -0.1569838077 0.5488848686 4283918615
-0.2928288281 -0.1559229493 0.5473018289 4283984408
-0.2919811904 -0.1548652947 0.5457175970 4284115994
-0.2915906906 -0.1540526450 0.5449877381 4284115994
-0.2911997437 -0.1532413960 0.5442571044 4283984408
-0.2908083797 -0.1524315476 0.5435256362 4283918615
-0.2904165983 -0.1516231000 0.5427933931 4284050201
-0.2900243700 -0.1508160681 0.5420603156 4284379166
-0.2896317244 -0.1500104368 0.5413264632 4284576545
-0.2892386615 -0.1492062211 0.5405917764 4284510752
-0.2893036604 -0.1486389786 0.5407132506 4284444959
-0.2889098525 -0.1478366852 0.5399772525 4284313373
-0.2885155976 -0.1470358223 0.5392404199 4284313369
-0.2885797322 -0.1464692354 0.5393602848 4284379162
-0.2881847620 -0.1456703097 0.5386220217 4284379162
-0.2882483602 -0.1451038718 0.5387408733 4284247576
-0.2878526449 -0.1443069130 0.5380012989 4284510748
-0.2869972885 -0.1432821304 0.5364026427 4284773920
-0.2870599329 -0.1427172869 0.5365197062 4284642588
-0.2866629362 -0.1419246346 0.5357776880 4284708381
-0.2867250144 -0.1413599551 0.5358937383 4284642588
-0.2863273025 -0.1405692697 0.5351504087 4284708381
-0.2863888443 -0.1400047690 0.5352654457 4284839967
-0.2859903872 -0.1392160952 0.5345206857 4284839967
-0.2860513926 -0.1386517733 0.5346347094 4284642588
-0.2861121595 -0.1380870938 0.5347483158 4284247830
-0.2857126594 -0.1373009533 0.5340016484 4283853071
-0.2857728899 -0.1367364675 0.5341142416 4283721485
-0.2853726447 -0.1359523386 0.5333661437 4283985170
-0.2854323387 -0.1353880465 0.5334777236 4283985170
-0.2854917943 -0.1348233968 0.5335888863 4284050708
-0.2850905061 -0.1340418607 0.5328388214 4284050708
-0.2851494253 -0.1334774196 0.5329489708 4284116501
-0.2847473919 -0.1326979250 0.5321975350 4284379673
-0.2848057747 -0.1321336925 0.5323066711 4284577305
-0.2848639190 -0.1315691322 0.5324153304 4284511512
-0.2849218547 -0.1310042143 0.5325236320 4284577555
-0.2849795818 -0.1304389685 0.5326315165 4285038106
-0.2850370705 -0.1298733652 0.5327389240 4285169943
-0.2850943208 -0.1293074191 0.5328459740 4285169943
-0.2846899331 -0.1285328269 0.5320901871 4285301782
-0.2847466469 -0.1279671192 0.5321961641 4285301782
-0.2848031521 -0.1274010837 0.5323017240 4285170192
-0.2843977213 -0.1266291291 0.5315439701 4285038606
-0.2844536602 -0.1260633320 0.5316485167 4285301269
-0.2840474844 -0.1252934784 0.5308893919 4285432855
-0.2841028869 -0.1247279420 0.5309929252 4285696025
-0.2836959958 -0.1239601821 0.5302324295 4285827611
-0.2837508321 -0.1233949065 0.5303349495 4285762070
-0.2838054299 -0.1228293031 0.5304369926 4285959449
-0.2838598192 -0.1222633719 0.5305386782 4286157081
-0.2839139700 -0.1216971129 0.5306398869 4286025495
-0.2839678824 -0.1211305335 0.5307406187 4286025493
-0.2840215862 -0.1205636337 0.5308409929 4286091286
-0.2845377028 -0.1201918498 0.5318056345 4286156827
-0.2845910192 -0.1196233854 0.5319052339 4286288413
-0.2846440971 -0.1190546006 0.5320044756 4286419999
-0.2846969366 -0.1184854954 0.5321032405 4286551585
-0.2852125466 -0.1181078106 0.5330669284 4286551839
-0.2852649987 -0.1175371483 0.5331649780 4286354460
-0.2853172421 -0.1169661731 0.5332626104 4286485274
-0.2853692174 -0.1163948849 0.5333597660 4286748446
-0.2858843207 -0.1160113141 0.5343225002 4287011872
-0.2859359384 -0.1154384762 0.5344189405 4286880286
-0.2859872878 -0.1148653328 0.5345149636 4286682907
-0.2860384285 -0.1142918766 0.5346105099 4286617114
-0.2860893011 -0.1137181148 0.5347056389 4286486296
-0.2861399651 -0.1131440476 0.5348002911 4286288917
-0.2861903906 -0.1125696748 0.5348945260 4286486296
-0.2867044806 -0.1121765152 0.5358553529 4286815261
-0.2867544889 -0.1116006076 0.5359488726 4286815260
-0.2868042588 -0.1110243946 0.5360418558 4287144225
-0.2868538201 -0.1104478911 0.5361344814 4287473190
-0.2869031131 -0.1098710820 0.5362265706 4287275811
-0.2874164879 -0.1094708294 0.5371860862 4287276322
-0.2874653637 -0.1088925004 0.5372774601 4287539494
-0.2884429693 -0.1086638346 0.5391046405 4287932972
-0.2884915471 -0.1080830470 0.5391954184 4288327730
-0.2890045047 -0.1076750755 0.5401540995 4288590902
-0.2890526354 -0.1070927605 0.5402441025 4288788281
-0.2895653248 -0.1066813990 0.5412023664 4288656695
-0.2896130681 -0.1060975716 0.5412915945 4288393523
-0.2901255190 -0.1056828201 0.5422493219 4288459318
-0.2901728153 -0.1050974801 0.5423377752 4288525111
-0.2902199030 -0.1045118570 0.5424257517 4288261939
-0.2907318771 -0.1040924937 0.5433826447 4288590904
-0.2907785475 -0.1035053656 0.5434698462 4288327730
-0.2908249497 -0.1029179469 0.5435565710 4288130351
-0.2913364768 -0.1024939865 0.5445126891 4288130351
-0.2918479145 -0.1020678580 0.5454685688 4287998765
-0.2918937206 -0.1014777198 0.5455541611 4288129840
-0.2924048901 -0.1010482162 0.5465095043 4288524598
-0.2924502492 -0.1004565880 0.5465943217 4288327729
-0.2929611206 -0.1000237092 0.5475491285 4288196143
-0.2934718728 -0.0995886624 0.5485037565 4288262455
-0.2944484353 -0.0993086025 0.5503289104 4288394041
-0.2954249978 -0.0990244895 0.5521541834 4288130869
-0.2959355712 -0.0985810831 0.5531083941 4287867697
-0.2959798872 -0.0979812145 0.5531912446 4287802666
-0.2969563305 -0.0976877883 0.5550162196 4288000045
-0.2974665463 -0.0972379074 0.5559698343 4288326993
-0.2979766130 -0.0967858657 0.5569232106 4289906025
-0.2980201840 -0.0961811468 0.5570046306 4292731875
-0.3642232418 -0.2049527913 0.6821552515 4290691789
-0.3638561070 -0.2039890587 0.6814676523 4287272057
-0.3639440238 -0.2032809854 0.6816322803 4287206264
-0.3640316427 -0.2025724053 0.6817964315 4286746958
-0.3636633158 -0.2016106844 0.6811065674 4286023235
-0.3637503088 -0.2009019703 0.6812694669 4285496889
-0.3629251719 -0.1996910125 0.6797240973 4285036338
-0.3607311845 -0.1977331787 0.6756149530 4284510247
-0.3589920104 -0.1960328221 0.6723576784 4284181282
-0.3595330417 -0.1955800951 0.6733709574 4284313631
-0.2998334765 -0.1624805778 0.5615593791 4284379424
-0.2967084646 -0.1601696908 0.5557065606 4284247838
-0.2940383255 -0.1581164151 0.5507056117 4283918873
-0.2931934297 -0.1570519656 0.5491232276 4283787286
-0.2923478782 -0.1559906900 0.5475395918 4283721493
-0.2915017009 -0.1549325883 0.5459548235 4283852822
-0.2911119163 -0.1541196257 0.5452247262 4283852822
-0.2907216549 -0.1533080637 0.5444938540 4283984406
-0.2907882333 -0.1527380496 0.5446184874 4283984406
-0.2903972268 -0.1519283801 0.5438861847 4284181783
-0.2895483971 -0.1508817673 0.5422964096 4284510748
-0.2891564667 -0.1500758082 0.5415623784 4284773404
-0.2887640893 -0.1492712647 0.5408275127 4284510232
-0.2883712947 -0.1484681368 0.5400918722 4284312853
-0.2884359360 -0.1479011923 0.5402128696 4284444439
-0.2880423963 -0.1471000165 0.5394757986 4284181783
-0.2881064713 -0.1465332061 0.5395958424 4284181783
-0.2877121866 -0.1457339674 0.5388574004 4284247576
-0.2877757549 -0.1451673061 0.5389764309 4284313369
-0.2873807251 -0.1443700194 0.5382365584 4284510748
-0.2865268290 -0.1433448195 0.5366373658 4284708127
-0.2870479524 -0.1430082023 0.5376133323 4284774174
-0.2861931324 -0.1419867873 0.5360123515 4284642588
-0.2862551808 -0.1414218843 0.5361285210 4284576795
-0.2858581543 -0.1406308860 0.5353849530 4284511002
-0.2859196663 -0.1400661618 0.5355001688 4284708380
-0.2859809399 -0.1395010799 0.5356149077 4285037345
-0.2855828702 -0.1387126148 0.5348693728 4284839966
-0.2856436074 -0.1381477118 0.5349830985 4284116243
-0.2852447927 -0.1373612583 0.5342361927 4283721485
-0.2853049934 -0.1367965490 0.5343489051 4283984657
-0.2849054337 -0.1360121071 0.5336006284 4284050450
-0.2849650979 -0.1354475915 0.5337123275 4283918864
-0.2845647931 -0.1346651763 0.5329626203 4283918862
-0.2850837409 -0.1343175024 0.5339345336 4283984655
-0.2846828103 -0.1335362047 0.5331836343 4284116495
-0.2842814624 -0.1327563822 0.5324319601 4284313874
-0.2843398154 -0.1321919262 0.5325412154 4284577297
-0.2843979299 -0.1316271424 0.5326501131 4284708883
-0.2844558060 -0.1310620010 0.5327585340 4284840467
-0.2845135033 -0.1304965168 0.5328665376 4285037846
-0.2841104567 -0.1297204494 0.5321117043 4285169430
-0.2841675878 -0.1291552037 0.5322186947 4285103637
-0.2842244804 -0.1285896003 0.5323252082 4285235477
-0.2842811346 -0.1280236691 0.5324313641 4285367063
-0.2843375802 -0.1274574101 0.5325371027 4285301521
-0.2839328647 -0.1266851425 0.5317791104 4285367314
-0.2839887738 -0.1261191219 0.5318837762 4285301521
-0.2835833132 -0.1253489405 0.5311244130 4285367314
-0.2836386561 -0.1247831807 0.5312280655 4285433618
-0.2832325101 -0.1240151003 0.5304673314 4285565204
-0.2832872868 -0.1234495938 0.5305699706 4285630996
-0.2833418548 -0.1228837594 0.5306721926 4285696789
-0.2829346359 -0.1221183836 0.5299094915 4285893909
-0.2834503055 -0.1217511073 0.5308753252 4286025495
-0.2835041881 -0.1211843044 0.5309762359 4285893907
-0.2835578322 -0.1206171662 0.5310766697 4286025493
-0.2840731740 -0.1202452332 0.5320418477 4286222872
-0.2841264307 -0.1196765378 0.5321416259 4286222872
-0.2841794789 -0.1191075221 0.5322409272 4286025491
-0.2842322886 -0.1185381860 0.5323398709 4286025491
-0.2847470939 -0.1181603521 0.5333040357 4286353939
-0.2847995162 -0.1175894588 0.5334022641 4286419732
-0.2848517001 -0.1170182452 0.5334999561 4286354456
-0.2849036753 -0.1164467260 0.5335972905 4286288663
-0.2854179740 -0.1160629988 0.5345605612 4286748698
-0.2854695320 -0.1154899225 0.5346571207 4286748698
-0.2855208516 -0.1149165407 0.5347532630 4286617112
-0.2855719626 -0.1143428460 0.5348489285 4286748698
-0.2856228054 -0.1137688458 0.5349441767 4286617882
-0.2856734097 -0.1131945401 0.5350389481 4286617882
-0.2857238054 -0.1126199290 0.5351333022 4286684187
-0.2862370908 -0.1122266129 0.5360946655 4286684187
-0.2862870693 -0.1116504669 0.5361883044 4286947357
-0.2863368094 -0.1110740155 0.5362814665 4287144736
-0.2863863111 -0.1104972661 0.5363741517 4287013150
-0.2864355743 -0.1099202186 0.5364664197 4286947357
-0.2874117196 -0.1096967384 0.5382946730 4287079715
-0.2874606550 -0.1091172248 0.5383862853 4287408680
-0.2879730761 -0.1087124795 0.5393459797 4288129838
-0.2880215943 -0.1081314459 0.5394368768 4288064045
-0.2885337472 -0.1077233106 0.5403960943 4288195631
-0.2885818779 -0.1071407571 0.5404862165 4288393010
-0.2890937924 -0.1067292243 0.5414449573 4288524596
-0.2891414762 -0.1061451510 0.5415343046 4288524596
-0.2896531224 -0.1057302281 0.5424925685 4288524596
-0.2897004187 -0.1051446423 0.5425811410 4288458803
-0.2902117968 -0.1047263294 0.5435388684 4288393010
-0.2902586460 -0.1041392311 0.5436266661 4288261424
-0.2903052568 -0.1035518497 0.5437139869 4288327219
-0.2903516293 -0.1029641926 0.5438007712 4288327219
-0.2908623815 -0.1025400460 0.5447573662 4288327219
-0.2913730443 -0.1021137461 0.5457137823 4288129840
-0.2914187908 -0.1015233621 0.5457994938 4288064045
-0.2919291556 -0.1010936797 0.5467553735 4288327217
-0.2924394310 -0.1006618291 0.5477110147 4288525362
-0.2924845815 -0.1000687331 0.5477955937 4288327983
-0.2929945290 -0.0996335074 0.5487506986 4288195892
-0.2939695418 -0.0993533283 0.5505768061 4288064306
-0.2949445844 -0.0990691036 0.5524029732 4287801386
-0.2954543531 -0.0986255109 0.5533577204 4287867179
-0.2959640026 -0.0981797576 0.5543122292 4288131121
-0.2964735329 -0.0977318436 0.5552665591 4288460086
-0.2969829440 -0.0972817689 0.5562206507 4288261965
-0.2979578078 -0.0969810709 0.5580464602 4288919895
-0.2980014086 -0.0963751450 0.5581281185 4291679704
-0.3618041277 -0.2040159255 0.6790370345 4290625997
-0.3618918955 -0.2033107728 0.6792017221 4287403643
-0.3619793952 -0.2026050985 0.6793659329 4287337850
-0.3616117835 -0.2016452849 0.6786760092 4286944337
-0.3616986275 -0.2009394765 0.6788390279 4286154821
-0.3608750999 -0.1997294426 0.6772933602 4285562682
-0.3600508273 -0.1985224485 0.6757464409 4285167924
-0.3596811891 -0.1975686103 0.6750526428 4284642346
-0.3565786481 -0.1951208562 0.6692298055 4284313381
-0.2992688715 -0.1631367207 0.5616703033 4284445216
-0.2938719690 -0.1595819741 0.5515413284 4284576802
-0.2966752648 -0.1604856104 0.5568026304 4284379423
-0.2931663394 -0.1573648155 0.5502170324 4283787540
-0.2923223674 -0.1563022137 0.5486330986 4283853333
-0.2910216153 -0.1549998522 0.5461918116 4283984919
-0.2910887599 -0.1544286162 0.5463178158 4284050712
-0.2906993330 -0.1536158174 0.5455869436 4284181783
-0.2898530066 -0.1525641829 0.5439985394 4284115990
-0.2894626260 -0.1517550945 0.5432658792 4284247830
-0.2890717983 -0.1509474069 0.5425323844 4284576795
-0.2886805534 -0.1501411349 0.5417981148 4284708381
-0.2882888913 -0.1493362784 0.5410630107 4284445209
-0.2878968120 -0.1485328227 0.5403271317 4284247830
-0.2879613936 -0.1479656696 0.5404483080 4284379416
-0.2875685692 -0.1471641511 0.5397110581 4284182037
-0.2876325846 -0.1465971321 0.5398312211 4284247830
-0.2872390151 -0.1457975656 0.5390926003 4284313623
-0.2868450284 -0.1449994445 0.5383531451 4284379416
-0.2869082093 -0.1444330961 0.5384716988 4284379416
-0.2860557735 -0.1434074640 0.5368718505 4284511002
-0.2865760922 -0.1430707276 0.5378484130 4284642588
-0.2861806154 -0.1422765255 0.5371061563 4284642588
-0.2857847214 -0.1414837688 0.5363631845 4284642587
-0.2858465016 -0.1409182847 0.5364791155 4284642587
-0.2854498625 -0.1401275098 0.5357347131 4284708380
-0.2855111063 -0.1395622045 0.5358496308 4284905759
-0.2851137221 -0.1387734264 0.5351037979 4284839964
-0.2851744294 -0.1382082999 0.5352177024 4284247827
-0.2847763002 -0.1374215186 0.5344705582 4283853069
-0.2848364711 -0.1368565857 0.5345834494 4284050448
-0.2848964036 -0.1362912953 0.5346959233 4284116243
-0.2844972312 -0.1355070919 0.5339467525 4284050450
-0.2840976417 -0.1347243488 0.5331968665 4284116243
-0.2846157849 -0.1343765557 0.5341692567 4284116243
-0.2842155695 -0.1335949302 0.5334181190 4284182288
-0.2838149369 -0.1328147948 0.5326662064 4284313874
-0.2838732302 -0.1322501153 0.5327756405 4284577042
-0.2839313149 -0.1316851079 0.5328846574 4284642835
-0.2839891613 -0.1311197430 0.5329931974 4284774674
-0.2840467691 -0.1305540353 0.5331013799 4284906260
-0.2841041684 -0.1299879849 0.5332090855 4285037844
-0.2837015390 -0.1292121708 0.5324534178 4284972051
-0.2837584019 -0.1286463439 0.5325601101 4285038097
-0.2838150263 -0.1280801892 0.5326663852 4285367062
-0.2838714123 -0.1275136918 0.5327722430 4285433107
-0.2834674120 -0.1267411113 0.5320140123 4285498900
-0.2835232615 -0.1261748523 0.5321188569 4285367312
-0.2831185460 -0.1254043579 0.5313592553 4285301519
-0.2831738293 -0.1248383671 0.5314630270 4285302032
-0.2827683985 -0.1240699738 0.5307020545 4285367825
-0.2828231454 -0.1235042363 0.5308048129 4285499410
-0.2828776836 -0.1229381710 0.5309071541 4285696789
-0.2824711800 -0.1221724823 0.5301442742 4285959702
-0.2829860449 -0.1218050644 0.5311105847 4286025495
-0.2830398679 -0.1212380230 0.5312116146 4285828114
-0.2830934823 -0.1206706613 0.5313122272 4285959700
-0.2831468582 -0.1201029718 0.5314123631 4286157079
-0.2836612463 -0.1197296530 0.5323777795 4286157079
-0.2837142348 -0.1191603988 0.5324772596 4286091284
-0.2837670147 -0.1185908318 0.5325762630 4286157077
-0.2842810452 -0.1182128489 0.5335410237 4286419733
-0.2843334079 -0.1176417246 0.5336393118 4286485526
-0.2843855619 -0.1170702800 0.5337371826 4286419735
-0.2844374776 -0.1164985225 0.5338346362 4286353942
-0.2849510014 -0.1161146387 0.5347983837 4286485526
-0.2850025296 -0.1155413315 0.5348951221 4286551319
-0.2850537896 -0.1149677113 0.5349913836 4286617112
-0.2851048708 -0.1143937781 0.5350871682 4286748698
-0.2851556838 -0.1138195470 0.5351825356 4286617882
-0.2852062583 -0.1132450029 0.5352774858 4286617882
-0.2852565944 -0.1126701534 0.5353719592 4286617882
-0.2857691050 -0.1122766733 0.5363337994 4286617882
-0.2858190238 -0.1117002890 0.5364275575 4286683674
-0.2858687341 -0.1111235991 0.5365208387 4286749467
-0.2859182060 -0.1105466112 0.5366136432 4286749467
-0.2859674096 -0.1099693179 0.5367060304 4286881053
-0.2864792049 -0.1095687449 0.5376665592 4287210531
-0.2869909108 -0.1091660038 0.5386269689 4287539496
-0.2875025272 -0.1087610945 0.5395871401 4287932971
-0.2875510454 -0.1081798151 0.5396781564 4287867178
-0.2880623937 -0.1077715084 0.5406379104 4287998765
-0.2881104648 -0.1071887091 0.5407281518 4288064558
-0.2886215746 -0.1067770123 0.5416874290 4288130351
-0.2886692584 -0.1061926931 0.5417768955 4288130351
-0.2891801000 -0.1057775989 0.5427356362 4288196144
-0.2892273664 -0.1051917672 0.5428243279 4288196144
-0.2897379398 -0.1047732830 0.5437825918 4288261424
-0.2897847593 -0.1041859388 0.5438704491 4288261424
-0.2898313403 -0.1035983115 0.5439578891 4288327219
-0.2898776829 -0.1030104011 0.5440448523 4288327219
-0.2903876305 -0.1025860831 0.5450019240 4288261426
-0.2908974886 -0.1021596044 0.5459588766 4288064047
-0.2909432352 -0.1015689671 0.5460446477 4287932459
-0.2914527953 -0.1011391059 0.5470010638 4288129838
-0.2919622660 -0.1007070765 0.5479572415 4288459056
-0.2924716175 -0.1002728865 0.5489131808 4288393263
-0.2929808795 -0.0998365432 0.5498689413 4288261685
-0.2934900224 -0.0993980318 0.5508245230 4288130099
-0.2944634855 -0.0991136879 0.5526515245 4287932972
-0.2949724793 -0.0986699089 0.5536068082 4287932972
-0.2954813242 -0.0982239693 0.5545618534 4288328500
-0.2959900796 -0.0977758691 0.5555166602 4288723258
-0.2964987159 -0.0973256007 0.5564712286 4288656723
-0.2974720001 -0.0970247835 0.5582979321 4289051481
-0.2979804575 -0.0965692475 0.5592522025 4291087820
-0.3593902588 -0.2030781060 0.6759155989 4290560204
-0.3594775200 -0.2023762316 0.6760796905 4287535231
-0.3595645130 -0.2016738504 0.6762433052 4287469438
-0.3596512377 -0.2009709626 0.6764064431 4286944850
-0.3597377241 -0.2002675533 0.6765690446 4286089541
-0.3593696058 -0.1993116736 0.6758767366 4285431609
-0.3580921292 -0.1978549063 0.6734741926 4285036851
-0.3568984270 -0.1957037896 0.6712291241 4284444967
-0.3547090590 -0.1937620342 0.6671115160 4284511263
-0.2992994487 -0.1628687680 0.5629010797 4284708642
-0.2934551537 -0.1590752900 0.5519095063 4284577054
-0.2962543070 -0.1599735916 0.5571739674 4284116503
-0.2926819623 -0.1574329734 0.5504553914 4283787538
-0.2918394506 -0.1563699543 0.5488708019 4283787538
-0.2905408740 -0.1550670415 0.5464286208 4283984917
-0.2906079590 -0.1544955969 0.5465547442 4284116503
-0.2902192473 -0.1536824852 0.5458236933 4284248087
-0.2898300886 -0.1528707743 0.5450917482 4284116501
-0.2889846861 -0.1518210024 0.5435017943 4284116501
-0.2885945737 -0.1510130018 0.5427681208 4284313880
-0.2882040441 -0.1502064019 0.5420336127 4284379673
-0.2878130972 -0.1494012326 0.5412983298 4284182294
-0.2874217033 -0.1485974640 0.5405622721 4284116501
-0.2874862254 -0.1480300725 0.5406836271 4284313880
-0.2870940864 -0.1472282559 0.5399461389 4284313623
-0.2871580720 -0.1466610134 0.5400664806 4284313623
-0.2867652178 -0.1458611339 0.5393275619 4284379416
-0.2863719165 -0.1450626701 0.5385879278 4284379416
-0.2864350379 -0.1444961131 0.5387066603 4284313622
-0.2860410213 -0.1436996162 0.5379655957 4284313622
-0.2861036062 -0.1431332082 0.5380832553 4284511001
-0.2857088447 -0.1423386931 0.5373408198 4284576794
-0.2853136361 -0.1415456086 0.5365976095 4284576794
-0.2853753865 -0.1409799010 0.5367136598 4284576794
-0.2849794626 -0.1401888132 0.5359690189 4284642585
-0.2850406468 -0.1396232843 0.5360841155 4284774171
-0.2846439779 -0.1388341784 0.5353381038 4284774171
-0.2847046256 -0.1382688284 0.5354521275 4284313620
-0.2843072116 -0.1374817342 0.5347047448 4283984655
