VERSION 0.7
FIELDS x y z rgba
SIZE 4 4 4 4
TYPE F F F U
COUNT 1 1 1 1
WIDTH 920
HEIGHT 1
VIEWPOINT 0.0 0.0 0.0 1.0 0.0 0.0 0.0
POINTS 920
DATA ascii
-0.2897852659 -0.1205984503 0.5554498434 4286814740
-0.2898381352 -0.1200031936 0.5555511713 4286748947
-0.2898907661 -0.1194076091 0.5556520224 4286618131
-0.2903975844 -0.1189979315 0.5566235185 4286618131
-0.2904497981 -0.1184007674 0.5567235947 4286618131
-0.2914110124 -0.1181719974 0.5585660338 4286618131
-0.2919176221 -0.1177557409 0.5595370531 4286947355
-0.2919693291 -0.1171548143 0.5596361756 4287144734
-0.2924756706 -0.1167351156 0.5606067181 4286815771
-0.2929819226 -0.1163132191 0.5615770817 4286881564
-0.2930330932 -0.1157094613 0.5616751313 4286947106
-0.2935390770 -0.1152841225 0.5626449585 4287276071
-0.2940449715 -0.1148566008 0.5636146665 4287408175
-0.2945507765 -0.1144268811 0.5645841956 4287737140
-0.2950564921 -0.1139949709 0.5655535460 4287737148
-0.2960175276 -0.1137358472 0.5673956275 4288395078
-0.2969786227 -0.1134726480 0.5692377687 4288657247
-0.2979397774 -0.1132053807 0.5710800886 4289117798
-0.2989009619 -0.1129340380 0.5729224682 4289839267
-0.2998622060 -0.1126586199 0.5747649074 4291023541
-0.3012792766 -0.1125493944 0.5774810910 4291548882
-0.3026965559 -0.1124342084 0.5801976919 4291812054
-0.3041140139 -0.1123130471 0.5829145908 4292864491
-0.3397025168 -0.2061983943 0.6525185108 4289245111
-0.3397893906 -0.2055259496 0.6526854038 4288390806
-0.3389863074 -0.2043167353 0.6511427760 4287403911
-0.3386275172 -0.2033777684 0.6504536271 4286484312
-0.3355976939 -0.2008418590 0.6446337700 4285957968
-0.3379085064 -0.2015036196 0.6490725279 4285432129
-0.3313139081 -0.1968639940 0.6364052892 4284971578
-0.3162526190 -0.1872397512 0.6074747443 4285235251
-0.3011835217 -0.1776751876 0.5785291791 4285366837
-0.2972478271 -0.1747190505 0.5709693432 4285498423
-0.2950929999 -0.1728226542 0.5668301582 4285498423
-0.2933826745 -0.1711948812 0.5635449290 4285432882
-0.2921172678 -0.1698330492 0.5611142516 4285301296
-0.2912970781 -0.1687345058 0.5595387816 4285235500
-0.2900300324 -0.1673815846 0.5571050048 4285235500
-0.2896547318 -0.1665468067 0.5563841462 4285235752
-0.2888326049 -0.1654576659 0.5548049212 4285038373
-0.2884563506 -0.1646265090 0.5540821552 4284972831
-0.2880796492 -0.1637967080 0.5533586144 4284907038
-0.2877025306 -0.1629682630 0.5526342392 4284841497
-0.2877718508 -0.1623933613 0.5527673364 4284775704
-0.2873939872 -0.1615667641 0.5520415306 4284775703
-0.2870157063 -0.1607415527 0.5513148904 4284775703
-0.2866369784 -0.1599177122 0.5505874753 4284775185
-0.2867051363 -0.1593438536 0.5507183671 4284775185
-0.2867730558 -0.1587695628 0.5508488417 4284643599
-0.2863932848 -0.1579480916 0.5501193404 4284577806
-0.2860130966 -0.1571279913 0.5493890047 4284577806
-0.2856324613 -0.1563092917 0.5486578941 4284643599
-0.2856992185 -0.1557360739 0.5487861633 4284643597
-0.2857657671 -0.1551624686 0.5489139557 4284643597
-0.2853840888 -0.1543461531 0.5481808186 4284709390
-0.2854501009 -0.1537726521 0.5483075976 4284840976
-0.2850676477 -0.1529582441 0.5475730300 4284972562
-0.2846848071 -0.1521452516 0.5468376279 4284972562
-0.2847499847 -0.1515723467 0.5469627976 4284841231
-0.2848149240 -0.1509990692 0.5470874906 4284709645
-0.2848796248 -0.1504253894 0.5472118258 4284709645
-0.2844954133 -0.1496153325 0.5464738011 4284643852
-0.2845596075 -0.1490417868 0.5465971231 4284709643
-0.2841746211 -0.1482336670 0.5458576083 4284709643
-0.2842382789 -0.1476602405 0.5459799170 4284775436
-0.2843017280 -0.1470864415 0.5461017489 4284775436
-0.2839156985 -0.1462807953 0.5453602672 4284643850
-0.2839785814 -0.1457071304 0.5454810858 4284709643
-0.2840412557 -0.1451330930 0.5456014276 4284907020
-0.2841037214 -0.1445586681 0.5457214117 4284972813
-0.2837163210 -0.1437560320 0.5449773073 4285038606
-0.2837782502 -0.1431817710 0.5450962186 4285038606
-0.2833901048 -0.1423811167 0.5443506837 4285104653
-0.2830015719 -0.1415819228 0.5436043143 4285236239
-0.2830626070 -0.1410083622 0.5437216163 4285302031
-0.2826733291 -0.1402111501 0.5429738760 4285236238
-0.2827338576 -0.1396377534 0.5430901051 4285170445
-0.2827941477 -0.1390639991 0.5432059169 4285236238
-0.2828542292 -0.1384898722 0.5433213115 4285368074
-0.2829140723 -0.1379153728 0.5434362888 4285499660
-0.2834242880 -0.1375592053 0.5444163084 4285565453
-0.2834837735 -0.1369830668 0.5445306301 4285697039
-0.2839938402 -0.1366234422 0.5455103517 4285762830
-0.2840529680 -0.1360456645 0.5456239581 4285565451
-0.2841118872 -0.1354675144 0.5457370877 4285499658
-0.2841705680 -0.1348890215 0.5458498597 4285894416
-0.2846801877 -0.1345233619 0.5468287468 4285894671
-0.2847385108 -0.1339432299 0.5469407439 4285960464
-0.2852479517 -0.1335740983 0.5479193330 4286026255
-0.2853059173 -0.1329923421 0.5480306149 4285960462
-0.2853636444 -0.1324102134 0.5481415391 4285894667
-0.2854211330 -0.1318277568 0.5482519865 4285894667
-0.2854783833 -0.1312449276 0.5483619571 4285894667
-0.2859872282 -0.1308685094 0.5493393540 4285894667
-0.2860441208 -0.1302840710 0.5494486690 4285960462
-0.2865527570 -0.1299041659 0.5504256487 4285894669
-0.2866092920 -0.1293181181 0.5505342484 4285763853
-0.2866655588 -0.1287316978 0.5506423712 4285829646
-0.2867216170 -0.1281449497 0.5507500172 4286026255
-0.2867774367 -0.1275578588 0.5508572459 4286092048
-0.2872854471 -0.1271706820 0.5518330336 4286157841
-0.2873408794 -0.1265819818 0.5519394875 4286223634
-0.2873960733 -0.1259929389 0.5520455241 4286223632
-0.2874510288 -0.1254035532 0.5521511436 4286223632
-0.2879585326 -0.1250103861 0.5531259179 4286223632
-0.2880131006 -0.1244193986 0.5532307625 4286289425
-0.2880674303 -0.1238280758 0.5533351302 4286421265
-0.2881215215 -0.1232364252 0.5534390211 4286487058
-0.2886284888 -0.1228372678 0.5544128418 4286552851
-0.2891353965 -0.1224359274 0.5553864837 4286552851
-0.2891889215 -0.1218414083 0.5554893613 4286683924
-0.2892422378 -0.1212465689 0.5555917621 4286683924
-0.2892952859 -0.1206513941 0.5556936860 4286618644
-0.2898016572 -0.1202440709 0.5566663146 4286618644
-0.2898543179 -0.1196473166 0.5567674637 4286618390
-0.2899067402 -0.1190502346 0.5568681359 4286618390
-0.2899588943 -0.1184528247 0.5569683909 4286552597
-0.2909185290 -0.1182239726 0.5588116646 4286486804
-0.2914243042 -0.1178075522 0.5597832203 4286684955
-0.2914760113 -0.1172063798 0.5598825216 4287013920
-0.2919815481 -0.1167865098 0.5608535409 4286882081
-0.2924869657 -0.1163644493 0.5618244410 4287013667
-0.2929923236 -0.1159401983 0.5627951622 4287079723
-0.2934975922 -0.1155137494 0.5637656450 4287342895
-0.2940027714 -0.1150851101 0.5647360086 4287474228
-0.2945078611 -0.1146542802 0.5657061934 4287803193
-0.2950128317 -0.1142212600 0.5666761994 4287802690
-0.2959723473 -0.1139611006 0.5685193539 4288329034
-0.2969319522 -0.1136968657 0.5703625679 4288657247
-0.2978915870 -0.1134285480 0.5722059011 4289315177
-0.2988512814 -0.1131561622 0.5740492940 4289510549
-0.2998110056 -0.1128797010 0.5758928061 4290036893
-0.3012258112 -0.1127694994 0.5786104202 4290496192
-0.3026408255 -0.1126533300 0.5813284516 4291548880
-0.3377890587 -0.2054753155 0.6502302885 4289574078
-0.3378755450 -0.2048052698 0.6503967643 4288390808
-0.3375176489 -0.2038664669 0.6497078538 4287864464
-0.3367151022 -0.2026615590 0.6481629610 4286615898
-0.3354675472 -0.2011931837 0.6457614303 4286023761
-0.3337745965 -0.1994640082 0.6425026059 4285563967
-0.3294132352 -0.1961531043 0.6341071725 4285169209
-0.3170454204 -0.1881104559 0.6102996469 4285432630
-0.3015577197 -0.1782762855 0.5804864168 4285630009
-0.2971841991 -0.1750551015 0.5720675588 4285761595
-0.2950331867 -0.1731570661 0.5679269433 4285761595
-0.2928808928 -0.1712674499 0.5637838840 4285695800
-0.2920629084 -0.1701644808 0.5622093081 4285564214
-0.2912442982 -0.1690646261 0.5606334805 4285432882
-0.2899795771 -0.1677102745 0.5581989884 4285432882
-0.2904962003 -0.1673877537 0.5591934323 4285235754
-0.2887845337 -0.1657838225 0.5558985472 4285038375
-0.2879633307 -0.1646964997 0.5543177724 4284907040
-0.2875873446 -0.1638663858 0.5535939932 4284841247
-0.2876569033 -0.1632907838 0.5537279248 4284841243
-0.2872801721 -0.1624625027 0.5530027151 4284775450
-0.2869030237 -0.1616356075 0.5522767305 4284709910
-0.2869717479 -0.1610605568 0.5524089932 4284644117
-0.2865938544 -0.1602354944 0.5516815782 4284840980
-0.2862155139 -0.1594118327 0.5509533286 4284840980
-0.2858367860 -0.1585895419 0.5502242446 4284577806
-0.2859043181 -0.1580155343 0.5503542423 4284446220
-0.2855248153 -0.1571951210 0.5496237278 4284446220
-0.2851449251 -0.1563761085 0.5488924384 4284577806
-0.2852116227 -0.1558026820 0.5490208268 4284709392
-0.2848309577 -0.1549855471 0.5482880473 4284906771
-0.2848971188 -0.1544122249 0.5484154224 4284709390
-0.2849630713 -0.1538385004 0.5485423803 4284709390
-0.2845813632 -0.1530237794 0.5478076339 4284709645
-0.2846467793 -0.1524501592 0.5479335189 4284775438
-0.2842643261 -0.1516373456 0.5471973419 4284775438
-0.2843292058 -0.1510638446 0.5473222136 4284775438
-0.2839460075 -0.1502529681 0.5465846062 4284709645
-0.2840103507 -0.1496795863 0.5467084646 4284643852
-0.2840744853 -0.1491058171 0.5468319058 4284643850
-0.2836902440 -0.1482973695 0.5460922122 4284709643
-0.2837538421 -0.1477237344 0.5462146401 4284775434
-0.2833688557 -0.1469172537 0.5454735756 4284775434
-0.2834319174 -0.1463437527 0.5455949306 4284643848
-0.2834947407 -0.1457698643 0.5457159281 4284709641
-0.2835573852 -0.1451956034 0.5458364487 4284907020
-0.2831709981 -0.1443921328 0.5450927615 4285038606
-0.2832331061 -0.1438180208 0.5452122688 4284973067
-0.2832949460 -0.1432435215 0.5453313589 4285038860
-0.2829075456 -0.1424425542 0.5445855856 4285104652
-0.2829688489 -0.1418682337 0.5447036028 4285236238
-0.2825807035 -0.1410692483 0.5439564586 4285236236
-0.2826415002 -0.1404950917 0.5440734625 4285170443
-0.2827020586 -0.1399205625 0.5441900492 4285236236
-0.2827624083 -0.1393456608 0.5443061590 4285302029
-0.2828225195 -0.1387704015 0.5444219112 4285039879
-0.2828823924 -0.1381947696 0.5445371866 4285303051
-0.2829420865 -0.1376187652 0.5446520448 4285500428
-0.2834514380 -0.1372602880 0.5456325412 4285697807
-0.2835107446 -0.1366826445 0.5457467437 4285697807
-0.2835698426 -0.1361046433 0.5458604693 4285368842
-0.2840789258 -0.1357413977 0.5468404293 4285434635
-0.2841376364 -0.1351617575 0.5469534993 4285960979
-0.2841961384 -0.1345817596 0.5470660925 4285698062
-0.2847048938 -0.1342137605 0.5480453968 4285763855
-0.2847630382 -0.1336321235 0.5481573343 4285895439
-0.2848209441 -0.1330501288 0.5482687950 4285895439
-0.2848786414 -0.1324677914 0.5483798385 4285960460
-0.2853869200 -0.1320937723 0.5493583083 4285894667
-0.2854442298 -0.1315097958 0.5494686365 4285894667
-0.2855013311 -0.1309254766 0.5495784879 4285894667
-0.2855581641 -0.1303407997 0.5496879220 4285895439
-0.2860659957 -0.1299607605 0.5506654382 4285829646
-0.2861224711 -0.1293744743 0.5507741570 4285763853
-0.2861787081 -0.1287878305 0.5508823991 4285829646
-0.2862347066 -0.1282008439 0.5509902239 4285895439
-0.2862904668 -0.1276135147 0.5510975718 4285961232
-0.2867976725 -0.1272262037 0.5520738959 4286157841
-0.2868530452 -0.1266372502 0.5521805286 4286157841
-0.2869082093 -0.1260479689 0.5522866845 4286355218
-0.2874150276 -0.1256559342 0.5532622933 4286421011
-0.2874698043 -0.1250650436 0.5533677340 4286421011
-0.2875243425 -0.1244738176 0.5534726977 4286355218
-0.2875786126 -0.1238822564 0.5535771847 4286421011
-0.2880849242 -0.1234842092 0.5545518398 4286552597
-0.2881388068 -0.1228910536 0.5546555519 4286618390
-0.2886449099 -0.1224895492 0.5556297898 4286684183
-0.2886984050 -0.1218947992 0.5557327271 4286684183
-0.2887516618 -0.1212997139 0.5558353066 4286618390
-0.2888046801 -0.1207043007 0.5559373498 4286619160
-0.2893102169 -0.1202968135 0.5569104552 4286750746
-0.2893628478 -0.1196998134 0.5570117831 4286750746
-0.2894152105 -0.1191024929 0.5571125746 4286750746
-0.2903733552 -0.1188757494 0.5589569807 4286750748
-0.2904253900 -0.1182759032 0.5590571761 4286750748
-0.2904772162 -0.1176757365 0.5591568947 4287079715
-0.2909820080 -0.1172579005 0.5601286292 4287408680
-0.2914867401 -0.1168378666 0.5611001849 4287211307
-0.2919913530 -0.1164156348 0.5620715618 4287408686
-0.2924959064 -0.1159912124 0.5630427599 4287408435
-0.2930003703 -0.1155645996 0.5640138388 4287605814
-0.2935047150 -0.1151357889 0.5649847388 4287671609
-0.2940090001 -0.1147047877 0.5659554005 4287868988
-0.2945131660 -0.1142715886 0.5669259429 4287868487
-0.2954711020 -0.1140113324 0.5687699318 4288394831
-0.2964291275 -0.1137469932 0.5706140399 4288788833
-0.2973871827 -0.1134785861 0.5724582672 4289315177
-0.2983452678 -0.1132060960 0.5743026137 4289642640
-0.2997576296 -0.1131008863 0.5770213008 4290103191
-0.3011701405 -0.1129897088 0.5797403455 4290627778
-0.3025828600 -0.1128725708 0.5824598074 4291943638
-0.3358794749 -0.2047514617 0.6479396820 4290100167
-0.3359655142 -0.2040838301 0.6481056809 4288522142
-0.3356079757 -0.2031473219 0.6474159956 4288193177
-0.3348065317 -0.2019445896 0.6458699107 4286615898
-0.3340044022 -0.2007448822 0.6443225741 4286221140
-0.3318705559 -0.1987510771 0.6402061582 4285827139
-0.3275164068 -0.1954414696 0.6318066120 4285563967
-0.3173890710 -0.1887178272 0.6122701764 4285761597
-0.3019282520 -0.1788777560 0.5824449062 4285893183
-0.2975624800 -0.1756534874 0.5740230083 4286024769
-0.2945269942 -0.1732303351 0.5681673288 4286090562
-0.2928228080 -0.1716003567 0.5648797154 4286024769
-0.2915619314 -0.1702365577 0.5624474883 4285827390
-0.2907447815 -0.1691362709 0.5608711243 4285630009
-0.2894823253 -0.1677813828 0.5584356785 4285630009
-0.2899980843 -0.1674587578 0.5594306588 4285498674
-0.2891792059 -0.1663660854 0.5578509569 4285235502
-0.2883597016 -0.1652765572 0.5562700629 4284972580
-0.2875395119 -0.1641901582 0.5546878576 4284906787
-0.2871639132 -0.1633601934 0.5539633036 4284907038
-0.2872332036 -0.1627839804 0.5540969968 4284972831
-0.2868568599 -0.1619558632 0.5533709526 4284907290
-0.2864800990 -0.1611291021 0.5526441336 4284709911
-0.2861028910 -0.1603037417 0.5519165397 4284972566
-0.2857252955 -0.1594797522 0.5511880517 4284840980
-0.2857930958 -0.1589050442 0.5513188839 4284643599
-0.2854147255 -0.1580829322 0.5505889654 4284512013
-0.2854820192 -0.1575082988 0.5507187843 4284512013
-0.2851029038 -0.1566880643 0.5499874353 4284577806
-0.2847233713 -0.1558692157 0.5492553115 4284775185
-0.2847898006 -0.1552951783 0.5493834615 4284972564
-0.2844095528 -0.1544782370 0.5486498475 4284775183
-0.2844754457 -0.1539042890 0.5487769842 4284643597
-0.2840944231 -0.1530892551 0.5480419993 4284578059
-0.2841598094 -0.1525154263 0.5481680632 4284578059
-0.2837780416 -0.1517022848 0.5474316478 4284578059
-0.2838428915 -0.1511285752 0.5475567579 4284643852
-0.2839075029 -0.1505544633 0.5476813912 4284709645
-0.2835246921 -0.1497437656 0.5469428897 4284578059
-0.2835887671 -0.1491697878 0.5470665097 4284709643
-0.2832052112 -0.1483610272 0.5463266373 4284709643
-0.2832687795 -0.1477871686 0.5464492440 4284841227
-0.2833320796 -0.1472129375 0.5465713739 4284841227
-0.2829475105 -0.1464066505 0.5458294749 4284709641
-0.2830102742 -0.1458325535 0.5459505916 4284841227
-0.2830728590 -0.1452580690 0.5460712910 4284973067
-0.2831352055 -0.1446831971 0.5461915731 4285038860
-0.2823011279 -0.1436519176 0.5445826054 4285104653
-0.2828110456 -0.1433052272 0.5455662608 4285038860
-0.2824243307 -0.1425039470 0.5448202491 4285104650
-0.2824856043 -0.1419294029 0.5449384451 4285236236
-0.2825466692 -0.1413544714 0.5450562239 4285302029
-0.2821589112 -0.1405557245 0.5443082452 4285236236
-0.2822194099 -0.1399809718 0.5444249511 4285236236
-0.2822797000 -0.1394058466 0.5445412397 4285367822
-0.2823397815 -0.1388303638 0.5446571112 4285171211
-0.2828485966 -0.1384743005 0.5456386805 4285434383
-0.2829082906 -0.1378971636 0.5457538366 4285632016
-0.2829677761 -0.1373196691 0.5458686352 4285763602
-0.2830270529 -0.1367418021 0.5459829569 4285697807
-0.2830860913 -0.1361635625 0.5460968018 4285368842
-0.2835943401 -0.1358001977 0.5470772982 4285434635
-0.2836530209 -0.1352203190 0.5471904874 4285960979
-0.2841610909 -0.1348534673 0.5481706262 4285829648
-0.2842194140 -0.1342719644 0.5482831001 4285829648
-0.2842774987 -0.1336901039 0.5483951569 4285829646
-0.2843353748 -0.1331078857 0.5485067964 4285895439
-0.2843930125 -0.1325253099 0.5486179590 4285895437
-0.2849004865 -0.1321511567 0.5495969057 4285829644
-0.2849577367 -0.1315669417 0.5497074127 4285763851
-0.2850147784 -0.1309823990 0.5498174429 4285698058
-0.2850715816 -0.1303974837 0.5499269962 4285895441
-0.2855785787 -0.1300173104 0.5509050488 4285961234
-0.2856349945 -0.1294307858 0.5510138869 4285961234
-0.2856912017 -0.1288439035 0.5511223078 4285895441
-0.2857471704 -0.1282566935 0.5512302518 4285961232
-0.2862536609 -0.1278705001 0.5522073507 4286027025
-0.2863092422 -0.1272816658 0.5523145795 4286157841
-0.2863645852 -0.1266924888 0.5524213314 4286157841
-0.2868707478 -0.1263015568 0.5533977747 4286355220
-0.2869257033 -0.1257107705 0.5535038114 4286486806
-0.2869804502 -0.1251196414 0.5536093712 4286421783
-0.2870349288 -0.1245281845 0.5537144542 4286355990
-0.2875405550 -0.1241312549 0.5546898842 4286290197
-0.2875946462 -0.1235381886 0.5547942519 4286421783
-0.2881000638 -0.1231377944 0.5557692051 4286684185
-0.2881537676 -0.1225431338 0.5558727980 4286749978
-0.2882072330 -0.1219481379 0.5559759140 4286684955
-0.2887122631 -0.1215430200 0.5569502115 4286619162
-0.2887653410 -0.1209464297 0.5570525527 4286684955
-0.2888181508 -0.1203495190 0.5571544170 4286750748
-0.2888707221 -0.1197522730 0.5572558641 4286685468
-0.2893752158 -0.1193411723 0.5582290292 4286685468
-0.2898796201 -0.1189278811 0.5592020750 4286816541
-0.2903839350 -0.1185123920 0.5601749420 4286816541
-0.2904357612 -0.1179110482 0.5602749586 4287145255
-0.2904873788 -0.1173093766 0.5603744984 4287408427
-0.2909912765 -0.1168891788 0.5613465905 4287211055
-0.2914950848 -0.1164667830 0.5623185039 4287474227
-0.2919988334 -0.1160421893 0.5632902384 4287539769
-0.2925024629 -0.1156154051 0.5642617941 4287737148
-0.2934588790 -0.1153644547 0.5661067963 4287802941
-0.2939624190 -0.1149323434 0.5670781732 4288066113
-0.2944658697 -0.1144980341 0.5680493712 4288328785
-0.2954222858 -0.1142367348 0.5698944330 4288657750
-0.2963787913 -0.1139713600 0.5717395544 4289052007
-0.2973353565 -0.1137019023 0.5735848546 4289446765
-0.2982919514 -0.1134283692 0.5754302144 4289840269
-0.2997020185 -0.1133221835 0.5781503320 4290300820
-0.3011122644 -0.1132100374 0.5808708072 4291022536
-0.3025226891 -0.1130919084 0.5835916400 4292535775
-0.3344160616 -0.2042970955 0.6465018392 4290692306
-0.3340593278 -0.2033616304 0.6458122134 4288719521
-0.3337021768 -0.2024274170 0.6451216936 4288456349
-0.3329018354 -0.2012268752 0.6435744762 4286747484
-0.3321008086 -0.2000293583 0.6420259476 4286550105
-0.3304132819 -0.1983032227 0.6387635469 4286352711
-0.3260664940 -0.1949940324 0.6303601861 4286089539
-0.3168427050 -0.1887974739 0.6125285625 4286090308
-0.3022950292 -0.1794796139 0.5844046474 4286221894
-0.2974937260 -0.1759899706 0.5751225948 4286221894
-0.2944636345 -0.1735649407 0.5692647696 4286221894
-0.2927625477 -0.1719334275 0.5659761429 4286156101
-0.2915040255 -0.1705681980 0.5635431409 4285892929
-0.2906884551 -0.1694665849 0.5619664788 4285761597
-0.2898722291 -0.1683681160 0.5603885055 4285827390
-0.2894993722 -0.1675297022 0.5596677065 4285893179
-0.2886819541 -0.1664366126 0.5580874681 4285564214
-0.2878638804 -0.1653466374 0.5565059185 4285235754
-0.2874895334 -0.1645140946 0.5557821989 4285169961
-0.2871147394 -0.1636829227 0.5550577044 4285301798
-0.2867395282 -0.1628531069 0.5543323159 4285433384
-0.2868085504 -0.1622762680 0.5544657707 4285302048
-0.2864325941 -0.1614482999 0.5537389517 4284973083
-0.2856113315 -0.1603719145 0.5521512628 4284906773
-0.2856794000 -0.1597965211 0.5522828698 4284840980
-0.2853021622 -0.1589726955 0.5515536070 4284709392
-0.2849245071 -0.1581502557 0.5508235097 4284775185
-0.2854370475 -0.1578216255 0.5518143177 4284775185
-0.2846133411 -0.1567548662 0.5502219200 4284709392
-0.2846800387 -0.1561801136 0.5503508449 4284709392
-0.2843008935 -0.1553614438 0.5496178865 4284775185
-0.2843670547 -0.1547867954 0.5497457981 4284775183
-0.2839871645 -0.1539700329 0.5490114093 4284775183
-0.2840527892 -0.1533954740 0.5491382480 4284775438
-0.2836721838 -0.1525806189 0.5484024286 4284841231
-0.2832911611 -0.1517671794 0.5476658344 4284775436
-0.2833559215 -0.1511932462 0.5477910638 4284775436
-0.2834204733 -0.1506189108 0.5479158163 4284709645
-0.2834848166 -0.1500442028 0.5480402112 4284578059
-0.2831024230 -0.1492336988 0.5473009348 4284775438
-0.2831662297 -0.1486591101 0.5474243164 4284775438
-0.2827830613 -0.1478505582 0.5466836095 4284841229
-0.2828463316 -0.1472761035 0.5468059182 4284841229
-0.2824624479 -0.1464695036 0.5460637808 4284841227
-0.2825251818 -0.1458951831 0.5461850762 4284907020
-0.2825877070 -0.1453204751 0.5463058949 4284972813
-0.2826499939 -0.1447453946 0.5464263558 4285038606
-0.2822647393 -0.1439418048 0.5456815362 4285170446
-0.2823265195 -0.1433668882 0.5458009243 4285038860
-0.2823880613 -0.1427915692 0.5459198952 4285104650
-0.2824493647 -0.1422158927 0.5460384488 4285302029
-0.2820627391 -0.1414153725 0.5452910066 4285367822
-0.2821235061 -0.1408398449 0.5454085469 4285236236
-0.2821840644 -0.1402639598 0.5455256104 4285170443
-0.2822444141 -0.1396877021 0.5456421971 4285236236
-0.2823045254 -0.1391110718 0.5457584262 4285171211
-0.2823643982 -0.1385340840 0.5458741784 4285368590
-0.2828723490 -0.1381756961 0.5468562245 4285434637
-0.2829318941 -0.1375970542 0.5469713211 4285566223
-0.2829912007 -0.1370180398 0.5470859408 4285828623
-0.2830502987 -0.1364386678 0.5472001433 4285631244
-0.2831091285 -0.1358589381 0.5473139286 4285697037
-0.2836165428 -0.1354932338 0.5482948422 4286223381
-0.2836750150 -0.1349118650 0.5484079123 4286223636
-0.2837333083 -0.1343301237 0.5485205650 4286026257
-0.2837913334 -0.1337480396 0.5486328006 4285960462
-0.2838491499 -0.1331655830 0.5487445593 4286026255
-0.2843559384 -0.1327925622 0.5497243404 4286026253
-0.2844133973 -0.1322084814 0.5498353839 4285960460
-0.2844706178 -0.1316240430 0.5499459505 4285828876
-0.2845275998 -0.1310392618 0.5500561595 4285828876
-0.2845843434 -0.1304541230 0.5501658320 4285961234
-0.2850905359 -0.1300738007 0.5511444211 4286158613
-0.2851469219 -0.1294870526 0.5512534380 4286092820
-0.2852030694 -0.1288999468 0.5513619781 4285961234
-0.2852589786 -0.1283124834 0.5514700413 4285961234
-0.2857646644 -0.1279261410 0.5524476767 4286027027
-0.2858202159 -0.1273370832 0.5525550246 4286223636
-0.2858754992 -0.1267476678 0.5526619554 4286355222
-0.2863808572 -0.1263565868 0.5536388755 4286092050
-0.2864357531 -0.1257655621 0.5537450314 4286289429
-0.2864904404 -0.1251742095 0.5538507700 4286421783
-0.2865448594 -0.1245825067 0.5539559722 4286421783
-0.2870497108 -0.1241854206 0.5549319386 4286355990
-0.2871037424 -0.1235921159 0.5550364256 4286487576
-0.2876083553 -0.1231915727 0.5560119152 4286749978
-0.2876619995 -0.1225966662 0.5561156869 4286749978
-0.2877154052 -0.1220014319 0.5562189221 4286750750
-0.2882196307 -0.1215961576 0.5571936965 4286684957
-0.2878215313 -0.1208099723 0.5564240217 4286751007
-0.2883254290 -0.1204021722 0.5573982000 4286882593
-0.2888292670 -0.1199921742 0.5583721995 4286882847
-0.2893330157 -0.1195799783 0.5593460798 4286948640
-0.2893851995 -0.1189799681 0.5594469905 4287145508
-0.2898887098 -0.1185643226 0.5604203939 4287211301
-0.2899405360 -0.1179627255 0.5605205297 4287342380
-0.2904437780 -0.1175436229 0.5614934564 4287605552
-0.2909469604 -0.1171223149 0.5624662042 4287474228
-0.2914500237 -0.1166988164 0.5634387732 4287737400
-0.2919530272 -0.1162731126 0.5644111633 4287802943
-0.2924559414 -0.1158452183 0.5653834343 4287868736
-0.2934108377 -0.1155932397 0.5672294497 4288065602
-0.2939136326 -0.1151600108 0.5682014823 4288328774
-0.2944163382 -0.1147245839 0.5691733360 4288459860
-0.2953712940 -0.1144622490 0.5710194111 4288657239
-0.2963262796 -0.1141958311 0.5728656650 4289183593
-0.2972813249 -0.1139253303 0.5747119784 4289512558
-0.2982363999 -0.1136507466 0.5765583515 4289906315
-0.2996441722 -0.1135435998 0.5792798996 4290301073
-0.3010521531 -0.1134304702 0.5820018053 4291154124
-0.3024603128 -0.1133113652 0.5847241282 4292996328
-0.3329549730 -0.2038421929 0.6450622678 4291219416
-0.3325987160 -0.2029081434 0.6443721056 4288785827
-0.3322420120 -0.2019753456 0.6436809897 4288127897
-0.3314429224 -0.2007761002 0.6421328187 4287142502
-0.3302010894 -0.1993130744 0.6397269368 4286418779
-0.3294005096 -0.1981207728 0.6381759048 4286090319
-0.3250611722 -0.1948111206 0.6297689080 4285892940
-0.3171803653 -0.1894053668 0.6145007610 4286024516
-0.3026581109 -0.1800818592 0.5863655806 4286090309
-0.2974227965 -0.1763266027 0.5762227178 4286156355
-0.2943980992 -0.1738997102 0.5703627467 4286156355
-0.2927001119 -0.1722666472 0.5670730472 4286090558
-0.2914439440 -0.1708999872 0.5646393895 4285958972
-0.2901869118 -0.1695382297 0.5622040033 4285761847
-0.2893721461 -0.1684393138 0.5606254935 4285761847
-0.2889999747 -0.1676006019 0.5599045157 4285893432
-0.2886274159 -0.1667632312 0.5591826439 4285630260
-0.2882543802 -0.1659272164 0.5584599972 4285367340
-0.2869938016 -0.1645838171 0.5560177565 4285301547
-0.2866197228 -0.1637523174 0.5552930236 4285367337
-0.2866890132 -0.1631747782 0.5554272532 4285433130
-0.2863141894 -0.1623451263 0.5547010303 4285301796
-0.2859389186 -0.1615168452 0.5539740324 4284972831
-0.2860073745 -0.1609398574 0.5541066527 4285235736
-0.2851871550 -0.1598644257 0.5525175333 4284972564
-0.2852549553 -0.1592884064 0.5526489019 4284906771
-0.2848781049 -0.1584647447 0.5519188046 4285104150
-0.2849453688 -0.1578887999 0.5520491600 4285104148
-0.2845678031 -0.1570670307 0.5513176322 4284906769
-0.2841897905 -0.1562466472 0.5505852699 4284709645
-0.2842561901 -0.1556712836 0.5507139564 4284578059
-0.2838774621 -0.1548527926 0.5499801636 4284578057
-0.2839433551 -0.1542775184 0.5501078367 4284841229
-0.2835638523 -0.1534609497 0.5493726134 4284841227
-0.2831839621 -0.1526457667 0.5486366153 4284775434
-0.2832489908 -0.1520711184 0.5487626195 4284841481
-0.2828683555 -0.1512578577 0.5480251312 4284841481
-0.2829328477 -0.1506833136 0.5481501222 4284709895
-0.2829971313 -0.1501083821 0.5482746363 4284644102
-0.2830612063 -0.1495330483 0.5483987927 4284841229
-0.2826792002 -0.1487227529 0.5476586819 4284709643
-0.2822967470 -0.1479138881 0.5469177365 4284643848
-0.2823599577 -0.1473392099 0.5470402241 4284841227
-0.2819767892 -0.1465322971 0.5462978482 4284973067
-0.2820394933 -0.1459577531 0.5464193225 4284973067
-0.2821019292 -0.1453828365 0.5465403199 4284973067
-0.2821641862 -0.1448075324 0.5466609001 4285104653
-0.2817796469 -0.1440036297 0.5459159017 4285236239
-0.2818413377 -0.1434284747 0.5460354686 4285170446
-0.2819028497 -0.1428529471 0.5461545587 4285170443
-0.2819640934 -0.1422770470 0.5462732911 4285170443
-0.2820251584 -0.1417007744 0.5463915467 4285236236
-0.2816389203 -0.1409004629 0.5456432700 4285302029
-0.2816994190 -0.1403243542 0.5457605124 4285170443
-0.2817597091 -0.1397478729 0.5458772779 4285302029
-0.2818197608 -0.1391710341 0.5459936261 4285499660
-0.2823270261 -0.1388137937 0.5469763875 4285565453
-0.2823867202 -0.1382353008 0.5470920801 4285697037
-0.2824462056 -0.1376564354 0.5472072959 4285828623
-0.2825054824 -0.1370771974 0.5473220944 4285697037
-0.2825644910 -0.1364976019 0.5474364758 4285499658
-0.2830712199 -0.1361330450 0.5484181643 4285828623
-0.2831298709 -0.1355517954 0.5485318303 4286420760
-0.2831883430 -0.1349701881 0.5486450791 4285894671
-0.2832465470 -0.1343882382 0.5487578511 4285894671
-0.2833045423 -0.1338059157 0.5488702059 4286092050
-0.2833622992 -0.1332232356 0.5489821434 4286092050
-0.2838682830 -0.1328500807 0.5499624014 4285960464
-0.2839256823 -0.1322657615 0.5500736237 4285894671
-0.2839828432 -0.1316810995 0.5501843691 4285828876
-0.2840397954 -0.1310960948 0.5502946377 4285894669
-0.2840964794 -0.1305107176 0.5504045486 4286026255
-0.2846018672 -0.1301302612 0.5513836145 4286026255
-0.2846581936 -0.1295432597 0.5514927506 4286092048
-0.2847142816 -0.1289559305 0.5516014099 4286157841
-0.2852193117 -0.1285707057 0.5525798798 4286157843
-0.2852750421 -0.1279817522 0.5526878238 4286289429
-0.2853305042 -0.1273924559 0.5527952909 4286355220
-0.2858351767 -0.1270024925 0.5537730455 4286355220
-0.2858902812 -0.1264115721 0.5538797975 4286355220
-0.2859451473 -0.1258203089 0.5539861321 4286552599
-0.2859997749 -0.1252287179 0.5540919304 4286815773
-0.2860541642 -0.1246367767 0.5541973114 4286749980
-0.2865581810 -0.1242395416 0.5551738143 4286486553
-0.2866121829 -0.1236460060 0.5552784204 4286683932
-0.2871159911 -0.1232452989 0.5562544465 4287013152
-0.2871695757 -0.1226501614 0.5563582778 4287078945
-0.2876731455 -0.1222459972 0.5573338866 4286882336
-0.2877263725 -0.1216492504 0.5574370027 4286750750
-0.2877793312 -0.1210521832 0.5575396419 4286816543
-0.2882825136 -0.1206432879 0.5585144758 4286882336
-0.2887856066 -0.1202321947 0.5594891310 4286947874
-0.2888379991 -0.1196322665 0.5595906973 4287145253
-0.2888901830 -0.1190320179 0.5596917272 4287211048
-0.2893928587 -0.1186162010 0.5606656671 4287276841
-0.2894446254 -0.1180143654 0.5607659221 4287342895
-0.2899470627 -0.1175950915 0.5617393255 4287737653
-0.2904494107 -0.1171736196 0.5627126098 4287803193
-0.2909516990 -0.1167499572 0.5636857152 4287737400
-0.2914538682 -0.1163240895 0.5646586418 4287868737
-0.2924072146 -0.1160751507 0.5665056109 4288000323
-0.2929092944 -0.1156439483 0.5674782991 4288131916
-0.2934112549 -0.1152105480 0.5684508681 4288460881
-0.2939131558 -0.1147749498 0.5694231987 4288329046
-0.2953180671 -0.1146878749 0.5721450448 4288855390
-0.2962715328 -0.1144204214 0.5739923120 4289249137
-0.2972250581 -0.1141488776 0.5758396387 4289512309
-0.2981786430 -0.1138732433 0.5776870847 4289971603
-0.2995841205 -0.1137651131 0.5804100633 4290497947
-0.3009898067 -0.1136510149 0.5831333995 4291549391
-0.3314962387 -0.2033867687 0.6436210871 4291745247
-0.3311404288 -0.2024541348 0.6429302692 4289245865
-0.3307842016 -0.2015227526 0.6422385573 4288390556
-0.3299863040 -0.2003248185 0.6406894922 4287536749
-0.3287464976 -0.1988629848 0.6382822990 4286747233
-0.3279471397 -0.1976719946 0.6367303133 4286221392
-0.3165512681 -0.1901201755 0.6146044135 4285892427
-0.3241383731 -0.1939777583 0.6293353438 4286090311
-0.3034591973 -0.1809478551 0.5891853571 4286221897
-0.2973496616 -0.1766633987 0.5773233175 4286221894
-0.2943303883 -0.1742346287 0.5714612007 4286156101
-0.2921934426 -0.1723393053 0.5673122406 4286156351
-0.2913816869 -0.1712319404 0.5657361150 4285958972
-0.2901269794 -0.1698687375 0.5633000731 4285696054
-0.2884290516 -0.1682524085 0.5600033998 4285696054
-0.2893849611 -0.1681857556 0.5618593097 4285761846
-0.2881281078 -0.1668337286 0.5594190955 4285630260
-0.2877557874 -0.1659974009 0.5586962104 4285432879
-0.2873830497 -0.1651624441 0.5579725504 4285432879
-0.2870098948 -0.1643288434 0.5572479963 4285629995
-0.2861932814 -0.1632439047 0.5556625128 4285629995
-0.2858191729 -0.1624139398 0.5549361110 4285564198
-0.2854446173 -0.1615853310 0.5542089343 4285301026
-0.2850696445 -0.1607581228 0.5534809232 4285169943
-0.2846942544 -0.1599322706 0.5527520776 4285038357
-0.2847619951 -0.1593560427 0.5528835654 4285038355
-0.2843858600 -0.1585320681 0.5521532893 4285104148
-0.2840093076 -0.1577094793 0.5514221787 4285104148
-0.2840762138 -0.1571338177 0.5515520573 4284906769
-0.2836989164 -0.1563131213 0.5508195162 4284643852
-0.2837652564 -0.1557375342 0.5509483814 4284578059
-0.2833872437 -0.1549187303 0.5502143502 4284709643
-0.2834530473 -0.1543432474 0.5503422022 4284841229
-0.2830742896 -0.1535263509 0.5496068001 4284841227
-0.2826950848 -0.1527108550 0.5488705635 4284907020
-0.2827600837 -0.1521359831 0.5489966869 4284973067
-0.2828248441 -0.1515607238 0.5491224527 4285038860
-0.2824445963 -0.1507476568 0.5483841896 4284907274
-0.2825088203 -0.1501725018 0.5485088825 4284775688
-0.2821278274 -0.1493613720 0.5477691889 4284841229
-0.2821915150 -0.1487863511 0.5478928685 4284775436
-0.2822549939 -0.1482109278 0.5480160713 4284709641
-0.2818729579 -0.1474022716 0.5472743511 4284841227
-0.2819359004 -0.1468269825 0.5473965406 4285038606
-0.2815531492 -0.1460202783 0.5466533899 4284972813
-0.2816155553 -0.1454451382 0.5467745662 4284972813
-0.2816777229 -0.1448696107 0.5468952656 4285170192
-0.2817397118 -0.1442937106 0.5470156074 4285170446
-0.2818014622 -0.1437174231 0.5471354723 4285104653
-0.2814170122 -0.1429142803 0.5463890433 4285170445
-0.2814781964 -0.1423381567 0.5465078950 4285170445
-0.2815392017 -0.1417616606 0.5466263294 4285236236
-0.2815999687 -0.1411847770 0.5467442870 4285236236
-0.2816605270 -0.1406075358 0.5468618274 4285170443
-0.2817208469 -0.1400299221 0.5469789505 4285367822
-0.2817809284 -0.1394519210 0.5470956564 4285697039
-0.2818408310 -0.1388735771 0.5472119451 4285565453
-0.2823472321 -0.1385140121 0.5481951237 4285631246
-0.2819599211 -0.1377157569 0.5474431515 4285762832
-0.2824660540 -0.1373536289 0.5484258533 4285697037
-0.2825251222 -0.1367728859 0.5485405326 4285631244
-0.2825839818 -0.1361917853 0.5486547947 4285894416
-0.2826426029 -0.1356103122 0.5487686396 4286354967
-0.2827009857 -0.1350284815 0.5488820076 4286091795
-0.2827591598 -0.1344462931 0.5489949584 4286026002
-0.2828170955 -0.1338637471 0.5491074324 4286092050
-0.2828748226 -0.1332808435 0.5492194891 4286092050
-0.2833799720 -0.1329075396 0.5502002835 4285894671
-0.2834373415 -0.1323229969 0.5503116250 4285828878
-0.2834944427 -0.1317381114 0.5504225492 4285828878
-0.2835513353 -0.1311528683 0.5505329967 4285894671
-0.2840560377 -0.1307735294 0.5515128970 4286157841
-0.2841125429 -0.1301866621 0.5516226292 4286092048
-0.2846170366 -0.1298038512 0.5526021123 4286157843
-0.2846731842 -0.1292153448 0.5527111292 4286289429
-0.2847290933 -0.1286264956 0.5528196692 4286421015
-0.2847847641 -0.1280373037 0.5529277325 4286355222
-0.2848401964 -0.1274477690 0.5530353785 4286289429
-0.2853440344 -0.1270576715 0.5540136695 4286355222
-0.2853991091 -0.1264665127 0.5541205406 4286684187
-0.2854539156 -0.1258750260 0.5542269945 4286815773
-0.2855085135 -0.1252831817 0.5543329716 4286881311
-0.2855628431 -0.1246910095 0.5544384718 4286749725
-0.2860660255 -0.1242936254 0.5554154515 4286749725
-0.2865691483 -0.1238940358 0.5563923120 4286947104
-0.2866229713 -0.1232989877 0.5564967394 4287210276
-0.2866765261 -0.1227036044 0.5566007495 4287276069
-0.2871792614 -0.1222992837 0.5575768352 4287013667
-0.2872324288 -0.1217023060 0.5576800704 4286947874
-0.2872853577 -0.1211049929 0.5577828288 4287079460
-0.2877877057 -0.1206959412 0.5587581992 4287079460
-0.2882899940 -0.1202846840 0.5597333908 4287145253
-0.2883423567 -0.1196845174 0.5598350763 4287211046
-0.2888444066 -0.1192698032 0.5608097911 4287210794
-0.2888963521 -0.1186680421 0.5609107018 4287276587
-0.2893981338 -0.1182498634 0.5618849397 4287408434
-0.2898998559 -0.1178294867 0.5628590584 4287868985
-0.2904014587 -0.1174069121 0.5638329387 4288066113
-0.2909030020 -0.1169821396 0.5648066998 4288000320
-0.2914044559 -0.1165551618 0.5657802820 4288131655
-0.2919057906 -0.1161259860 0.5667536855 4288065862
-0.2924070656 -0.1156946123 0.5677269101 4288066124
-0.2933588624 -0.1154383644 0.5695748925 4288395089
-0.2938599885 -0.1150016487 0.5705479383 4288525914
-0.2948118448 -0.1147381738 0.5723959804 4288986465
-0.2957637310 -0.1144706160 0.5742441416 4289248883
-0.2971665859 -0.1143725291 0.5769678950 4289643641
-0.2981186509 -0.1140958443 0.5788163543 4290168731
-0.2995218635 -0.1139867455 0.5815407634 4290826661
-0.3009252548 -0.1138716638 0.5842655301 4292075737
-0.3295997679 -0.2026602328 0.6413219571 4292468715
-0.3292443454 -0.2017298937 0.6406303048 4289772210
-0.3288884163 -0.2008008212 0.6399378181 4288522143
-0.3285320699 -0.1998730004 0.6392444372 4287799923
-0.3277347386 -0.1986794025 0.6376930475 4286944614
-0.3269367516 -0.1974888444 0.6361403465 4286550359
-0.3230529726 -0.1944444180 0.6285834312 4285958222
-0.3165219426 -0.1898291260 0.6158756018 4286090572
-0.3046959341 -0.1820779592 0.5928650498 4286287951
-0.2981564701 -0.1775255650 0.5801408291 4286353481
-0.2942605019 -0.1745696962 0.5725601912 4286287688
-0.2921274304 -0.1726727188 0.5684098005 4286287937
-0.2908758521 -0.1713040918 0.5659745336 4286024765
-0.2896234095 -0.1699403673 0.5635375381 4285696054
-0.2892532945 -0.1690978706 0.5628173947 4285630261
-0.2884410620 -0.1679994613 0.5612369776 4286025019
-0.2876281738 -0.1669041812 0.5596553087 4285893433
-0.2876985073 -0.1663230211 0.5597921014 4285827123
-0.2873265743 -0.1654868424 0.5590684414 4285761330
-0.2865120769 -0.1643983275 0.5574836731 4285629995
-0.2856969535 -0.1633129716 0.5558975935 4285564202
-0.2853235304 -0.1624826789 0.5551710129 4285564452
-0.2853921652 -0.1619047821 0.5553045869 4285367073
-0.2850180268 -0.1610763371 0.5545765162 4285169943
-0.2842007577 -0.1600000709 0.5529863834 4285104150
-0.2842684388 -0.1594236195 0.5531180501 4285104150
-0.2838930190 -0.1585993320 0.5523875356 4285104150
-0.2839601636 -0.1580229551 0.5525181890 4285104148
-0.2835839987 -0.1572005451 0.5517863035 4284906769
-0.2832074165 -0.1563795358 0.5510535240 4284643852
-0.2832736969 -0.1558037400 0.5511825681 4284578059
-0.2828963697 -0.1549846232 0.5504483581 4284775436
-0.2829621434 -0.1544089168 0.5505763292 4284775436
-0.2825841010 -0.1535917073 0.5498407483 4284841227
-0.2826493382 -0.1530161053 0.5499676466 4284907020
-0.2822705209 -0.1522008032 0.5492306352 4284972813
-0.2823352516 -0.1516253203 0.5493565202 4284972813
-0.2823997140 -0.1510494351 0.5494819880 4284973067
-0.2820198834 -0.1502365768 0.5487428904 4284841481
-0.2820838392 -0.1496608108 0.5488673449 4284972817
-0.2817032337 -0.1488498896 0.5481268167 4284907024
-0.2817666531 -0.1482742429 0.5482501984 4284841229
-0.2818298638 -0.1476982236 0.5483731627 4284972815
-0.2814482450 -0.1468897611 0.5476306081 4285170194
-0.2815108895 -0.1463138759 0.5477525592 4285104401
-0.2811285257 -0.1455073804 0.5470085740 4285038606
-0.2811906636 -0.1449316442 0.5471294522 4285170192
-0.2812525928 -0.1443555206 0.5472499132 4285236239
-0.2813142836 -0.1437790096 0.5473699570 4285104653
-0.2813757360 -0.1432021409 0.5474895835 4285170445
-0.2809917033 -0.1423992068 0.5467423201 4285236238
-0.2810526192 -0.1418224871 0.5468608737 4285302029
-0.2811133564 -0.1412453949 0.5469790101 4285236236
-0.2811738253 -0.1406679153 0.5470967293 4285236236
-0.2812341154 -0.1400900781 0.5472139716 4285499408
-0.2812941670 -0.1395118684 0.5473307967 4285762832
-0.2813539803 -0.1389332861 0.5474472046 4285565453
-0.2818595767 -0.1385736018 0.5484309793 4285631246
-0.2814729810 -0.1377750188 0.5476787686 4285762832
-0.2819783092 -0.1374127716 0.5486620069 4285762832
-0.2820373178 -0.1368318051 0.5487768054 4285762832
-0.2820961177 -0.1362504661 0.5488912463 4285960211
-0.2821546793 -0.1356687695 0.5490052104 4286157590
-0.2822130322 -0.1350867152 0.5491187572 4286157588
-0.2822711468 -0.1345043033 0.5492318273 4286026002
-0.2823290527 -0.1339215189 0.5493444800 4286157588
-0.2823867202 -0.1333383918 0.5494566560 4286091795
-0.2828910351 -0.1329649538 0.5504379869 4285894416
-0.2829483449 -0.1323801875 0.5505494475 4285828623
-0.2830054164 -0.1317950636 0.5506604910 4285828623
-0.2830622494 -0.1312095821 0.5507711172 4285894416
-0.2835661173 -0.1308301091 0.5517514944 4286289429
-0.2836225927 -0.1302430034 0.5518614054 4286223636
-0.2841262519 -0.1298600584 0.5528414249 4286223636
-0.2841823399 -0.1292713284 0.5529505610 4286355222
-0.2842382193 -0.1286822408 0.5530592203 4286420760
-0.2842938304 -0.1280928254 0.5531674623 4286289174
-0.2847970128 -0.1277038455 0.5541465282 4286223636
-0.2848522663 -0.1271127909 0.5542540550 4286421015
-0.2853552401 -0.1267203391 0.5552327037 4286683932
-0.2854100764 -0.1261276752 0.5553394556 4286815518
-0.2854647040 -0.1255346835 0.5554457307 4286815518
-0.2855190933 -0.1249413341 0.5555515289 4286749725
-0.2855732441 -0.1243476570 0.5556569099 4286881313
-0.2860755622 -0.1239479110 0.5566342473 4287144485
-0.2865777910 -0.1235459745 0.5576114655 4287276069
-0.2866313756 -0.1229494140 0.5577157736 4287276069
-0.2866847515 -0.1223525256 0.5578196049 4287276071
-0.2876353264 -0.1221363917 0.5596691966 4287276071
-0.2876883745 -0.1215369627 0.5597724319 4287211046
-0.2877411842 -0.1209372133 0.5598751903 4287276839
-0.2877937257 -0.1203371286 0.5599774718 4287342634
-0.2882951200 -0.1199235171 0.5609530210 4287342634
-0.2883472741 -0.1193218380 0.5610544682 4287276589
-0.2888484001 -0.1189047620 0.5620296001 4287408175
-0.2893494666 -0.1184854805 0.5630044937 4287605816
-0.2894010544 -0.1178809553 0.5631048679 4288000574
-0.2899018526 -0.1174582168 0.5640793443 4288197702
-0.2904025614 -0.1170332730 0.5650535822 4288197702
-0.2909031808 -0.1166061312 0.5660277009 4288263245
-0.2918534279 -0.1163560674 0.5678766370 4288065866
-0.2923539579 -0.1159235835 0.5688505173 4288197199
-0.2928543687 -0.1154888943 0.5698242188 4288591957
-0.2938046455 -0.1152284667 0.5716732144 4288723040
-0.2947549522 -0.1149639487 0.5735222697 4289052005
-0.2957053185 -0.1146953478 0.5753715038 4289380469
-0.2971059084 -0.1145962849 0.5780966878 4289841020
-0.2980564535 -0.1143185571 0.5799462199 4290299814
-0.2994573712 -0.1142084822 0.5826720595 4291155123
-0.3008584678 -0.1140924171 0.5853982568 4292733156
-0.3277915120 -0.2012747079 0.6391848326 4290101434
-0.3274360597 -0.2003470510 0.6384917498 4288390816
-0.3270801604 -0.1994206607 0.6377977133 4287800182
-0.3262840807 -0.1982283741 0.6362453699 4287142252
-0.3254873157 -0.1970391273 0.6346917152 4286682204
-0.3224900961 -0.1945260018 0.6288471818 4286090067
-0.3168506324 -0.1904378086 0.6178504229 4286090572
-0.3054857254 -0.1829452515 0.5956891179 4286287951
-0.2980774343 -0.1778628826 0.5812431574 4286353994
-0.2941884100 -0.1749049276 0.5736597180 4286288201
-0.2920592427 -0.1730062962 0.5695078969 4286222657
-0.2903693914 -0.1713761836 0.5662127137 4286091071
-0.2895599306 -0.1702710837 0.5646342039 4285893433
-0.2887497842 -0.1691690981 0.5630545020 4285761847
-0.2883799672 -0.1683276445 0.5623333454 4285761847
-0.2875686586 -0.1672310531 0.5607513189 4285696054
-0.2871978581 -0.1663931906 0.5600283146 4285498674
-0.2868266404 -0.1655566990 0.5593044162 4285432881
-0.2864550054 -0.1647215635 0.5585797429 4285498409
-0.2860829532 -0.1638877988 0.5578542352 4285432616
-0.2852688730 -0.1628033817 0.5562667847 4285367073
-0.2844541371 -0.1617221236 0.5546780825 4285169694
-0.2849642038 -0.1613947153 0.5556727052 4285169945
-0.2841485143 -0.1603171229 0.5540821552 4285169945
-0.2837742269 -0.1594911367 0.5533522964 4285104152
-0.2833995223 -0.1586665213 0.5526216030 4285104152
-0.2839088440 -0.1583365649 0.5536147356 4285038357
-0.2835334837 -0.1575129479 0.5528828502 4284906771
-0.2831577063 -0.1566907167 0.5521500707 4284775183
-0.2827815115 -0.1558698714 0.5514165163 4284643597
-0.2828475535 -0.1552934647 0.5515452623 4284841231
-0.2824706137 -0.1544745266 0.5508102775 4284841231
-0.2825361192 -0.1538982093 0.5509380102 4284907022
-0.2821584642 -0.1530811936 0.5502015352 4284972815
-0.2822234035 -0.1525049806 0.5503282547 4284907022
-0.2822881639 -0.1519283801 0.5504544973 4284907022
-0.2819094360 -0.1511137784 0.5497159958 4284972813
-0.2819736600 -0.1505372822 0.5498412251 4285038606
-0.2815942168 -0.1497246176 0.5491012931 4285235989
-0.2816579044 -0.1491482407 0.5492255092 4285104403
-0.2812777162 -0.1483375132 0.5484841466 4284972817
-0.2813408375 -0.1477612704 0.5486072898 4285104403
-0.2814037800 -0.1471846402 0.5487299562 4285235987
-0.2810225487 -0.1463763863 0.5479865670 4285170194
-0.2810849249 -0.1457999051 0.5481082201 4285104399
-0.2807029784 -0.1449936181 0.5473634005 4285235985
-0.2807648182 -0.1444172710 0.5474840403 4285367825
-0.2808264792 -0.1438405514 0.5476042032 4285104653
-0.2808879018 -0.1432634592 0.5477240086 4285170445
-0.2809490860 -0.1426859796 0.5478433371 4285302031
-0.2810100615 -0.1421081126 0.5479622483 4285367822
-0.2810708284 -0.1415298879 0.5480807424 4285367822
-0.2811313570 -0.1409512758 0.5481987596 4285367822
-0.2811916769 -0.1403723061 0.5483163595 4285630994
-0.2812517583 -0.1397929490 0.5484335423 4285697039
-0.2813116312 -0.1392132342 0.5485503078 4285631246
-0.2813712955 -0.1386331469 0.5486665964 4285697039
-0.2814307213 -0.1380526870 0.5487824678 4285828625
-0.2814899087 -0.1374718547 0.5488979220 4285828625
-0.2815488875 -0.1368906647 0.5490128994 4285894418
-0.2816076279 -0.1363091022 0.5491274595 4285960211
-0.2816661596 -0.1357271820 0.5492416024 4286091797
-0.2817244530 -0.1351449043 0.5493552685 4286091795
-0.2822283804 -0.1347751766 0.5503379107 4286026002
-0.2822862864 -0.1341912448 0.5504508615 4286091795
-0.2823440135 -0.1336069703 0.5505633950 4286026002
-0.2824014723 -0.1330223233 0.5506754518 4285894416
-0.2824587226 -0.1324373186 0.5507870913 4285894416
-0.2825157344 -0.1318519711 0.5508982539 4285960209
-0.2825725377 -0.1312662661 0.5510089993 4286091795
-0.2830755711 -0.1308866590 0.5519899726 4286486808
-0.2831319869 -0.1302993149 0.5520999432 4286486808
-0.2836348414 -0.1299162209 0.5530804992 4286486808
-0.2836908996 -0.1293272525 0.5531898141 4286355222
-0.2837466896 -0.1287379414 0.5532985926 4286354967
-0.2842492163 -0.1283500940 0.5542784929 4286354967
-0.2843046486 -0.1277591586 0.5543865561 4286354967
-0.2848069370 -0.1273678243 0.5553660393 4286420760
-0.2848619819 -0.1267752647 0.5554733872 4286486553
-0.2849167883 -0.1261823773 0.5555802584 4286618139
-0.2849713564 -0.1255891323 0.5556866527 4286683932
-0.2850257158 -0.1249955595 0.5557926297 4286749725
-0.2850798070 -0.1244016439 0.5558981299 4286947106
-0.2855812907 -0.1240017489 0.5568760037 4287210278
-0.2860827148 -0.1235996485 0.5578537583 4287276071
-0.2861362696 -0.1230028570 0.5579581857 4287276071
-0.2866374552 -0.1225972846 0.5589354634 4287341866
-0.2871385515 -0.1221895143 0.5599126220 4287210280
-0.2871915698 -0.1215898469 0.5600159764 4287276071
-0.2872443199 -0.1209898591 0.5601188540 4287341864
-0.2877450287 -0.1205773428 0.5610952377 4287342634
-0.2877973914 -0.1199757531 0.5611973405 4287408427
-0.2882978618 -0.1195597798 0.5621733069 4287342382
-0.2887982726 -0.1191416010 0.5631490350 4287539761
-0.2892985940 -0.1187212169 0.5641246438 4287605562
-0.2893502116 -0.1181155071 0.5642253160 4287868734
-0.2898502648 -0.1176916584 0.5652003884 4288065864
-0.2903502285 -0.1172656044 0.5661753416 4288197450
-0.2908501327 -0.1168373525 0.5671501160 4288262992
-0.2913499177 -0.1164068952 0.5681247115 4288131406
-0.2922986150 -0.1161526591 0.5699746013 4288262994
-0.2927983105 -0.1157168597 0.5709490180 4288723545
-0.2937470376 -0.1154553965 0.5727990270 4288854115
-0.2946958542 -0.1151898354 0.5746491551 4289248873
-0.2956447005 -0.1149201915 0.5764994025 4289643130
-0.2970429957 -0.1148201600 0.5792260170 4290103681
-0.2979920208 -0.1145413816 0.5810766220 4290431151
-0.2993906438 -0.1144303307 0.5838038921 4291549632
-0.3263410330 -0.2008190006 0.6377376318 4290627780
-0.3264248073 -0.2001617998 0.6379013062 4288390818
-0.3256306350 -0.1989677846 0.6363493800 4287931771
-0.3243968189 -0.1975095570 0.6339382529 4287405427
-0.3253574967 -0.1973880231 0.6358156204 4286879584
-0.3214872777 -0.1943420172 0.6282524467 4286221654
-0.3162969649 -0.1905176491 0.6181094050 4286288208
-0.3062701821 -0.1838131547 0.5985150933 4286222415
-0.2984357476 -0.1784631908 0.5832049251 4286222920
-0.2941141725 -0.1752403080 0.5747596622 4286222920
-0.2919888794 -0.1733400375 0.5706064701 4286222657
-0.2903021574 -0.1717083752 0.5673102140 4286156864
-0.2894942462 -0.1706019491 0.5657314062 4286091069
-0.2886857092 -0.1694986522 0.5641513467 4285893690
-0.2878765166 -0.1683984995 0.5625700355 4285762104
