VERSION 0.7
FIELDS x y z rgba
SIZE 4 4 4 4
TYPE F F F U
COUNT 1 1 1 1
WIDTH 920
HEIGHT 1
VIEWPOINT 0.0 0.0 0.0 1.0 0.0 0.0 0.0
POINTS 920
DATA ascii
-0.3197166920 -0.1583786756 0.5647312999 4286807684
-0.3193090558 -0.1575500816 0.5640112758 4283579201
-0.3198586404 -0.1571935117 0.5649819970 4283776580
-0.3189713657 -0.1561314762 0.5634148121 4284561470
-0.3190415502 -0.1555396914 0.5635387301 4284298298
-0.3181531727 -0.1544822007 0.5619695783 4284428596
-0.3191811740 -0.1543549448 0.5637853742 4284625975
-0.3178125620 -0.1530693769 0.5613679290 4284953146
-0.3174020052 -0.1522487253 0.5606427193 4285150525
-0.3160318732 -0.1509712934 0.5582226515 4284166972
-0.3170592487 -0.1508398354 0.5600373149 4287325036
-0.3156879246 -0.1495678872 0.5576151013 4287329919
-0.3152754903 -0.1487537324 0.5568866134 4286737782
-0.3153426051 -0.1481665224 0.5570051074 4286806920
-0.3149293959 -0.1473543197 0.5562752485 4287201678
-0.3149959445 -0.1467672586 0.5563927889 4287137685
-0.3141016662 -0.1457341462 0.5548132062 4287795615
-0.3141675293 -0.1451481432 0.5549295545 4288387754
-0.3137526512 -0.1443407238 0.5541967154 4289111477
-0.3128567934 -0.1433145851 0.5526142716 4289111993
-0.3124409318 -0.1425109059 0.5518797636 4288519856
-0.3120246828 -0.1417086720 0.5511444807 4288718264
-0.3120888472 -0.1411253363 0.5512578487 4288981436
-0.3116717935 -0.1403250694 0.5505211949 4289835453
-0.3112542927 -0.1395262629 0.5497837663 4289967039
-0.3113175631 -0.1389436424 0.5498954654 4287330948
-0.3108992875 -0.1381468177 0.5491567254 4281606957
-0.3109619915 -0.1375643909 0.5492674112 4283244332
-0.3105429411 -0.1367695779 0.5485272408 4282783781
-0.3106050491 -0.1361873448 0.5486369729 4282783778
-0.3111485541 -0.1358150095 0.5495969653 4282520606
-0.3112102747 -0.1352311820 0.5497059822 4282915365
-0.3112717569 -0.1346470118 0.5498145819 4282981158
-0.3113330007 -0.1340624988 0.5499227643 4283176997
-0.3118759990 -0.1336842626 0.5508819222 4283111204
-0.3119368553 -0.1330981553 0.5509893894 4282783778
-0.3119974434 -0.1325117052 0.5510963798 4282849571
-0.3120577931 -0.1319249123 0.5512030125 4283178277
-0.3121179044 -0.1313377768 0.5513091683 4283441449
-0.3121777773 -0.1307502985 0.5514149070 4283572267
-0.3122373819 -0.1301624924 0.5515202284 4283506474
-0.3122967482 -0.1295743436 0.5516250730 4283440681
-0.3123558760 -0.1289858669 0.5517295003 4283440681
-0.3128976226 -0.1285955012 0.5526863933 4283374888
-0.3129563332 -0.1280054450 0.5527901649 4283440681
-0.3130148053 -0.1274150610 0.5528934002 4283506474
-0.3130730391 -0.1268243343 0.5529962778 4283572267
-0.3131310046 -0.1262332946 0.5530986786 4283638061
-0.3131887317 -0.1256419122 0.5532006025 4283835440
-0.3132461905 -0.1250502169 0.5533021688 4283770161
-0.3133034110 -0.1244581863 0.5534031987 4283835954
-0.3133603930 -0.1238658354 0.5535038710 4283901747
-0.3134171069 -0.1232731640 0.5536040664 4284099126
-0.3134735823 -0.1226801723 0.5537037849 4284230712
-0.3135298193 -0.1220868602 0.5538030863 4284230712
-0.3140696883 -0.1216807142 0.5547567010 4283836469
-0.3141255081 -0.1210858524 0.5548552871 4283902262
-0.3141810298 -0.1204906628 0.5549533963 4284033848
-0.3142363429 -0.1198951676 0.5550510287 4284099641
-0.3142913580 -0.1192993596 0.5551482439 4284099641
-0.3143461347 -0.1187032312 0.5552450418 4284297020
-0.3144006729 -0.1181067973 0.5553413630 4284560192
-0.3144549429 -0.1175100580 0.5554372072 4284757571
-0.3149935603 -0.1170931458 0.5563885570 4284757058
-0.3150473833 -0.1164948642 0.5564836860 4284625472
-0.3151009679 -0.1158962846 0.5565783381 4284559677
-0.3156391382 -0.1154747680 0.5575289130 4284559677
-0.3156923056 -0.1148746535 0.5576227903 4284559677
-0.3157451749 -0.1142742336 0.5577161908 4284559677
-0.3157978058 -0.1136735156 0.5578091741 4284559677
-0.3163353503 -0.1132461876 0.5587586761 4284493884
-0.3168728054 -0.1128167138 0.5597079992 4284428091
-0.3174101412 -0.1123850942 0.5606570840 4284493884
-0.3174619675 -0.1117804125 0.5607486367 4284362298
-0.3175135255 -0.1111754328 0.5608397126 4284362298
-0.3180503845 -0.1107392311 0.5617880225 4284297018
-0.3181014955 -0.1101327389 0.5618782640 4284231225
-0.3186380863 -0.1096931696 0.5628260970 4284625985
-0.3186887205 -0.1090851724 0.5629155636 4285152329
-0.3192250133 -0.1086422428 0.5638628006 4284954950
-0.3192752004 -0.1080327332 0.5639514923 4284823364
-0.3198111951 -0.1075864509 0.5648981929 4284757571
-0.3198609352 -0.1069754437 0.5649860501 4284889157
-0.3199104071 -0.1063641533 0.5650734305 4284757571
-0.3199596107 -0.1057525799 0.5651603937 4284691778
-0.3204948902 -0.1053005159 0.5661058426 4285218122
-0.3205436170 -0.1046874523 0.5661919713 4286139224
-0.3205921054 -0.1040741056 0.5662775636 4286600543
-0.3206402957 -0.1034604833 0.5663627386 4286337371
-0.3206882477 -0.1028465852 0.5664473772 4285941330
-0.3212226033 -0.1023875475 0.5673912764 4285151814
-0.3217568398 -0.1019263715 0.5683348775 4284625983
-0.3222909272 -0.1014630571 0.5692782998 4284494397
-0.3223380148 -0.1008452699 0.5693614483 4284756029
-0.3228717744 -0.1003786176 0.5703042746 4284690236
-0.3229183555 -0.0997593552 0.5703865290 4284296505
-0.3234517872 -0.0992893651 0.5713287592 4284033333
-0.3239850700 -0.0988172367 0.5722707510 4284099639
-0.3245182335 -0.0983429700 0.5732125044 4283902260
-0.3245639205 -0.0977198482 0.5732932091 4284493884
-0.3246093392 -0.0970964581 0.5733733773 4285941330
-0.3246544600 -0.0964728072 0.5734531283 4285750624
-0.3193038702 -0.1578572094 0.5651107430 4283512381
-0.3193746805 -0.1572641879 0.5652360320 4283775553
-0.3184888065 -0.1562017202 0.5636682510 4284364091
-0.3181504011 -0.1547845155 0.5630693436 4284363060
-0.3177414238 -0.1539607495 0.5623455048 4284494646
-0.3173319995 -0.1531383544 0.5616208911 4284756028
-0.3160329759 -0.1512685865 0.5593218803 4285615447
-0.3156221211 -0.1504512876 0.5585947633 4287655030
-0.3152108192 -0.1496354043 0.5578668118 4285554795
-0.3147991002 -0.1488209218 0.5571380854 4285225830
-0.3139076531 -0.1477822363 0.5555604100 4285228401
-0.3139742911 -0.1471962035 0.5556783676 4285820538
-0.3135612309 -0.1463859677 0.5549473166 4285295224
-0.3131477237 -0.1455771476 0.5542154908 4286018947
-0.3127337992 -0.1447697580 0.5534828901 4287269273
-0.3118396699 -0.1437426507 0.5519004464 4287400859
-0.3114247322 -0.1429390013 0.5511661172 4287862439
-0.3114893436 -0.1423561424 0.5512804389 4288520369
-0.3110736609 -0.1415544748 0.5505447388 4288586932
-0.3111376762 -0.1409717798 0.5506580472 4288981690
-0.3107212186 -0.1401720941 0.5499209762 4289901760
-0.3107846677 -0.1395895928 0.5500332713 4289770174
-0.3103674352 -0.1387918890 0.5492948890 4288515480
-0.3104303181 -0.1382095814 0.5494061708 4281673008
-0.3100123107 -0.1374138594 0.5486663580 4283179053
-0.3100746274 -0.1368317455 0.5487766266 4282981674
-0.3106175065 -0.1364605278 0.5497374535 4282915107
-0.3106794357 -0.1358768046 0.5498470664 4282651935
-0.3107411265 -0.1352927387 0.5499562025 4283046438
-0.3108025491 -0.1347083300 0.5500649214 4282980645
-0.3108637333 -0.1341235638 0.5501732230 4283242277
-0.3114060163 -0.1337451786 0.5511329174 4283176484
-0.3115273714 -0.1325721294 0.5513477325 4282980645
-0.3115876913 -0.1319850981 0.5514544845 4283243300
-0.3116477430 -0.1313977242 0.5515608191 4283309093
-0.3117075861 -0.1308100075 0.5516666770 4283440168
-0.3117671609 -0.1302219480 0.5517721176 4283374375
-0.3118264973 -0.1296335608 0.5518771410 4283374375
-0.3118855953 -0.1290448308 0.5519816875 4283440168
-0.3119444251 -0.1284557730 0.5520858765 4283374888
-0.3124852479 -0.1280640066 0.5530430079 4283440681
-0.3125436902 -0.1274733692 0.5531464219 4283506474
-0.3126018643 -0.1268824041 0.5532494187 4283638060
-0.3126598299 -0.1262910962 0.5533519387 4283572268
-0.3127174973 -0.1256994754 0.5534540415 4283703854
-0.3127749562 -0.1251075268 0.5535557270 4283769647
-0.3128321469 -0.1245152503 0.5536569357 4283835440
-0.3128890693 -0.1239226460 0.5537577271 4283835954
-0.3129457533 -0.1233297214 0.5538580418 4283901747
-0.3130021989 -0.1227364764 0.5539579391 4284099126
-0.3130583763 -0.1221429110 0.5540573597 4284099126
-0.3131143153 -0.1215490252 0.5541563630 4283901747
-0.3136532903 -0.1211414859 0.5551102161 4283967540
-0.3137087822 -0.1205460504 0.5552084446 4283967540
-0.3137640655 -0.1199502945 0.5553062558 4284033333
-0.3138190508 -0.1193542331 0.5554035902 4284099126
-0.3138737977 -0.1187578514 0.5555005074 4284164919
-0.3144119978 -0.1183432266 0.5564530492 4284230712
-0.3144663274 -0.1177453101 0.5565491915 4284296505
-0.3145203888 -0.1171470806 0.5566448569 4284230712
-0.3145741820 -0.1165485382 0.5567401052 4284296505
-0.3151117861 -0.1161280796 0.5576915145 4284296505
-0.3151651621 -0.1155280098 0.5577859879 4284296505
-0.3152182698 -0.1149276346 0.5578799844 4284493370
-0.3157554269 -0.1145025790 0.5588306189 4284427577
-0.3158080876 -0.1139006764 0.5589238405 4284427577
-0.3158605099 -0.1132984757 0.5590166450 4284361784
-0.3163971901 -0.1128688157 0.5599664450 4284164919
-0.3169337809 -0.1124370173 0.5609161258 4284296505
-0.3169855773 -0.1118320674 0.5610077977 4284164919
-0.3170371056 -0.1112268269 0.5610989928 4284099126
-0.3175732195 -0.1107904390 0.5620477796 4284230712
-0.3176243007 -0.1101836786 0.5621381998 4284230712
-0.3181601167 -0.1097439304 0.5630865097 4284428091
-0.3182107508 -0.1091356650 0.5631760955 4284757056
-0.3187462687 -0.1086925417 0.5641238689 4284691263
-0.3187964261 -0.1080827713 0.5642126799 4284625470
-0.3193316460 -0.1076362953 0.5651599169 4284691263
-0.3193813562 -0.1070250198 0.5652478933 4284757056
-0.3194307983 -0.1064134613 0.5653353930 4284691265
-0.3194800019 -0.1058016196 0.5654224753 4284757058
-0.3195289075 -0.1051895022 0.5655090213 4285217609
-0.3200632334 -0.1047360301 0.5664546490 4285678160
-0.3201116621 -0.1041224152 0.5665404201 4285744464
-0.3201598525 -0.1035085246 0.5666256547 4285283913
-0.3202077448 -0.1028943583 0.5667104721 4284822849
-0.3207413554 -0.1024351195 0.5676548481 4284428091
-0.3212748468 -0.1019737422 0.5685989857 4284428091
-0.3218081892 -0.1015102267 0.5695429444 4284559677
-0.3218552172 -0.1008921638 0.5696262121 4284690236
-0.3223882318 -0.1004253030 0.5705695152 4284492857
-0.3224347830 -0.0998057723 0.5706519485 4283901747
-0.3229674697 -0.0993355736 0.5715946555 4283770161
-0.3230135441 -0.0987145752 0.5716761947 4283836467
-0.3235458732 -0.0982410386 0.5726183653 4283836467
-0.3240780830 -0.0977653638 0.5735602379 4283901747
-0.3246101141 -0.0972875580 0.5745018721 4285480779
-0.3246552944 -0.0966626927 0.5745818019 4285619038
-0.3192254603 -0.1587582380 0.5660847425 4283451982
-0.3192965686 -0.1581645012 0.5662108064 4283840830
-0.3188900650 -0.1573348343 0.5654899478 4283709244
-0.3189605772 -0.1567411870 0.5656149983 4284231992
-0.3180756867 -0.1556796581 0.5640458465 4284100406
-0.3176678419 -0.1548541486 0.5633226037 4284298037
-0.3172595501 -0.1540300250 0.5625985265 4284232244
-0.3173287213 -0.1534383744 0.5627211928 4284362298
-0.3169196248 -0.1526161581 0.5619958043 4284296505
-0.3160319924 -0.1515660435 0.5604217052 4287788928
-0.3156219125 -0.1507475078 0.5596945286 4288841616
-0.3152114153 -0.1499303877 0.5589665771 4287530125
-0.3148004711 -0.1491146833 0.5582378507 4286674816
-0.3143890500 -0.1483003795 0.5575082898 4285295221
-0.3139772415 -0.1474874914 0.5567780137 4285361014
-0.3135649562 -0.1466760188 0.5560469031 4284637294
-0.3131522536 -0.1458659768 0.5553150177 4285295224
-0.3127390742 -0.1450573504 0.5545824170 4286940308
-0.3123255074 -0.1442501396 0.5538489819 4287400859
-0.3114323318 -0.1432240307 0.5522651076 4287204507
-0.3110177815 -0.1424205899 0.5515300035 4286809749
-0.3106027842 -0.1416185796 0.5507940650 4287073175
-0.3101873398 -0.1408179998 0.5500573516 4287533726
-0.3102509975 -0.1402356178 0.5501702428 4288388521
-0.3103144169 -0.1396528780 0.5502827168 4288980658
-0.3103775978 -0.1390697807 0.5503947139 4288516250
-0.3099606931 -0.1382722855 0.5496554971 4281147434
-0.3095434010 -0.1374762505 0.5489154458 4283179053
-0.3096056581 -0.1368938982 0.5490258336 4283047467
-0.3096676767 -0.1363111883 0.5491358638 4282783521
-0.3097294569 -0.1357281357 0.5492454171 4282717728
-0.3102713227 -0.1353542656 0.5502062440 4283177510
-0.3103327155 -0.1347696036 0.5503151417 4283111717
-0.3103938699 -0.1341845989 0.5504236221 4283176486
-0.3104547858 -0.1335992515 0.5505316257 4283176486
-0.3105154634 -0.1330135614 0.5506392121 4282914852
-0.3110566437 -0.1326325238 0.5515989065 4283046438
-0.3111169338 -0.1320452541 0.5517058372 4283243043
-0.3111769557 -0.1314576268 0.5518122911 4283243043
-0.3112367690 -0.1308696568 0.5519183278 4283374375
-0.3112963140 -0.1302813590 0.5520238876 4283374375
-0.3113555908 -0.1296927333 0.5521290302 4283374375
-0.3114146590 -0.1291037500 0.5522337556 4283505961
-0.3114734590 -0.1285144389 0.5523380637 4283571754
-0.3115320206 -0.1279247999 0.5524418950 4283505961
-0.3120719194 -0.1275316328 0.5533993244 4283506474
-0.3121300638 -0.1269404292 0.5535024405 4283572267
-0.3121879697 -0.1263488829 0.5536051393 4283506475
-0.3122456372 -0.1257570088 0.5537073612 4283638061
-0.3123030365 -0.1251648068 0.5538091660 4283638061
-0.3123601973 -0.1245722771 0.5539104939 4283703854
-0.3124171197 -0.1239794269 0.5540114045 4283835440
-0.3124737740 -0.1233862489 0.5541118979 4283967026
-0.3125301600 -0.1227927506 0.5542119145 4283967540
-0.3125863075 -0.1221989319 0.5543114543 4283967540
-0.3126422167 -0.1216047928 0.5544105768 4284098609
-0.3126978576 -0.1210103408 0.5545092821 4284164402
-0.3132359087 -0.1206013933 0.5554633737 4284098609
-0.3132911325 -0.1200053915 0.5555613041 4284032816
-0.3133460879 -0.1194090694 0.5556588173 4284229938
-0.3134008050 -0.1188124344 0.5557558537 4284164145
-0.3139382601 -0.1183976382 0.5567088723 4284164145
-0.3139925301 -0.1177994609 0.5568051338 4284229938
-0.3140465617 -0.1172009781 0.5569009781 4284098352
-0.3141003549 -0.1166021824 0.5569963455 4284164145
-0.3146371841 -0.1161815524 0.5579482913 4284163891
-0.3146905303 -0.1155812219 0.5580428839 4284163891
-0.3147436082 -0.1149805859 0.5581369996 4284295477
-0.3152799904 -0.1145553514 0.5590881705 4284229684
-0.3153326213 -0.1139531881 0.5591815710 4284163891
-0.3153850138 -0.1133507267 0.5592744350 4284229684
-0.3159209490 -0.1129208878 0.5602248311 4284098098
-0.3164567649 -0.1124889031 0.5611749887 4284361270
-0.3165085316 -0.1118836999 0.5612667799 4284229684
-0.3165600300 -0.1112781912 0.5613580942 4284163891
-0.3166112602 -0.1106723920 0.5614489317 4284295477
-0.3171464205 -0.1102345958 0.5623979568 4284361270
-0.3176814914 -0.1097946540 0.5633468032 4284427576
-0.3177320957 -0.1091861278 0.5634365082 4284493369
-0.3182668388 -0.1087428182 0.5643848181 4284427576
-0.3183169961 -0.1081327796 0.5644737482 4284493369
-0.3188514411 -0.1076861098 0.5654214621 4284624955
-0.3189011216 -0.1070745736 0.5655096173 4284624955
-0.3189505637 -0.1064627469 0.5655972362 4284493369
-0.3189997077 -0.1058506370 0.5656843781 4284690748
-0.3190485835 -0.1052382439 0.5657711029 4284953920
-0.3190971911 -0.1046255752 0.5658572912 4285151299
-0.3196305633 -0.1041706949 0.5668030977 4284560190
-0.3196787238 -0.1035565361 0.5668885112 4284231225
-0.3197265863 -0.1029420942 0.5669733882 4284164405
-0.3202594519 -0.1024826542 0.5679183006 4284032819
-0.3203068674 -0.1018667370 0.5680023432 4284033333
-0.3213247657 -0.1015573591 0.5698074102 4284164919
-0.3213717639 -0.1009390280 0.5698907971 4284360758
-0.3219040334 -0.1004719660 0.5708346367 4284163379
-0.3219505548 -0.0998521596 0.5709171295 4283835440
-0.3224824667 -0.0993817523 0.5718604326 4283901233
-0.3230142593 -0.0989092141 0.5728034377 4283770161
-0.3230600953 -0.0982867330 0.5728847384 4283901747
-0.3231056631 -0.0976639912 0.5729655027 4283704368
-0.3236368895 -0.0971869156 0.5739075541 4285151814
-0.3241679668 -0.0967076942 0.5748493075 4285619038
-0.3242128491 -0.0960822925 0.5749288797 4286474347
-0.3187395632 -0.1588294208 0.5663385391 4283319372
-0.3188106120 -0.1582354456 0.5664647818 4284102978
-0.3184047937 -0.1574054360 0.5657436848 4283774013
-0.3184752762 -0.1568115503 0.5658689141 4284297271
-0.3175917864 -0.1557495743 0.5642991662 4284099892
-0.3171846271 -0.1549237221 0.5635756850 4284100658
-0.3167770207 -0.1540992558 0.5628514290 4283969072
-0.3163689673 -0.1532761902 0.5621263981 4283705397
-0.3159604669 -0.1524545252 0.5614005923 4286008152
-0.3155515194 -0.1516342610 0.5606739521 4288974744
-0.3151421249 -0.1508153826 0.5599465966 4289369502
-0.3147323132 -0.1499979347 0.5592184067 4288847782
-0.3143220246 -0.1491818726 0.5584894419 4288387231
-0.3134335279 -0.1481414139 0.5569106936 4288190626
-0.3135001659 -0.1475540102 0.5570291281 4287532696
-0.3130885959 -0.1467422098 0.5562978387 4287071634
-0.3121984601 -0.1457086802 0.5547162294 4286018946
-0.3117858768 -0.1449006200 0.5539832115 4286941078
-0.3113728762 -0.1440939754 0.5532493591 4288125352
-0.3109594584 -0.1432887614 0.5525147319 4288454828
-0.3105455637 -0.1424849778 0.5517793894 4287796898
-0.3101312518 -0.1416826397 0.5510432124 4287862177
-0.3097165227 -0.1408817321 0.5503063202 4287467419
-0.3097801208 -0.1402991116 0.5504193306 4287533466
-0.3098435104 -0.1397161335 0.5505319238 4288520361
-0.3094276488 -0.1389177591 0.5497930646 4288121492
-0.3094904423 -0.1383349746 0.5499046445 4281015848
-0.3090738356 -0.1375385821 0.5491643548 4283047467
-0.3091360629 -0.1369559914 0.5492749214 4282850088
-0.3091980517 -0.1363730580 0.5493850708 4282783521
-0.3092598021 -0.1357897520 0.5494948030 4282651935
-0.3093212843 -0.1352061182 0.5496040583 4283177510
-0.3098622262 -0.1348308474 0.5505651832 4283111717
-0.3094435930 -0.1340377927 0.5498213768 4283176486
-0.3104640841 -0.1338669211 0.5516345501 4283176486
-0.3105247915 -0.1332800686 0.5517424941 4283045924
-0.3105852902 -0.1326928884 0.5518499613 4283177510
-0.3106455207 -0.1321053654 0.5519570112 4283308069
-0.3107055426 -0.1315174997 0.5520635843 4283242276
-0.3107652962 -0.1309292912 0.5521697998 4283308583
-0.3108248115 -0.1303407401 0.5522754788 4283308583
-0.3108840585 -0.1297518611 0.5523808002 4283440169
-0.3109430671 -0.1291626394 0.5524856448 4283571755
-0.3114825189 -0.1287718117 0.5534441471 4283637548
-0.3115411401 -0.1281810105 0.5535483360 4283637548
-0.3115995228 -0.1275898814 0.5536520481 4283572268
-0.3116576374 -0.1269984096 0.5537552834 4283506475
-0.3117155135 -0.1264066249 0.5538581014 4283506474
-0.3117731214 -0.1258144975 0.5539605021 4283506474
-0.3118304908 -0.1252220422 0.5540624261 4283571754
-0.3118876219 -0.1246292666 0.5541639328 4283703340
-0.3119444847 -0.1240361631 0.5542649627 4283703853
-0.3120011091 -0.1234427392 0.5543655753 4283835439
-0.3120574653 -0.1228489950 0.5544657111 4284098611
-0.3121135831 -0.1222549230 0.5545654297 4284032818
-0.3121694624 -0.1216605306 0.5546647310 4284098352
-0.3122250736 -0.1210658252 0.5547635555 4284164145
-0.3122804463 -0.1204707995 0.5548619032 4284164145
-0.3128175437 -0.1200604513 0.5558162332 4284098352
-0.3128724694 -0.1194638759 0.5559138656 4284164145
-0.3129271567 -0.1188669875 0.5560110211 4284098352
-0.3134638369 -0.1184520200 0.5569645762 4283966766
-0.3135181069 -0.1178535894 0.5570609570 4283966766
-0.3140545189 -0.1174352393 0.5580140948 4283966512
-0.3141083419 -0.1168352664 0.5581097007 4284032305
-0.3141618967 -0.1162349880 0.5582048893 4283966512
-0.3142152131 -0.1156343967 0.5582996607 4283966512
-0.3147510290 -0.1152102128 0.5592516661 4283966512
-0.3148038983 -0.1146080941 0.5593456030 4284032305
-0.3148564994 -0.1140056700 0.5594390631 4284032305
-0.3149088621 -0.1134029478 0.5595321059 4284098098
-0.3154440224 -0.1129729301 0.5604829788 4283966512
-0.3159790933 -0.1125407666 0.5614336729 4284032305
-0.3160308301 -0.1119352952 0.5615255833 4283966512
-0.3160822988 -0.1113295257 0.5616170764 4284098098
-0.3161334991 -0.1107234657 0.5617080331 4284163891
-0.3166679144 -0.1102854833 0.5626575947 4284229684
-0.3167186677 -0.1096779108 0.5627477765 4284427063
-0.3172527850 -0.1092365608 0.5636968017 4284492856
-0.3177867830 -0.1087930650 0.5646455884 4284229684
-0.3178368807 -0.1081827581 0.5647346377 4284295477
-0.3178867400 -0.1075721681 0.5648232102 4284427063
-0.3179363310 -0.1069612876 0.5649113059 4284427063
-0.3184696436 -0.1065120026 0.5658589005 4284361270
-0.3185187578 -0.1058996245 0.5659461617 4284427063
-0.3190517426 -0.1054469720 0.5668932199 4284624442
-0.3191004097 -0.1048330963 0.5669796467 4284690235
-0.3191488087 -0.1042189449 0.5670656562 4284296760
-0.3191969097 -0.1036045179 0.5671511292 4284165174
-0.3192447722 -0.1029898077 0.5672361851 4284229685
-0.3197768629 -0.1025301665 0.5681815743 4284229685
-0.3198242486 -0.1019139737 0.5682657957 4284230198
-0.3208406568 -0.1016044766 0.5700717568 4284230198
-0.3208876252 -0.1009858698 0.5701552033 4284229172
-0.3214191496 -0.1005185992 0.5710995793 4284097586
-0.3214656413 -0.0998985171 0.5711821914 4283835440
-0.3219968081 -0.0994279087 0.5721259713 4283835440
-0.3225278258 -0.0989551619 0.5730695128 4283704368
-0.3230587244 -0.0984802768 0.5740128160 4283770161
-0.3231043220 -0.0978563204 0.5740938187 4283835440
-0.3231496513 -0.0972320959 0.5741744041 4285151300
-0.3231947124 -0.0966076180 0.5742544532 4285815647
-0.3237248063 -0.0961269960 0.5751963258 4286210405
-0.3173723817 -0.1578330696 0.5650243163 4283774013
-0.3174429536 -0.1572402418 0.5651499629 4283774013
-0.3170372546 -0.1564121693 0.5644276738 4284297017
-0.3166311085 -0.1555854827 0.5637046099 4284033845
-0.3162245154 -0.1547601819 0.5629807711 4284034867
-0.3158174753 -0.1539362669 0.5622560978 4283903281
-0.3149335682 -0.1528824717 0.5606824756 4284232767
-0.3145255446 -0.1520622373 0.5599560142 4287917175
-0.3145937324 -0.1514729261 0.5600774288 4287001981
-0.3141849339 -0.1506546140 0.5593496561 4286278258
-0.3137756884 -0.1498377025 0.5586210489 4287006604
-0.3128890395 -0.1487953961 0.5570425391 4287796120
-0.3120017350 -0.1477562785 0.5554628968 4288651945
-0.3130224645 -0.1476204991 0.5572801232 4288651945
-0.3116570413 -0.1463600844 0.5548492074 4287795870
-0.3107681274 -0.1453279108 0.5532666445 4286348424
-0.3103560507 -0.1445212960 0.5525330305 4287862437
-0.3099435270 -0.1437161267 0.5517985821 4288257195
-0.3095305562 -0.1429123729 0.5510634184 4288257449
-0.3095949590 -0.1423296928 0.5511780381 4288520621
-0.3091812432 -0.1415279210 0.5504414439 4288651945
-0.3092450500 -0.1409454197 0.5505550504 4288454566
-0.3088305593 -0.1401456147 0.5498171449 4288520361
-0.3084156215 -0.1393472701 0.5490784645 4289046705
-0.3084785342 -0.1387654990 0.5491904616 4288253077
-0.3085411787 -0.1381833702 0.5493019819 4281542191
-0.3086036146 -0.1376008987 0.5494131446 4283179053
-0.3086658120 -0.1370180547 0.5495238304 4282718502
-0.3087277710 -0.1364348829 0.5496341586 4283111716
-0.3087894619 -0.1358513385 0.5497440100 4282782751
-0.3093297780 -0.1354771852 0.5507059097 4283177510
-0.3089121580 -0.1346832365 0.5499624610 4283111717
-0.3094521761 -0.1343065649 0.5509238839 4283242025
-0.3099921346 -0.1339277327 0.5518851876 4283176232
-0.3095736206 -0.1331345588 0.5511400700 4282979877
-0.3101132810 -0.1327532232 0.5521008372 4283111463
-0.3101734817 -0.1321654469 0.5522080064 4283308069
-0.3102334440 -0.1315773427 0.5523147583 4283242276
-0.3102931678 -0.1309888810 0.5524210930 4283242790
-0.3103526533 -0.1304000914 0.5525269508 4283242790
-0.3104118705 -0.1298109591 0.5526323915 4283505449
-0.3104708493 -0.1292214990 0.5527374148 4283702828
-0.3105295897 -0.1286316961 0.5528419614 4283702828
-0.3110681176 -0.1282394677 0.5538007617 4283834414
-0.3111264408 -0.1276480854 0.5539045930 4283834927
-0.3111845255 -0.1270563751 0.5540080070 4283703341
-0.3112423718 -0.1264643222 0.5541109443 4283506474
-0.3112999499 -0.1258719563 0.5542134643 4283506474
-0.3113572896 -0.1252792478 0.5543155670 4283571754
-0.3114143908 -0.1246862262 0.5544171929 4283637547
-0.3114712238 -0.1240928769 0.5545184016 4283703340
-0.3115278184 -0.1234991997 0.5546191335 4283900719
-0.3115841448 -0.1229051948 0.5547194481 4284098611
-0.3116402328 -0.1223108768 0.5548192859 4283967025
-0.3116960526 -0.1217162311 0.5549186468 4284098098
-0.3117516339 -0.1211212724 0.5550175905 4284098098
-0.3118069768 -0.1205259934 0.5551161170 4284098098
-0.3123432994 -0.1201154813 0.5560709834 4284098098
-0.3123981953 -0.1195186526 0.5561687350 4284098098
-0.3124528527 -0.1189215109 0.5562660098 4284032305
-0.3129887879 -0.1185063720 0.5572201014 4283834926
-0.3130429983 -0.1179076806 0.5573166609 4283703340
-0.3135786653 -0.1174891591 0.5582702756 4283769134
-0.3136324584 -0.1168889254 0.5583660603 4283900720
-0.3136859834 -0.1162883863 0.5584613681 4283835440
-0.3137392700 -0.1156875417 0.5585562587 4283835440
-0.3142743111 -0.1152631789 0.5595087409 4283769647
-0.3143271506 -0.1146607995 0.5596028566 4283769647
-0.3143797219 -0.1140581220 0.5596964359 4283835440
-0.3144320548 -0.1134551391 0.5597895980 4283901233
-0.3149664700 -0.1130249426 0.5607410073 4283966513
-0.3155007660 -0.1125925928 0.5616922379 4283900720
-0.3155524433 -0.1119868606 0.5617842674 4283966513
-0.3156038821 -0.1113808304 0.5618758798 4284098099
-0.3156550825 -0.1107745022 0.5619669557 4284032306
-0.3161887228 -0.1103363410 0.5629170537 4283900720
-0.3162394464 -0.1097285002 0.5630073547 4283967025
-0.3167727888 -0.1092869639 0.5639568567 4284032818
-0.3168230653 -0.1086776108 0.5640463829 4284032818
-0.3173561096 -0.1082327068 0.5649954081 4284032818
-0.3174059391 -0.1076218486 0.5650840998 4284098611
-0.3174555004 -0.1070107073 0.5651723146 4284164404
-0.3179880381 -0.1065612212 0.5661203861 4284230197
-0.3180371225 -0.1059485748 0.5662078261 4284230197
-0.3180859685 -0.1053356528 0.5662947297 4284295990
-0.3186179996 -0.1048815921 0.5672419667 4284361783
-0.3186663687 -0.1042671725 0.5673280358 4284361783
-0.3187144399 -0.1036524698 0.5674136877 4284230197
-0.3187622726 -0.1030374914 0.5674988031 4284163378
-0.3192936182 -0.1025776565 0.5684447289 4284163378
-0.3193409443 -0.1019611880 0.5685290098 4284229684
-0.3203558922 -0.1016515568 0.5703359246 4284163891
-0.3204028308 -0.1010326818 0.5704194903 4284162864
-0.3209335804 -0.1005652100 0.5713644028 4284031278
-0.3209800422 -0.0999448523 0.5714471340 4283769133
-0.3215104640 -0.0994740427 0.5723914504 4283769133
-0.3220407069 -0.0990010872 0.5733354688 4283638575
-0.3225708306 -0.0985259935 0.5742792487 4283506989
-0.3226164281 -0.0979017615 0.5743604302 4283835440
-0.3226617277 -0.0972772613 0.5744410753 4285019714
-0.3231912851 -0.0967976227 0.5753839016 4285815647
-0.3232361078 -0.0961716697 0.5754636526 4286276198
-0.3176231682 -0.1601593047 0.5665911436 4286481287
-0.3177658021 -0.1589716226 0.5668455958 4283449672
-0.3178367615 -0.1583771855 0.5669721961 4283904829
-0.3174322844 -0.1575464904 0.5662506819 4283773243
-0.3170273900 -0.1567171812 0.5655283928 4284231994
-0.3166220486 -0.1558892727 0.5648052692 4284034615
-0.3157407343 -0.1548295617 0.5632331967 4284363580
-0.3153343797 -0.1540053189 0.5625082850 4283771443
-0.3149275780 -0.1531824619 0.5617826581 4284695374
-0.3145203590 -0.1523610055 0.5610561967 4288840333
-0.3141126633 -0.1515409499 0.5603289604 4285160806
-0.3137045503 -0.1507223099 0.5596009493 4281871156
-0.3132959902 -0.1499050558 0.5588721633 4282203204
-0.3128870130 -0.1490892321 0.5581425428 4283519064
-0.3115248978 -0.1478227526 0.5557127595 4285163635
-0.3111148179 -0.1470115334 0.5549812317 4286018944
-0.3107042909 -0.1462017447 0.5542489290 4286611083
-0.3102933466 -0.1453933716 0.5535158515 4287005841
-0.3098819554 -0.1445864290 0.5527819991 4287666081
-0.3094701171 -0.1437809169 0.5520473719 4288060839
-0.3090578616 -0.1429768354 0.5513119698 4287863971
-0.3091222048 -0.1423939168 0.5514267087 4288061350
-0.3087091744 -0.1415918022 0.5506899357 4288651945
-0.3087729216 -0.1410090774 0.5508037210 4288520359
-0.3083591163 -0.1402089298 0.5500655174 4288914347
-0.3079448938 -0.1394102424 0.5493265986 4289703863
-0.3080077469 -0.1388282329 0.5494387746 4287529352
-0.3080703914 -0.1382458806 0.5495504737 4281673775
-0.3081327677 -0.1376631558 0.5496617556 4283179564
-0.3081949353 -0.1370800883 0.5497726202 4282982185
-0.3082568347 -0.1364966631 0.5498830676 4283504932
-0.3083799481 -0.1353287697 0.5501026511 4282980645
-0.3089193404 -0.1349532008 0.5510648489 4282980645
-0.3089803755 -0.1343674809 0.5511737466 4283045670
-0.3090411723 -0.1337814033 0.5512822270 4283045670
-0.3091017306 -0.1331949830 0.5513902307 4283372582
-0.3096406460 -0.1328134984 0.5523515344 4283438375
-0.3097008169 -0.1322254837 0.5524588823 4283111716
-0.3097607493 -0.1316371411 0.5525658131 4283177509
-0.3098204136 -0.1310484409 0.5526722670 4283242789
-0.3094009161 -0.1302577704 0.5519239306 4283308582
-0.3099390566 -0.1298700273 0.5528838634 4283440168
-0.3099979758 -0.1292803138 0.5529890060 4283571754
-0.3100566864 -0.1286902726 0.5530937314 4283703340
-0.3101151288 -0.1280998886 0.5531979799 4283769133
-0.3106527328 -0.1277062446 0.5541570187 4283769133
-0.3107107878 -0.1271142960 0.5542605519 4283834926
-0.3107686043 -0.1265220046 0.5543636680 4283769133
-0.3108261526 -0.1259293854 0.5544663072 4283703340
-0.3108834624 -0.1253364235 0.5545685291 4283637547
-0.3109405041 -0.1247431487 0.5546703339 4283571754
-0.3109973073 -0.1241495460 0.5547716618 4283703340
-0.3110538423 -0.1235556230 0.5548725128 4283834926
-0.3111101687 -0.1229613721 0.5549729466 4284032305
-0.3111661971 -0.1223667935 0.5550729036 4284229684
-0.3112220168 -0.1217719018 0.5551724434 4284097839
-0.3112775385 -0.1211766899 0.5552715659 4284163632
-0.3113328516 -0.1205811575 0.5553702116 4284163891
-0.3118684292 -0.1201704741 0.5563255548 4284098098
-0.3119232953 -0.1195733920 0.5564234853 4284032305
-0.3124586046 -0.1191593185 0.5573784113 4283834926
-0.3125130534 -0.1185606867 0.5574755073 4283768620
-0.3130481243 -0.1181432232 0.5584300160 4283834413
-0.3131021559 -0.1175430417 0.5585263371 4283834926
-0.3131558895 -0.1169425547 0.5586222410 4283966512
-0.3136905134 -0.1165204719 0.5595759153 4283835440
-0.3137438595 -0.1159184501 0.5596710443 4283703854
-0.3137969375 -0.1153161153 0.5597657561 4283638061
-0.3138497472 -0.1147134826 0.5598599315 4283769647
-0.3139022887 -0.1141105369 0.5599536896 4283900720
-0.3139545918 -0.1135073006 0.5600469708 4283834927
-0.3149698377 -0.1132500842 0.5618579984 4283900719
-0.3150217533 -0.1126443893 0.5619506240 4283834926
-0.3150734305 -0.1120383963 0.5620428324 4283834926
-0.3156066835 -0.1116024926 0.5629940629 4283834926
-0.3156579137 -0.1109949723 0.5630854368 4283834926
-0.3157088757 -0.1103871614 0.5631763339 4283900719
-0.3157595694 -0.1097790599 0.5632667542 4283966512
-0.3162921369 -0.1093373373 0.5642168522 4283966512
-0.3163423836 -0.1087277234 0.5643064380 4284032305
-0.3168746829 -0.1082826331 0.5652559996 4284098098
-0.3169244528 -0.1076715067 0.5653448105 4284163891
-0.3169739842 -0.1070600972 0.5654331446 4284163891
-0.3175057769 -0.1066104174 0.5663817525 4284229684
-0.3175548315 -0.1059975028 0.5664693117 4284229684
-0.3176036477 -0.1053843126 0.5665563345 4284361270
-0.3176521659 -0.1047708318 0.5666428804 4284558649
-0.3181832433 -0.1043153629 0.5675902963 4284295990
-0.3182313144 -0.1037003919 0.5676760077 4284230197
-0.3187620938 -0.1032415703 0.5686228275 4284360243
-0.3188096881 -0.1026251093 0.5687077045 4284360243
-0.3193401098 -0.1021629348 0.5696539283 4284294964
-0.3198704422 -0.1016986147 0.5705999732 4284360757
-0.3204006255 -0.1012321487 0.5715457201 4284359988
-0.3204473257 -0.1006117910 0.5716290474 4284031023
-0.3209771812 -0.1001419798 0.5725741982 4283769134
-0.3210234344 -0.0995201394 0.5726566911 4283703341
-0.3215529323 -0.0990469828 0.5736012459 4283901233
-0.3220823109 -0.0985716805 0.5745455623 4283769647
-0.3221278489 -0.0979471728 0.5746268630 4283835440
-0.3221731186 -0.0973223969 0.5747076273 4285019714
-0.3227019310 -0.0968425497 0.5756509304 4285749856
-0.3232305944 -0.0963605642 0.5765939951 4286210407
-0.3152392209 -0.1592727900 0.5634549260 4285230707
-0.3172779381 -0.1590426564 0.5670989156 4283251780
-0.3173488379 -0.1584479809 0.5672256351 4283904570
-0.3169450760 -0.1576169580 0.5665039420 4283772984
-0.3165408373 -0.1567873061 0.5657814145 4284231224
-0.3161361814 -0.1559590548 0.5650581121 4284165431
-0.3152562678 -0.1548988968 0.5634853840 4284231994
-0.3148506284 -0.1540743113 0.5627603531 4283508271
-0.3139695227 -0.1530196220 0.5611854792 4286538093
-0.3140379488 -0.1524293274 0.5613077879 4290025122
-0.3136309683 -0.1516089439 0.5605803728 4288647835
-0.3132235408 -0.1507899463 0.5598521233 4286147701
-0.3128156662 -0.1499723792 0.5591230989 4283848029
-0.3119318485 -0.1489291787 0.5575433969 4281940032
-0.3115229905 -0.1481153071 0.5568125844 4281084469
-0.3111137152 -0.1473028660 0.5560810566 4281610813
-0.3107039928 -0.1464918405 0.5553486943 4285361016
-0.3098179102 -0.1454588026 0.5537649393 4287269013
-0.3094072044 -0.1446515173 0.5530308485 4287796897
-0.3089960814 -0.1438456625 0.5522959828 4287796897
-0.3090606928 -0.1432619840 0.5524114966 4287995044
-0.3086487949 -0.1424580961 0.5516752601 4288192423
-0.3087128699 -0.1418745965 0.5517897606 4288519589
-0.3083001971 -0.1410726756 0.5510521531 4288651175
-0.3078870773 -0.1402722150 0.5503137708 4288848297
-0.3079502285 -0.1396894157 0.5504266620 4289966778
-0.3075363636 -0.1388909370 0.5496869087 4286212978
-0.3075989485 -0.1383083463 0.5497987866 4281475882
-0.3076612949 -0.1377253830 0.5499102473 4282981928
-0.3077234030 -0.1371420771 0.5500212312 4282981928
-0.3077852726 -0.1365584135 0.5501317978 4283439139
-0.3078469038 -0.1359744072 0.5502420068 4283175967
-0.3079082966 -0.1353900433 0.5503517389 4283111716
-0.3079694510 -0.1348053217 0.5504610538 4283111716
-0.3080303669 -0.1342202723 0.5505698919 4283176743
-0.3085686862 -0.1338420510 0.5515320897 4283110950
-0.3086292148 -0.1332553923 0.5516402721 4283372836
-0.3086895049 -0.1326683909 0.5517480373 4283372836
-0.3092274964 -0.1322854906 0.5527095795 4283177250
-0.3092873693 -0.1316968948 0.5528166294 4283243043
-0.3093470037 -0.1311079562 0.5529232621 4283373346
-0.3089281917 -0.1303169429 0.5521746874 4283439139
-0.3089872599 -0.1297282428 0.5522802472 4283636518
-0.3095244765 -0.1293390989 0.5532404780 4283768104
-0.3095831275 -0.1287488043 0.5533453226 4283833897
-0.3096415401 -0.1281581819 0.5534496903 4283899690
-0.3101783991 -0.1277643889 0.5544092655 4283965483
-0.3102363944 -0.1271721721 0.5545129776 4283965483
-0.3102941811 -0.1265796423 0.5546162128 4283965481
-0.3103516996 -0.1259867698 0.5547189713 4283965481
-0.3104089499 -0.1253935695 0.5548213720 4283899688
-0.3104659617 -0.1248000413 0.5549232960 4283833895
-0.3105227351 -0.1242061853 0.5550247431 4283899688
-0.3105792403 -0.1236120090 0.5551257730 4284031274
-0.3106355071 -0.1230175048 0.5552263260 4284162860
-0.3106915355 -0.1224226803 0.5553264618 4284294446
-0.3107472956 -0.1218275353 0.5554261208 4284032046
-0.3108028173 -0.1212320700 0.5555253625 4284163632
-0.3108580709 -0.1206362918 0.5556241274 4284163378
-0.3113928735 -0.1202254370 0.5565800071 4284163378
-0.3114477098 -0.1196281016 0.5566780567 4284097585
-0.3119822741 -0.1192138568 0.5576335192 4283900206
-0.3120366931 -0.1186149642 0.5577307343 4283768874
-0.3125709891 -0.1181973293 0.5586857796 4283703081
-0.3126249611 -0.1175968945 0.5587822199 4283965999
-0.3126786947 -0.1169961542 0.5588783026 4283965999
-0.3132125735 -0.1165739000 0.5598325133 4283769133
-0.3132658601 -0.1159716100 0.5599277616 4283571754
-0.3133189082 -0.1153690219 0.5600225329 4283571755
-0.3133716881 -0.1147661284 0.5601168871 4283703341
-0.3134241998 -0.1141629294 0.5602107644 4283769133
-0.3134764433 -0.1135594249 0.5603041649 4283834926
-0.3140093386 -0.1131288633 0.5612566471 4283900719
-0.3145421147 -0.1126961559 0.5622088909 4283900719
-0.3145937324 -0.1120899022 0.5623012185 4283769133
-0.3151262105 -0.1116538122 0.5632529259 4283703340
-0.3151774108 -0.1110460311 0.5633444786 4283703340
-0.3152283430 -0.1104379594 0.5634354949 4283769133
-0.3152790070 -0.1098295897 0.5635260344 4283834926
-0.3158108294 -0.1093876809 0.5644766092 4283900719
-0.3158610463 -0.1087777987 0.5645663738 4283966512
-0.3163925707 -0.1083325222 0.5655164123 4283966512
-0.3164423406 -0.1077211276 0.5656053424 4283966512
-0.3164918125 -0.1071094498 0.5656937957 4284032305
-0.3170228601 -0.1066595837 0.5666429400 4284163891
-0.3170718849 -0.1060464010 0.5667306185 4284098098
-0.3171206415 -0.1054329425 0.5668177605 4283967025
-0.3171691597 -0.1048191935 0.5669044852 4284032818
-0.3176994622 -0.1043635309 0.5678523779 4284098611
-0.3177475035 -0.1037482917 0.5679382086 4284164404
-0.3182775080 -0.1032892689 0.5688855052 4284229171
-0.3183250725 -0.1026725397 0.5689705610 4284097585
-0.3188547492 -0.1022101641 0.5699173212 4284163891
-0.3193843067 -0.1017456427 0.5708637834 4284229684
-0.3199137449 -0.1012789756 0.5718100667 4284294195
-0.3199604154 -0.1006583422 0.5718935728 4284031023
-0.3204894960 -0.1001883298 0.5728392005 4283769134
-0.3210184574 -0.0997161642 0.5737846494 4283703341
-0.3210644722 -0.0990928486 0.5738669038 4283769647
-0.3215930760 -0.0986173451 0.5748116970 4283638061
-0.3216385841 -0.0979925543 0.5748931170 4283638061
-0.3221668601 -0.0975136980 0.5758373141 4284624956
-0.3222118914 -0.0968874469 0.5759177804 4285420889
-0.3227398098 -0.0964052528 0.5768613815 4286078819
-0.3223011494 -0.0956341550 0.5760773420 4287266440
-0.3166469634 -0.1603022665 0.5670968890 4284242527
-0.3167183101 -0.1597081572 0.5672246814 4283711302
-0.3167894185 -0.1591136456 0.5673519969 4283382337
-0.3168602884 -0.1585187465 0.5674789548 4283969593
-0.3164571822 -0.1576873809 0.5667570233 4283838007
-0.3165274858 -0.1570925564 0.5668829679 4284230967
-0.3151757121 -0.1557945162 0.5644620061 4284362553
-0.3147711754 -0.1549682021 0.5637375116 4284363064
-0.3143662214 -0.1541432738 0.5630121827 4283639341
-0.3134865165 -0.1530881375 0.5614367723 4287262330
-0.3130805790 -0.1522669047 0.5607096553 4288709776
-0.3131486177 -0.1516768783 0.5608316064 4288121749
-0.3127418756 -0.1508575529 0.5601031184 4289108644
-0.3118600249 -0.1498116106 0.5585237741 4288913836
-0.3114522994 -0.1489960104 0.5577935576 4288124320
-0.3110441267 -0.1481818110 0.5570625663 4286611083
-0.3111105263 -0.1475943625 0.5571814179 4284637293
-0.3102265000 -0.1465576589 0.5555981994 4286347911
-0.3093418479 -0.1455241889 0.5540138483 4287663771
-0.3089318275 -0.1447165608 0.5532795191 4287467933
-0.3085213900 -0.1439103782 0.5525444150 4287533726
-0.3085859716 -0.1433264613 0.5526601076 4287665311
-0.3081747591 -0.1425222456 0.5519236326 4287402139
-0.3082387745 -0.1419384927 0.5520383120 4287861148
-0.3078267872 -0.1411362439 0.5513004661 4287992734
-0.3074143827 -0.1403354406 0.5505618453 4288782504
-0.3074775040 -0.1397524178 0.5506749153 4289900985
-0.3070643246 -0.1389536113 0.5499349236 4284566870
-0.3071268499 -0.1383707672 0.5500469208 4281869357
-0.3071891665 -0.1377875805 0.5501585007 4283244330
-0.3072512448 -0.1372040212 0.5502696633 4283178537
-0.3073130846 -0.1366201341 0.5503804088 4283570725
-0.3073746562 -0.1360358745 0.5504907370 4283439139
-0.3074360192 -0.1354512721 0.5506006479 4283242789
-0.3074971437 -0.1348663270 0.5507100821 4283242789
-0.3075580001 -0.1342810243 0.5508190989 4283242277
-0.3080955744 -0.1339026541 0.5517818332 4283242277
-0.3081560433 -0.1333157569 0.5518901944 4283372836
-0.3082163036 -0.1327285022 0.5519980788 4283438629
-0.3082762957 -0.1321409196 0.5521055460 4283177250
-0.3083360493 -0.1315529794 0.5522125363 4283243043
-0.3083955646 -0.1309647113 0.5523191094 4283439137
-0.3084548414 -0.1303760856 0.5524252653 4283439137
-0.3085138798 -0.1297871470 0.5525310040 4283570723
-0.3090503216 -0.1293978393 0.5534917116 4283702309
-0.3091089427 -0.1288073063 0.5535967350 4283833895
-0.3091673255 -0.1282164305 0.5537012815 4283899688
-0.3097033799 -0.1278224736 0.5546613336 4283899688
-0.3102394044 -0.1274263710 0.5556213260 4283899688
-0.3102972209 -0.1268326640 0.5557248592 4284031274
-0.3103547692 -0.1262386292 0.5558279753 4284031274
-0.3104121089 -0.1256442666 0.5559306145 4283965481
-0.3099907935 -0.1248568967 0.5551760793 4283899688
-0.3100475073 -0.1242627949 0.5552776456 4283965481
-0.3101040125 -0.1236683652 0.5553788543 4284031274
-0.3101602197 -0.1230736077 0.5554795265 4284097067
-0.3102162182 -0.1224785373 0.5555797815 4284162860
-0.3102719486 -0.1218831390 0.5556796193 4284162862
-0.3103274107 -0.1212874204 0.5557789803 4284228655
-0.3103826344 -0.1206913888 0.5558778644 4284097839
-0.3109166920 -0.1202803627 0.5568342805 4284097839
-0.3109714985 -0.1196827739 0.5569324493 4284097839
-0.3115052879 -0.1192683578 0.5578884482 4283966253
-0.3115596771 -0.1186692193 0.5579858422 4283768874
-0.3120931983 -0.1182514057 0.5589413643 4283637288
-0.3121471405 -0.1176507175 0.5590379834 4283900460
-0.3126804233 -0.1172295213 0.5599930286 4283768874
-0.3127339482 -0.1166272834 0.5600888729 4283571754
-0.3127872050 -0.1160247475 0.5601842999 4283505961
-0.3128401935 -0.1154218987 0.5602791905 4283505961
-0.3128929436 -0.1148187444 0.5603736639 4283637547
-0.3134254217 -0.1143904626 0.5613272786 4283703594
-0.3134777248 -0.1137857735 0.5614209771 4283769387
-0.3135297894 -0.1131807864 0.5615141988 4283835180
-0.3140617907 -0.1127478927 0.5624669790 4283835180
-0.3145936728 -0.1123128459 0.5634195805 4283769387
-0.3146451116 -0.1117051020 0.5635116696 4283637801
-0.3146962821 -0.1110970601 0.5636033416 4283703594
-0.3147471547 -0.1104887202 0.5636944771 4283703594
-0.3147977889 -0.1098800898 0.5637851357 4283703340
-0.3153288662 -0.1094379947 0.5647362471 4283834926
-0.3153790534 -0.1088278517 0.5648261309 4283835439
-0.3159098029 -0.1083823815 0.5657767057 4283769646
-0.3159595430 -0.1077707261 0.5658657551 4283769646
-0.3160089850 -0.1071587801 0.5659543276 4283769646
-0.3160581887 -0.1065465510 0.5660424232 4283835439
-0.3165882528 -0.1060952693 0.5669917464 4283835439
-0.3166370094 -0.1054815426 0.5670790672 4283703853
-0.3166854680 -0.1048675254 0.5671658516 4283703853
-0.3172150254 -0.1044116691 0.5681142807 4283835439
-0.3172630370 -0.1037961617 0.5682002306 4283967025
-0.3177922666 -0.1033369377 0.5691480637 4284097585
-0.3178398013 -0.1027199402 0.5692332387 4284097585
-0.3183687329 -0.1022573635 0.5701804757 4284229684
-0.3188975155 -0.1017926410 0.5711275339 4284295477
-0.3194261789 -0.1013257727 0.5720742941 4284294195
-0.3194728196 -0.1007048711 0.5721578598 4284031023
-0.3200011551 -0.1002346501 0.5731040835 4283637548
-0.3200473487 -0.0996122658 0.5731868148 4283637548
-0.3205753267 -0.0991386920 0.5741323829 4283572268
-0.3211031556 -0.0986629725 0.5750777125 4283572268
-0.3211486638 -0.0980379134 0.5751591921 4283572268
-0.3216761649 -0.0975588486 0.5761039257 4284230198
-0.3222035170 -0.0970776454 0.5770483613 4285157717
-0.3222483099 -0.0964499116 0.5771285892 4286013026
-0.3227753043 -0.0959653631 0.5780724287 4286608510
-0.3163002431 -0.1591845900 0.5676049590 4283578433
-0.3149523735 -0.1578782946 0.5651862025 4284034873
-0.3150226474 -0.1572854221 0.5653123260 4283903287
-0.3146195710 -0.1564568728 0.5645890236 4284230965
-0.3142160773 -0.1556297243 0.5638649464 4284296758
-0.3138121068 -0.1548039615 0.5631400347 4284165685
-0.3129343092 -0.1537469923 0.5615647435 4283902513
-0.3125293553 -0.1529249102 0.5608381033 4287789957
-0.3125976026 -0.1523350328 0.5609605908 4288118922
-0.3121919036 -0.1515148580 0.5602325201 4285819507
-0.3117857277 -0.1506960988 0.5595036745 4285951093
-0.3109051883 -0.1496506035 0.5579234958 4286414213
-0.3109720945 -0.1490627825 0.5580435991 4287335315
-0.3105646372 -0.1482482553 0.5573123693 4288124835
-0.3096824586 -0.1472097039 0.5557293296 4288256421
-0.3092740178 -0.1463989019 0.5549963713 4287532698
-0.3083906770 -0.1453658789 0.5534111857 4288848558
-0.3084558249 -0.1447815746 0.5535280704 4288585900
-0.3080460429 -0.1439750493 0.5527927279 4288322728
-0.3076358736 -0.1431699544 0.5520566702 4287862431
-0.3077000678 -0.1425863355 0.5521718860 4287730845
-0.3072891235 -0.1417832226 0.5514343977 4288190113
-0.3073527813 -0.1411997825 0.5515486598 4287992734
-0.3069410324 -0.1403986365 0.5508098006 4288979883
-0.3065288961 -0.1395989507 0.5500701666 4289308848
-0.3065916300 -0.1390162259 0.5501827598 4282987068
-0.3066541255 -0.1384331584 0.5502949357 4282263345
-0.3067164123 -0.1378497183 0.5504066944 4283178537
-0.3067784309 -0.1372659355 0.5505179763 4282915365
-0.3068402410 -0.1366817951 0.5506289005 4283110944
-0.3069017828 -0.1360973120 0.5507393479 4283045151
-0.3069630861 -0.1355124712 0.5508493781 4283308069
-0.3070241809 -0.1349272728 0.5509589911 4283242276
-0.3070850074 -0.1343417317 0.5510681272 4283242277
-0.3076218069 -0.1339632124 0.5520313978 4283242277
-0.3076822460 -0.1333760768 0.5521398783 4283373348
-0.3077424467 -0.1327885836 0.5522479415 4283439141
-0.3078024089 -0.1322007477 0.5523555279 4283308321
-0.3078621328 -0.1316125691 0.5524626970 4283308321
-0.3079216182 -0.1310240626 0.5525694489 4283308069
-0.3079808354 -0.1304351985 0.5526757240 4283373862
-0.3080398440 -0.1298460066 0.5527815819 4283439909
-0.3085755110 -0.1294565499 0.5537428856 4283505702
-0.3086341023 -0.1288657635 0.5538480282 4283637288
-0.3091695607 -0.1284729093 0.5548088551 4283703081
-0.3092277348 -0.1278805435 0.5549132824 4283768874
-0.3092856705 -0.1272878349 0.5550172925 4283768874
-0.3098207414 -0.1268903166 0.5559774637 4283768874
-0.3098782897 -0.1262960434 0.5560806990 4283834667
-0.3094580173 -0.1255077422 0.5553265214 4283834667
-0.3095149696 -0.1249137148 0.5554286838 4283834667
-0.3095716536 -0.1243193597 0.5555304289 4283900460
-0.3096280992 -0.1237246841 0.5556317568 4283900460
-0.3096843064 -0.1231296808 0.5557326078 4283966253
-0.3097402453 -0.1225343496 0.5558329821 4284032046
-0.3097959459 -0.1219387054 0.5559329391 4284162862
-0.3103295565 -0.1215299964 0.5568904877 4284162862
-0.3103848100 -0.1209327877 0.5569896698 4284032046
-0.3109181821 -0.1205206737 0.5579468012 4283966253
-0.3109730482 -0.1199219078 0.5580452681 4284032046
-0.3115061522 -0.1195064038 0.5590019226 4283966253
-0.3115605712 -0.1189060807 0.5590996146 4283834667
-0.3116147518 -0.1183054522 0.5591968298 4283703081
-0.3121474087 -0.1178853139 0.5601527095 4283703081
-0.3122011721 -0.1172831357 0.5602491498 4283637288
-0.3122546375 -0.1166806445 0.5603451133 4283571495
-0.3123078942 -0.1160778403 0.5604406595 4283571495
-0.3123608530 -0.1154747382 0.5605357289 4283572008
-0.3128927350 -0.1150475070 0.5614901781 4283637801
-0.3129452765 -0.1144428626 0.5615844727 4283703594
-0.3129975498 -0.1138379201 0.5616782308 4283769387
-0.3135289550 -0.1134060696 0.5626319051 4283834667
-0.3140602708 -0.1129720658 0.5635853410 4283834667
-0.3141119480 -0.1123643667 0.5636780262 4283703594
-0.3141633272 -0.1117563620 0.5637702942 4283703594
-0.3142144680 -0.1111480594 0.5638620257 4283769387
-0.3142653108 -0.1105394587 0.5639532804 4283703594
-0.3147957921 -0.1100983992 0.5649052262 4283703594
-0.3148462176 -0.1094882786 0.5649957061 4283769387
-0.3153764009 -0.1090438440 0.5659471154 4283769133
-0.3154263496 -0.1084322110 0.5660368204 4283703340
-0.3154760599 -0.1078202873 0.5661259890 4283638060
-0.3155255020 -0.1072080806 0.5662146807 4283638060
-0.3160549998 -0.1067578271 0.5671648979 4283638060
-0.3161039650 -0.1061441153 0.5672527552 4283638060
-0.3166331649 -0.1056904942 0.5682023764 4283638060
-0.3166816533 -0.1050752774 0.5682894588 4283638060
-0.3167299032 -0.1044597775 0.5683760643 4283441451
-0.3172585666 -0.1040015742 0.5693247318 4283638830
-0.3173063695 -0.1033845842 0.5694105029 4283900719
-0.3178347051 -0.1029230207 0.5703586340 4283966512
-0.3183629215 -0.1024593115 0.5713065267 4284164404
-0.3188910186 -0.1019934490 0.5722541809 4284361783
-0.3194189966 -0.1015254483 0.5732015967 4284426036
-0.3194656968 -0.1009033322 0.5732854605 4284097071
-0.3199933171 -0.1004319638 0.5742322803 4283572268
-0.3200395405 -0.0998083726 0.5743152499 4283572268
-0.3205668330 -0.0993336514 0.5752614737 4283506475
