VERSION 0.7
FIELDS x y z rgba
SIZE 4 4 4 4
TYPE F F F U
COUNT 1 1 1 1
WIDTH 920
HEIGHT 1
VIEWPOINT 0.0 0.0 0.0 1.0 0.0 0.0 0.0
POINTS 920
DATA ascii
-0.3026278019 -0.1317141652 0.5715485811 4292366626
-0.3022271693 -0.1309056133 0.5707919598 4292498212
-0.3018261194 -0.1300985515 0.5700345039 4292497701
-0.3009658754 -0.1290961951 0.5684098005 4292826666
-0.3005638719 -0.1282930821 0.5676506162 4292892972
-0.3001614809 -0.1274914593 0.5668906569 4292958765
-0.2997586727 -0.1266913563 0.5661298633 4292697903
-0.2993554175 -0.1258927584 0.5653682947 4292961075
-0.2994109988 -0.1252878457 0.5654732585 4292962615
-0.2990069985 -0.1244913712 0.5647102594 4293357373
-0.2990619838 -0.1238867119 0.5648141503 4293228875
-0.2991167307 -0.1232817248 0.5649175048 4294215770
-0.2991712093 -0.1226764023 0.5650204420 4294287228
-0.2992254794 -0.1220707521 0.5651228428 4294945929
-0.2992794514 -0.1214647740 0.5652248263 4294949016
-0.2993332148 -0.1208584681 0.5653263330 4294950044
-0.2993866801 -0.1202518344 0.5654273629 4294950558
-0.2994399369 -0.1196448803 0.5655279160 4294950301
-0.2994929254 -0.1190375984 0.5656279922 4294948759
-0.2995456755 -0.1184300035 0.5657275915 4294553744
-0.2995981574 -0.1178220809 0.5658267140 4294615413
-0.2996504009 -0.1172138378 0.5659254193 4293694311
-0.3001627624 -0.1167844012 0.5668930411 4293560142
-0.3006750047 -0.1163527742 0.5678605437 4293296970
-0.3007266521 -0.1157417148 0.5679580569 4293166152
-0.3012386560 -0.1153066456 0.5689250231 4293429324
-0.3017505407 -0.1148693934 0.5698917508 4294347858
-0.3018015623 -0.1142555252 0.5699881315 4294808409
-0.3027740419 -0.1139883399 0.5718247294 4294874202
-0.3032856286 -0.1135445312 0.5727909207 4294479444
-0.3033361137 -0.1129269153 0.5728862882 4294084686
-0.3038474023 -0.1124796718 0.5738519430 4293755721
-0.3048197627 -0.1121999919 0.5756883621 4293491266
-0.3053309321 -0.1117474362 0.5766537189 4293228094
-0.3058419824 -0.1112927049 0.5776188970 4293489726
-0.3068142831 -0.1110026985 0.5794552565 4293358140
-0.3077866435 -0.1107086316 0.5812916756 4293357371
-0.3087590039 -0.1104104891 0.5831280947 4293291578
-0.3097314239 -0.1101082861 0.5849646330 4293356858
-0.3107038736 -0.1098020002 0.5868011713 4293291065
-0.3116763234 -0.1094916463 0.5886377692 4293159479
-0.3131106198 -0.1093384847 0.5913466215 4293093686
-0.3140831888 -0.1090190411 0.5931834579 4292634164
-0.3155177236 -0.1088548973 0.5958927274 4292699957
-0.3169524372 -0.1086847782 0.5986023545 4292962100
-0.3183872700 -0.1085086986 0.6013122201 4293356858
-0.3193601072 -0.1081700996 0.6031495333 4292509790
-0.3207951784 -0.1079830155 0.6058598161 4294944388
-0.3546286523 -0.2038882971 0.6711662412 4290996284
-0.3542644978 -0.2029339820 0.6704770327 4290338354
-0.3538998663 -0.2019809335 0.6697869897 4290730014
-0.3535347879 -0.2010291517 0.6690959930 4290401049
-0.3513627052 -0.1990552098 0.6649851799 4291056156
-0.3478341103 -0.1963247359 0.6583069563 4290990363
-0.3406887650 -0.1915753633 0.6447837353 4291317528
-0.3217889369 -0.1802709997 0.6090141535 4291383321
-0.3209621310 -0.1791328937 0.6074493527 4291448861
-0.3101869822 -0.1724668741 0.5870563984 4291448861
-0.3079996407 -0.1706030369 0.5829166770 4291579681
-0.3062633574 -0.1689972878 0.5796306133 4291579681
-0.3049785197 -0.1676469892 0.5771989226 4291579422
-0.3032401800 -0.1660537869 0.5739089847 4291645215
-0.3024061918 -0.1649611890 0.5723305941 4291579679
-0.3015715480 -0.1638717502 0.5707509518 4291513886
-0.3011891842 -0.1630306393 0.5700272918 4291448861
-0.3003533483 -0.1619466245 0.5684453845 4291448861
-0.2999700010 -0.1611091495 0.5677198768 4291579933
-0.2995862067 -0.1602730453 0.5669935346 4291579933
-0.2992019951 -0.1594383419 0.5662663579 4291907358
-0.2988173366 -0.1586050093 0.5655383468 4291907358
-0.2984322608 -0.1577730775 0.5648095608 4291906845
-0.2980467379 -0.1569425315 0.5640799403 4291906845
-0.2981145382 -0.1563513577 0.5642082691 4291972638
-0.2977282703 -0.1555227041 0.5634772182 4291972638
-0.2973415554 -0.1546954513 0.5627453327 4291842079
-0.2974084914 -0.1541048884 0.5628719926 4291973665
-0.2974751890 -0.1535139084 0.5629982352 4292105506
-0.2975416481 -0.1529225409 0.5631240010 4292302885
-0.2976078987 -0.1523307711 0.5632494092 4292303145
-0.2972194552 -0.1515069604 0.5625141859 4292566317
-0.2972851396 -0.1509153098 0.5626385212 4292830264
-0.2978052497 -0.1505531222 0.5636228919 4293356608
-0.2978705764 -0.1499597877 0.5637465715 4293819215
-0.2979356945 -0.1493660659 0.5638697743 4294674524
-0.2980005443 -0.1487719417 0.5639925599 4294676839
-0.2980651855 -0.1481774449 0.5641148686 4294611046
-0.2981296182 -0.1475825608 0.5642367601 4294152294
-0.2981937826 -0.1469872743 0.5643582344 4293823329
-0.2987130880 -0.1466151178 0.5653410554 4293822560
-0.2987768948 -0.1460181773 0.5654618144 4293690974
-0.2992960215 -0.1456425190 0.5664442778 4293624154
-0.2998151183 -0.1452646703 0.5674267411 4293689947
-0.2998784184 -0.1446647495 0.5675465465 4293558877
-0.3003973067 -0.1442833990 0.5685285926 4293361498
-0.3009161651 -0.1438998431 0.5695105791 4293099606
-0.3009789586 -0.1432969719 0.5696293712 4293033813
-0.3010414839 -0.1426937133 0.5697477460 4293624923
-0.3015600145 -0.1423053741 0.5707291365 4294151267
-0.3016221821 -0.1417004615 0.5708467960 4294547053
-0.3021405041 -0.1413086206 0.5718277693 4294152295
-0.3026587963 -0.1409145892 0.5728086233 4293096267
-0.3031769991 -0.1405183375 0.5737894177 4291714614
-0.3036951721 -0.1401198953 0.5747700930 4292301351
-0.3042132854 -0.1397192329 0.5757506490 4291972386
-0.3042744696 -0.1391075104 0.5758664608 4291906074
-0.3047923446 -0.1387033612 0.5768465996 4291971867
-0.3048531413 -0.1380899698 0.5769616365 4292300062
-0.3049136698 -0.1374762207 0.5770761967 4292365855
-0.3049739599 -0.1368620992 0.5771902800 4292365856
-0.3045766652 -0.1360433549 0.5764384270 4292431649
-0.3037215471 -0.1350227445 0.5748200417 4292300833
-0.3046958447 -0.1348151565 0.5766639709 4292300833
-0.3033822775 -0.1335960031 0.5741779208 4292300833
-0.3025256395 -0.1325826198 0.5725566149 4292300833
-0.3016683757 -0.1315725744 0.5709341764 4292497699
-0.3012683690 -0.1307646036 0.5701771379 4292629285
-0.3004100025 -0.1297603399 0.5685526133 4292629287
-0.3000090718 -0.1289563030 0.5677938461 4292826666
-0.2996077240 -0.1281537712 0.5670342445 4292827179
-0.2992059588 -0.1273527443 0.5662738681 4292958765
-0.2988037765 -0.1265532374 0.5655126572 4292763696
-0.2988595366 -0.1259484142 0.5656182170 4293026868
-0.2984566092 -0.1251510084 0.5648556352 4293028408
-0.2985118032 -0.1245464385 0.5649600625 4293423166
-0.2981081009 -0.1237511486 0.5641960502 4293426772
-0.2981627285 -0.1231468394 0.5642994046 4294611046
-0.2982170880 -0.1225422025 0.5644023418 4294682760
-0.2982712090 -0.1219372377 0.5645047426 4294947217
-0.2983250618 -0.1213319376 0.5646066666 4294949790
-0.2983786762 -0.1207263172 0.5647081733 4294950304
-0.2984320521 -0.1201203689 0.5648092031 4294950047
-0.2984851897 -0.1195140928 0.5649096966 4294950047
-0.2989973426 -0.1190904304 0.5658790469 4294948505
-0.2990500331 -0.1184825748 0.5659787655 4294750612
-0.2995619476 -0.1180554703 0.5669475794 4294747514
-0.2996142209 -0.1174460426 0.5670465231 4293760619
-0.2996662259 -0.1168362945 0.5671449900 4293691728
-0.2997180223 -0.1162262335 0.5672429800 4293296970
-0.3002293110 -0.1157931834 0.5682106018 4293165382
-0.3002806306 -0.1151815578 0.5683078170 4293362761
-0.3007916510 -0.1147450656 0.5692749619 4294216270
-0.3013025820 -0.1143063903 0.5702418685 4294676821
-0.3018133938 -0.1138655245 0.5712086558 4294808409
-0.3023240864 -0.1134224758 0.5721752048 4294413651
-0.3028347194 -0.1129772365 0.5731415749 4294083916
-0.3033452034 -0.1125298142 0.5741077662 4293754951
-0.3038555980 -0.1120802015 0.5750737190 4293688131
-0.3048263490 -0.1117972806 0.5769109726 4293424959
-0.3053366244 -0.1113423631 0.5778766870 4293358653
-0.3063073754 -0.1110522449 0.5797138810 4293227067
-0.3068174720 -0.1105920076 0.5806792974 4293225785
-0.3077881932 -0.1102946922 0.5825165510 4293159992
-0.3087589741 -0.1099933088 0.5843538046 4293225272
-0.3097297847 -0.1096878499 0.5861911178 4293159479
-0.3111615777 -0.1095405966 0.5889009237 4293159479
-0.3121325076 -0.1092260480 0.5907384753 4293093686
-0.3135645688 -0.1090678126 0.5934488177 4292699441
-0.3149967790 -0.1089036018 0.5961593986 4292831027
-0.3164291680 -0.1087334305 0.5988702774 4293027895
-0.3178616762 -0.1085572839 0.6015814543 4293422653
-0.3188329339 -0.1082185507 0.6034196615 4292445026
-0.3202656806 -0.1080313995 0.6061312556 4294945931
-0.3531337082 -0.2034564763 0.6697447300 4291062077
-0.3523195088 -0.2022449523 0.6682005525 4290535733
-0.3519552350 -0.2012941986 0.6675096750 4290729760
-0.3515904844 -0.2003447115 0.6668179035 4290400795
-0.3494217992 -0.1983726323 0.6627048254 4291056156
-0.3458988369 -0.1956436932 0.6560232639 4291056156
-0.3378630280 -0.1903866082 0.6407827139 4291448344
-0.3140312433 -0.1762955934 0.5955839753 4291448344
-0.3204249740 -0.1792098135 0.6077101827 4291514140
-0.3101193309 -0.1727924943 0.5881647468 4291514140
-0.3074842989 -0.1706763655 0.5831671953 4291579681
-0.3043961227 -0.1683207601 0.5773102641 4291579681
-0.3026614189 -0.1667237580 0.5740202665 4291579422
-0.3018293381 -0.1656293571 0.5724421144 4291579422
-0.3009965718 -0.1645381153 0.5708627105 4291448093
-0.3001631796 -0.1634500325 0.5692821145 4291513886
-0.2993291318 -0.1623651087 0.5677003264 4291383068
-0.2989467084 -0.1615277231 0.5669749975 4291448861
-0.2985638380 -0.1606917083 0.5662488937 4291579933
-0.2981805503 -0.1598570794 0.5655219555 4291645726
-0.2977968454 -0.1590238363 0.5647941828 4291907358
-0.2974126637 -0.1581919789 0.5640655756 4291841565
-0.2979336679 -0.1578412652 0.5650537014 4292037661
-0.2970959544 -0.1567714214 0.5634649396 4292037661
-0.2971636057 -0.1561809182 0.5635932088 4291972638
-0.2967779338 -0.1553528458 0.5628617406 4291972638
-0.2968450189 -0.1547624469 0.5629889965 4291776799
-0.2969118953 -0.1541716456 0.5631158352 4291776799
-0.2969785333 -0.1535804421 0.5632421970 4291973920
-0.2970449626 -0.1529888511 0.5633682013 4292171299
-0.2971111536 -0.1523968577 0.5634937286 4292171559
-0.2967233956 -0.1515727043 0.5627583265 4292434731
-0.2967890203 -0.1509808302 0.5628828406 4292830266
-0.2968544364 -0.1503885686 0.5630068779 4293290817
-0.2973736227 -0.1500249505 0.5639915466 4293753170
-0.2974386811 -0.1494309902 0.5641148686 4294805858
-0.2975035012 -0.1488366425 0.5642378330 4294940271
-0.2975680828 -0.1482419223 0.5643603206 4294941042
-0.2976324260 -0.1476467997 0.5644823909 4294744945
-0.2976965606 -0.1470512897 0.5646039844 4294481773
-0.2977604568 -0.1464554071 0.5647251606 4294152295
-0.2982788086 -0.1460818201 0.5657082796 4293757537
-0.2983423173 -0.1454842538 0.5658287406 4293821533
-0.2988605201 -0.1451071650 0.5668115020 4293624154
-0.2989236712 -0.1445079297 0.5669313073 4293493082
-0.2994416654 -0.1441273540 0.5679137111 4293361496
-0.2999596000 -0.1437445730 0.5688960552 4293099860
-0.3004775345 -0.1433595866 0.5698783398 4293099860
-0.3005400300 -0.1427560896 0.5699968338 4293756507
-0.3006022871 -0.1421522349 0.5701149106 4294217058
-0.3011198342 -0.1417624503 0.5710965395 4294349674
-0.3011817336 -0.1411569268 0.5712139010 4293757537
-0.3016991019 -0.1407636553 0.5721951127 4292898631
-0.3022164106 -0.1403681785 0.5731762648 4291845943
-0.3027336895 -0.1399704963 0.5741572976 4292235558
-0.3032508790 -0.1395706087 0.5751382113 4291972386
-0.3033119142 -0.1389595568 0.5752539635 4292037660
-0.3038289249 -0.1385561824 0.5762344599 4291971867
-0.3038895428 -0.1379434615 0.5763494968 4292300062
-0.3039499521 -0.1373303831 0.5764640570 4292300062
-0.3035536408 -0.1365116686 0.5757123828 4292365856
-0.3031568825 -0.1356944293 0.5749599338 4292365856
-0.3027597070 -0.1348786652 0.5742066503 4292235040
-0.3023621142 -0.1340643913 0.5734525919 4292235040
-0.3019641042 -0.1332516074 0.5726977587 4292104224
-0.3011087477 -0.1322396398 0.5710754991 4292104224
-0.3007097840 -0.1314307749 0.5703188181 4292366626
-0.2998533249 -0.1304245740 0.5686944723 4292564005
-0.2994534373 -0.1296196282 0.5679360628 4292695080
-0.2990531325 -0.1288161725 0.5671768785 4292760873
-0.2986524403 -0.1280142367 0.5664168596 4292564521
-0.2982513011 -0.1272138059 0.5656560659 4292696107
-0.2983072698 -0.1266090870 0.5657622218 4292829489
-0.2979053855 -0.1258107573 0.5650000572 4293092661
-0.2975030839 -0.1250139475 0.5642370582 4293159994
-0.2975581288 -0.1244100630 0.5643414855 4293686338
-0.2971550822 -0.1236153692 0.5635770559 4293821784
-0.2972095609 -0.1230117455 0.5636804104 4294940779
-0.2972638011 -0.1224077940 0.5637832284 4294880909
-0.2973178029 -0.1218035072 0.5638856292 4294947987
-0.2973715365 -0.1211988926 0.5639876127 4294884256
-0.2974250317 -0.1205939576 0.5640890598 4294950563
-0.2979366481 -0.1201735735 0.5650593638 4294950307
-0.2979897261 -0.1195670441 0.5651600361 4294950307
-0.2980425656 -0.1189602017 0.5652602315 4294949534
-0.2980951369 -0.1183530316 0.5653599501 4294751641
-0.2981474698 -0.1177455410 0.5654591918 4294879616
-0.2991170883 -0.1174981520 0.5672981143 4293826928
-0.2991690636 -0.1168881580 0.5673967004 4293823055
-0.2992208004 -0.1162778437 0.5674948096 4293362504
-0.2992722690 -0.1156672090 0.5675924420 4293427265
-0.2997825742 -0.1152327359 0.5685603023 4293493058
-0.2998336256 -0.1146205366 0.5686571002 4294084684
-0.3003436625 -0.1141826212 0.5696244240 4294545235
-0.3008536100 -0.1137425154 0.5705915689 4294807637
-0.3013634384 -0.1133002266 0.5715585351 4294412879
-0.3018731773 -0.1128557473 0.5725252628 4294083403
-0.3023827970 -0.1124090776 0.5734918118 4293754438
-0.3033519387 -0.1121301204 0.5753298402 4293687618
-0.3038614094 -0.1116781384 0.5762961507 4293490239
-0.3048305809 -0.1113919839 0.5781341791 4293489726
-0.3053399026 -0.1109346822 0.5791001916 4293226554
-0.3063090444 -0.1106413230 0.5809382796 4293159992
-0.3068182468 -0.1101787090 0.5819039345 4293094199
-0.3077873886 -0.1098781452 0.5837420225 4293093686
-0.3092166781 -0.1097368076 0.5864527822 4293093686
-0.3101859391 -0.1094271541 0.5882910490 4293290551
-0.3111552298 -0.1091134250 0.5901293755 4293224758
-0.3130452335 -0.1091165394 0.5937139392 4292765234
-0.3144751489 -0.1089522764 0.5964258313 4292831027
-0.3154446781 -0.1086234674 0.5982646346 4293093688
-0.3168748021 -0.1084481999 0.6009770036 4293620032
-0.3183050752 -0.1082669646 0.6036896110 4292643175
-0.3197354972 -0.1080797389 0.6064025164 4294948243
-0.3511913717 -0.2027645260 0.6674669981 4291061823
-0.3508280516 -0.2018139213 0.6667764187 4290667065
-0.3504642546 -0.2008645684 0.6660850048 4290795553
-0.3496499658 -0.1996595263 0.6645374298 4290532381
-0.3479347825 -0.1979453862 0.6612775326 4291121949
-0.3439673781 -0.1949619204 0.6537371874 4291121949
-0.3354944587 -0.1894509792 0.6376337409 4291514137
-0.3135040700 -0.1763711721 0.5958392620 4291448344
-0.3135795295 -0.1757514328 0.5959826708 4291382554
-0.3095988631 -0.1728666276 0.5884171128 4291448347
-0.3074190617 -0.1710003614 0.5842742324 4291579168
-0.3056888580 -0.1693924218 0.5809858441 4291644961
-0.3039575517 -0.1677911878 0.5776953697 4291578909
-0.3022251725 -0.1661966741 0.5744028091 4291513116
-0.3009428978 -0.1648560464 0.5719657540 4291513629
-0.3001110852 -0.1637666225 0.5703848004 4291645215
-0.2992785871 -0.1626803726 0.5688025951 4291579933
-0.2984454632 -0.1615972817 0.5672191978 4291579933
-0.2980633080 -0.1607609540 0.5664928555 4291645726
-0.2972289920 -0.1596833169 0.5649071932 4291645726
-0.2972976863 -0.1590924263 0.5650377870 4291841565
-0.2969142497 -0.1582602412 0.5643090010 4291841565
-0.2965303659 -0.1574294418 0.5635793805 4292103454
-0.2965981662 -0.1568391174 0.5637082458 4292103454
-0.2962135375 -0.1560102254 0.5629771948 4291972638
-0.2962808013 -0.1554199904 0.5631050467 4291972638
-0.2958953977 -0.1545929909 0.5623725653 4291776799
-0.2959620953 -0.1540028751 0.5624994040 4291711006
-0.2960285842 -0.1534123421 0.5626257658 4291776798
-0.2960948646 -0.1528214216 0.5627516508 4292039970
-0.2961609066 -0.1522301137 0.5628771782 4292105766
-0.2962267101 -0.1516384035 0.5630022287 4292368938
-0.2962922752 -0.1510463059 0.5631269217 4292764474
-0.2963576317 -0.1504538059 0.5632510781 4293159232
-0.2964227498 -0.1498609185 0.5633748770 4293555793
-0.2964876592 -0.1492676437 0.5634981990 4294674274
-0.2965523303 -0.1486739665 0.5636211038 4294940787
-0.2966167629 -0.1480799168 0.5637435913 4294942329
-0.2966809571 -0.1474854797 0.5638656020 4294942840
-0.2967449427 -0.1468906552 0.5639871955 4294679411
-0.2972625196 -0.1465191394 0.5649709105 4294218347
-0.2973261476 -0.1459226310 0.5650917888 4293757796
-0.2978435457 -0.1455476135 0.5660752058 4293756254
-0.2979067862 -0.1449494362 0.5661953688 4293427289
-0.2984240055 -0.1445709169 0.5671784282 4293229910
-0.2984868884 -0.1439710706 0.5672978759 4293361496
-0.2990039289 -0.1435890645 0.5682805777 4293231703
-0.2990664244 -0.1429875344 0.5683993697 4293297496
-0.2995832860 -0.1426020265 0.5693817139 4294019679
-0.2996453941 -0.1419988424 0.5694997311 4294282851
-0.3001620471 -0.1416098475 0.5704817176 4294020708
-0.3006786704 -0.1412186325 0.5714635849 4293165399
-0.3007402718 -0.1406124830 0.5715806484 4293030215
-0.3012566864 -0.1402177811 0.5725620985 4291977527
-0.3017730415 -0.1398208737 0.5735434890 4292235558
-0.3022893369 -0.1394217610 0.5745247602 4291906593
-0.3023502529 -0.1388113797 0.5746405125 4292103453
-0.3028663397 -0.1384087652 0.5756214261 4292037660
-0.3029268384 -0.1377967298 0.5757364035 4292430878
-0.3029870987 -0.1371843219 0.5758509040 4292299292
-0.3025914133 -0.1363661885 0.5750988722 4292300320
-0.3017394841 -0.1353450865 0.5734797120 4292300320
-0.3013428450 -0.1345308423 0.5727258921 4292104224
-0.3009457886 -0.1337180734 0.5719712377 4292104224
-0.3005483150 -0.1329067945 0.5712158084 4291973151
-0.3001503944 -0.1320970207 0.5704595447 4291973151
-0.2992958426 -0.1310889125 0.5688353777 4292300833
-0.2988969982 -0.1302830428 0.5680773854 4292498212
-0.2984977663 -0.1294786930 0.5673185587 4292563494
-0.2980980873 -0.1286758333 0.5665589571 4292760873
-0.2976979911 -0.1278744936 0.5657985806 4292498728
-0.2977541685 -0.1272698641 0.5659053326 4292696107
-0.2973533273 -0.1264706105 0.5651435256 4292829489
-0.2969520688 -0.1256728917 0.5643808842 4293092661
-0.2965504229 -0.1248766780 0.5636174679 4293291580
-0.2966053486 -0.1242734790 0.5637218952 4294015303
-0.2966600358 -0.1236699373 0.5638258457 4294084953
-0.2967144847 -0.1230660677 0.5639293194 4294941804
-0.2967686653 -0.1224618703 0.5640323162 4294946700
-0.2968226075 -0.1218573377 0.5641348362 4294947728
-0.2968763113 -0.1212524697 0.5642368793 4294884514
-0.2969297767 -0.1206472814 0.5643385053 4294950821
-0.2969829738 -0.1200417727 0.5644395947 4294950566
-0.2974936068 -0.1196199581 0.5654101372 4294884516
-0.2975464165 -0.1190128624 0.5655104518 4294950050
-0.2980567813 -0.1185876057 0.5664804578 4294817693
-0.2981091440 -0.1179789305 0.5665799975 4294945922
-0.2981612682 -0.1173699349 0.5666790605 4293893234
-0.2986712158 -0.1169399768 0.5676482320 4294019663
-0.2987229228 -0.1163294092 0.5677465200 4293559112
-0.2987743616 -0.1157185286 0.5678442717 4293689407
-0.2988255322 -0.1151073277 0.5679415464 4293623614
-0.2993348837 -0.1146714240 0.5689095855 4294149961
-0.2998441160 -0.1142333299 0.5698773861 4294676305
-0.3003532290 -0.1137930453 0.5708450675 4294807380
-0.3008622527 -0.1133505702 0.5718125105 4294412622
-0.3013711870 -0.1129059121 0.5727797747 4294214473
-0.3018800020 -0.1124590635 0.5737468004 4293885508
-0.3023887277 -0.1120100319 0.5747136474 4293621823
-0.3028973341 -0.1115588024 0.5756803155 4293424444
-0.3038648367 -0.1112734750 0.5775191784 4293555519
-0.3043732941 -0.1108169332 0.5784855485 4293226554
-0.3053408265 -0.1105244011 0.5803243518 4293159992
-0.3063083589 -0.1102278009 0.5821632147 4293028406
-0.3072759211 -0.1099271178 0.5840021968 4293027893
-0.3082435131 -0.1096223667 0.5858411789 4293027893
-0.3096705973 -0.1094759554 0.5885534286 4293224758
-0.3106383085 -0.1091620997 0.5903926492 4293224758
-0.3120656312 -0.1090046987 0.5931053758 4292634418
-0.3134931326 -0.1088413224 0.5958184600 4292700211
-0.3149207532 -0.1086719707 0.5985317826 4293093690
-0.3163485527 -0.1084966436 0.6012454033 4293751620
-0.3177765012 -0.1083153337 0.6039593220 4292841326
-0.3192045689 -0.1081280485 0.6066735387 4294950300
-0.3488039374 -0.2018121034 0.6643317938 4291126589
-0.3493388891 -0.2013823688 0.6653506756 4290797624
-0.3485264182 -0.2001764774 0.6638032198 4290992421
-0.3481625021 -0.1992307007 0.6631100774 4290466077
-0.3464500606 -0.1975176334 0.6598485708 4290991392
-0.3424891829 -0.1945347190 0.6523047090 4290859806
-0.3335808218 -0.1887688339 0.6353378296 4291447834
-0.3192717135 -0.1799958944 0.6080847383 4291447834
-0.3090035319 -0.1735530943 0.5885279775 4291448347
-0.3050286472 -0.1706750989 0.5809574127 4291514140
-0.3069016635 -0.1710736752 0.5845247507 4291579679
-0.3047243059 -0.1692151278 0.5803777575 4291448093
-0.3034460843 -0.1678631902 0.5779432654 4291448093
-0.3017166853 -0.1662680209 0.5746494532 4291513886
-0.3004366457 -0.1649268568 0.5722114444 4291579420
-0.2996062636 -0.1638370007 0.5706299543 4291579420
-0.2987752557 -0.1627503186 0.5690471530 4291710493
-0.2979435921 -0.1616667956 0.5674631596 4291710493
-0.2971112728 -0.1605864465 0.5658779740 4291710493
-0.2967292964 -0.1597520560 0.5651504397 4291776286
-0.2958957851 -0.1586771756 0.5635629892 4291776286
-0.2959640026 -0.1580874473 0.5636928678 4291710493
-0.2955807149 -0.1572572291 0.5629628897 4291907357
-0.2956483662 -0.1566675901 0.5630917549 4291907357
-0.2957158089 -0.1560775489 0.5632201433 4291972637
-0.2953314483 -0.1552497149 0.5624880791 4291972637
-0.2953983247 -0.1546597630 0.5626155138 4291973151
-0.2954649925 -0.1540694237 0.5627424717 4291907358
-0.2950795293 -0.1532439888 0.5620083213 4291776801
-0.2951456308 -0.1526537538 0.5621342063 4291842594
-0.2952115238 -0.1520631164 0.5622596741 4291973669
-0.2952771783 -0.1514720917 0.5623847246 4292500013
-0.2953425944 -0.1508806646 0.5625093579 4292697910
-0.2954078019 -0.1502888352 0.5626335144 4293158461
-0.2954727709 -0.1496966332 0.5627572536 4293227078
-0.2955375016 -0.1491040289 0.5628805757 4294345559
-0.2956020236 -0.1485110521 0.5630034804 4294546536
-0.2956663072 -0.1479176730 0.5631259084 4294942065
-0.2957303822 -0.1473239064 0.5632479191 4294943353
-0.2962471843 -0.1469544619 0.5642322302 4294811767
-0.2967639565 -0.1465828121 0.5652164817 4294417268
-0.2968274951 -0.1459860802 0.5653374791 4294022510
-0.2968908250 -0.1453889608 0.5654581189 4293693034
-0.2974072993 -0.1450125128 0.5664417744 4293298276
-0.2979237139 -0.1446338594 0.5674253106 4292904027
-0.2979865372 -0.1440337747 0.5675449967 4292772441
-0.2980491221 -0.1434333026 0.5676641464 4293493850
-0.2985652089 -0.1430498660 0.5686471462 4293822815
-0.2986274064 -0.1424477249 0.5687655807 4294479714
-0.2991433144 -0.1420607865 0.5697482228 4294479714
-0.2992051542 -0.1414569914 0.5698659420 4294413661
-0.2988125980 -0.1406390816 0.5691183209 4293492559
-0.2997823060 -0.1404610872 0.5709651709 4293095230
-0.3002977967 -0.1400671601 0.5719470382 4292042542
-0.3003588617 -0.1394600272 0.5720633268 4292170276
-0.3008741736 -0.1390625983 0.5730447769 4292038690
-0.3009348512 -0.1384538114 0.5731603503 4292102943
-0.3014499247 -0.1380528957 0.5741413832 4292234529
-0.3015102148 -0.1374424547 0.5742561817 4292103972
-0.3015702367 -0.1368316561 0.5743705034 4291972386
-0.3011750877 -0.1360150278 0.5736178756 4292366115
-0.3007794917 -0.1351998746 0.5728644729 4292366115
-0.3003834784 -0.1343862116 0.5721102357 4292300835
-0.2999870479 -0.1335740387 0.5713551641 4292235042
-0.2991349101 -0.1325615942 0.5697321892 4292300835
-0.2987375259 -0.1317533255 0.5689753294 4292366628
-0.2983397543 -0.1309465617 0.5682177544 4292497188
-0.2979415357 -0.1301413029 0.5674593449 4292562981
-0.2975429296 -0.1293375343 0.5667001009 4292628774
-0.2971438766 -0.1285352856 0.5659400821 4292694567
-0.2967444360 -0.1277345270 0.5651792884 4292498214
-0.2968004644 -0.1271305829 0.5652860403 4292761386
-0.2964002788 -0.1263319403 0.5645238161 4292763953
-0.2959996462 -0.1255348027 0.5637607574 4292895539
-0.2955986261 -0.1247391924 0.5629969835 4292964155
-0.2956534326 -0.1241366789 0.5631013513 4293885257
-0.2957080007 -0.1235338226 0.5632053018 4293759330
-0.2957623005 -0.1229306385 0.5633087158 4294877811
-0.2958163619 -0.1223271191 0.5634117126 4294880656
-0.2958701849 -0.1217232719 0.5635142326 4294947477
-0.2959237695 -0.1211190969 0.5636162758 4294950047
-0.2959770858 -0.1205145940 0.5637178421 4294950561
-0.2964870036 -0.1200948134 0.5646890402 4294950560
-0.2965399325 -0.1194887236 0.5647897720 4294950560
-0.2965925932 -0.1188823059 0.5648900867 4294949025
-0.2971020937 -0.1184578165 0.5658605099 4294948768
-0.2971543372 -0.1178498268 0.5659599900 4294945918
-0.2972063422 -0.1172415167 0.5660590529 4293892973
-0.2977153957 -0.1168123186 0.5670285821 4293824333
-0.2977669835 -0.1162024364 0.5671268106 4293561161
-0.2982757688 -0.1157697961 0.5680958629 4293690185
-0.2983269095 -0.1151583493 0.5681932569 4293624392
-0.2988354564 -0.1147222668 0.5691618323 4294281547
-0.2988861501 -0.1141092479 0.5692583919 4294544719
-0.2993943989 -0.1136697307 0.5702264309 4294676051
-0.2999025583 -0.1132280156 0.5711942315 4294347086
-0.3004105985 -0.1127841175 0.5721618533 4294082889
-0.3009185493 -0.1123380288 0.5731292963 4293753924
-0.3014263809 -0.1118897498 0.5740965009 4293818175
-0.3023922741 -0.1116083860 0.5759361982 4293752382
-0.3028999865 -0.1111547872 0.5769031048 4293620285
-0.3038658798 -0.1108662188 0.5787428021 4293225527
-0.3043734133 -0.1104072928 0.5797094703 4293159992
-0.3053393066 -0.1101115197 0.5815491080 4293159992
-0.3063052297 -0.1098116636 0.5833888054 4292831797
-0.3077298105 -0.1096711755 0.5861020088 4292831797
-0.3091545403 -0.1095247194 0.5888155699 4292962613
-0.3105794489 -0.1093722954 0.5915294886 4292962613
-0.3115456998 -0.1090532839 0.5933697820 4292437559
-0.3129708469 -0.1088898480 0.5960841179 4292700731
-0.3143961430 -0.1087204367 0.5987987518 4293290299
-0.3158216178 -0.1085450500 0.6015136838 4294079815
-0.3172472119 -0.1083636731 0.6042288542 4292383871
-0.3186729550 -0.1081763133 0.6069443226 4294952882
-0.3473180830 -0.2013784200 0.6629041433 4290995519
-0.3469554782 -0.2004324049 0.6622120142 4290600761
-0.3474891186 -0.2000037879 0.6632305980 4290927141
-0.3462288082 -0.1985441744 0.6608251333 4290400797
-0.3445189893 -0.1968330890 0.6575617194 4290794785
-0.3401158452 -0.1935961992 0.6491577029 4290728992
-0.3321197927 -0.1883404851 0.6338961124 4291382300
-0.3187325597 -0.1800728440 0.6083447337 4291316507
-0.3120739758 -0.1756491959 0.5956359506 4291251484
-0.3085559011 -0.1730147153 0.5889211893 4291317277
-0.3059343398 -0.1708959788 0.5839175582 4291448093
-0.3024125695 -0.1682873964 0.5771958232 4291382300
-0.3024845123 -0.1676859707 0.5773330927 4291448093
-0.3012075424 -0.1663393229 0.5748958588 4291448093
-0.2999297082 -0.1649976075 0.5724569559 4291448347
-0.2991008162 -0.1639073193 0.5708748698 4291514140
-0.2978213727 -0.1625746191 0.5684328675 4291579420
-0.2969910502 -0.1614915729 0.5668480992 4291645213
-0.2961601019 -0.1604116857 0.5652621388 4291645213
-0.2957787216 -0.1595778763 0.5645341873 4291645213
-0.2953968942 -0.1587454379 0.5638054013 4291645213
-0.2954650521 -0.1581554860 0.5639355183 4291645213
-0.2950824499 -0.1573249400 0.5632053018 4291710748
-0.2951500714 -0.1567350775 0.5633343458 4291776541
-0.2952174544 -0.1561448127 0.5634629130 4291710748
-0.2948337793 -0.1553166509 0.5627306700 4291776541
-0.2949005961 -0.1547264755 0.5628582239 4291776286
-0.2949672043 -0.1541359127 0.5629853010 4291776286
-0.2950335741 -0.1535449326 0.5631120205 4291776286
-0.2946485281 -0.1527196914 0.5623770356 4291842079
-0.2947143316 -0.1521288306 0.5625026822 4291907876
-0.2947799563 -0.1515375823 0.5626279116 4292368427
-0.2948453128 -0.1509459168 0.5627526641 4292566065
-0.2949104607 -0.1503538787 0.5628769994 4292960823
-0.2949753702 -0.1497614384 0.5630009174 4292898113
-0.2950400710 -0.1491686106 0.5631244183 4294016594
-0.2951045334 -0.1485753953 0.5632474422 4294414437
-0.2951687574 -0.1479817927 0.5633700490 4294941809
-0.2952327728 -0.1473878026 0.5634921789 4294944124
-0.2952965498 -0.1467934251 0.5636138916 4294943867
-0.2953600883 -0.1461986601 0.5637351871 4294877821
-0.2958758175 -0.1458264887 0.5647194982 4294680442
-0.2959389985 -0.1452300549 0.5648400784 4294351477
-0.2964545488 -0.1448543817 0.5658240914 4293825133
-0.2965173423 -0.1442562640 0.5659439564 4292904027
-0.2965799272 -0.1436577737 0.5660634041 4292706648
-0.2970951498 -0.1432773173 0.5670468211 4293559643
-0.2976103425 -0.1428946406 0.5680301189 4294085987
-0.2976724207 -0.1422931850 0.5681485534 4294808166
-0.2977342308 -0.1416913569 0.5682665706 4294808166
-0.2982490957 -0.1413038969 0.5692492127 4294544734
-0.2987639010 -0.1409142315 0.5702317953 4293623632
-0.2988252044 -0.1403094530 0.5703487992 4292963644
-0.2984327078 -0.1394923031 0.5695996881 4292042542
-0.2994007170 -0.1393098384 0.5714472532 4292236069
-0.2994613945 -0.1387030333 0.5715630651 4292038690
-0.2999756336 -0.1383050829 0.5725445747 4292234529
-0.3000359237 -0.1376966089 0.5726596713 4292300322
-0.3000959754 -0.1370877624 0.5727742314 4292038179
-0.3001557589 -0.1364785731 0.5728883743 4291972386
-0.3002153337 -0.1358689964 0.5730020404 4292300320
-0.2998203635 -0.1350544393 0.5722482204 4292366113
-0.2989706397 -0.1340376735 0.5706263781 4292235040
-0.2985747457 -0.1332270056 0.5698707700 4292235040
-0.2981784344 -0.1324178427 0.5691143274 4292366113
-0.2977816761 -0.1316101700 0.5683571100 4292366113
-0.2973845303 -0.1308040023 0.5675991178 4292497188
-0.2969869673 -0.1299993396 0.5668402910 4292562981
-0.2965889871 -0.1291961670 0.5660806894 4292497188
-0.2961905599 -0.1283944994 0.5653202534 4292628774
-0.2957917452 -0.1275943518 0.5645590425 4292498214
-0.2958476543 -0.1269910932 0.5646657944 4292761386
-0.2959033251 -0.1263874769 0.5647720098 4292567344
-0.2955034375 -0.1255900264 0.5640087724 4292764723
-0.2951031029 -0.1247940809 0.5632447004 4292898362
-0.2951578796 -0.1241913214 0.5633492470 4293753671
-0.2952123880 -0.1235882193 0.5634532571 4293823840
-0.2952666581 -0.1229847893 0.5635568500 4294942321
-0.2953206897 -0.1223810241 0.5636599660 4294945166
-0.2953744829 -0.1217769310 0.5637626052 4294946451
-0.2954280078 -0.1211725101 0.5638648272 4294950047
-0.2954812944 -0.1205677614 0.5639665127 4294950561
-0.2955343425 -0.1199626774 0.5640677214 4294950558
-0.2960432768 -0.1195414737 0.5650391579 4294884765
-0.2965521216 -0.1191180721 0.5660103559 4294949023
-0.2966045737 -0.1185101494 0.5661104918 4294948252
-0.2966567874 -0.1179019064 0.5662100911 4294945663
-0.2967087328 -0.1172933429 0.5663092732 4293892975
-0.2967604399 -0.1166844666 0.5664079785 4294020944
-0.2972685397 -0.1162538454 0.5673776865 4293757772
-0.2973197997 -0.1156433895 0.5674755573 4293886538
-0.2978276312 -0.1152093261 0.5684448481 4293820745
-0.2978784740 -0.1145973057 0.5685418844 4294150477
-0.2983860373 -0.1141598001 0.5695105791 4294282063
-0.2988934815 -0.1137200966 0.5704790950 4294412881
-0.2994008064 -0.1132782102 0.5714474320 4294149709
-0.2999080420 -0.1128341332 0.5724155903 4294017096
-0.3004151881 -0.1123878583 0.5733835101 4293753924
-0.3009222150 -0.1119394004 0.5743512511 4293752128
-0.3018865585 -0.1116579250 0.5761918426 4293554749
-0.3023934364 -0.1112041399 0.5771592855 4293620285
-0.3033577800 -0.1109154597 0.5789998770 4293291320
-0.3038645089 -0.1104563549 0.5799670219 4293159992
-0.3048288226 -0.1101604626 0.5818075538 4293094199
-0.3057931960 -0.1098604873 0.5836482048 4292962613
-0.3072154224 -0.1097199544 0.5863627195 4292962613
-0.3081798851 -0.1094108745 0.5882035494 4292896820
-0.3100603819 -0.1094209626 0.5917927027 4292831027
-0.3110250533 -0.1091018319 0.5936338902 4292503095
-0.3124478757 -0.1089383364 0.5963495374 4292897853
-0.3138708174 -0.1087688655 0.5990654826 4293357891
-0.3152939379 -0.1085934117 0.6017816663 4294147407
-0.3167172074 -0.1084119752 0.6044982076 4292648842
-0.3181406260 -0.1082245409 0.6072149277 4294955452
-0.3458345234 -0.2009442151 0.6614748240 4290996550
-0.3454723656 -0.1999996156 0.6607820988 4290404413
-0.3451097608 -0.1990562677 0.6600885391 4291058729
-0.3442989290 -0.1978569180 0.6585376859 4290400799
-0.3425917625 -0.1961478144 0.6552724242 4290794785
-0.3390917182 -0.1934232712 0.6485778689 4290728992
-0.3315572143 -0.1884208769 0.6341667175 4291316507
-0.3186408579 -0.1804034710 0.6094617248 4291250714
-0.3119937479 -0.1759770811 0.5967478156 4291185691
-0.3053431511 -0.1715769768 0.5840272903 4291185691
-0.3085557222 -0.1727264524 0.5901719332 4291382043
-0.3036949635 -0.1693600416 0.5808748007 4291382043
-0.3001777232 -0.1667606831 0.5741474032 4291382300
-0.2993513346 -0.1656654328 0.5725668073 4291382300
-0.2980754077 -0.1643258631 0.5701263547 4291382554
-0.2963496149 -0.1627446711 0.5668254495 4291448347
-0.2968683541 -0.1623986661 0.5678176284 4291448347
-0.2960394025 -0.1613160670 0.5662320852 4291514140
-0.2956591547 -0.1604805440 0.5655047894 4291514140
-0.2952784598 -0.1596464068 0.5647766590 4291514140
-0.2948973477 -0.1588136405 0.5640476942 4291579420
-0.2949654460 -0.1582234800 0.5641779304 4291579420
-0.2945835590 -0.1573926061 0.5634475350 4291645213
-0.2946511209 -0.1568025202 0.5635766983 4291645213
-0.2942684889 -0.1559735388 0.5628448725 4291710493
-0.2943354845 -0.1553835422 0.5629729629 4291710493
-0.2944022417 -0.1547931433 0.5631006956 4291645213
-0.2940185368 -0.1539665610 0.5623667836 4291645213
-0.2940847576 -0.1533762664 0.5624934435 4291907358
-0.2941507399 -0.1527855843 0.5626196861 4291907358
-0.2942165136 -0.1521945000 0.5627454519 4291972897
-0.2938314080 -0.1513708532 0.5620088577 4292236069
-0.2938966155 -0.1507798731 0.5621336102 4292302893
-0.2939616144 -0.1501885056 0.5622579455 4292566065
-0.2940263748 -0.1495967507 0.5623818040 4292568635
-0.2940909266 -0.1490046084 0.5625052452 4293555530
-0.2941552401 -0.1484120637 0.5626282692 4294018911
-0.2942193151 -0.1478191465 0.5627508163 4294940013
-0.2942831814 -0.1472258419 0.5628729463 4294943354
-0.2943468094 -0.1466321349 0.5629946589 4294943611
-0.2944101989 -0.1460380554 0.5631158948 4294944128
-0.2949250042 -0.1456666589 0.5641005635 4294878335
-0.2954397798 -0.1452930719 0.5650851727 4294484092
-0.2955026627 -0.1446960121 0.5652054548 4293891955
-0.2955653369 -0.1440985799 0.5653253198 4293298785
-0.2960797846 -0.1437201947 0.5663093328 4292772441
-0.2961420715 -0.1431210786 0.5664284825 4293625436
-0.2966563702 -0.1427391917 0.5674121380 4294085987
-0.2967182696 -0.1421384066 0.5675305724 4294742371
-0.2972323596 -0.1417530179 0.5685138702 4294610785
-0.2972939014 -0.1411505789 0.5686315298 4294347353
-0.2973552048 -0.1405477673 0.5687488317 4293623630
-0.2978689671 -0.1401575804 0.5697314739 4292766265
-0.2979298830 -0.1395530999 0.5698480010 4292042542
-0.2975376844 -0.1387370825 0.5690978169 4292236069
-0.2985039651 -0.1385532916 0.5709460378 4292038690
-0.2985642552 -0.1379467845 0.5710613728 4292234529
-0.2986243069 -0.1373399049 0.5711762309 4292300322
-0.2986841202 -0.1367326677 0.5712906122 4292168995
-0.2987436950 -0.1361250728 0.5714045763 4292168995
-0.2988030314 -0.1355171055 0.5715180635 4292300320
-0.2984085977 -0.1347040683 0.5707636476 4292300320
-0.2975601554 -0.1336887181 0.5691408515 4292234527
-0.2976185083 -0.1330824494 0.5692523718 4292234527
-0.2972228229 -0.1322738677 0.5684955716 4292300320
-0.2968267202 -0.1314667910 0.5677379370 4292366113
-0.2964302003 -0.1306612194 0.5669795275 4292431395
-0.2960332632 -0.1298571527 0.5662202835 4292497188
-0.2951817811 -0.1288563311 0.5645917058 4292497188
-0.2956923246 -0.1284508258 0.5655682087 4292628774
-0.2948399186 -0.1274539679 0.5639378428 4292367142
-0.2948957086 -0.1268513799 0.5640445352 4292564521
-0.2949512601 -0.1262484640 0.5641507506 4292501551
-0.2945519686 -0.1254515946 0.5633870959 4292698930
-0.2941523194 -0.1246562600 0.5626226664 4292832571
-0.2942069471 -0.1240541786 0.5627271533 4293490501
-0.2942613363 -0.1234517694 0.5628311634 4293757020
-0.2943154871 -0.1228490248 0.5629347563 4294875501
-0.2943693697 -0.1222459450 0.5630378127 4294944138
-0.2944230437 -0.1216425374 0.5631404519 4294945937
-0.2944764495 -0.1210388020 0.5632426143 4294949275
-0.2945295870 -0.1204347387 0.5633442998 4294950303
-0.2945825160 -0.1198303476 0.5634455085 4294950558
-0.2950905561 -0.1194099039 0.5644172430 4294884765
-0.2955985367 -0.1189872697 0.5653888583 4294949278
-0.2956508696 -0.1183800325 0.5654889345 4294750871
-0.2961585820 -0.1179539487 0.5664600134 4294813307
-0.2962104976 -0.1173451394 0.5665593147 4293957998
-0.2962621450 -0.1167360023 0.5666581392 4294020434
-0.2963135540 -0.1161265522 0.5667564869 4293823055
-0.2968206704 -0.1156945080 0.5677264333 4294214222
-0.2968716621 -0.1150834858 0.5678239465 4294082636
-0.2973784804 -0.1146479920 0.5687933564 4294150479
-0.2978852391 -0.1142103076 0.5697625875 4294084686
-0.2983918786 -0.1137704328 0.5707316399 4294083916
-0.2988983989 -0.1133283600 0.5717004538 4293886537
-0.2994048297 -0.1128841043 0.5726691484 4293885255
-0.2999111712 -0.1124376506 0.5736375451 4293687876
-0.3004173934 -0.1119890064 0.5746058226 4293620542
-0.3009234965 -0.1115381718 0.5755738616 4293423163
-0.3018862307 -0.1112534553 0.5774152279 4293488444
-0.3023921847 -0.1107973009 0.5783830285 4293225272
-0.3033549190 -0.1105053723 0.5802243948 4293093686
-0.3043176830 -0.1102093607 0.5820658207 4292962100
-0.3052804470 -0.1099092737 0.5839073658 4292831027
-0.3062432706 -0.1096051037 0.5857489109 4292831027
-0.3076632321 -0.1094594896 0.5884649158 4292764721
-0.3090834022 -0.1093079001 0.5911812186 4292764721
-0.3100464046 -0.1089895889 0.5930231810 4292568375
-0.3114668131 -0.1088269874 0.5957399607 4293094719
-0.3133448064 -0.1088172570 0.5993319750 4293359691
-0.3147656024 -0.1086417437 0.6020494699 4294215000
-0.3161865175 -0.1084602326 0.6047672629 4292717205
-0.3176075816 -0.1082727388 0.6074853539 4294958022
-0.3439066410 -0.2002494186 0.6591876745 4291063373
-0.3435448408 -0.1993071288 0.6584941745 4290339650
-0.3431825638 -0.1983660907 0.6577998400 4291190831
-0.3423728645 -0.1971689463 0.6562478542 4290335522
-0.3411154151 -0.1957183182 0.6538376212 4290925601
-0.3376211822 -0.1929944456 0.6471399069 4290859808
-0.3305466175 -0.1882464588 0.6335796714 4291316507
-0.3189943731 -0.1809881032 0.6114367247 4291250714
-0.3119113147 -0.1763051152 0.5978602171 4291054618
-0.3048245907 -0.1716502309 0.5842766166 4291054618
-0.3080317378 -0.1728002280 0.5904240012 4291316248
-0.3031792939 -0.1694324166 0.5811229944 4291316248
-0.3014598191 -0.1678294688 0.5778271556 4291382043
-0.2997392714 -0.1662332565 0.5745292902 4291382043
-0.2984657586 -0.1648913622 0.5720883012 4291447834
-0.2971914411 -0.1635544151 0.5696457028 4291447834
-0.2963646054 -0.1624682248 0.5680608153 4291447834
-0.2955371141 -0.1613851935 0.5664747357 4291513627
-0.2951575518 -0.1605493426 0.5657472014 4291513627
-0.2947775722 -0.1597148776 0.5650188923 4291513627
-0.2943971455 -0.1588817984 0.5642897487 4291644700
-0.2940163016 -0.1580501050 0.5635597110 4291644700
-0.2940840125 -0.1574602127 0.5636895299 4291644700
-0.2937024236 -0.1566303968 0.5629580617 4291644700
-0.2937695980 -0.1560405940 0.5630868077 4291644700
-0.2938365340 -0.1554503739 0.5632151365 4291644700
-0.2939032316 -0.1548597515 0.5633429885 4291710493
-0.2935202420 -0.1540328413 0.5626088977 4291710493
-0.2935864031 -0.1534423381 0.5627356768 4291841564
-0.2936523557 -0.1528514177 0.5628620982 4291841564
-0.2932682633 -0.1520269364 0.5621259212 4291907104
-0.2933336496 -0.1514361352 0.5622512698 4292104483
-0.2933988273 -0.1508449316 0.5623761415 4292105514
-0.2934637666 -0.1502533406 0.5625006557 4292237100
-0.2930782735 -0.1494318098 0.5617617369 4292304950
-0.2931426764 -0.1488403529 0.5618851781 4293160259
-0.2932068110 -0.1482484937 0.5620081425 4293228882
-0.2932707667 -0.1476562470 0.5621306896 4294281570
-0.2933344543 -0.1470636278 0.5622527599 4294744693
-0.2933979332 -0.1464706063 0.5623744726 4294943614
-0.2934611738 -0.1458772123 0.5624956489 4294944901
-0.2939750850 -0.1455065906 0.5634806752 4294944901
-0.2944889367 -0.1451337785 0.5644656420 4294813572
-0.2945516706 -0.1445374042 0.5645859241 4294418814
-0.2946141958 -0.1439406425 0.5647057295 4293824870
-0.2951277494 -0.1435630322 0.5656901002 4293035354
-0.2951898873 -0.1429646015 0.5658091903 4293624921
-0.2957032621 -0.1425834894 0.5667932034 4293822300
-0.2962165773 -0.1422001570 0.5677770972 4294347356
-0.2962782085 -0.1415987760 0.5678952336 4294084184
-0.2963396013 -0.1409970224 0.5680129528 4293820495
-0.2964007556 -0.1403948814 0.5681301355 4293425737
-0.2964616716 -0.1397923678 0.5682469010 4292634164
-0.2969743907 -0.1394016743 0.5692296624 4291976234
-0.2965828180 -0.1385862529 0.5684791207 4292170530
-0.2970952094 -0.1381929815 0.5694612861 4291973151
-0.2971552908 -0.1375880688 0.5695763826 4292234016
-0.2976674736 -0.1371912956 0.5705581903 4292299809
-0.2972746789 -0.1363771707 0.5698052645 4292234529
-0.2973340154 -0.1357711703 0.5699189901 4292234529
-0.2973931134 -0.1351648122 0.5700322986 4292300063
-0.2969992459 -0.1343532801 0.5692772865 4292300063
-0.2966049314 -0.1335432529 0.5685214996 4292168734
-0.2962101996 -0.1327347010 0.5677649379 4292234527
-0.2962680757 -0.1321296841 0.5678758621 4292234527
-0.2958725989 -0.1313232034 0.5671178102 4292300320
-0.2959299088 -0.1307183951 0.5672276616 4292431395
-0.2950804234 -0.1297147423 0.5655993819 4292497188
-0.2946836948 -0.1289127618 0.5648389459 4292562981
-0.2942865491 -0.1281123012 0.5640777349 4292628774
-0.2943425179 -0.1275098175 0.5641850233 4292367142
-0.2939446270 -0.1267114580 0.5634223819 4292498728
-0.2940000594 -0.1261092126 0.5635285378 4292435760
-0.2940552235 -0.1255066395 0.5636342764 4292698932
-0.2936562598 -0.1247109696 0.5628696084 4292700985
-0.2932568789 -0.1239168271 0.5621041059 4293227329
-0.2933111489 -0.1233151034 0.5622081161 4293361747
-0.2933651805 -0.1227130443 0.5623116493 4294611814
-0.2938731611 -0.1222996861 0.5632853508 4294812291
-0.2939267457 -0.1216960326 0.5633881092 4294945419
-0.2939801216 -0.1210920438 0.5634903908 4294949016
-0.2940332294 -0.1204877347 0.5635921955 4294949787
-0.2940861285 -0.1198830977 0.5636935234 4294885019
-0.2941387296 -0.1192781329 0.5637943745 4294819226
-0.2946458161 -0.1188562661 0.5647663474 4294949273
-0.2946980298 -0.1182497218 0.5648664236 4294422672
-0.2952048481 -0.1178243980 0.5658378601 4294550135
-0.2952566445 -0.1172162741 0.5659371614 4293760619
-0.2953081727 -0.1166078299 0.5660359263 4294020180
-0.2958145738 -0.1161778048 0.5670065880 4293822801
-0.2958656847 -0.1155677810 0.5671045780 4294214224
-0.2963718176 -0.1151343063 0.5680747032 4294148431
-0.2968778312 -0.1146986410 0.5690445900 4293953100
-0.2969283462 -0.1140858009 0.5691414475 4293887307
-0.2974341214 -0.1136466861 0.5701108575 4293886538
-0.2979397774 -0.1132053807 0.5710800886 4293689159
-0.2984453142 -0.1127618849 0.5720490813 4293687876
-0.2994064689 -0.1124874055 0.5738914013 4293490497
-0.2999118865 -0.1120385826 0.5748601556 4293554750
-0.3004172146 -0.1115875617 0.5758287311 4293423164
-0.3013783395 -0.1113027334 0.5776709914 4293291065
-0.3018835187 -0.1108463928 0.5786392689 4293159479
-0.3028446436 -0.1105543450 0.5804815888 4293093686
-0.3038058281 -0.1102582216 0.5823239088 4292962100
-0.3047670424 -0.1099580154 0.5841663480 4292896307
-0.3057282567 -0.1096537262 0.5860087872 4292896307
-0.3076022863 -0.1096707806 0.5896008611 4292764721
-0.3085637093 -0.1093564257 0.5914436579 4292764721
-0.3095251620 -0.1090379879 0.5932865143 4292568886
-0.3109432161 -0.1088753268 0.5960046053 4293292609
-0.3123614192 -0.1087066829 0.5987229943 4293361751
-0.3142365217 -0.1086900309 0.6023170948 4294085474
-0.3156551123 -0.1085084602 0.6050361991 4293113507
-0.3170738220 -0.1083208919 0.6077555418 4294959823
-0.3419825435 -0.1995539069 0.6568981409 4291195733
-0.3416211307 -0.1986139119 0.6562038660 4290208838
-0.3412592113 -0.1976751834 0.6555086970 4291256624
-0.3404506445 -0.1964802295 0.6539555788 4290401315
-0.3391950727 -0.1950317025 0.6515437961 4290991135
-0.3352600932 -0.1920536458 0.6439852715 4290793756
-0.3295368254 -0.1880717576 0.6329917312 4291316761
-0.3184508383 -0.1810651869 0.6116971970 4291250968
-0.3113799393 -0.1763802469 0.5981149673 4291054105
-0.3074332774 -0.1734885573 0.5905340910 4291119898
-0.3043783903 -0.1711150408 0.5846660733 4291381528
-0.3026629686 -0.1695047319 0.5813710093 4291381528
-0.3009464741 -0.1679011285 0.5780739188 4291316250
-0.2992289066 -0.1663042605 0.5747746825 4291382043
-0.2979576588 -0.1649618298 0.5723327994 4291382043
-0.2966855466 -0.1636243463 0.5698892474 4291382043
-0.2958601713 -0.1625377238 0.5683038235 4291447836
-0.2945864499 -0.1612092704 0.5658572316 4291447836
-0.2937597036 -0.1601298898 0.5642691255 4291578907
-0.2933802009 -0.1592969000 0.5635402203 4291578907
-0.2934482992 -0.1587075889 0.5636709929 4291578907
-0.2935161889 -0.1581178755 0.5638013482 4291578907
-0.2931356132 -0.1572872549 0.5630703568 4291578907
-0.2932029366 -0.1566976160 0.5631996989 4291644700
-0.2932700515 -0.1561075896 0.5633285642 4291644700
-0.2933369279 -0.1555171460 0.5634570718 4291644700
-0.2929549515 -0.1546894163 0.5627233386 4291644700
-0.2930212915 -0.1540990770 0.5628507733 4291644700
-0.2930874228 -0.1535083354 0.5629777908 4291841565
-0.2927043736 -0.1526830196 0.5622419715 4291775772
-0.2927699089 -0.1520923823 0.5623679161 4291776286
-0.2929003835 -0.1509099305 0.5626184940 4291974439
-0.2929652631 -0.1503181159 0.5627431273 4292040232
-0.2925804853 -0.1494962573 0.5620040298 4292041778
-0.2926447988 -0.1489045769 0.5621275902 4292699708
-0.2927089036 -0.1483124942 0.5622507334 4292767304
-0.2927727997 -0.1477200240 0.5623734593 4293556820
-0.2928364575 -0.1471271664 0.5624957085 4294151527
-0.2928998768 -0.1465339214 0.5626175404 4294941814
-0.2929630578 -0.1459402889 0.5627388954 4294944642
-0.2930260301 -0.1453462690 0.5628598332 4294944899
-0.2935389578 -0.1449742317 0.5638451576 4294879878
-0.2936015725 -0.1443785429 0.5639653802 4294748292
-0.2941143513 -0.1440030038 0.5649503469 4294285421
-0.2941765785 -0.1434056312 0.5650698543 4293364319
-0.2946891487 -0.1430265903 0.5660545230 4293493335
-0.2947510183 -0.1424275488 0.5661733150 4293427542
-0.2952634394 -0.1420450062 0.5671575665 4293951828
-0.2953249216 -0.1414442956 0.5672757030 4293622863
-0.2958371341 -0.1410582513 0.5682595968 4293293636
-0.2958982587 -0.1404558718 0.5683769584 4293096257
-0.2959591150 -0.1398531348 0.5684939027 4292634164
-0.2960197628 -0.1392500103 0.5686103702 4291976234
-0.2960801423 -0.1386465281 0.5687263608 4292170530
-0.2961403131 -0.1380426735 0.5688419342 4291973151
-0.2962002158 -0.1374384612 0.5689570308 4292168477
-0.2962599099 -0.1368338764 0.5690716505 4292300063
-0.2963193357 -0.1362289190 0.5691858530 4292300063
-0.2959267497 -0.1354168653 0.5684317350 4292234270
-0.2955922782 -0.1340020895 0.5677892566 4292234270
-0.2956505716 -0.1333975494 0.5679012537 4292168734
-0.2952564955 -0.1325895935 0.5671442747 4292168734
-0.2953142226 -0.1319852620 0.5672551394 4292234527
-0.2949193716 -0.1311793774 0.5664967299 4292300320
-0.2945241332 -0.1303749830 0.5657374859 4292431395
-0.2945809662 -0.1297714561 0.5658466220 4292497188
-0.2937323749 -0.1287707388 0.5642166138 4292497188
-0.2933358550 -0.1279708743 0.5634549856 4292628774
-0.2933917046 -0.1273690760 0.5635622740 4292564007
-0.2929944396 -0.1265713125 0.5627992153 4292629800
-0.2930497229 -0.1259697527 0.5629053712 4292369967
-0.2931047678 -0.1253678650 0.5630111098 4292633139
-0.2931595445 -0.1247656420 0.5631163120 4292700985
-0.2927609086 -0.1239711717 0.5623506308 4293161536
