VERSION 0.7
FIELDS x y z rgba
SIZE 4 4 4 4
TYPE F F F U
COUNT 1 1 1 1
WIDTH 920
HEIGHT 1
VIEWPOINT 0.0 0.0 0.0 1.0 0.0 0.0 0.0
POINTS 920
DATA ascii
-0.2695955634 -0.1320404410 0.5674923062 4292964144
-0.2700699270 -0.1316411346 0.5684908628 4292964144
-0.2701241374 -0.1310358047 0.5686049461 4292964144
-0.2705982924 -0.1306329370 0.5696030259 4293029937
-0.2710723877 -0.1302278340 0.5706009865 4292833071
-0.2715464234 -0.1298204809 0.5715988278 4293096243
-0.2720203698 -0.1294108778 0.5725964904 4293293110
-0.2724942863 -0.1289990246 0.5735940337 4293095731
-0.2725475132 -0.1283867955 0.5737060905 4293095731
-0.2730211914 -0.1279713959 0.5747031569 4293161524
-0.2734948099 -0.1275537461 0.5757001042 4293096244
-0.2739683390 -0.1271338463 0.5766969323 4293030451
-0.2744418085 -0.1267116964 0.5776935220 4293095730
-0.2744942009 -0.1260938942 0.5778038502 4293095730
-0.2749674320 -0.1256681979 0.5787999630 4293095730
-0.2758617699 -0.1254317462 0.5806825161 4293161523
-0.2763349116 -0.1250006109 0.5816785097 4293161524
-0.2763866782 -0.1243776083 0.5817874074 4293161524
-0.2768595815 -0.1239429191 0.5827829242 4293096244
-0.2773324251 -0.1235059723 0.5837782025 4293096244
-0.2778051794 -0.1230667755 0.5847733617 4293096244
-0.2782778442 -0.1226253361 0.5857682824 4293162037
-0.2787504196 -0.1221816391 0.5867630243 4293095990
-0.2788011134 -0.1215518117 0.5868697762 4293095990
-0.2792734206 -0.1211045682 0.5878639817 4293096760
-0.2793236971 -0.1204731017 0.5879698396 4293162553
-0.2802177668 -0.1202033460 0.5898517966 4293228346
-0.2806898057 -0.1197493598 0.5908454061 4293294139
-0.2811617553 -0.1192931235 0.5918388367 4293425723
-0.2812113464 -0.1186564788 0.5919432640 4293425723
-0.2816830277 -0.1181967035 0.5929360986 4293229377
-0.2821545899 -0.1177346781 0.5939287543 4293229377
-0.2826260328 -0.1172704101 0.5949211717 4293033549
-0.2830973864 -0.1168038845 0.5959133506 4293165135
-0.2835686505 -0.1163351163 0.5969052911 4292904281
-0.2840397954 -0.1158640981 0.5978970528 4293101660
-0.2845108211 -0.1153908297 0.5988885760 4292906601
-0.2849817574 -0.1149153188 0.5998798609 4293235566
-0.2854525745 -0.1144375578 0.6008709073 4292843903
-0.2859232724 -0.1139575541 0.6018617153 4293107075
-0.2863938510 -0.1134752929 0.6028523445 4293177247
-0.2774957418 -0.1856679171 0.5854908228 4290147679
-0.2775694430 -0.1850665212 0.5856463313 4288437061
-0.2772309780 -0.1841909587 0.5849322081 4288301860
-0.2768920958 -0.1833167076 0.5842171907 4288433446
-0.2765528262 -0.1824437678 0.5835013390 4288498459
-0.2753885984 -0.1810301393 0.5810449123 4288498459
-0.2746358812 -0.1798915118 0.5794568062 4290075169
-0.2738825381 -0.1787560135 0.5778673291 4291522615
-0.2731285691 -0.1776236296 0.5762765408 4291521061
-0.2727866769 -0.1767618060 0.5755551457 4291455268
-0.2724443376 -0.1759012938 0.5748328567 4291455009
-0.2721016109 -0.1750421375 0.5741097331 4291257630
-0.2721714675 -0.1744490415 0.5742570758 4291387933
-0.2722411156 -0.1738554835 0.5744040608 4291453726
-0.2723105848 -0.1732614636 0.5745506287 4291715871
-0.2723798454 -0.1726669967 0.5746967196 4291715871
-0.2720354497 -0.1718109697 0.5739701390 4291715356
-0.2716906667 -0.1709562987 0.5732426643 4291715356
-0.2709318101 -0.1698436737 0.5716415644 4291650076
-0.2701723576 -0.1687342227 0.5700391531 4291650076
-0.2694122791 -0.1676279455 0.5684354901 4291585051
-0.2686516047 -0.1665248573 0.5668304563 4291650844
-0.2678902745 -0.1654249579 0.5652241707 4291650844
-0.2671283484 -0.1643282324 0.5636165738 4291650844
-0.2663658261 -0.1632347256 0.5620077252 4291715867
-0.2660170496 -0.1623973697 0.5612717867 4291715867
-0.2656678259 -0.1615613848 0.5605350137 4291585051
-0.2653182447 -0.1607268155 0.5597974062 4291519258
-0.2649682164 -0.1598936319 0.5590589046 4291585051
-0.2650325894 -0.1593111455 0.5591946840 4291585051
-0.2646818459 -0.1584798545 0.5584546924 4291781660
-0.2647457123 -0.1578974426 0.5585893989 4291781660
-0.2643942833 -0.1570680439 0.5578479171 4291781660
-0.2644576132 -0.1564857066 0.5579815507 4291715867
-0.2645207345 -0.1559029520 0.5581147075 4291781660
-0.2641682923 -0.1550759524 0.5573711395 4291781660
-0.2642309070 -0.1544932872 0.5575032234 4291715867
-0.2642933130 -0.1539102048 0.5576348901 4291715867
-0.2643555105 -0.1533267051 0.5577661395 4291847196
-0.2640017569 -0.1525026411 0.5570197701 4291781403
-0.2640634477 -0.1519192457 0.5571499467 4291781403
-0.2641249299 -0.1513354331 0.5572796464 4291847196
-0.2641862035 -0.1507512182 0.5574089289 4291912989
-0.2642472684 -0.1501666009 0.5575377941 4291912989
-0.2643081248 -0.1495815814 0.5576661825 4291912735
-0.2643687725 -0.1489961594 0.5577941537 4291912735
-0.2644292116 -0.1484103203 0.5579216480 4291978528
-0.2644894421 -0.1478240937 0.5580487251 4292110114
-0.2645494640 -0.1472374648 0.5581753254 4292175907
-0.2646092474 -0.1466504335 0.5583015084 4292175907
-0.2646688521 -0.1460630149 0.5584272742 4292372772
-0.2647282183 -0.1454751939 0.5585525632 4292438565
-0.2647874057 -0.1448869705 0.5586773753 4292504104
-0.2648463547 -0.1442983598 0.5588017702 4292569897
-0.2653222680 -0.1439356655 0.5598058701 4292569897
-0.2653808594 -0.1433453411 0.5599295497 4292635690
-0.2654392719 -0.1427546293 0.5600527525 4292701226
-0.2654974461 -0.1421635300 0.5601755381 4292701226
-0.2655554116 -0.1415720433 0.5602978468 4292701226
-0.2660308182 -0.1412018239 0.5613008738 4292701226
-0.2660884261 -0.1406086385 0.5614224672 4292767019
-0.2661458254 -0.1400150508 0.5615435839 4292767019
-0.2662030160 -0.1394210905 0.5616642237 4292766765
-0.2662599981 -0.1388267428 0.5617844462 4292832558
-0.2663167417 -0.1382320225 0.5619041920 4292964144
-0.2663732767 -0.1376369148 0.5620234609 4292898351
-0.2664296031 -0.1370414346 0.5621422529 4292898351
-0.2669040263 -0.1366597712 0.5631432533 4292898351
-0.2669599950 -0.1360625923 0.5632613301 4292898351
-0.2674342394 -0.1356773823 0.5642619729 4292898351
-0.2674898505 -0.1350785196 0.5643792748 4292964144
-0.2679639161 -0.1346897334 0.5653795600 4292898351
-0.2680191398 -0.1340892017 0.5654960871 4292898862
-0.2684930265 -0.1336968690 0.5664959550 4292898862
-0.2685479224 -0.1330946386 0.5666117072 4292964144
-0.2690216005 -0.1326987445 0.5676111579 4292898351
-0.2694952190 -0.1323006004 0.5686104894 4292964144
-0.2699688077 -0.1319002211 0.5696096420 4292964144
-0.2700230181 -0.1312936991 0.5697240829 4292898864
-0.2704963982 -0.1308897585 0.5707228780 4292964657
-0.2709697187 -0.1304835677 0.5717214942 4293029937
-0.2714429498 -0.1300751120 0.5727199912 4293095730
-0.2719161212 -0.1296644211 0.5737183690 4293161524
-0.2723892331 -0.1292514801 0.5747165680 4293095731
-0.2724424899 -0.1286380738 0.5748289824 4293095731
-0.2729153931 -0.1282215714 0.5758267045 4293095731
-0.2733882368 -0.1278028190 0.5768243670 4293095731
-0.2738609612 -0.1273818314 0.5778217912 4293095731
-0.2743336558 -0.1269585788 0.5788190961 4293096244
-0.2743860781 -0.1263395995 0.5789297223 4293096244
-0.2748585045 -0.1259128004 0.5799264908 4293096244
-0.2753308713 -0.1254837364 0.5809231997 4293096244
-0.2758031785 -0.1250524372 0.5819196701 4293096244
-0.2766959071 -0.1248085573 0.5838032365 4293096244
-0.2767475247 -0.1241830736 0.5839121342 4293096244
-0.2772195637 -0.1237450168 0.5849081278 4293096244
-0.2776915133 -0.1233047023 0.5859038830 4293161783
-0.2781633735 -0.1228621453 0.5868995190 4293161783
-0.2786351740 -0.1224173382 0.5878949165 4292965174
-0.2791068554 -0.1219702736 0.5888901353 4293030967
-0.2791574001 -0.1213379428 0.5889968276 4293096760
-0.2796288431 -0.1208873391 0.5899915099 4293162553
-0.2801001966 -0.1204344779 0.5909859538 4293228346
-0.2805714309 -0.1199793592 0.5919802785 4293294139
-0.2810425758 -0.1195219979 0.5929743052 4293294137
-0.2815136313 -0.1190623865 0.5939682126 4293359930
-0.2819845676 -0.1186005250 0.5949618816 4293163584
-0.2824554145 -0.1181364059 0.5959553123 4293163584
-0.2829261720 -0.1176700443 0.5969485044 4292967756
-0.2833968103 -0.1172014251 0.5979415178 4293165135
-0.2838673294 -0.1167305633 0.5989342928 4292839006
-0.2843377590 -0.1162574440 0.5999268889 4292970592
-0.2848080695 -0.1157820821 0.6009191871 4293038964
-0.2852782905 -0.1153044626 0.6019112468 4292973171
-0.2857483625 -0.1148246005 0.6029031277 4292779399
-0.2862183452 -0.1143424809 0.6038947105 4294161052
-0.2770289779 -0.1851400286 0.5858789086 4290084723
-0.2766912282 -0.1842641532 0.5851646662 4289487683
-0.2763530612 -0.1833895892 0.5844495296 4288434995
-0.2760145068 -0.1825163513 0.5837334991 4288235545
-0.2756755054 -0.1816444099 0.5830165744 4288301338
-0.2749245465 -0.1805035919 0.5814283490 4289351448
-0.2741729617 -0.1793658733 0.5798388124 4290667308
-0.2738325000 -0.1784997135 0.5791188478 4291127073
-0.2734916210 -0.1776348799 0.5783979297 4291258659
-0.2727383673 -0.1765047461 0.5768048763 4291258659
-0.2728086412 -0.1759092063 0.5769535303 4291061280
-0.2724665403 -0.1750483811 0.5762300491 4291191583
-0.2721240222 -0.1741888970 0.5755056143 4291257376
-0.2721934915 -0.1735937744 0.5756525993 4291584799
-0.2722627819 -0.1729982048 0.5757991076 4291584799
-0.2723318636 -0.1724021733 0.5759451985 4291715869
-0.2719880044 -0.1715453863 0.5752179623 4291781662
-0.2712309062 -0.1704305410 0.5736168027 4291650846
-0.2704731822 -0.1693188697 0.5720143318 4291650846
-0.2697148323 -0.1682103872 0.5704105496 4291585564
-0.2689558864 -0.1671050638 0.5688054562 4291585564
-0.2677830756 -0.1657471508 0.5663250685 4291651357
-0.2670227885 -0.1646491289 0.5647171736 4291651357
-0.2666753232 -0.1638082564 0.5639823675 4291715867
-0.2659139037 -0.1627157182 0.5623720884 4291781660
-0.2655655444 -0.1618785411 0.5616353750 4291650844
-0.2648030221 -0.1607915014 0.5600227118 4291650844
-0.2648676038 -0.1602083445 0.5601593256 4291650844
-0.2645180225 -0.1593753397 0.5594199896 4291650844
-0.2645820975 -0.1587922424 0.5595554709 4291781660
-0.2642318010 -0.1579611152 0.5588146448 4291715867
-0.2642953694 -0.1573780924 0.5589491129 4291847196
-0.2639443874 -0.1565488726 0.5582067966 4291781403
-0.2640074193 -0.1559659243 0.5583401322 4291781660
-0.2640702724 -0.1553825438 0.5584730506 4291781660
-0.2641329169 -0.1547987461 0.5586055517 4291781403
-0.2641953528 -0.1542145461 0.5587375760 4291781403
-0.2638427317 -0.1533887535 0.5579918623 4291847196
-0.2639046609 -0.1528046429 0.5581228137 4291781403
-0.2639663815 -0.1522201151 0.5582533479 4291846942
-0.2640278935 -0.1516351849 0.5583834052 4291912735
-0.2640891969 -0.1510498375 0.5585130453 4291912735
-0.2641502917 -0.1504640877 0.5586422682 4291846942
-0.2642111778 -0.1498779356 0.5587710142 4291912735
-0.2642718554 -0.1492913812 0.5588993430 4291912735
-0.2643323243 -0.1487044096 0.5590271950 4291978528
-0.2643925548 -0.1481170505 0.5591546297 4292110114
-0.2644526064 -0.1475292891 0.5592816472 4292241700
-0.2645124197 -0.1469411254 0.5594081283 4292175907
-0.2645720541 -0.1463525593 0.5595342517 4292175909
-0.2646314502 -0.1457635909 0.5596598387 4292241702
-0.2646906376 -0.1451742351 0.5597850680 4292307495
-0.2647496164 -0.1445844769 0.5599097610 4292373288
-0.2648083866 -0.1439943314 0.5600340366 4292373288
-0.2652834058 -0.1436292827 0.5610386133 4292439081
-0.2653418183 -0.1430374235 0.5611621737 4292635433
-0.2654000223 -0.1424451768 0.5612853169 4292701226
-0.2654580176 -0.1418525279 0.5614079833 4292635433
-0.2655158043 -0.1412595063 0.5615301728 4292701226
-0.2659902871 -0.1408869177 0.5625336170 4292766765
-0.2660477161 -0.1402921975 0.5626550317 4292700972
-0.2661049366 -0.1396970749 0.5627760887 4292635179
-0.2661619186 -0.1391015798 0.5628966093 4292832558
-0.2662186921 -0.1385056973 0.5630166531 4293029937
-0.2662752569 -0.1379094422 0.5631362796 4292898351
-0.2663315833 -0.1373127997 0.5632554293 4292898351
-0.2663877010 -0.1367157847 0.5633741021 4292832558
-0.2668612301 -0.1363317370 0.5643755198 4292832558
-0.2673346996 -0.1359454542 0.5653768778 4292898351
-0.2673903108 -0.1353454292 0.5654944777 4293029937
-0.2678636014 -0.1349555850 0.5664954185 4292964144
-0.2679188848 -0.1343538761 0.5666123033 4292964655
-0.2683919668 -0.1339604557 0.5676128268 4292964655
-0.2684468627 -0.1333570778 0.5677289367 4292898351
-0.2689197659 -0.1329600960 0.5687291026 4292832558
-0.2693926096 -0.1325608790 0.5697290897 4292964144
-0.2698653936 -0.1321593970 0.5707289577 4292964144
-0.2699196637 -0.1315517277 0.5708436966 4292898864
-0.2703922391 -0.1311466843 0.5718431473 4292964657
-0.2708647549 -0.1307394058 0.5728424788 4293029937
-0.2713372111 -0.1303298622 0.5738416314 4293029937
-0.2718096077 -0.1299180835 0.5748407245 4293095731
-0.2722819448 -0.1295040399 0.5758395791 4293095731
-0.2723352313 -0.1288894564 0.5759522915 4293029425
-0.2728073299 -0.1284718663 0.5769507289 4293095218
-0.2732793689 -0.1280520111 0.5779490471 4293029938
-0.2737513185 -0.1276299059 0.5789471865 4293029938
-0.2742232084 -0.1272055656 0.5799451470 4292965174
-0.2746950388 -0.1267789602 0.5809429884 4292965174
-0.2751667798 -0.1263500899 0.5819406509 4292965174
-0.2752188742 -0.1257273257 0.5820508599 4292965174
-0.2756903768 -0.1252949089 0.5830480456 4292965174
-0.2761618197 -0.1248602495 0.5840449929 4292965174
-0.2766331434 -0.1244233251 0.5850418210 4292965174
-0.2771044075 -0.1239841580 0.5860384703 4292965174
-0.2779954970 -0.1237296388 0.5879230499 4292899894
-0.2784666717 -0.1232850030 0.5889194608 4292899894
-0.2789377272 -0.1228381246 0.5899156928 4292965687
-0.2794086933 -0.1223889887 0.5909117460 4293031480
-0.2798795998 -0.1219375953 0.5919076204 4293097273
-0.2799300849 -0.1213018149 0.5920143723 4293031480
-0.2804006934 -0.1208468750 0.5930097103 4293097273
-0.2804507613 -0.1202094555 0.5931155682 4293163066
-0.2809211016 -0.1197509691 0.5941103101 4293293622
-0.2813913524 -0.1192902252 0.5951048136 4293491001
-0.2818615139 -0.1188272238 0.5960991383 4293425987
-0.2823315859 -0.1183619797 0.5970932245 4293360194
-0.2828015089 -0.1178944781 0.5980871320 4293033295
-0.2832713723 -0.1174247265 0.5990807414 4293230674
-0.2837411165 -0.1169527248 0.6000741720 4292839265
-0.2842107415 -0.1164784655 0.6010674238 4293102437
-0.2846802473 -0.1160019562 0.6020603776 4292447342
-0.2851496637 -0.1155231968 0.6030530930 4293105272
-0.2856189609 -0.1150421873 0.6040456295 4293832605
-0.2755941153 -0.1852638721 0.5842167139 4290612609
-0.2756674290 -0.1846638620 0.5843721032 4290415230
-0.2757405043 -0.1840633750 0.5845270157 4290281062
-0.2758134007 -0.1834623963 0.5846815705 4289162581
-0.2754755616 -0.1825888455 0.5839653611 4288829744
-0.2751372755 -0.1817166060 0.5832482576 4288106021
-0.2747986019 -0.1808456928 0.5825303197 4288760600
-0.2740486264 -0.1797066629 0.5809404850 4289155358
-0.2741199732 -0.1791078150 0.5810917616 4290797352
-0.2737800479 -0.1782408804 0.5803711414 4291192110
-0.2734397054 -0.1773752719 0.5796496868 4291389224
-0.2730989456 -0.1765109897 0.5789273381 4291191845
-0.2731691599 -0.1759129912 0.5790761709 4291322140
-0.2724161744 -0.1747864634 0.5774799585 4291387933
-0.2724857926 -0.1741893440 0.5776275396 4291584801
-0.2725552022 -0.1735917628 0.5777746439 4291650594
-0.2722125947 -0.1727323979 0.5770483613 4291519006
-0.2718695700 -0.1718744040 0.5763211846 4291519006
-0.2715261281 -0.1710177511 0.5755931735 4291519770
-0.2707701325 -0.1699038595 0.5739905834 4291651356
-0.2700135410 -0.1687931418 0.5723867416 4291717150
-0.2692563236 -0.1676856130 0.5707815289 4291651357
-0.2680860460 -0.1663253754 0.5683007240 4291781410
-0.2673274875 -0.1652251184 0.5666927695 4291781410
-0.2665683329 -0.1641280651 0.5650834441 4291781662
-0.2658085823 -0.1630342156 0.5634728670 4291781662
-0.2654610276 -0.1621958166 0.5627361536 4291781664
-0.2647001445 -0.1611074656 0.5611231923 4291781664
-0.2643516958 -0.1602727622 0.5603845119 4291781664
-0.2644160092 -0.1596889645 0.5605208278 4291715871
-0.2644801140 -0.1591047496 0.5606567264 4291715869
-0.2641306520 -0.1582724154 0.5599159002 4291781662
-0.2641942501 -0.1576882601 0.5600507259 4291781662
-0.2638440728 -0.1568578333 0.5593084097 4291715869
-0.2634935081 -0.1560288072 0.5585652590 4291715871
-0.2635563016 -0.1554452330 0.5586983562 4291715871
-0.2636188567 -0.1548612416 0.5588310361 4291781151
-0.2636812329 -0.1542768180 0.5589632392 4291781151
-0.2637433708 -0.1536919922 0.5590949655 4291846942
-0.2633911967 -0.1528664082 0.5583484173 4291912735
-0.2634528577 -0.1522816718 0.5584790707 4291912735
-0.2635142803 -0.1516965330 0.5586093068 4291912735
-0.2635755241 -0.1511109769 0.5587391257 4291846942
-0.2636365294 -0.1505250186 0.5588684678 4291846942
-0.2636973560 -0.1499386579 0.5589973927 4291912735
-0.2637579739 -0.1493518949 0.5591259003 4291912735
-0.2638183534 -0.1487647146 0.5592539310 4292043553
-0.2638785541 -0.1481771469 0.5593814850 4292175139
-0.2639385164 -0.1475891620 0.5595086217 4292240932
-0.2639982700 -0.1470007896 0.5596352816 4292240932
-0.2640578151 -0.1464120150 0.5597615242 4292306979
-0.2641171515 -0.1458228379 0.5598873496 4292438565
-0.2645916641 -0.1454616189 0.5608931780 4292504358
-0.2646506727 -0.1448707283 0.5610182881 4292504358
-0.2647094429 -0.1442794353 0.5611429214 4292569640
-0.2647680342 -0.1436877549 0.5612670779 4292635433
-0.2652421296 -0.1433203220 0.5622720718 4292569897
-0.2653003633 -0.1427269280 0.5623955131 4292569897
-0.2653583884 -0.1421331465 0.5625185370 4292504104
-0.2654161751 -0.1415389776 0.5626410842 4292569897
-0.2654737830 -0.1409444064 0.5627631545 4292701485
-0.2659473419 -0.1405694485 0.5637670159 4292635692
-0.2660045624 -0.1399731785 0.5638883710 4292635692
-0.2660616040 -0.1393765360 0.5640092492 4292833071
-0.2661184072 -0.1387794912 0.5641296506 4292898864
-0.2661749721 -0.1381820887 0.5642495751 4292767278
-0.2662313282 -0.1375842839 0.5643690825 4292832558
-0.2667042017 -0.1372004896 0.5653714538 4292832558
-0.2671770155 -0.1368144453 0.5663737655 4292898351
-0.2672328949 -0.1362136304 0.5664921999 4292898351
-0.2677055299 -0.1358240247 0.5674941540 4292898351
-0.2677610517 -0.1352215260 0.5676118135 4292964144
-0.2678163350 -0.1346186697 0.5677289963 4292898865
-0.2682886422 -0.1342241764 0.5687302351 4292898865
-0.2687608898 -0.1338274330 0.5697313547 4292898865
-0.2688156962 -0.1332215667 0.5698474646 4292898865
-0.2692877352 -0.1328212619 0.5708481669 4292898865
-0.2697597444 -0.1324186921 0.5718487501 4292833072
-0.2698140144 -0.1318098456 0.5719637871 4292702000
-0.2702858150 -0.1314037293 0.5729638934 4292636207
-0.2707575560 -0.1309953481 0.5739638805 4292768306
-0.2712292075 -0.1305847168 0.5749637485 4292768306
-0.2717008293 -0.1301718503 0.5759634972 4292833586
-0.2721723616 -0.1297567040 0.5769630671 4292899379
-0.2722256482 -0.1291409433 0.5770760775 4292899892
-0.2726969719 -0.1287222505 0.5780752301 4292834099
-0.2731682360 -0.1283013076 0.5790741444 4292768306
-0.2736394107 -0.1278780997 0.5800729990 4292899892
-0.2741104960 -0.1274526417 0.5810716748 4293226808
-0.2745815217 -0.1270249337 0.5820701718 4293161015
-0.2750524580 -0.1265949756 0.5830684900 4293227065
-0.2755233347 -0.1261627525 0.5840666294 4293227065
-0.2759941220 -0.1257282794 0.5850646496 4293227065
-0.2764648199 -0.1252915561 0.5860624909 4293292858
-0.2769354582 -0.1248525679 0.5870601535 4293227319
-0.2774060071 -0.1244113296 0.5880575776 4293227319
-0.2782955766 -0.1241548210 0.5899433494 4293161783
-0.2787660062 -0.1237081140 0.5909405947 4293095990
-0.2792363763 -0.1232591644 0.5919377208 4293096762
-0.2797066271 -0.1228079498 0.5929345489 4293162555
-0.2797573805 -0.1221713200 0.5930421352 4293097019
-0.2802273631 -0.1217165515 0.5940384865 4293097019
-0.2802776992 -0.1210782677 0.5941451788 4293163066
-0.2807474434 -0.1206199452 0.5951409340 4293228859
-0.2812170684 -0.1201593727 0.5961364508 4293424704
-0.2812668085 -0.1195181534 0.5962418914 4293490497
-0.2817361653 -0.1190540269 0.5972368717 4293032008
-0.2826253772 -0.1187641099 0.5991218686 4293032008
-0.2830945849 -0.1182945147 0.6001165509 4292902741
-0.2835637033 -0.1178226694 0.6011109948 4293100120
-0.2836125493 -0.1171749756 0.6012145281 4292641888
-0.2840813994 -0.1166995764 0.6022084355 4292839267
-0.2845501304 -0.1162219271 0.6032020450 4292974199
-0.2850187421 -0.1157420203 0.6041954160 4294421645
-0.2854872346 -0.1152598634 0.6051885486 4294755248
-0.2739415467 -0.1871744841 0.5820839405 4289498253
-0.2740153074 -0.1865779907 0.5822407007 4289235081
-0.2740888894 -0.1859810054 0.5823970437 4289430144
-0.2741622627 -0.1853835285 0.5825529695 4289232765
-0.2742354572 -0.1847855896 0.5827084780 4289362542
-0.2743084431 -0.1841871738 0.5828635693 4289296749
-0.2747907639 -0.1838622838 0.5838884115 4289557341
-0.2748634517 -0.1832620054 0.5840429068 4289096790
-0.2749359608 -0.1826612651 0.5841969848 4289225280
-0.2750082612 -0.1820600480 0.5843505859 4288698936
-0.2746703923 -0.1811879128 0.5836327076 4289024552
-0.2743321359 -0.1803171188 0.5829139352 4289024552
-0.2739934325 -0.1794476360 0.5821942687 4290272297
-0.2736543417 -0.1785794944 0.5814737082 4290732848
-0.2737252116 -0.1779794991 0.5816242695 4291126568
-0.2733853757 -0.1771131307 0.5809022188 4290929189
-0.2734557390 -0.1765131205 0.5810517073 4291190557
-0.2731151879 -0.1756485105 0.5803281069 4291256350
-0.2723634243 -0.1745220125 0.5787307024 4291452446
-0.2724328637 -0.1739233285 0.5788782239 4291649825
-0.2725020945 -0.1733241826 0.5790253282 4291649825
-0.2721599936 -0.1724640727 0.5782984495 4291649825
-0.2718174756 -0.1716053039 0.5775706768 4291519773
-0.2714745700 -0.1707478911 0.5768420100 4291519773
-0.2703083754 -0.1693762541 0.5743640661 4291585566
-0.2691413760 -0.1680095941 0.5718843341 4291585566
-0.2683851719 -0.1669039279 0.5702775717 4291650592
-0.2672166228 -0.1655463725 0.5677945614 4291716385
-0.2664591074 -0.1644479930 0.5661849380 4291847455
-0.2657009661 -0.1633528322 0.5645740628 4291781662
-0.2653542757 -0.1625132114 0.5638373494 4291781664
-0.2641828954 -0.1611721069 0.5613483191 4291781664
-0.2650718987 -0.1610886753 0.5632373691 4291781664
-0.2643117607 -0.1600027233 0.5616221428 4291781664
-0.2643758655 -0.1594173908 0.5617583990 4291781662
-0.2640272677 -0.1585838348 0.5610176325 4291781662
-0.2640908659 -0.1579985619 0.5611528158 4291847455
-0.2637415528 -0.1571669132 0.5604104996 4291781662
-0.2638046443 -0.1565817147 0.5605446100 4291715871
-0.2634546161 -0.1557519734 0.5598008633 4291715871
-0.2635172009 -0.1551668495 0.5599338412 4291715871
-0.2635796070 -0.1545813233 0.5600664616 4291715871
-0.2632285655 -0.1537539959 0.5593205094 4291781662
-0.2632904351 -0.1531685442 0.5594519973 4291781662
-0.2633520961 -0.1525826901 0.5595830679 4291846944
-0.2634135783 -0.1519964188 0.5597136617 4291846944
-0.2634748220 -0.1514097452 0.5598438382 4291781662
-0.2635358870 -0.1508226544 0.5599735379 4291781662
-0.2635967135 -0.1502351612 0.5601028204 4291912735
-0.2632434368 -0.1494123340 0.5593521595 4291978528
-0.2633037865 -0.1488249451 0.5594803691 4291978530
-0.2633638978 -0.1482371688 0.5596081018 4292110116
-0.2634238005 -0.1476489753 0.5597353578 4292240932
-0.2638977766 -0.1472916156 0.5607424974 4292240932
-0.2639573514 -0.1467016935 0.5608690977 4292175907
-0.2640167177 -0.1461113840 0.5609952211 4292175907
-0.2640758753 -0.1455206722 0.5611209273 4292372772
-0.2645494640 -0.1451570839 0.5621272326 4292438565
-0.2646082640 -0.1445646584 0.5622521639 4292504104
-0.2646668553 -0.1439718306 0.5623766780 4292504104
-0.2647252679 -0.1433786154 0.5625007749 4292504106
-0.2651984394 -0.1430087984 0.5635062456 4292504106
-0.2652564943 -0.1424138695 0.5636295676 4292504106
-0.2653143108 -0.1418185532 0.5637524128 4292504106
-0.2653719187 -0.1412228346 0.5638748407 4292635692
-0.2654293180 -0.1406267434 0.5639967918 4292569899
-0.2659019828 -0.1402494013 0.5650011301 4292700972
-0.2659590244 -0.1396515965 0.5651223063 4292898351
-0.2660158277 -0.1390534043 0.5652430654 4292832558
-0.2660724521 -0.1384548396 0.5653633475 4292832558
-0.2661288381 -0.1378558874 0.5654831529 4292832558
-0.2666009068 -0.1374710202 0.5664862394 4292832558
-0.2670729458 -0.1370839030 0.5674892664 4292832558
-0.2671288252 -0.1364819407 0.5676079988 4292832558
-0.2676006854 -0.1360912472 0.5686106086 4292898351
-0.2680724859 -0.1356983036 0.5696130991 4292898351
-0.2681278884 -0.1350933313 0.5697308183 4292833072
-0.2681830525 -0.1344879866 0.5698480606 4292767279
-0.2686545253 -0.1340901703 0.5708498955 4292832559
-0.2691259384 -0.1336900890 0.5718515515 4292832559
-0.2691805959 -0.1330817491 0.5719677210 4292832561
-0.2696518004 -0.1326781064 0.5729689598 4292832561
-0.2697061002 -0.1320680827 0.5730842948 4292767025
-0.2701771259 -0.1316608638 0.5740851164 4292767025
-0.2706480622 -0.1312514096 0.5750858188 4292767795
-0.2711189389 -0.1308396906 0.5760863423 4292767795
-0.2715897560 -0.1304257065 0.5770867467 4292898611
-0.2720604837 -0.1300094873 0.5780870318 4292898611
-0.2725311816 -0.1295910031 0.5790871382 4292833588
-0.2725843489 -0.1289727539 0.5792001486 4292833588
-0.2730548084 -0.1285506934 0.5801997781 4292833588
-0.2735251784 -0.1281263977 0.5811992884 4292899381
-0.2739954889 -0.1276998371 0.5821986198 4293095479
-0.2744657099 -0.1272710264 0.5831977725 4293029686
-0.2749358714 -0.1268399507 0.5841968060 4293030201
-0.2754059434 -0.1264066249 0.5851956010 4293030201
-0.2758759558 -0.1259710342 0.5861942768 4293095994
-0.2763458788 -0.1255331933 0.5871927738 4293095994
-0.2768156826 -0.1250931025 0.5881910920 4293030199
-0.2772854567 -0.1246507466 0.5891892314 4293095992
-0.2781734169 -0.1243931949 0.5910760164 4292965176
-0.2786430418 -0.1239453778 0.5920739770 4292965176
-0.2795310616 -0.1236804500 0.5939608812 4292965435
-0.2795820832 -0.1230429634 0.5940692425 4293031228
-0.2800514698 -0.1225883737 0.5950666070 4293097021
-0.2801020443 -0.1219492406 0.5951741338 4293097021
-0.2805711627 -0.1214910895 0.5961709023 4293097019
-0.2810401618 -0.1210306808 0.5971674919 4293097019
-0.2815090716 -0.1205680147 0.5981638432 4293228097
-0.2815589011 -0.1199246347 0.5982697010 4293359683
-0.2820275426 -0.1194584146 0.5992655158 4293032268
-0.2824960947 -0.1189899445 0.6002610922 4293032268
-0.2829645276 -0.1185192093 0.6012564301 4292639830
-0.2834328413 -0.1180462241 0.6022515297 4292639830
-0.2839010656 -0.1175709814 0.6032464504 4292313953
-0.2839497328 -0.1169207767 0.6033498645 4293037676
-0.2844176590 -0.1164419800 0.6043441296 4293829769
-0.2848854959 -0.1159609333 0.6053382158 4294685078
-0.2853531837 -0.1154776290 0.6063320041 4294492078
-0.2723650932 -0.1884711981 0.5801033378 4289106577
-0.2728469968 -0.1881589890 0.5811296701 4289105037
-0.2729209661 -0.1875641346 0.5812872052 4288841865
-0.2725866735 -0.1866893470 0.5805752277 4288905602
-0.2726601362 -0.1860944182 0.5807316899 4288576637
-0.2727334201 -0.1854990274 0.5808877945 4288574833
-0.2732148767 -0.1851799488 0.5819132328 4288377454
-0.2732878625 -0.1845826954 0.5820686817 4288441440
-0.2737692595 -0.1842599809 0.5830940008 4288441440
-0.2734332681 -0.1833867729 0.5823783278 4288768084
-0.2739144862 -0.1830613166 0.5834032893 4288702291
-0.2739867866 -0.1824612617 0.5835573077 4289160265
-0.2740588784 -0.1818607301 0.5837109089 4288962886
-0.2741307914 -0.1812597364 0.5838640332 4289223485
-0.2737932503 -0.1803886294 0.5831450820 4289026106
-0.2738646567 -0.1797875911 0.5832971334 4289682482
-0.2735263705 -0.1789182276 0.5825766921 4290143033
-0.2735972703 -0.1783171445 0.5827276707 4290733101
-0.2732582688 -0.1774495542 0.5820056200 4290535722
-0.2733286321 -0.1768484414 0.5821555257 4291190303
-0.2729889154 -0.1759826243 0.5814319849 4291256096
-0.2730588019 -0.1753814816 0.5815808177 4291517728
-0.2723082602 -0.1742550284 0.5799822211 4291583521
-0.2723774910 -0.1736547798 0.5801297426 4291583521
-0.2724465430 -0.1730540693 0.5802767873 4291649314
-0.2721049786 -0.1721931845 0.5795493126 4291519008
-0.2717629969 -0.1713336557 0.5788209438 4291519008
-0.2710099816 -0.1702175885 0.5772171021 4291519519
-0.2698456347 -0.1688476950 0.5747371316 4291585312
-0.2686804533 -0.1674828082 0.5722554922 4291650594
-0.2679253817 -0.1663781106 0.5706472993 4291650594
-0.2667586803 -0.1650223285 0.5681623220 4291650592
-0.2660022974 -0.1639249325 0.5665513277 4291650592
-0.2652452886 -0.1628307402 0.5649390221 4291650592
-0.2644876838 -0.1617397666 0.5633254051 4291716385
-0.2649637759 -0.1614038795 0.5643393993 4291847457
-0.2642052472 -0.1603166014 0.5627238750 4291847457
-0.2642694116 -0.1597301513 0.5628604889 4291847457
-0.2639216185 -0.1588953882 0.5621197820 4291847457
-0.2635734379 -0.1580620259 0.5613781810 4291847457
-0.2636367679 -0.1574761271 0.5615130663 4291847457
-0.2632878721 -0.1566446573 0.5607699752 4291781664
-0.2629385591 -0.1558146179 0.5600259900 4291715871
-0.2630010843 -0.1552292854 0.5601591468 4291715871
-0.2630634010 -0.1546435505 0.5602918863 4291715871
-0.2631255388 -0.1540573835 0.5604242086 4291781664
-0.2627749145 -0.1532302648 0.5596774220 4291781664
-0.2628365159 -0.1526442021 0.5598086119 4291781664
-0.2628979087 -0.1520577222 0.5599393845 4291781664
-0.2629590929 -0.1514708400 0.5600697398 4291781664
-0.2630200684 -0.1508835405 0.5601996183 4291781664
-0.2630808353 -0.1502958387 0.5603290200 4291847457
-0.2631414235 -0.1497077197 0.5604580045 4291913250
-0.2632017732 -0.1491192132 0.5605865717 4292044323
-0.2632619143 -0.1485302895 0.5607146621 4292110116
-0.2633218169 -0.1479409635 0.5608422756 4292110116
-0.2637950182 -0.1475825608 0.5618501306 4292110116
-0.2638546228 -0.1469915062 0.5619770885 4292110114
-0.2639140189 -0.1464000493 0.5621035695 4292110114
-0.2639731765 -0.1458082050 0.5622295737 4292175907
-0.2640321553 -0.1452159584 0.5623551607 4292307493
-0.2645048201 -0.1448499858 0.5633619428 4292504104
-0.2645634711 -0.1442560256 0.5634868145 4292504104
-0.2646218538 -0.1436616629 0.5636112094 4292503593
-0.2650942802 -0.1432907879 0.5646173954 4292503593
-0.2651523352 -0.1426947117 0.5647410750 4292503593
-0.2652101815 -0.1420982480 0.5648642778 4292503593
-0.2656823099 -0.1417224854 0.5658698082 4292569386
-0.2657398283 -0.1411242932 0.5659922957 4292635179
-0.2657971084 -0.1405257285 0.5661143064 4292700972
-0.2658541799 -0.1399267763 0.5662358403 4292832558
-0.2663258612 -0.1395447850 0.5672404766 4292766765
-0.2663825750 -0.1389441341 0.5673612952 4292832558
-0.2664390802 -0.1383430809 0.5674816370 4292832559
-0.2669104636 -0.1379562169 0.5684856176 4292832559
-0.2673817873 -0.1375670731 0.5694894791 4292832559
-0.2674377859 -0.1369630247 0.5696087480 4292832559
-0.2674935758 -0.1363585740 0.5697275996 4292832559
-0.2679645717 -0.1359645575 0.5707308054 4292832559
-0.2680200040 -0.1353584230 0.5708488226 4292898611
-0.2684908211 -0.1349608302 0.5718516111 4292832818
-0.2685458660 -0.1343530118 0.5719688535 4292898354
-0.2686007023 -0.1337448210 0.5720856190 4292898354
-0.2690711915 -0.1333423406 0.5730876923 4292832818
-0.2695416212 -0.1329376101 0.5740896463 4292832818
-0.2700119615 -0.1325306296 0.5750914216 4292832818
-0.2700661421 -0.1319181174 0.5752068162 4292832818
-0.2705363035 -0.1315075606 0.5762081742 4292898611
-0.2710063756 -0.1310947537 0.5772094131 4292898611
-0.2714763880 -0.1306796819 0.5782104731 4292898611
-0.2719463408 -0.1302623600 0.5792114735 4292898611
-0.2728327811 -0.1300413162 0.5810993910 4292964404
-0.2728860676 -0.1294209361 0.5812128782 4293030197
-0.2733558118 -0.1289968342 0.5822134018 4292899381
-0.2738254666 -0.1285704821 0.5832137465 4292965174
-0.2742950618 -0.1281418651 0.5842139125 4293030199
-0.2747645676 -0.1277109981 0.5852138996 4292964406
-0.2752340138 -0.1272778660 0.5862137675 4293030201
-0.2757033706 -0.1268424839 0.5872134566 4292964408
-0.2761726677 -0.1264048368 0.5882129669 4292833336
-0.2766418755 -0.1259649396 0.5892122984 4292899129
-0.2771109641 -0.1255227774 0.5902114511 4292833336
-0.2779974043 -0.1252664328 0.5920994282 4292899129
-0.2784664333 -0.1248188019 0.5930984020 4292899129
-0.2789353728 -0.1243689135 0.5940971375 4292964922
-0.2794041932 -0.1239167601 0.5950957537 4292833850
-0.2798729539 -0.1234623492 0.5960941315 4292833850
-0.2799237967 -0.1228223592 0.5962024331 4292965436
-0.2803922892 -0.1223643869 0.5972002149 4293031229
-0.2804427445 -0.1217227429 0.5973076820 4293031229
-0.2809109390 -0.1212612092 0.5983049273 4293097022
-0.2813790739 -0.1207974106 0.5993019342 4293030725
-0.2814289033 -0.1201528236 0.5994080901 4293030725
-0.2818967402 -0.1196854711 0.6004045606 4292572493
-0.2823644876 -0.1192158610 0.6014007330 4292572493
-0.2828321159 -0.1187439933 0.6023967862 4292049239
-0.2832996547 -0.1182698682 0.6033925414 4291983446
-0.2837670743 -0.1177934855 0.6043880582 4291985764
-0.2838157713 -0.1171420664 0.6044918299 4293038452
-0.2842828929 -0.1166621298 0.6054867506 4292909443
-0.2847499251 -0.1161799356 0.6064814329 4293435787
-0.2847979963 -0.1155255958 0.6065838337 4293242272
-0.2856836021 -0.1152087823 0.6084700823 4293965995
-0.2711233497 -0.1906292737 0.5788277984 4289040786
-0.2711979449 -0.1900384426 0.5789871216 4288777101
-0.2712723911 -0.1894471198 0.5791459680 4288645515
-0.2713466287 -0.1888553202 0.5793044567 4288447618
-0.2710137367 -0.1879807711 0.5785937905 4288250239
-0.2714945078 -0.1876702458 0.5796202421 4288314492
-0.2715681791 -0.1870769858 0.5797774792 4288117113
-0.2716416419 -0.1864832491 0.5799342990 4288247412
-0.2717148960 -0.1858890355 0.5800907612 4287984240
-0.2717879713 -0.1852943301 0.5802467465 4288113765
-0.2722684443 -0.1849760562 0.5812725425 4287916386
-0.2723412514 -0.1843795031 0.5814279318 4288243802
-0.2728216648 -0.1840575933 0.5824535489 4288243802
-0.2728941739 -0.1834591925 0.5826083422 4288570706
-0.2729664743 -0.1828603148 0.5827627182 4288439120
-0.2730385959 -0.1822609603 0.5829166770 4288766028
-0.2731105089 -0.1816611290 0.5830702186 4288766028
-0.2731822133 -0.1810608357 0.5832233429 4289092938
-0.2732537389 -0.1804600656 0.5833759904 4289092938
-0.2733250558 -0.1798588187 0.5835282803 4289223738
-0.2733961642 -0.1792570949 0.5836800933 4289486910
-0.2734670639 -0.1786549091 0.5838314891 4290142255
-0.2731288970 -0.1777861118 0.5831094980 4290010669
-0.2731992900 -0.1771838963 0.5832598209 4290993439
-0.2728604078 -0.1763168722 0.5825363398 4291190818
-0.2729302943 -0.1757146269 0.5826855302 4291648798
-0.2730000019 -0.1751119196 0.5828343034 4291583005
-0.2730694711 -0.1745087504 0.5829826593 4291648544
-0.2723197341 -0.1733836681 0.5813820362 4291714337
-0.2719790041 -0.1725215763 0.5806545615 4291584031
-0.2720475495 -0.1719197482 0.5808009505 4291649824
-0.2712962925 -0.1708014607 0.5791969895 4291519006
-0.2701344788 -0.1694292426 0.5767166615 4291584799
-0.2693818808 -0.1683182120 0.5751098990 4291584801
-0.2682185173 -0.1669550985 0.5726262331 4291519008
-0.2674646080 -0.1658513546 0.5710166693 4291715871
-0.2662997246 -0.1644973606 0.5685297251 4291715871
-0.2655444741 -0.1634009480 0.5669173598 4291781664
-0.2647885978 -0.1623077393 0.5653036237 4291847457
-0.2644427717 -0.1614684761 0.5645653009 4291847457
-0.2645072341 -0.1608804166 0.5647029281 4291847457
-0.2641606927 -0.1600430310 0.5639630556 4291913250
-0.2638137341 -0.1592070460 0.5632223487 4291979043
-0.2634663880 -0.1583724767 0.5624807477 4291913250
-0.2631186247 -0.1575392932 0.5617383122 4291913250
-0.2631816864 -0.1569527686 0.5618729591 4291847457
-0.2628332078 -0.1561215073 0.5611290336 4291781664
-0.2628957629 -0.1555350572 0.5612625480 4291715871
-0.2629581094 -0.1549481899 0.5613956451 4291781664
-0.2626086473 -0.1541193426 0.5606495738 4291781664
-0.2626704872 -0.1535325646 0.5607815981 4291781664
-0.2627321184 -0.1529453695 0.5609131455 4291847457
-0.2627935112 -0.1523577571 0.5610442758 4291781664
-0.2628547251 -0.1517697424 0.5611749291 4291781664
-0.2629157305 -0.1511813253 0.5613051653 4291781664
-0.2629765272 -0.1505924910 0.5614349842 4291847457
-0.2630371153 -0.1500032395 0.5615643263 4291913250
-0.2630974948 -0.1494135857 0.5616932511 4292044323
-0.2631576657 -0.1488235295 0.5618216991 4292044323
-0.2636301816 -0.1484654099 0.5628304482 4292110116
-0.2632773519 -0.1476422101 0.5620772243 4292175909
-0.2637496591 -0.1472814381 0.5630854964 4292175909
-0.2638090551 -0.1466888338 0.5632123351 4292175909
-0.2638682723 -0.1460958421 0.5633387566 4292175907
-0.2639272511 -0.1455024630 0.5634647012 4292307493
-0.2639860213 -0.1449086666 0.5635901690 4292438311
-0.2644577920 -0.1445403248 0.5645973682 4292438311
-0.2645162344 -0.1439448148 0.5647221208 4292503593
-0.2649878561 -0.1435728967 0.5657289624 4292503593
-0.2650459409 -0.1429756731 0.5658529997 4292437800
-0.2651038170 -0.1423780471 0.5659765601 4292437800
-0.2655751407 -0.1420012265 0.5669828057 4292569386
-0.2656326592 -0.1414018869 0.5671056509 4292635179
-0.2656899691 -0.1408021748 0.5672279596 4292700972
-0.2657470703 -0.1402020603 0.5673498511 4292700972
-0.2662179768 -0.1398190111 0.5683552027 4292635692
-0.2662747204 -0.1392171979 0.5684763193 4292701485
-0.2663312256 -0.1386149973 0.5685970187 4292767278
-0.2668018341 -0.1382270455 0.5696016550 4292767278
-0.2672723532 -0.1378368437 0.5706062317 4292767278
-0.2673283815 -0.1372316182 0.5707258582 4292767278
-0.2673842013 -0.1366260201 0.5708450079 4292767279
-0.2678544223 -0.1362309307 0.5718488693 4292767279
-0.2679098547 -0.1356236339 0.5719672441 4292702000
-0.2683798969 -0.1352249533 0.5729707479 4292702000
-0.2688498497 -0.1348240227 0.5739740729 4292833072
-0.2689048052 -0.1342137158 0.5740913749 4292833072
-0.2693745494 -0.1338092238 0.5750942826 4292833072
-0.2694291174 -0.1331972182 0.5752108097 4292767279
-0.2698986828 -0.1327891499 0.5762133002 4292702000
-0.2703681886 -0.1323788166 0.5772156119 4292702000
-0.2708376348 -0.1319662184 0.5782178640 4292767793
-0.2713070214 -0.1315513700 0.5792199373 4292767793
-0.2717763186 -0.1311342716 0.5802218914 4292767795
-0.2722455859 -0.1307148933 0.5812236667 4292767795
-0.2727147341 -0.1302932650 0.5822253227 4292833588
-0.2731838524 -0.1298693866 0.5832268000 4292899381
-0.2736528814 -0.1294432431 0.5842281580 4292899381
-0.2737058699 -0.1288190633 0.5843412876 4292899381
-0.2741746604 -0.1283893436 0.5853421688 4292833588
-0.2746433914 -0.1279573590 0.5863428116 4292767795
-0.2751120329 -0.1275231242 0.5873433352 4292767797
-0.2759968936 -0.1272786111 0.5892324448 4292702004
-0.2764654458 -0.1268388927 0.5902327895 4292636211
-0.2769339383 -0.1263969243 0.5912329555 4292702004
-0.2774023116 -0.1259526908 0.5922329426 4292635957
-0.2778706253 -0.1255062073 0.5932327509 4292701750
-0.2783388495 -0.1250574589 0.5942323804 4292636470
-0.2788069844 -0.1246064380 0.5952318311 4292702263
-0.2792750299 -0.1241531670 0.5962310433 4292636471
-0.2797429860 -0.1236976311 0.5972300768 4292636471
-0.2802108228 -0.1232398301 0.5982289314 4292636987
-0.2802615464 -0.1225973368 0.5983371735 4292768573
-0.2807291448 -0.1221359745 0.5993354321 4292834366
-0.2807794213 -0.1214918271 0.5994427800 4292834366
-0.2812467217 -0.1210269034 0.6004405022 4292636484
-0.2817139626 -0.1205597147 0.6014379263 4292504898
-0.2817636430 -0.1199126169 0.6015440226 4291849288
-0.2822305858 -0.1194418743 0.6025409102 4291783495
-0.2826974094 -0.1189688668 0.6035375595 4291260498
-0.2831641436 -0.1184936017 0.6045339704 4291194705
-0.2836307585 -0.1180160791 0.6055302024 4291000159
-0.2836794853 -0.1173634455 0.6056342125 4291723882
-0.2841458023 -0.1168823615 0.6066297889 4291331442
-0.2841940820 -0.1162281036 0.6067328453 4291923579
-0.2846601307 -0.1157434657 0.6077277660 4292058513
-0.2851260304 -0.1152565777 0.6087225080 4292979615
-0.2694759071 -0.1924842000 0.5766780376 4288844435
-0.2695509493 -0.1918969005 0.5768386722 4288778127
-0.2696258426 -0.1913091242 0.5769988894 4288580748
-0.2697005272 -0.1907208413 0.5771587491 4288514183
-0.2701806724 -0.1904180050 0.5781862736 4288185218
-0.2702550888 -0.1898278594 0.5783455372 4288052862
-0.2703293264 -0.1892372370 0.5785043836 4287855483
-0.2704033554 -0.1886461228 0.5786628127 4287854451
-0.2704772055 -0.1880545318 0.5788208246 4287591279
-0.2705508471 -0.1874624640 0.5789784789 4287655786
-0.2702179849 -0.1865893155 0.5782660842 4287589993
-0.2706975937 -0.1862768531 0.5792924762 4287916901
-0.2707706690 -0.1856833249 0.5794488192 4287785315
-0.2712502182 -0.1853672415 0.5804750919 4287981148
-0.2709162235 -0.1844948381 0.5797603130 4287915355
-0.2713955939 -0.1841759980 0.5807862282 4288178008
-0.2718749940 -0.1838549078 0.5818121433 4288243801
-0.2719473243 -0.1832571924 0.5819668770 4288570965
-0.2724266648 -0.1829324663 0.5829926729 4288439379
-0.2724986672 -0.1823329031 0.5831468105 4288503632
-0.2725705206 -0.1817328781 0.5833005309 4288437839
-0.2726421356 -0.1811323762 0.5834537745 4288568398
-0.2727135718 -0.1805313975 0.5836066604 4288568398
-0.2727847993 -0.1799299568 0.5837590694 4288764224
-0.2728558183 -0.1793280393 0.5839110613 4288764224
-0.2729266584 -0.1787256598 0.5840626359 4289419308
-0.2729972899 -0.1781228036 0.5842137933 4289419308
-0.2726595402 -0.1772541255 0.5834910274 4290402076
-0.2727296352 -0.1766512394 0.5836410522 4290796834
-0.2727995515 -0.1760478914 0.5837906599 4291386653
-0.2728692591 -0.1754440814 0.5839398503 4291255067
-0.2729387581 -0.1748398095 0.5840885639 4291451933
-0.2730080783 -0.1742350757 0.5842368603 4291583519
-0.2726683617 -0.1733699441 0.5835099220 4291584031
-0.2723282576 -0.1725061834 0.5827820897 4291584031
-0.2719877362 -0.1716437638 0.5820533633 4291649824
-0.2704194784 -0.1700111181 0.5786972642 4291715617
-0.2696686089 -0.1688978672 0.5770904422 4291715618
-0.2689171135 -0.1677877903 0.5754822493 4291649825
-0.2677556276 -0.1664264500 0.5729966760 4291715871
-0.2670028210 -0.1653236896 0.5713856816 4291781664
-0.2658397853 -0.1639714837 0.5688967705 4291781664
-0.2650856674 -0.1628760397 0.5672829747 4291847457
-0.2643309534 -0.1617838144 0.5656678677 4291847457
-0.2643954456 -0.1611946523 0.5658059120 4291913250
-0.2640497386 -0.1603560448 0.5650660992 4291913250
-0.2637036145 -0.1595188379 0.5643253922 4291913250
-0.2633571029 -0.1586830467 0.5635838509 4291978530
-0.2630101740 -0.1578486562 0.5628414154 4291978530
-0.2626628578 -0.1570156664 0.5620981455 4291912737
-0.2631361485 -0.1566729397 0.5631109476 4291846944
-0.2627882063 -0.1558409482 0.5623663664 4291846944
-0.2628505826 -0.1552529633 0.5624998808 4291912737
-0.2629127502 -0.1546645463 0.5626329184 4291912737
-0.2625637949 -0.1538349837 0.5618861318 4291912737
-0.2626254559 -0.1532466561 0.5620180964 4291847457
-0.2626868784 -0.1526579261 0.5621495843 4291847457
-0.2627481222 -0.1520687789 0.5622806549 4291912739
-0.2628091574 -0.1514792144 0.5624112487 4291912739
-0.2628699839 -0.1508892477 0.5625413656 4291978530
-0.2629306018 -0.1502988786 0.5626710653 4292044323
-0.2629909813 -0.1497080922 0.5628003478 4292110116
-0.2630511820 -0.1491169035 0.5629291534 4292110116
-0.2635229230 -0.1487577409 0.5639386773 4292110116
-0.2631709278 -0.1479333043 0.5631853938 4292175909
-0.2636424303 -0.1475714743 0.5641943812 4292372518
-0.2641139030 -0.1472073942 0.5652033687 4292372518
-0.2641732097 -0.1466123313 0.5653302670 4292372518
-0.2642323077 -0.1460168660 0.5654567480 4292438311
-0.2642911971 -0.1454210132 0.5655828118 4292438311
-0.2643498778 -0.1448247582 0.5657083392 4292438311
-0.2644083202 -0.1442281008 0.5658334494 4292438313
-0.2648791671 -0.1438551247 0.5668410063 4292438313
-0.2649372816 -0.1432567388 0.5669654012 4292438313
-0.2654079199 -0.1428801864 0.5679726005 4292372520
-0.2654657066 -0.1422800869 0.5680962205 4292438313
-0.2655232549 -0.1416795999 0.5682194233 4292569899
-0.2659936249 -0.1412981302 0.5692259669 4292635692
-0.2660508454 -0.1406959295 0.5693483949 4292569899
-0.2661078274 -0.1400933415 0.5694703460 4292635692
-0.2665778697 -0.1397069693 0.5704762936 4292701485
-0.2666345239 -0.1391026825 0.5705974698 4292767278
-0.2666909099 -0.1384979934 0.5707181692 4292767278
-0.2671606541 -0.1381067187 0.5717234612 4292767278
-0.2676303685 -0.1377131939 0.5727286339 4292767278
-0.2676862776 -0.1371054798 0.5728482604 4292767278
-0.2681557834 -0.1367083639 0.5738530159 4292701485
-0.2682113349 -0.1360989660 0.5739719272 4292701485
-0.2686806619 -0.1356982738 0.5749762654 4292767278
-0.2691499293 -0.1352953166 0.5759804845 4292767278
-0.2692049742 -0.1346829087 0.5760982633 4292767278
-0.2696740329 -0.1342763752 0.5771020651 4292767278
-0.2697286904 -0.1336622685 0.5772190690 4292767278
-0.2701975703 -0.1332521588 0.5782223940 4292767279
-0.2706663609 -0.1328397840 0.5792255998 4292767279
-0.2711350918 -0.1324251592 0.5802286863 4292833072
-0.2716037631 -0.1320082694 0.5812316537 4292833072
-0.2720723450 -0.1315891147 0.5822344422 4292767795
-0.2721260488 -0.1309680641 0.5823493600 4292702002
-0.2725944221 -0.1305453330 0.5833516717 4292636209
-0.2730627358 -0.1301203519 0.5843538642 4292636209
-0.2735309601 -0.1296931058 0.5853558779 4292636209
-0.2739991248 -0.1292635947 0.5863577724 4292570416
-0.2744672000 -0.1288318187 0.5873594284 4292570416
-0.2753505111 -0.1285917312 0.5892497301 4292504623
-0.2758185267 -0.1281544864 0.5902512670 4292570416
-0.2762864530 -0.1277149767 0.5912526250 4292438830
-0.2767542899 -0.1272732019 0.5922538042 4292438832
-0.2772220671 -0.1268291771 0.5932548046 4292438832
-0.2776897252 -0.1263828725 0.5942556262 4292373298
-0.2781573236 -0.1259343028 0.5952562690 4292439091
-0.2782089710 -0.1252961904 0.5953667760 4292439092
-0.2786763012 -0.1248440593 0.5963668823 4292439092
-0.2791435421 -0.1243896633 0.5973668098 4292504631
-0.2796106935 -0.1239330024 0.5983664989 4292504631
-0.2800777555 -0.1234740838 0.5993660092 4292504633
-0.2801284790 -0.1228303835 0.5994745493 4292570426
-0.2805952728 -0.1223678887 0.6004734635 4292439610
-0.2806455791 -0.1217225417 0.6005811095 4292308024
-0.2811120749 -0.1212564781 0.6015794873 4292176707
-0.2815785110 -0.1207881644 0.6025776267 4292045121
-0.2816282213 -0.1201398596 0.6026839614 4291521095
-0.2816776633 -0.1194912121 0.6027898192 4291455302
-0.2821436226 -0.1190180257 0.6037869453 4290866513
-0.2826094627 -0.1185425818 0.6047838926 4290998099
-0.2826583087 -0.1178909987 0.6048883796 4290409311
-0.2831238806 -0.1174119934 0.6058847308 4290672483
-0.2835893333 -0.1169307306 0.6068807840 4290674544
-0.2836375535 -0.1162762120 0.6069840193 4291135095
-0.2841027379 -0.1157913953 0.6079794168 4291401098
-0.2841505110 -0.1151352525 0.6080816984 4292322200
-0.2675771713 -0.1928587854 0.5739790201 4288385172
-0.2680564821 -0.1925653815 0.5750072002 4288384397
-0.2681314349 -0.1919801533 0.5751679540 4288187018
-0.2682061791 -0.1913944334 0.5753282905 4288120195
-0.2682807148 -0.1908082366 0.5754882097 4287857023
-0.2687598467 -0.1905084550 0.5765159726 4287790458
-0.2688341439 -0.1899203807 0.5766753554 4287527286
-0.2689082325 -0.1893318295 0.5768343210 4287394930
-0.2689821720 -0.1887428015 0.5769928694 4287329137
-0.2690558732 -0.1881532669 0.5771510005 4287656554
-0.2699400485 -0.1881282181 0.5790476203 4287524968
-0.2696081996 -0.1872543544 0.5783357620 4287720548
-0.2692759037 -0.1863818020 0.5776230097 4287720548
-0.2693488598 -0.1857903451 0.5777794719 4287981920
-0.2698273957 -0.1854773164 0.5788059831 4287916127
-0.2699000835 -0.1848840117 0.5789618492 4288046684
-0.2699725628 -0.1842902303 0.5791173577 4288046684
-0.2704509497 -0.1839721948 0.5801435113 4288243802
-0.2705231607 -0.1833765656 0.5802984238 4288178009
-0.2710014582 -0.1830548942 0.5813244581 4288308565
-0.2714797854 -0.1827309728 0.5823504925 4288242772
-0.2715516090 -0.1821321100 0.5825046301 4288242002
-0.2716232538 -0.1815327853 0.5826582909 4288176209
-0.2716946900 -0.1809329838 0.5828115344 4288175439
-0.2717659175 -0.1803327054 0.5829643011 4288043853
-0.2718369663 -0.1797319651 0.5831167102 4288370496
-0.2723148465 -0.1793989092 0.5841417909 4288304703
-0.2723855972 -0.1787963212 0.5842935443 4288959790
-0.2724561393 -0.1781932563 0.5844448805 4289025583
-0.2725264728 -0.1775897294 0.5845957398 4289877022
-0.2721891403 -0.1767211854 0.5838721395 4290205987
-0.2722589672 -0.1761176437 0.5840219259 4290796576
-0.2723285854 -0.1755136251 0.5841712952 4290730783
-0.2723980248 -0.1749091446 0.5843201876 4291058717
