VERSION 0.7
FIELDS x y z rgba
SIZE 4 4 4 4
TYPE F F F U
COUNT 1 1 1 1
WIDTH 920
HEIGHT 1
VIEWPOINT 0.0 0.0 0.0 1.0 0.0 0.0 0.0
POINTS 920
DATA ascii
-0.3083538711 -0.0891767517 0.6299320459 4294770687
-0.3083922267 -0.0884878561 0.6300104260 4294770687
-0.3079940677 -0.0876745209 0.6291970015 4294770687
-0.3080317974 -0.0869860947 0.6292740703 4294507775
-0.3080692291 -0.0862974152 0.6293505430 4293191660
-0.3081063926 -0.0856084824 0.6294264197 4291481042
-0.3081432283 -0.0849193037 0.6295017600 4291283665
-0.3081798255 -0.0842298791 0.6295764446 4291086286
-0.3086526692 -0.0836585388 0.6305424571 4290691526
-0.3086887002 -0.0829676464 0.6306160688 4290165182
-0.3087244630 -0.0822765157 0.6306891441 4289836478
-0.3091966510 -0.0817005485 0.6316537261 4290494408
-0.3092318773 -0.0810079575 0.6317257285 4291021006
-0.3088299930 -0.0802017003 0.6309046745 4292468452
-0.3048768342 -0.1008561552 0.6242452860 4294442493
-0.3049199879 -0.1001767442 0.6243335605 4294508286
-0.3049628437 -0.0994970500 0.6244213581 4294508286
-0.3050054014 -0.0988170654 0.6245085001 4294508286
-0.3050477207 -0.0981368050 0.6245951056 4294508286
-0.3059589267 -0.0977339074 0.6264608502 4294639615
-0.3060007691 -0.0970511362 0.6265465617 4294770687
-0.3056076467 -0.0962312073 0.6257416010 4294770687
-0.3056488633 -0.0955488458 0.6258260012 4294770687
-0.3061246574 -0.0950011611 0.6268001795 4294770687
-0.3061653674 -0.0943172872 0.6268835664 4294770687
-0.3066407740 -0.0937661454 0.6278569698 4294770687
-0.3066809773 -0.0930807590 0.6279392838 4294901759
-0.3067209125 -0.0923950970 0.6280210614 4294901759
-0.3063254356 -0.0915790871 0.6272112727 4294705151
-0.3063647449 -0.0908938721 0.6272917390 4294441980
-0.3064037561 -0.0902083963 0.6273716688 4294441982
-0.3060072064 -0.0893954933 0.6265596747 4294705151
-0.3064809144 -0.0888366550 0.6275296807 4294639359
-0.3060836792 -0.0880251825 0.6267163157 4294639359
-0.3061214983 -0.0873396471 0.6267937422 4294046969
-0.3061590493 -0.0866538584 0.6268705726 4292533730
-0.3057607412 -0.0858455300 0.6260550618 4288915117
-0.3057976365 -0.0851602182 0.6261306405 4285888639
-0.3058342636 -0.0844746530 0.6262055635 4287138706
-0.3058705926 -0.0837888494 0.6262800097 4288849324
-0.3059066236 -0.0831028000 0.6263538003 4288520359
-0.3063781857 -0.0825339109 0.6273193359 4287665050
-0.3068495691 -0.0819628239 0.6282845140 4288191655
-0.3068848550 -0.0812740996 0.6283567548 4289310136
-0.3069198430 -0.0805851370 0.6284283996 4290165443
-0.3065185249 -0.0797824487 0.6276066899 4291218131
-0.3052447140 -0.0787564740 0.6249984503 4293192173
-0.3030103147 -0.1135943830 0.6218376756 4294113274
-0.3026262522 -0.1127603725 0.6210494637 4294179067
-0.3026741743 -0.1120880917 0.6211478114 4294179067
-0.3027218282 -0.1114154905 0.6212455630 4294179067
-0.3023366630 -0.1105843633 0.6204552054 4294179067
-0.3023837209 -0.1099120900 0.6205517054 4294047481
-0.3019978106 -0.1090832278 0.6197597980 4294047481
-0.3020442426 -0.1084112898 0.6198550463 4294047481
-0.3020903766 -0.1077390462 0.6199497581 4294113274
-0.3025691211 -0.1072198898 0.6209322214 4294113017
-0.3030477166 -0.1066984907 0.6219143867 4294113017
-0.3030931950 -0.1060234010 0.6220076680 4294047224
-0.3027053177 -0.1051975116 0.6212117076 4294047224
-0.3027501702 -0.1045227870 0.6213037372 4294047224
-0.3027947247 -0.1038477570 0.6213951707 4294113017
-0.3024057746 -0.1030248329 0.6205970049 4294310396
-0.3028830290 -0.1024968177 0.6215764284 4294310396
-0.3029267788 -0.1018209010 0.6216661930 4294310396
-0.3029702604 -0.1011446938 0.6217554212 4294310396
-0.3030134439 -0.1004682034 0.6218440533 4294376189
-0.3030563593 -0.0997914150 0.6219320893 4294441982
-0.3030989766 -0.0991143510 0.6220195889 4294441982
-0.3027076423 -0.0982961655 0.6212164760 4294441982
-0.3031834066 -0.0977593511 0.6221928596 4294573566
-0.3036589921 -0.0972203240 0.6231688261 4294705151
-0.3037005663 -0.0965411514 0.6232541800 4294770687
-0.3033079505 -0.0957247615 0.6224484444 4294770687
-0.3037828803 -0.0951819792 0.6234230995 4294770687
-0.3042576611 -0.0946369842 0.6243973970 4294770687
-0.3042981625 -0.0939557403 0.6244805455 4294770687
-0.3043383956 -0.0932742283 0.6245630980 4294770687
-0.3048125505 -0.0927245319 0.6255361438 4294901759
-0.3048522472 -0.0920415074 0.6256176829 4294901759
-0.3044573665 -0.0912280828 0.6248072982 4294901759
-0.3040620983 -0.0904163346 0.6239960790 4294901759
-0.3041008711 -0.0897344649 0.6240756512 4294770687
-0.3041393161 -0.0890523419 0.6241545677 4293915638
-0.3041775227 -0.0883699581 0.6242329478 4292270558
-0.3037808239 -0.0875620469 0.6234188676 4291283663
-0.3033837378 -0.0867558345 0.6226040125 4290494149
-0.3034209907 -0.0860746354 0.6226803660 4289309875
-0.3034579158 -0.0853931904 0.6227561831 4285691519
-0.3034945726 -0.0847114921 0.6228314638 4282928213
-0.3035309613 -0.0840295553 0.6229060888 4285230968
-0.3035670519 -0.0833473727 0.6229801178 4287467930
-0.3036028445 -0.0826649442 0.6230536103 4287138965
-0.3036383688 -0.0819822773 0.6231265068 4287402137
-0.3032385409 -0.0811828971 0.6223059893 4287336861
-0.3037085533 -0.0806162283 0.6232705116 4288060584
-0.3037432134 -0.0799328461 0.6233416200 4288586413
-0.3033423424 -0.0791357011 0.6225190163 4288981171
-0.3025058806 -0.0782277212 0.6208024025 4291349971
-0.3001775742 -0.1203356236 0.6174315810 4293390322
-0.3006591797 -0.1198415831 0.6184222102 4293127150
-0.3007098734 -0.1191745624 0.6185264587 4293061357
-0.3007602990 -0.1185071990 0.6186301708 4292929771
-0.3003794849 -0.1176706776 0.6178469062 4292994794
-0.3004292846 -0.1170036048 0.6179493666 4292929001
-0.3004788458 -0.1163362041 0.6180512309 4292994794
-0.3005281091 -0.1156684682 0.6181526184 4293060587
-0.3010083735 -0.1151654050 0.6191404462 4293323759
-0.3010571897 -0.1144960597 0.6192408204 4293521138
-0.3011057377 -0.1138263866 0.6193407178 4293849845
-0.3007225394 -0.1129942760 0.6185525656 4293849845
-0.3007704914 -0.1123249233 0.6186511517 4293915638
-0.3008181453 -0.1116552502 0.6187492013 4293981431
-0.3008655310 -0.1109852567 0.6188466549 4294113017
-0.3004809320 -0.1101566851 0.6180555820 4294178810
-0.3005277216 -0.1094870195 0.6181518435 4294244603
-0.3001423776 -0.1086607054 0.6173592210 4294244603
-0.3001885712 -0.1079913899 0.6174541712 4294507773
-0.2998024821 -0.1071673408 0.6166600585 4294573566
-0.3007121682 -0.1068052873 0.6185311675 4294573566
-0.3011897206 -0.1062865779 0.6195134521 4294507773
-0.3008027375 -0.1054625809 0.6187174916 4294441980
-0.3008476198 -0.1047907770 0.6188098192 4294441980
-0.3008922338 -0.1041186675 0.6189015508 4294441980
-0.3005042076 -0.1032976359 0.6181033850 4294441980
-0.3005481958 -0.1026258990 0.6181939244 4294704382
-0.3010244071 -0.1021005660 0.6191734672 4294704382
-0.3010679185 -0.1014272794 0.6192629337 4294704382
-0.3006785214 -0.1006089449 0.6184620261 4294704382
-0.3007214367 -0.0999360383 0.6185502410 4294638589
-0.3011968136 -0.0994056761 0.6195280552 4294638589
-0.3012392223 -0.0987312347 0.6196152568 4294638589
-0.3008484542 -0.0979156271 0.6188115478 4294638589
-0.3013232052 -0.0973815024 0.6197879910 4294507003
-0.3017977774 -0.0968451649 0.6207641363 4294638589
-0.3014060557 -0.0960306525 0.6199584603 4294638589
-0.3014470935 -0.0953548104 0.6200428605 4294572796
-0.3019210100 -0.0948147252 0.6210176349 4294572796
-0.3023947477 -0.0942724198 0.6219920516 4294572796
-0.3024350405 -0.0935938135 0.6220749617 4294572796
-0.3020417094 -0.0927818194 0.6212658882 4294638589
-0.3025147915 -0.0922357887 0.6222389936 4294704382
-0.3025542498 -0.0915563777 0.6223201156 4294638589
-0.3021599054 -0.0907464996 0.6215090156 4294638591
-0.3021987379 -0.0900675356 0.6215888858 4294835967
-0.3022373021 -0.0893883109 0.6216682196 4294046969
-0.3022755682 -0.0887088180 0.6217468977 4291810007
-0.3018798232 -0.0879027843 0.6209329367 4289967805
-0.3014836609 -0.0870984346 0.6201180816 4289309875
-0.3015210032 -0.0864201337 0.6201948524 4288981169
-0.3015580177 -0.0857415870 0.6202710271 4288981169
-0.3015947640 -0.0850627795 0.6203466058 4287270553
-0.3016312420 -0.0843837336 0.6204215884 4284046696
-0.3016674221 -0.0837044418 0.6204960346 4284902006
-0.3012692034 -0.0829054415 0.6196769476 4288520621
-0.3013047874 -0.0822266415 0.6197501421 4289704895
-0.3013400435 -0.0815476030 0.6198226810 4289441723
-0.3009407818 -0.0807517990 0.6190014482 4288915895
-0.3014097512 -0.0801888108 0.6199660301 4288981688
-0.3014441729 -0.0795090646 0.6200368404 4288389034
-0.3010439277 -0.0787155032 0.6192135811 4287533725
-0.2997743487 -0.0776984543 0.6166021824 4289705146
-0.2998077273 -0.0770219415 0.6166708469 4293652726
-0.2998408079 -0.0763451979 0.6167389154 4293652464
-0.2962523997 -0.1292129010 0.6107532382 4293324275
-0.2963066995 -0.1285578609 0.6108651161 4293126896
-0.2963607013 -0.1279024482 0.6109765172 4292995310
-0.2964144647 -0.1272466928 0.6110873222 4292797931
-0.2964679599 -0.1265905797 0.6111976504 4292534759
-0.2965212166 -0.1259341091 0.6113074422 4292140001
-0.2965742052 -0.1252772808 0.6114166379 4291745243
-0.2966269255 -0.1246201098 0.6115253568 4291547864
-0.2971087694 -0.1241419837 0.6125186682 4291482071
-0.2971610427 -0.1234831586 0.6126264930 4291284694
-0.2972130775 -0.1228239909 0.6127337813 4291218901
-0.2972648442 -0.1221644729 0.6128404737 4291021522
-0.2977460027 -0.1216801926 0.6138324142 4290889936
-0.2973676026 -0.1208444089 0.6130523086 4290824143
-0.2974185944 -0.1201838627 0.6131574512 4290824143
-0.2978991568 -0.1196957082 0.6141481996 4291020752
-0.2979497015 -0.1190335304 0.6142523885 4291086545
-0.2984299958 -0.1185418293 0.6152425408 4291612889
-0.2980499864 -0.1177081764 0.6144590974 4291810268
-0.2976695597 -0.1168761030 0.6136748195 4292336612
-0.2981491983 -0.1163814887 0.6146636605 4292994542
-0.2981984019 -0.1157176495 0.6147651076 4293586679
-0.2982473373 -0.1150534824 0.6148660183 4294047230
-0.2987264693 -0.1145540550 0.6158537865 4294441983
-0.2992054522 -0.1140523776 0.6168412566 4294639359
-0.2988231778 -0.1132221743 0.6160531044 4294639359
-0.2984404564 -0.1123935729 0.6152641773 4294573567
-0.2984880805 -0.1117277890 0.6153622866 4294573567
-0.2989661992 -0.1112219542 0.6163480282 4294507775
-0.2985824943 -0.1103952751 0.6155569553 4294441982
-0.2986293137 -0.1097285450 0.6156534553 4294441982
-0.2982448637 -0.1089041308 0.6148608923 4294638591
-0.2982910573 -0.1082377434 0.6149561405 4294704383
-0.2983369827 -0.1075710431 0.6150507927 4294507005
-0.2988138497 -0.1070585251 0.6160339117 4294507005
-0.2988592982 -0.1063902453 0.6161276102 4294572798
-0.2989044785 -0.1057216674 0.6162207723 4294572798
-0.2989493906 -0.1050527841 0.6163133383 4294572798
-0.2985625863 -0.1042329818 0.6155159473 4294572798
-0.2986069024 -0.1035644636 0.6156072617 4294638591
-0.2982193530 -0.1027469561 0.6148083210 4294638591
-0.2982630730 -0.1020788178 0.6148983836 4294704383
-0.2987381816 -0.1015571430 0.6158779263 4294638591
-0.2987814248 -0.1008874550 0.6159670353 4294572798
-0.2983925343 -0.1000726447 0.6151652932 4294638591
-0.2984351516 -0.0994033441 0.6152531505 4294704383
-0.2989094257 -0.0988766477 0.6162309647 4294704383
-0.2989515364 -0.0982058048 0.6163177490 4294704383
-0.2994254529 -0.0976756290 0.6172947884 4294638591
-0.2994670868 -0.0970032588 0.6173806190 4294638591
-0.2995084524 -0.0963306054 0.6174658537 4294704383
-0.2995495200 -0.0956576690 0.6175505519 4294704383
-0.2995903194 -0.0949844643 0.6176346540 4294704383
-0.2996308506 -0.0943109840 0.6177182198 4294572798
-0.3001035154 -0.0937723443 0.6186926961 4294572798
-0.3001435399 -0.0930973515 0.6187751889 4294638591
-0.3001832962 -0.0924220830 0.6188571453 4294572798
-0.3002227545 -0.0917465538 0.6189385056 4294704383
-0.3002619445 -0.0910707489 0.6190192699 4294507006
-0.3003008366 -0.0903946906 0.6190994978 4294375934
-0.2999067008 -0.0895890892 0.6182869673 4294178555
-0.2999449968 -0.0889134780 0.6183658838 4293125869
-0.3004159033 -0.0883649364 0.6193366647 4290823114
-0.3000207543 -0.0875614882 0.6185220480 4289572795
-0.2996252179 -0.0867597312 0.6177065969 4288849072
-0.2996623218 -0.0860840827 0.6177831292 4287862691
-0.2996991575 -0.0854081735 0.6178590655 4287994277
-0.3001688719 -0.0848544687 0.6188274026 4287533472
-0.3002052009 -0.0841770917 0.6189023256 4284506994
-0.2998079956 -0.0833789781 0.6180834174 4282336595
-0.2994104028 -0.0825825855 0.6172637343 4283191904
-0.2994457781 -0.0819064379 0.6173366904 4283455078
-0.2990474701 -0.0811124966 0.6165155172 4283389285
-0.2990822196 -0.0804368481 0.6165871620 4283059548
-0.2991167009 -0.0797609687 0.6166582704 4283059548
-0.2991508842 -0.0790848583 0.6167287230 4282928215
-0.2987512052 -0.0782948807 0.6159047484 4283125594
-0.2979174554 -0.0773939788 0.6141859293 4286941840
-0.2979506552 -0.0767201185 0.6142543554 4292468452
-0.2979835868 -0.0760460421 0.6143222451 4292797157
-0.2930899858 -0.1388931572 0.6056203246 4293324277
-0.2931478918 -0.1382475793 0.6057399511 4293061105
-0.2932055593 -0.1376016289 0.6058591604 4292929519
-0.2932629883 -0.1369552910 0.6059777737 4292732140
-0.2937470973 -0.1365069747 0.6069781780 4292666347
-0.2938041091 -0.1358589381 0.6070959568 4292600554
-0.2938608825 -0.1352105290 0.6072131991 4292468968
-0.2939173877 -0.1345617473 0.6073299646 4292205796
-0.2939736247 -0.1339125782 0.6074462533 4292008417
-0.2940296531 -0.1332630515 0.6075619459 4291745247
-0.2940853834 -0.1326131523 0.6076771617 4291482075
-0.2941409051 -0.1319628805 0.6077918410 4291284696
-0.2941961586 -0.1313122362 0.6079060435 4291087317
-0.2942511439 -0.1306612343 0.6080196500 4290955476
-0.2943058908 -0.1300098598 0.6081327796 4290823890
-0.2943603694 -0.1293581277 0.6082453728 4290626511
-0.2944146097 -0.1287060380 0.6083574295 4290429132
-0.2940405905 -0.1278674603 0.6075845957 4290560718
-0.2940942347 -0.1272155941 0.6076954603 4290429132
-0.2945758104 -0.1267475933 0.6086905003 4290297546
-0.2946290076 -0.1260940731 0.6088004708 4290100167
-0.2946819961 -0.1254401952 0.6089099050 4289771202
-0.2947346866 -0.1247859746 0.6090188026 4289508030
-0.2947871387 -0.1241313964 0.6091272235 4289376444
-0.2948393226 -0.1234764680 0.6092350483 4289244858
-0.2953198850 -0.1229997128 0.6102280021 4289310906
-0.2953716218 -0.1223431379 0.6103349328 4289574078
-0.2954231203 -0.1216862276 0.6104413271 4289705664
-0.2954743505 -0.1210289672 0.6105471849 4289705664
-0.2955253124 -0.1203713641 0.6106525064 4289837250
-0.2951470315 -0.1195396781 0.6098708510 4289903043
-0.2960555553 -0.1192279384 0.6117481589 4290362824
-0.2961058021 -0.1185683757 0.6118519902 4290757582
-0.2961558104 -0.1179084703 0.6119553447 4291020754
-0.2957762778 -0.1170783043 0.6111710668 4291283926
-0.2953963280 -0.1162497252 0.6103859544 4291744477
-0.2958748043 -0.1157587469 0.6113746762 4292205028
-0.2959236801 -0.1150984764 0.6114757061 4292731372
-0.2964018583 -0.1146039739 0.6124637723 4293060337
-0.2964502871 -0.1139420941 0.6125637889 4293323509
-0.2964984477 -0.1132798865 0.6126633286 4293389302
-0.2969761193 -0.1127805784 0.6136503220 4293718006
-0.2961640954 -0.1117922664 0.6119724512 4293915385
-0.2966413200 -0.1112913489 0.6129585505 4294178557
-0.2971183956 -0.1107882038 0.6139443517 4294375935
-0.2967352271 -0.1099640727 0.6131526232 4294375935
-0.2963516712 -0.1091415584 0.6123600602 4294375935
-0.2963978946 -0.1084780991 0.6124555469 4294441727
-0.2964438498 -0.1078143269 0.6125504971 4294441727
-0.2964895368 -0.1071502566 0.6126449108 4294573311
-0.2969653308 -0.1066404209 0.6136280894 4294507519
-0.2970105410 -0.1059747711 0.6137214899 4294572543
-0.2970554829 -0.1053088158 0.6138143539 4294440959
-0.2966696024 -0.1044909060 0.6130169630 4294309373
-0.2967139482 -0.1038253158 0.6131085753 4294309373
-0.2967579961 -0.1031594276 0.6131996512 4294243580
-0.2968018055 -0.1024932414 0.6132901907 4294243580
-0.2964144945 -0.1016789749 0.6124898791 4293981439
-0.2968885899 -0.1011599973 0.6134694815 4293718267
-0.2969315648 -0.1004929319 0.6135582924 4293520888
-0.2965432703 -0.0996806994 0.6127559543 4293455095
-0.2965856493 -0.0990140364 0.6128435135 4293323507
-0.2970589101 -0.0984900296 0.6138213873 4293191921
-0.2971008122 -0.0978218243 0.6139079928 4292928749
-0.2967111468 -0.0970123261 0.6131028533 4292665577
-0.2971837819 -0.0964845717 0.6140794158 4292533734
-0.2976562381 -0.0959545895 0.6150556803 4292270562
-0.2972656488 -0.0951462016 0.6142485738 4292138976
-0.2977376580 -0.0946137235 0.6152239442 4291941597
-0.2977779806 -0.0939428806 0.6153072715 4291612632
-0.2978180051 -0.0932717696 0.6153899431 4291415253
-0.2982894480 -0.0927345902 0.6163641214 4291283667
-0.2983289659 -0.0920619667 0.6164457798 4291086288
-0.2983682454 -0.0913890749 0.6165269017 4290888909
-0.2984071970 -0.0907159224 0.6166074872 4290625737
-0.2980140150 -0.0899121910 0.6157949567 4290230979
-0.2984843254 -0.0893688202 0.6167668104 4289573049
-0.2985224724 -0.0886948854 0.6168456674 4288520107
-0.2985603511 -0.0880206898 0.6169238687 4286941075
-0.2985979319 -0.0873462334 0.6170015335 4286086280
-0.2982030511 -0.0865461007 0.6161856055 4284573041
-0.2978078127 -0.0857476667 0.6153689027 4283256927
-0.2978444397 -0.0850744098 0.6154446006 4283520099
-0.2983131409 -0.0845234096 0.6164130569 4283322720
-0.2983492613 -0.0838486850 0.6164877415 4282204239
-0.2983851135 -0.0831737146 0.6165618300 4281612874
-0.2979881763 -0.0823789388 0.6157416105 4282270804
-0.2975908816 -0.0815858841 0.6149206758 4282204757
-0.2976257801 -0.0809121504 0.6149927974 4282467929
-0.2976604104 -0.0802381858 0.6150643229 4282138446
-0.2976947427 -0.0795639828 0.6151352525 4282270032
-0.2981615663 -0.0790042132 0.6160998344 4282401871
-0.2973297834 -0.0781011954 0.6143811345 4282204492
-0.2969304025 -0.0773145780 0.6135558486 4285757053
-0.2969635129 -0.0766414255 0.6136242747 4291349458
-0.2969963253 -0.0759680420 0.6136921048 4292336606
-0.2903687656 -0.1479427218 0.6013775468 4293324277
-0.2904299796 -0.1473055929 0.6015043259 4293258484
-0.2904909849 -0.1466680765 0.6016306877 4293126898
-0.2905517220 -0.1460301578 0.6017565131 4292929519
-0.2901873887 -0.1451792866 0.6010018587 4292666347
-0.2898226082 -0.1443298757 0.6002464294 4292403175
-0.2898824513 -0.1436926275 0.6003703475 4292205796
-0.2899420857 -0.1430549771 0.6004938483 4292140003
-0.2900014520 -0.1424169540 0.6006168127 4291810785
-0.2900605798 -0.1417785287 0.6007393003 4291613406
-0.2901194990 -0.1411397159 0.6008612514 4291416027
-0.2901781499 -0.1405005157 0.6009827256 4291152855
-0.2902365327 -0.1398609281 0.6011037230 4290823890
-0.2902947068 -0.1392209530 0.6012241840 4290560718
-0.2907783687 -0.1387837827 0.6022258997 4290363339
-0.2912619412 -0.1383443624 0.6032274365 4290165960
-0.2913195491 -0.1377013624 0.6033467054 4290034374
-0.2913769186 -0.1370579898 0.6034654975 4289902788
-0.2914340198 -0.1364142150 0.6035837531 4289771202
-0.2914908826 -0.1357700825 0.6037015319 4289705409
-0.2915475070 -0.1351255625 0.6038187742 4289705409
-0.2916038632 -0.1344806701 0.6039355397 4289639616
-0.2916599810 -0.1338354051 0.6040517688 4289442237
-0.2917158604 -0.1331897825 0.6041674614 4289310651
-0.2917714715 -0.1325437725 0.6042826772 4289179067
-0.2918268442 -0.1318973899 0.6043973565 4289179067
-0.2918819785 -0.1312506497 0.6045114994 4289179067
-0.2919368446 -0.1306035519 0.6046251655 4289113274
-0.2919914722 -0.1299560815 0.6047382951 4289047481
-0.2920458317 -0.1293082386 0.6048508883 4288981688
-0.2920999527 -0.1286600381 0.6049630046 4288850102
-0.2921538055 -0.1280114949 0.6050745249 4288784309
-0.2922074199 -0.1273625791 0.6051855683 4288521139
-0.2922607958 -0.1267133057 0.6052960753 4288652725
-0.2923139036 -0.1260636896 0.6054061055 4288850104
-0.2927941978 -0.1255970597 0.6064007878 4288850104
-0.2928468585 -0.1249457821 0.6065099239 4288915897
-0.2928992808 -0.1242941469 0.6066184640 4289113276
-0.2929514647 -0.1236421689 0.6067265272 4289310655
-0.2930033505 -0.1229898408 0.6068339944 4289376448
-0.2930550277 -0.1223371699 0.6069409847 4289179067
-0.2935343087 -0.1218617931 0.6079336405 4289310653
-0.2935855091 -0.1212074757 0.6080397367 4289442239
-0.2936364710 -0.1205528229 0.6081452370 4289442239
-0.2932590544 -0.1197230518 0.6073635817 4289442239
-0.2933094203 -0.1190686673 0.6074678898 4289508032
-0.2937877774 -0.1185868233 0.6084586382 4289705411
-0.2938376963 -0.1179308146 0.6085619926 4290034376
-0.2938873768 -0.1172744781 0.6086648703 4290297548
-0.2935082912 -0.1164478064 0.6078797579 4290560720
-0.2935573459 -0.1157917604 0.6079813838 4291217880
-0.2936061621 -0.1151353940 0.6080824733 4291678431
-0.2936547101 -0.1144786924 0.6081829667 4292073189
-0.2941317558 -0.1139878333 0.6091709733 4292402154
-0.2941798270 -0.1133295223 0.6092705727 4292533740
-0.2942276597 -0.1126708984 0.6093696356 4292467947
-0.2942752242 -0.1120119467 0.6094681621 4292402408
-0.2943225205 -0.1113526821 0.6095660925 4292468201
-0.2947986722 -0.1108544543 0.6105522513 4292599787
-0.2952746749 -0.1103539914 0.6115381122 4292599787
-0.2944628298 -0.1093729809 0.6098567247 4292468200
-0.2945090830 -0.1087124571 0.6099524498 4292336614
-0.2945550382 -0.1080516204 0.6100476980 4292139235
-0.2946007550 -0.1073904708 0.6101423502 4292007649
-0.2950757146 -0.1068846062 0.6111260056 4291678684
-0.2951209545 -0.1062218845 0.6112197042 4291415512
-0.2955955565 -0.1057125106 0.6122027040 4291152340
-0.2952106297 -0.1048955321 0.6114054322 4290823375
-0.2948252857 -0.1040801778 0.6106073856 4290494410
-0.2948693931 -0.1034172177 0.6106987000 4290297031
-0.2953431308 -0.1029037461 0.6116798520 4290231238
-0.2953867614 -0.1022392288 0.6117702127 4290099652
-0.2950000763 -0.1014265642 0.6109694242 4289442239
-0.2950431108 -0.1007624269 0.6110585332 4289047481
-0.2950858772 -0.1000979990 0.6111470461 4288652721
-0.2951283455 -0.0994332880 0.6112350225 4288455342
-0.2951705754 -0.0987682864 0.6113224626 4288323242
-0.2952125072 -0.0981030017 0.6114093661 4287994277
-0.2948237658 -0.0972953960 0.6106042266 4287599519
-0.2952955663 -0.0967715830 0.6115813851 4287204761
-0.2953366935 -0.0961054564 0.6116665602 4287007382
-0.2953775525 -0.0954390541 0.6117511392 4286744210
-0.2954181433 -0.0947723687 0.6118351817 4286546831
-0.2954584360 -0.0941054150 0.6119186878 4286349452
-0.2959292233 -0.0935743973 0.6128937006 4286020487
-0.2963998616 -0.0930411592 0.6138684154 4285757315
-0.2964394689 -0.0923714489 0.6139504313 4285625729
-0.2964787781 -0.0917014703 0.6140319109 4285428350
-0.2969488204 -0.0911635384 0.6150053740 4285230971
-0.2965565920 -0.0903607160 0.6141930819 4285296764
-0.2965950966 -0.0896899402 0.6142727733 4285362556
-0.2966333032 -0.0890189111 0.6143519282 4284836212
-0.2971024513 -0.0884760320 0.6153236032 4284441455
-0.2971401811 -0.0878035054 0.6154016852 4284178283
-0.2967463136 -0.0870042667 0.6145859361 4284770166
-0.2967834175 -0.0863322169 0.6146628261 4283520099
-0.2963888049 -0.0855353996 0.6138455868 4282862171
-0.2959938347 -0.0847402960 0.6130275130 4282796378
-0.2964615226 -0.0841920003 0.6139961481 4282533206
-0.2964974642 -0.0835199282 0.6140705943 4282072655
-0.2965331078 -0.0828476176 0.6141444445 4281875276
-0.2961367965 -0.0820554420 0.6133236289 4282664792
-0.2961718440 -0.0813836306 0.6133962274 4282731101
-0.2966383994 -0.0808292329 0.6143624783 4282731101
-0.2966729403 -0.0801559612 0.6144340634 4282467411
-0.2967072129 -0.0794824585 0.6145049930 4282664790
-0.2967411876 -0.0788087249 0.6145753264 4282730836
-0.2963428795 -0.0780210197 0.6137504578 4282336078
-0.2955121696 -0.0771223083 0.6120299697 4285494394
-0.2959772348 -0.0765625983 0.6129931808 4291021006
-0.2960099876 -0.0758899152 0.6130610108 4292533730
-0.2868276238 -0.1557371020 0.5954132080 4293390070
-0.2868916094 -0.1551101506 0.5955460072 4293192691
-0.2873779833 -0.1547102928 0.5965556502 4292863726
-0.2878642976 -0.1543081701 0.5975651741 4292666347
-0.2879277766 -0.1536781043 0.5976969600 4292534761
-0.2879910171 -0.1530476362 0.5978282094 4292403175
-0.2880540490 -0.1524167508 0.5979590416 4292205026
-0.2876937389 -0.1515625566 0.5972111225 4292007647
-0.2877562046 -0.1509317756 0.5973407626 4291613659
-0.2878184021 -0.1503005773 0.5974699259 4291350487
-0.2878803909 -0.1496689767 0.5975986123 4291021524
-0.2879421413 -0.1490369588 0.5977267623 4290758352
-0.2880036831 -0.1484045386 0.5978544950 4290495180
-0.2880649567 -0.1477717161 0.5979816914 4290232008
-0.2885497212 -0.1473548710 0.5989879966 4289903043
-0.2886106074 -0.1467203200 0.5991144180 4289771457
-0.2886712849 -0.1460853517 0.5992403030 4289442492
-0.2887316942 -0.1454499960 0.5993657708 4289245113
-0.2879437506 -0.1443889290 0.5977301002 4289113272
-0.2880035043 -0.1437546462 0.5978541374 4288981686
-0.2880630493 -0.1431199610 0.5979776978 4288784307
-0.2876980007 -0.1422750503 0.5972199440 4288652721
-0.2877569795 -0.1416405141 0.5973423719 4288455603
-0.2878156900 -0.1410056055 0.5974642634 4288389810
-0.2878741920 -0.1403702945 0.5975856781 4288324017
-0.2879324257 -0.1397345960 0.5977065563 4288126638
-0.2879904211 -0.1390985250 0.5978270173 4287929259
-0.2884730399 -0.1386662722 0.5988288522 4287863466
-0.2889555693 -0.1382317692 0.5998305082 4287797673
-0.2890130281 -0.1375926733 0.5999497771 4287731880
-0.2894953489 -0.1371545941 0.6009509563 4287665830
-0.2895523906 -0.1365137845 0.6010693908 4287665830
-0.2891839147 -0.1356730759 0.6003044844 4287665828
-0.2892403901 -0.1350324601 0.6004217267 4287665828
-0.2892965972 -0.1343914717 0.6005384326 4287731621
-0.2893525958 -0.1337501109 0.6006546617 4287731621
-0.2898339033 -0.1333041191 0.6016538143 4287797414
-0.2898894846 -0.1326610595 0.6017691493 4287797414
-0.2899447978 -0.1320176423 0.6018840075 4287994793
-0.2895740271 -0.1311809421 0.6011143327 4288192172
-0.2896287739 -0.1305377334 0.6012279987 4288455344
-0.2901092768 -0.1300851852 0.6022254229 4288586930
-0.2901636064 -0.1294403076 0.6023381948 4288652725
-0.2902176678 -0.1287950575 0.6024504304 4288718518
-0.2902714908 -0.1281494498 0.6025621891 4288850104
-0.2898987532 -0.1273162663 0.6017884016 4289047483
-0.2899520099 -0.1266708970 0.6018989086 4289179069
-0.2900049984 -0.1260251701 0.6020089388 4289508034
-0.2900577188 -0.1253791004 0.6021184325 4289771206
-0.2905368507 -0.1249160990 0.6031129956 4289771206
-0.2905891836 -0.1242683679 0.6032215953 4289902792
-0.2906412184 -0.1236202866 0.6033296585 4290034378
-0.2906930447 -0.1229718626 0.6034372449 4290231757
-0.2907446027 -0.1223230883 0.6035442352 4290429136
-0.2912229002 -0.1218526438 0.6045371294 4290560722
-0.2912740111 -0.1212022305 0.6046432853 4290626515
-0.2913248837 -0.1205514744 0.6047488451 4290758101
-0.2918027341 -0.1200761870 0.6057407856 4290955480
-0.2918531597 -0.1194237918 0.6058454514 4291021273
-0.2919033170 -0.1187710688 0.6059495807 4290889687
-0.2919532061 -0.1181180105 0.6060531735 4290758101
-0.2920028567 -0.1174646094 0.6061562300 4290692308
-0.2920522690 -0.1168108806 0.6062587500 4290626515
-0.2921013832 -0.1161568239 0.6063607335 4290494929
-0.2921502590 -0.1155024320 0.6064622402 4290429136
-0.2921988666 -0.1148477197 0.6065631509 4290165964
-0.2922472358 -0.1141926795 0.6066634655 4289771206
-0.2922953069 -0.1135373116 0.6067633033 4289508034
-0.2923431396 -0.1128816232 0.6068626046 4289310655
-0.2923907042 -0.1122256070 0.6069613695 4288981690
-0.2924380302 -0.1115692779 0.6070595384 4288587441
-0.2924850583 -0.1109126359 0.6071572304 4288258476
-0.2933884561 -0.1105785295 0.6090325117 4287863718
-0.2934350967 -0.1099193245 0.6091293693 4287534753
-0.2930530608 -0.1091003045 0.6083362699 4287271068
-0.2930991054 -0.1084414423 0.6084318757 4287007896
-0.2931449115 -0.1077822670 0.6085269451 4286810517
-0.2936190665 -0.1072793975 0.6095112562 4286547345
-0.2936643958 -0.1066186428 0.6096053720 4286284173
-0.2937094569 -0.1059575826 0.6096988916 4286021001
-0.2941831052 -0.1054499373 0.6106820703 4285757829
-0.2937987745 -0.1046345606 0.6098843217 4285428864
-0.2934140861 -0.1038208082 0.6090857387 4285165692
-0.2934580147 -0.1031595170 0.6091769338 4285099899
-0.2939307690 -0.1026477739 0.6101582646 4285165692
-0.2935450673 -0.1018360332 0.6093576550 4285099899
-0.2935881913 -0.1011738554 0.6094471216 4284836213
-0.2936310470 -0.1005113870 0.6095361114 4284573041
-0.2936736345 -0.0998486280 0.6096245050 4284507248
-0.2937159538 -0.0991855860 0.6097123623 4284573041
-0.2937580049 -0.0985222533 0.6097996235 4284638834
-0.2937997878 -0.0978586376 0.6098863482 4284704627
-0.2938412726 -0.0971947387 0.6099725366 4284638834
-0.2938825190 -0.0965305567 0.6100581288 4284507248
-0.2939234674 -0.0958660990 0.6101431847 4284375661
-0.2943939567 -0.0953405499 0.6111198068 4284507247
-0.2944344282 -0.0946745649 0.6112037897 4284770419
-0.2944746315 -0.0940083116 0.6112872958 4285165177
-0.2949445248 -0.0934780538 0.6122626662 4285296763
-0.2949842215 -0.0928102806 0.6123450994 4285296763
-0.2950236797 -0.0921422392 0.6124269962 4285296763
-0.2954929769 -0.0916072726 0.6134011745 4285362556
-0.2955319285 -0.0909377262 0.6134820580 4285428350
-0.2955705822 -0.0902679190 0.6135623455 4285362557
-0.2951787114 -0.0894674286 0.6127488017 4285494143
-0.2960774601 -0.0890569538 0.6146144867 4285494143
-0.2961153686 -0.0883853883 0.6146931648 4285494143
-0.2961529791 -0.0877135620 0.6147713065 4285165178
-0.2957598269 -0.0869149715 0.6139551401 4285559682
-0.2957968414 -0.0862436146 0.6140319705 4283914857
-0.2954029441 -0.0854474455 0.6132143140 4283191136
-0.2954393625 -0.0847765654 0.6132898927 4283454308
-0.2954754829 -0.0841054395 0.6133649349 4282927962
-0.2955113351 -0.0834340751 0.6134393215 4282204239
-0.2955469191 -0.0827624574 0.6135131717 4282006862
-0.2951513231 -0.0819709376 0.6126919985 4282862171
-0.2951862812 -0.0812998191 0.6127645373 4283059552
-0.2956519425 -0.0807461739 0.6137312055 4282927966
-0.2952553630 -0.0799568743 0.6129079461 4282731353
-0.2957205772 -0.0794008002 0.6138736606 4283126111
-0.2957544625 -0.0787277594 0.6139439940 4283520352
-0.2957880795 -0.0780544952 0.6140137911 4282994008
-0.2949589491 -0.0771554038 0.6122926474 4285823359
-0.2949918807 -0.0764836445 0.6123610139 4291349971
-0.2954558730 -0.0759224966 0.6133242249 4293192173
-0.2854324579 -0.1639157832 0.5938863158 4293324279
-0.2854993045 -0.1632941663 0.5940253735 4293126645
-0.2851453722 -0.1624325365 0.5932889581 4292929266
-0.2852116823 -0.1618109643 0.5934269428 4292731887
-0.2848570049 -0.1609512269 0.5926889777 4292402922
-0.2849227786 -0.1603297144 0.5928257704 4292271336
-0.2849883139 -0.1597077698 0.5929621458 4292205543
-0.2846325636 -0.1588504016 0.5922219753 4291810785
-0.2842763960 -0.1579944640 0.5914809108 4291481820
-0.2843410671 -0.1573730707 0.5916154981 4291218648
-0.2848268449 -0.1569834948 0.5926262140 4291021269
-0.2844697237 -0.1561290324 0.5918831825 4290626511
-0.2849552631 -0.1557367593 0.5928933620 4290429132
-0.2850191295 -0.1551127732 0.5930262208 4290034374
-0.2846610248 -0.1542598307 0.5922811627 4289573823
-0.2847243249 -0.1536359191 0.5924128890 4289244860
-0.2852093279 -0.1532382816 0.5934219956 4288981688
-0.2856942713 -0.1528383791 0.5944309831 4288850102
-0.2857570648 -0.1522113830 0.5945616961 4288718516
-0.2853974700 -0.1513600647 0.5938134789 4288257963
-0.2854597270 -0.1507331580 0.5939429998 4288192170
-0.2855217457 -0.1501058489 0.5940720439 4288060584
-0.2855835259 -0.1494781375 0.5942006111 4287731619
-0.2856450677 -0.1488500237 0.5943286419 4287402656
-0.2857064009 -0.1482214928 0.5944562554 4287271070
-0.2857674956 -0.1475925595 0.5945833921 4287205790
-0.2858283520 -0.1469632238 0.5947099924 4287205790
-0.2863118947 -0.1465499550 0.5957160592 4286811032
-0.2863723636 -0.1459188908 0.5958418846 4286876825
-0.2864325941 -0.1452874243 0.5959672332 4287073950
-0.2864926159 -0.1446555555 0.5960920453 4287205536
-0.2861291170 -0.1438105553 0.5953357816 4287140256
-0.2857652009 -0.1429670304 0.5945785642 4287074463
-0.2858242989 -0.1423358470 0.5947015882 4287074463
-0.2858831882 -0.1417042762 0.5948240757 4287074463
-0.2855182290 -0.1408633292 0.5940647125 4287073950
-0.2860002518 -0.1404399723 0.5950676203 4287139743
-0.2860583961 -0.1398072392 0.5951886177 4287468708
-0.2861163318 -0.1391741186 0.5953091979 4287797673
-0.2861740291 -0.1385406107 0.5954291821 4287863466
-0.2866555154 -0.1381110400 0.5964310169 4288060845
-0.2871369421 -0.1376791894 0.5974326730 4288389810
-0.2871940732 -0.1370426714 0.5975515842 4288521396
-0.2872509658 -0.1364057660 0.5976699591 4288784568
-0.2873076200 -0.1357684731 0.5977877975 4289047740
-0.2873640060 -0.1351308078 0.5979051590 4289310912
-0.2869956195 -0.1342941225 0.5971387029 4289442498
-0.2870514691 -0.1336566508 0.5972548723 4289574084
-0.2871070504 -0.1330188215 0.5973705053 4289705670
-0.2875871956 -0.1325764358 0.5983695388 4289968842
-0.2876423895 -0.1319369227 0.5984843373 4290166221
-0.2876973152 -0.1312970370 0.5985986590 4290297809
-0.2877520025 -0.1306567788 0.5987124443 4290232016
-0.2873813212 -0.1298241168 0.5979412198 4290100943
-0.2878606319 -0.1293751746 0.5989384651 4290232529
-0.2879146039 -0.1287338436 0.5990507603 4290364115
-0.2883936465 -0.1282813400 0.6000474691 4290364115
-0.2884471714 -0.1276383400 0.6001588702 4290297807
-0.2880749404 -0.1268076599 0.5993843675 4290297807
-0.2881278992 -0.1261648834 0.5994945765 4290232014
-0.2881806195 -0.1255217642 0.5996042490 4290034635
-0.2882330716 -0.1248782873 0.5997133851 4289771463
-0.2882852554 -0.1242344603 0.5998219848 4289245119
-0.2887631357 -0.1237728372 0.6008162498 4288455603
-0.2888149023 -0.1231273636 0.6009239554 4288324017
-0.2884403765 -0.1223008856 0.6001446843 4288652723
-0.2884915769 -0.1216556728 0.6002511978 4288521137
-0.2889687121 -0.1211888641 0.6012439728 4287994795
-0.2890194654 -0.1205420122 0.6013495922 4287929002
-0.2890699804 -0.1198948175 0.6014547348 4287665830
-0.2895466685 -0.1194231659 0.6024465561 4287205279
-0.2900232673 -0.1189492717 0.6034381390 4286876312
-0.2900731564 -0.1182991564 0.6035419703 4286547347
-0.2901227772 -0.1176487058 0.6036452055 4286284177
-0.2905988991 -0.1171699762 0.6046358347 4286021005
-0.2906480730 -0.1165179014 0.6047381759 4285626247
-0.2902701497 -0.1156953573 0.6039518118 4285363075
-0.2903187573 -0.1150435880 0.6040529609 4285230717
-0.2907941043 -0.1145597100 0.6050420403 4285099131
-0.2908422649 -0.1139063314 0.6051422358 4285033592
-0.2908901870 -0.1132526174 0.6052418947 4284967799
-0.2909378111 -0.1125985906 0.6053410172 4285033338
-0.2909851968 -0.1119442433 0.6054396033 4285033338
-0.2910323143 -0.1112895757 0.6055376530 4284770420
-0.2910791636 -0.1106345877 0.6056351066 4284704627
-0.2915532589 -0.1101407781 0.6066215634 4284638833
-0.2920272350 -0.1096447408 0.6076077223 4284573040
-0.2916457951 -0.1088273153 0.6068140864 4284507248
-0.2916916907 -0.1081701145 0.6069095135 4284441455
-0.2921650708 -0.1076702401 0.6078944802 4284507248
-0.2926383018 -0.1071681380 0.6088791490 4284638834
-0.2926835120 -0.1065080836 0.6089732051 4285033338
-0.2927284837 -0.1058477238 0.6090667248 4285033338
-0.2927731574 -0.1051870584 0.6091597080 4285165178
-0.2923894823 -0.1043732837 0.6083614230 4285165178
-0.2920053899 -0.1035611331 0.6075623035 4285230971
-0.2924773693 -0.1030523852 0.6085442901 4285230971
-0.2925209403 -0.1023914963 0.6086349487 4285099131
-0.2921358645 -0.1015813649 0.6078337431 4285164924
-0.2921788096 -0.1009208560 0.6079230905 4285362044
-0.2922215164 -0.1002600566 0.6080119610 4285296251
-0.2922639251 -0.0995989665 0.6081001759 4285296764
-0.2923060656 -0.0989375859 0.6081879139 4285362557
-0.2927766144 -0.0984200239 0.6091669202 4285428350
-0.2928182781 -0.0977571085 0.6092536449 4285494143
-0.2932884693 -0.0972360745 0.6102319360 4285625215
-0.2929008305 -0.0964304358 0.6094253659 4285559422
-0.2929416895 -0.0957666785 0.6095103621 4285362043
-0.2929822803 -0.0951026455 0.6095948219 4285756801
-0.2934516370 -0.0945766047 0.6105713844 4285822594
-0.2934917212 -0.0939110518 0.6106548309 4285559422
-0.2935315669 -0.0932452232 0.6107376814 4285559422
-0.2935711145 -0.0925791264 0.6108199954 4285625215
-0.2936104238 -0.0919127613 0.6109017730 4285822078
-0.2940787375 -0.0913795307 0.6118761897 4285887871
-0.2945469022 -0.0908440799 0.6128503084 4285888388
-0.2945854962 -0.0901749730 0.6129305363 4285691009
-0.2941943109 -0.0893751234 0.6121166348 4285625475
-0.2950913608 -0.0889654607 0.6139830947 4285164924
-0.2951291502 -0.0882945955 0.6140617728 4285099131
-0.2951667011 -0.0876234695 0.6141398549 4285362303
-0.2952039540 -0.0869520903 0.6142173409 4285428096
-0.2948111594 -0.0861548632 0.6134001017 4283914857
-0.2948478162 -0.0854839608 0.6134763956 4282401618
-0.2944543362 -0.0846891701 0.6126576662 4282730583
-0.2944903672 -0.0840187445 0.6127326488 4282402388
-0.2945261300 -0.0833480731 0.6128070354 4281941837
-0.2941315770 -0.0825564638 0.6119861603 4282270802
-0.2941667438 -0.0818862915 0.6120592952 4282797146
-0.2942016125 -0.0812158734 0.6121318340 4282862941
-0.2942362130 -0.0805452242 0.6122038364 4282862941
-0.2942705154 -0.0798743367 0.6122752428 4283191136
-0.2947348356 -0.0793190077 0.6132413149 4283585894
-0.2947686315 -0.0786466748 0.6133116484 4283585892
-0.2948021591 -0.0779741034 0.6133813858 4283783271
-0.2944049835 -0.0771884620 0.6125550270 4287533725
-0.2944379151 -0.0765164271 0.6126235127 4292270821
-0.2944705486 -0.0758441612 0.6126914024 4293981431
-0.2817665040 -0.1758958846 0.5876166224 4293455861
-0.2818374038 -0.1752870977 0.5877645016 4292863724
-0.2814904749 -0.1744190753 0.5870409608 4292797931
-0.2815608680 -0.1738102883 0.5871877670 4292995310
-0.2816310525 -0.1732010394 0.5873340964 4293258484
-0.2817009985 -0.1725913286 0.5874800086 4293061105
-0.2817707658 -0.1719811708 0.5876255035 4293061105
-0.2818402946 -0.1713705659 0.5877705216 4293061105
-0.2823278904 -0.1710128486 0.5887873769 4292797933
-0.2823970914 -0.1704004258 0.5889317393 4292600554
-0.2828845680 -0.1700391024 0.5899482965 4292403175
-0.2833720446 -0.1696754992 0.5909649134 4292271589
-0.2834407985 -0.1690599173 0.5911083221 4292008417
-0.2839281261 -0.1686926931 0.5921246409 4291876831
-0.2835777104 -0.1678274125 0.5913938284 4291811040
-0.2836458087 -0.1672104895 0.5915358663 4291482075
-0.2837137282 -0.1665931195 0.5916774869 4291218648
-0.2837814093 -0.1659753025 0.5918186307 4291021269
-0.2838488817 -0.1653570533 0.5919593573 4290823890
-0.2834967375 -0.1644950360 0.5912249684 4290494925
-0.2835636735 -0.1638768166 0.5913645625 4290100167
-0.2836303711 -0.1632581651 0.5915036798 4289639616
-0.2832771838 -0.1623984873 0.5907670856 4289179580
-0.2825038135 -0.1613005251 0.5891542435 4288850615
-0.2834092975 -0.1611608267 0.5910425782 4288586930
-0.2826350927 -0.1600656807 0.5894280076 4288323758
-0.2827003896 -0.1594476253 0.5895642042 4288060586
-0.2827654779 -0.1588291228 0.5896999240 4287797414
-0.2828303277 -0.1582102031 0.5898351669 4287468449
-0.2820542455 -0.1571225375 0.5882167220 4287139484
-0.2825389206 -0.1567378491 0.5892274380 4287007898
-0.2826029956 -0.1561185867 0.5893611312 4287007898
-0.2830874920 -0.1557302922 0.5903715491 4286942105
-0.2831512392 -0.1551092565 0.5905044675 4286810519
-0.2832147479 -0.1544878036 0.5906369090 4286744726
-0.2828570902 -0.1536373049 0.5898910165 4286613140
-0.2829200625 -0.1530159563 0.5900223255 4286678933
-0.2829827964 -0.1523941755 0.5901531577 4286810519
-0.2834664881 -0.1519978344 0.5911619067 4286876312
-0.2835288644 -0.1513743103 0.5912919641 4286876312
-0.2835910022 -0.1507503837 0.5914215446 4287336863
-0.2832314372 -0.1499029696 0.5906717181 4287205277
-0.2837145925 -0.1495012790 0.5916792750 4287205277
-0.2837760448 -0.1488761157 0.5918074250 4287402656
-0.2838372588 -0.1482505500 0.5919350982 4287731621
-0.2838982344 -0.1476245821 0.5920622945 4288192172
-0.2835370600 -0.1467797905 0.5913090706 4288521650
-0.2835974991 -0.1461539418 0.5914351344 4288653236
-0.2840797901 -0.1457442641 0.5924409628 4288455603
-0.2841398716 -0.1451166868 0.5925661922 4288587189
-0.2841996849 -0.1444887221 0.5926909447 4288916154
-0.2842592597 -0.1438603550 0.5928152204 4289245119
-0.2838961482 -0.1430187672 0.5920579433 4289442498
-0.2839551866 -0.1423905492 0.5921810269 4289574084
-0.2840139568 -0.1417619288 0.5923036337 4289705670
-0.2840725183 -0.1411329359 0.5924257636 4289705670
-0.2841308415 -0.1405035406 0.5925474167 4289836999
-0.2846118212 -0.1400819123 0.5935504436 4289902792
-0.2846697569 -0.1394508183 0.5936712623 4290165964
-0.2847274542 -0.1388193369 0.5937916040 4290297550
-0.2847849131 -0.1381874681 0.5939114094 4290297550
-0.2852653563 -0.1377596110 0.5949134231 4290165964
-0.2853224277 -0.1371260434 0.5950323939 4290034378
-0.2858026624 -0.1366946101 0.5960339308 4289902792
-0.2858593166 -0.1360593438 0.5961520672 4289442498
-0.2859157324 -0.1354236901 0.5962697268 4289310912
-0.2859719098 -0.1347876787 0.5963869095 4289113533
-0.2860278487 -0.1341512799 0.5965035558 4288850361
-0.2860835493 -0.1335145235 0.5966197252 4288718775
-0.2861390114 -0.1328773797 0.5967353582 4288521396
-0.2861942053 -0.1322398782 0.5968504548 4288389810
-0.2866732478 -0.1317969710 0.5978494883 4288258224
-0.2867280245 -0.1311577708 0.5979637504 4287665830
-0.2863583565 -0.1303251535 0.5971928239 4287402658
-0.2864125669 -0.1296861768 0.5973058939 4287073439
-0.2864665687 -0.1290468425 0.5974184871 4286744474
-0.2869447768 -0.1285973787 0.5984157324 4286481302
-0.2869983315 -0.1279563755 0.5985274315 4286086544
-0.2870516479 -0.1273150295 0.5986386538 4285626247
-0.2871047258 -0.1266733110 0.5987493396 4285297282
-0.2871575356 -0.1260312349 0.5988594890 4285231489
-0.2872101068 -0.1253888160 0.5989691019 4285034110
-0.2872624397 -0.1247460321 0.5990782380 4284770938
-0.2873145044 -0.1241029054 0.5991868377 4284244594
-0.2873663306 -0.1234594285 0.5992949009 4283389285
-0.2874178886 -0.1228156090 0.5994024277 4283323492
-0.2874692082 -0.1221714392 0.5995094776 4283914857
-0.2875202894 -0.1215269268 0.5996159315 4283914857
-0.2875711024 -0.1208820716 0.5997219086 4283915629
-0.2876216471 -0.1202368736 0.5998273492 4284047215
-0.2880975008 -0.1197682470 0.6008197665 4284113006
-0.2885732651 -0.1192973703 0.6018119454 4284113006
-0.2886232138 -0.1186492443 0.6019161344 4284375408
-0.2886728942 -0.1180007905 0.6020197272 4284441201
-0.2887223363 -0.1173519939 0.6021228433 4284506994
-0.2887715399 -0.1167028695 0.6022254229 4284572787
-0.2892464399 -0.1162245870 0.6032158136 4284638580
-0.2892951965 -0.1155738384 0.6033174992 4284704373
-0.2893436551 -0.1149227694 0.6034185886 4284770166
-0.2893919051 -0.1142713726 0.6035191417 4284901752
-0.2894398570 -0.1136196479 0.6036192179 4285099385
-0.2894875705 -0.1129676029 0.6037186980 4285165178
-0.2899614275 -0.1124806479 0.6047069430 4285164924
-0.2900086939 -0.1118269935 0.6048054695 4285296510
-0.2900556922 -0.1111730263 0.6049035192 4285230717
-0.2901024222 -0.1105187461 0.6050009727 4285296510
-0.2905755937 -0.1100257114 0.6059877872 4285296764
-0.2910486460 -0.1095304340 0.6069743037 4285428350
-0.2906679213 -0.1087136418 0.6061802506 4285559936
-0.2907136679 -0.1080571413 0.6062756777 4285625729
-0.2916130722 -0.1077157483 0.6081513762 4285625475
-0.2916584611 -0.1070566997 0.6082460284 4285691268
-0.2917035520 -0.1063973457 0.6083400846 4285559682
-0.2917483747 -0.1057376862 0.6084336042 4285559682
-0.2917929590 -0.1050777286 0.6085265279 4285625729
-0.2914099693 -0.1042645797 0.6077278256 4285559936
-0.2910265923 -0.1034530699 0.6069282889 4285559682
-0.2914976776 -0.1029450893 0.6079106927 4285625475
-0.2915410995 -0.1022849008 0.6080012918 4285560452
-0.2915842831 -0.1016244143 0.6080913544 4285692038
-0.2916271985 -0.1009636372 0.6081808209 4285559682
-0.2916698456 -0.1003025696 0.6082697511 4285625475
-0.2917122245 -0.0996412113 0.6083581448 4285494661
-0.2917543054 -0.0989795700 0.6084459424 4285560454
-0.2917961478 -0.0983176380 0.6085332036 4285560454
-0.2926935554 -0.0979418010 0.6104046702 4285494661
-0.2923069894 -0.0971351415 0.6095985174 4285691268
-0.2923480868 -0.0964713991 0.6096842289 4285691268
-0.2923889160 -0.0958073661 0.6097693443 4285954694
-0.2924294472 -0.0951430649 0.6098539233 4285888901
-0.2924697399 -0.0944784805 0.6099379063 4286283405
-0.2929380238 -0.0939509869 0.6109145284 4286809749
-0.2929778099 -0.0932848826 0.6109974980 4287204761
-0.2930173278 -0.0926185176 0.6110799313 4287533726
-0.2930565774 -0.0919518769 0.6111617684 4287862178
-0.2935240567 -0.0914184302 0.6121366620 4287927971
-0.2939913571 -0.0908827633 0.6131112576 4288126379
-0.2940298915 -0.0902133808 0.6131916046 4287797414
-0.2940681577 -0.0895437300 0.6132714152 4287600035
-0.2941061556 -0.0888738185 0.6133506298 4287205277
-0.2945726514 -0.0883322284 0.6143234968 4287007898
-0.2946101427 -0.0876608267 0.6144016981 4287007898
-0.2942184806 -0.0868625492 0.6135848761 4286284175
-0.2942553461 -0.0861916170 0.6136617661 4284573557
-0.2938629687 -0.0853957683 0.6128434539 4283784041
-0.2938992381 -0.0847253129 0.6129191518 4283257697
-0.2939352393 -0.0840546116 0.6129941940 4282073936
-0.2935418189 -0.0832619369 0.6121737361 4281350213
-0.2931480110 -0.0824709758 0.6113524437 4282008143
-0.2931830585 -0.0818015039 0.6114255786 4282797659
-0.2936471701 -0.0812505782 0.6123934388 4282929245
-0.2936817110 -0.0805796459 0.6124655008 4282929245
-0.2937160134 -0.0799084827 0.6125369668 4283191134
-0.2937499881 -0.0792370811 0.6126078963 4283322720
-0.2942132354 -0.0786803067 0.6135739684 4283455074
-0.2942467332 -0.0780074671 0.6136437654 4285494657
-0.2938503325 -0.0772214904 0.6128171086 4290231236
-0.2943128645 -0.0766610876 0.6137817502 4293652472
-0.2805074453 -0.1820312142 0.5863490701 4293455861
-0.2801646888 -0.1811580956 0.5856325626 4292995310
-0.2802372873 -0.1805541813 0.5857843161 4292862697
-0.2798937857 -0.1796828210 0.5850662589 4292270560
-0.2795498669 -0.1788127869 0.5843473673 4291678936
-0.2796216309 -0.1782092750 0.5844973922 4290955213
-0.2796931863 -0.1776052862 0.5846469998 4290428869
-0.2797645330 -0.1770008504 0.5847961307 4289902525
-0.2794192731 -0.1761334538 0.5840743780 4289244341
-0.2794900835 -0.1755289882 0.5842224360 4289112755
-0.2791440785 -0.1746633798 0.5834991932 4288652204
-0.2796311378 -0.1743186861 0.5845172405 4288717997
-0.2792845070 -0.1734539568 0.5837926865 4288323239
-0.2793543935 -0.1728485674 0.5839387774 4288652204
-0.2794240713 -0.1722427309 0.5840844512 4290954961
-0.2794935405 -0.1716364324 0.5842296481 4291415512
-0.2795628011 -0.1710296869 0.5843744278 4290166215
-0.2796318531 -0.1704224795 0.5845187902 4289376699
-0.2801181674 -0.1700682938 0.5855352879 4289573823
-0.2806044519 -0.1697118431 0.5865517855 4289376444
-0.2810907364 -0.1693531126 0.5875682831 4289376444
-0.2815770209 -0.1689921319 0.5885847807 4288981686
-0.2816454172 -0.1683790535 0.5887277126 4287994791
-0.2817136049 -0.1677655429 0.5888702273 4287600033
-0.2813634872 -0.1669035852 0.5881384015 4287731621
-0.2814311087 -0.1662900895 0.5882797837 4287468449
-0.2814985514 -0.1656761467 0.5884207487 4287205277
-0.2815657556 -0.1650617719 0.5885612369 4287139484
-0.2816327512 -0.1644469500 0.5887012482 4287073691
-0.2812809646 -0.1635882705 0.5879659057 4286876312
-0.2813474238 -0.1629734933 0.5881048441 4286613142
-0.2809948623 -0.1621166766 0.5873678923 4286481556
-0.2810607851 -0.1615019441 0.5875056982 4286350227
-0.2811264992 -0.1608867794 0.5876430273 4286218641
-0.2807728946 -0.1600323319 0.5869039297 4286481813
-0.2808380723 -0.1594172269 0.5870401263 4286481813
-0.2809030116 -0.1588017046 0.5871759057 4286547606
-0.2809677422 -0.1581857353 0.5873111486 4286810778
-0.2806127667 -0.1573341787 0.5865691900 4287073950
-0.2806769609 -0.1567182988 0.5867033601 4287402915
-0.2807409167 -0.1561019868 0.5868370533 4287797673
-0.2808046341 -0.1554852575 0.5869702697 4288126638
-0.2812879682 -0.1550996006 0.5879806280 4288324017
-0.2813513577 -0.1544811130 0.5881130695 4288587189
-0.2814145088 -0.1538622081 0.5882450938 4288850361
-0.2814774513 -0.1532428861 0.5883766413 4288981947
-0.2815401554 -0.1526231468 0.5885077119 4289113533
-0.2816026211 -0.1520029902 0.5886383057 4289245119
