VERSION 0.7
FIELDS x y z rgba
SIZE 4 4 4 4
TYPE F F F U
COUNT 1 1 1 1
WIDTH 920
HEIGHT 1
VIEWPOINT 0.0 0.0 0.0 1.0 0.0 0.0 0.0
POINTS 920
DATA ascii
-0.2013821453 -0.1630908102 0.5054410100 4287011240
-0.2014392465 -0.1625753194 0.5055842996 4286682277
-0.2011414468 -0.1617740542 0.5048368573 4286550691
-0.2011981457 -0.1612585932 0.5049791932 4286288033
-0.2012546957 -0.1607426852 0.5051211119 4286024861
-0.2013110965 -0.1602263600 0.5052626729 4286024861
-0.2013673335 -0.1597095877 0.5054038167 4285695896
-0.2017786801 -0.1594731510 0.5064362288 4285366933
-0.2014793903 -0.1586747468 0.5056850910 4285169554
-0.2018906176 -0.1584356129 0.5067172050 4285038481
-0.2019463629 -0.1579162031 0.5068570971 4284972688
-0.2020019591 -0.1573963612 0.5069966316 4284775309
-0.2020573914 -0.1568761021 0.5071358085 4284577930
-0.2021126747 -0.1563553959 0.5072745085 4284577676
-0.2021678090 -0.1558342725 0.5074129105 4284446090
-0.2022227794 -0.1553127319 0.5075508952 4284248711
-0.2019214779 -0.1545182317 0.5067946911 4284117125
-0.2019760460 -0.1539967656 0.5069316030 4283985539
-0.2020304650 -0.1534748524 0.5070682168 4283919746
-0.2020847201 -0.1529525369 0.5072043538 4283985793
-0.2021388263 -0.1524297893 0.5073401928 4283985793
-0.2021927834 -0.1519066393 0.5074755549 4283788414
-0.2022465616 -0.1513830572 0.5076105595 4283920000
-0.2023002058 -0.1508590579 0.5077452064 4283789184
-0.2023536712 -0.1503346413 0.5078793764 4283789184
-0.2027639747 -0.1500740349 0.5089091659 4283789184
-0.2028172165 -0.1495478600 0.5090428591 4283723391
-0.2025131434 -0.1487589180 0.5082796812 4283591805
-0.2029232532 -0.1484942883 0.5093089342 4283591805
-0.2026186734 -0.1477063745 0.5085445046 4283591553
-0.2030286342 -0.1474390626 0.5095734596 4283525760
-0.2030810863 -0.1469108313 0.5097050667 4283459967
-0.2031333745 -0.1463821828 0.5098363161 4283459967
-0.2031854987 -0.1458531469 0.5099671483 4283525760
-0.2032374591 -0.1453236938 0.5100976229 4283525760
-0.2032892704 -0.1447938383 0.5102276206 4283459967
-0.2033409029 -0.1442635655 0.5103572011 4283394174
-0.2033923864 -0.1437329054 0.5104864240 4283394687
-0.2034437060 -0.1432018429 0.5106152296 4283394687
-0.2031365782 -0.1424191892 0.5098443627 4283460480
-0.2028291225 -0.1416380107 0.5090727210 4283460480
-0.2028797567 -0.1411076188 0.5091997981 4283394687
-0.2029302418 -0.1405768245 0.5093265176 4283394687
-0.2029805481 -0.1400456429 0.5094527602 4283328894
-0.2030306906 -0.1395140588 0.5095786452 4283263101
-0.2030806690 -0.1389820725 0.5097040534 4283131513
-0.2031304836 -0.1384497136 0.5098291039 4283131513
-0.2031801194 -0.1379169524 0.5099536777 4283065720
-0.2032296062 -0.1373838037 0.5100778341 4283065720
-0.2032789141 -0.1368502676 0.5102016330 4283131513
-0.2044057697 -0.1370388716 0.5130298734 4283131513
-0.2044549882 -0.1365017295 0.5131534338 4283065720
-0.2037852407 -0.1354862899 0.5114724040 4282999927
-0.2045529485 -0.1354262829 0.5133993030 4283065720
-0.2046016753 -0.1348879784 0.5135215521 4283065720
-0.2039308846 -0.1338770539 0.5118379593 4283065720
-0.2046986073 -0.1338102221 0.5137648582 4282999927
-0.2047468126 -0.1332707703 0.5138858557 4283065720
-0.2047948390 -0.1327309310 0.5140063763 4282999927
-0.2048427016 -0.1321907192 0.5141265392 4282934136
-0.2041702121 -0.1311873943 0.5124386549 4282868343
-0.2049379051 -0.1311091632 0.5143654943 4282934136
-0.2049852461 -0.1305678338 0.5144842863 4282934136
-0.2043117434 -0.1295690835 0.5127938986 4282934136
-0.2050794065 -0.1294840276 0.5147206187 4282868343
-0.2044052333 -0.1284883320 0.5130285025 4282868343
-0.2044517100 -0.1279474199 0.5131451488 4282868343
-0.2044980079 -0.1274061203 0.5132613778 4282803061
-0.2045441419 -0.1268644631 0.5133771300 4282934647
-0.2045900971 -0.1263224334 0.5134924650 4283066233
-0.2046358585 -0.1257800460 0.5136073828 4282934647
-0.2046814710 -0.1252372861 0.5137218237 4282934647
-0.2054490298 -0.1251340061 0.5156483054 4282934647
-0.2047721297 -0.1241507009 0.5139493942 4282934647
-0.2055396587 -0.1240428612 0.5158757567 4282934647
-0.2055847049 -0.1234967485 0.5159888268 4282934647
-0.2049068063 -0.1225181147 0.5142874122 4282868854
-0.2056742609 -0.1224034429 0.5162135959 4282868600
-0.2057187706 -0.1218562573 0.5163252950 4282868600
-0.2050398588 -0.1208823249 0.5146213174 4282934393
-0.2054455429 -0.1205485910 0.5156395435 4282934393
-0.2054894418 -0.1200013086 0.5157497525 4283065722
-0.2055331469 -0.1194536760 0.5158594251 4283065722
-0.2055766732 -0.1189056933 0.5159686804 4283065722
-0.2056200206 -0.1183573678 0.5160774589 4282999929
-0.2063873410 -0.1182235107 0.5180033445 4283131515
-0.2064304799 -0.1176725626 0.5181115866 4283197308
-0.2057489604 -0.1167103127 0.5164010525 4283328894
-0.2065161914 -0.1165696234 0.5183266997 4283394687
-0.2062387019 -0.1152627468 0.5176302791 4283460480
-0.2062808424 -0.1147110537 0.5177360177 4283460225
-0.2063227892 -0.1141590253 0.5178413391 4283526018
-0.2067272365 -0.1138063148 0.5188564062 4283591811
-0.2067688853 -0.1132526398 0.5189609528 4283591811
-0.2068103403 -0.1126986369 0.5190650225 4283591811
-0.2068516314 -0.1121442989 0.5191686153 4283526018
-0.2061667740 -0.1111980826 0.5174497366 4283591811
-0.2069336176 -0.1110346243 0.5193744302 4283657604
-0.2069743276 -0.1104792953 0.5194765925 4283723397
-0.2066516727 -0.1097307950 0.5186668038 4283854983
-0.2070551962 -0.1093676612 0.5196795464 4283920776
-0.2070953548 -0.1088113561 0.5197803378 4283854983
-0.2071353048 -0.1082547233 0.5198806524 4283920776
-0.2071750760 -0.1076977700 0.5199804306 4284052362
-0.2068511248 -0.1069525406 0.5191673636 4283986569
-0.2072540522 -0.1065829173 0.5201786757 4284052362
-0.2072932571 -0.1060250103 0.5202770233 4284118155
-0.2069685161 -0.1052817553 0.5194619894 4283986569
-0.2073710710 -0.1049082503 0.5204724073 4284249741
-0.2074096948 -0.1043493971 0.5205693245 4284315534
-0.2074481398 -0.1037902385 0.5206657648 4284381327
-0.2074863762 -0.1032307670 0.5207617879 4284381327
-0.2067962736 -0.1023107395 0.5190296769 4284447120
-0.2075622827 -0.1021109000 0.5209522843 4284578706
-0.2075999379 -0.1015505120 0.5210468173 4284776340
-0.2072731256 -0.1008126363 0.5202265382 4284907926
-0.2076746821 -0.1004288122 0.5212343931 4284842133
-0.2073473483 -0.0996923074 0.5204128623 4284842133
-0.2077486515 -0.0993059129 0.5214200020 4284973204
-0.2077853382 -0.0987440124 0.5215120912 4285104790
-0.2078218311 -0.0981818140 0.5216037035 4285367962
-0.2078581303 -0.0976193249 0.5216947794 4285631134
-0.2082589567 -0.0972268134 0.5227008462 4285894306
-0.2082949281 -0.0966627449 0.5227910876 4286091685
-0.2083306909 -0.0960983858 0.5228809118 4286223523
-0.2083662748 -0.0955337435 0.5229701996 4286420902
-0.2084016502 -0.0949688032 0.5230589509 4286618281
-0.2084368318 -0.0944035798 0.5231472850 4286815660
-0.2081067115 -0.0936737359 0.5223187208 4287078834
-0.2085065842 -0.0932722837 0.5233223438 4287342006
-0.2085411698 -0.0927062035 0.5234091282 4287670201
-0.2085755616 -0.0921398476 0.5234954357 4287999166
-0.2086097449 -0.0915732160 0.5235812664 4288130752
-0.2086437196 -0.0910063013 0.5236665606 4288196545
-0.2086775154 -0.0904391110 0.5237513185 4288459717
-0.2087110877 -0.0898716524 0.5238356590 4288722889
-0.2087444812 -0.0893039107 0.5239194036 4288854475
-0.2087776512 -0.0887359008 0.5240026712 4289117647
-0.2091763318 -0.0883220360 0.5250033140 4289446612
-0.2092091739 -0.0877524912 0.5250857472 4289578198
-0.2092418075 -0.0871826783 0.5251676440 4289643476
-0.2092742324 -0.0866126046 0.5252490640 4289775062
-0.2093064636 -0.0860422626 0.5253299475 4289907161
-0.2093384862 -0.0854716599 0.5254102945 4290038747
-0.2093703151 -0.0849007964 0.5254901648 4290235613
-0.2097680122 -0.0844771042 0.5264883637 4290367199
-0.2097994834 -0.0839047208 0.5265673399 4290695650
-0.2098307461 -0.0833320841 0.5266458392 4290893029
-0.2094955593 -0.0826147571 0.5258045197 4291156201
-0.2095263600 -0.0820426121 0.5258818269 4291156201
-0.2095569521 -0.0814702138 0.5259586573 4291287787
-0.2095873505 -0.0808975697 0.5260348916 4291419373
-0.2096175402 -0.0803246722 0.5261106491 4291616239
-0.2096475065 -0.0797515288 0.5261859298 4291682032
-0.2096772790 -0.0791781396 0.5262606144 4291747825
-0.2097068578 -0.0786045119 0.5263348222 4291747825
-0.2101028860 -0.0781670585 0.5273288488 4291944945
-0.2097653598 -0.0774565265 0.5264816880 4291944945
-0.2101610750 -0.0770165846 0.5274748802 4291879152
-0.2101898640 -0.0764409900 0.5275471210 4291879152
-0.2098515779 -0.0757327601 0.5266980529 4292010738
-0.2102468163 -0.0752891004 0.5276901126 4292076531
-0.2102749795 -0.0747128054 0.5277607441 4292076531
-0.2103029341 -0.0741362795 0.5278308988 4292076531
-0.2103306800 -0.0735595226 0.5279005766 4292076531
-0.2103582174 -0.0729825422 0.5279696584 4292010738
-0.2103855312 -0.0724053308 0.5280382633 4291944944
-0.2100454420 -0.0717025474 0.5271846652 4292010737
-0.2104395628 -0.0712502450 0.5281738043 4292076530
-0.2104662508 -0.0706723705 0.5282407999 4292076530
-0.2104927301 -0.0700942799 0.5283073187 4292142323
-0.2108864039 -0.0696372837 0.5292953849 4292142323
-0.2109125108 -0.0690577477 0.5293608904 4292142323
-0.2109384090 -0.0684779957 0.5294258595 4292142323
-0.2113316208 -0.0680163205 0.5304127932 4292142321
-0.2109895647 -0.0673178583 0.5295542479 4292208114
-0.2110148221 -0.0667374730 0.5296176672 4292208116
-0.2106721997 -0.0660416260 0.5287577510 4292208116
-0.2106969804 -0.0654618368 0.5288199186 4292208116
-0.2107215524 -0.0648818463 0.5288816094 4292142323
-0.2107459158 -0.0643016547 0.5289427638 4292208116
-0.2111379057 -0.0638324693 0.5299265981 4292142323
-0.2111618817 -0.0632508695 0.5299867988 4292338932
-0.2119214833 -0.0628874227 0.5318932533 4292404725
-0.2112091929 -0.0620870665 0.5301055312 4292470518
-0.2112325281 -0.0615048781 0.5301641226 4292470518
-0.2112556547 -0.0609224960 0.5302221179 4292536312
-0.2112785578 -0.0603399202 0.5302796364 4292470519
-0.2113012522 -0.0597571582 0.5303365588 4292404725
-0.2113237232 -0.0591742098 0.5303929448 4292536311
-0.2113459855 -0.0585910752 0.5304488540 4292537081
-0.2113680243 -0.0580077581 0.5305041671 4292602874
-0.2117581218 -0.0575243048 0.5314832330 4292602874
-0.2117797732 -0.0569396056 0.5315375924 4292602874
-0.2121695578 -0.0564527400 0.5325158834 4292668667
-0.1957344115 -0.1983698159 0.4926392734 4292929779
-0.1958006918 -0.1978894472 0.4928061068 4292798708
-0.1958668679 -0.1974085867 0.4929726422 4292732915
-0.1959329098 -0.1969272494 0.4931388795 4292601329
-0.1959988475 -0.1964454204 0.4933048189 4292403950
-0.1964110732 -0.1963093281 0.4943423271 4292403696
-0.1964768767 -0.1958256811 0.4945079684 4292337903
-0.1965425760 -0.1953415424 0.4946733117 4292272110
-0.1962614059 -0.1945132464 0.4939656556 4292272110
-0.1963267475 -0.1940290034 0.4941301048 4292272110
-0.1963919699 -0.1935442537 0.4942942560 4292206317
-0.1964570731 -0.1930590421 0.4944581091 4292140524
-0.1965220571 -0.1925733387 0.4946216643 4292074731
-0.1965869069 -0.1920871586 0.4947849214 4292074731
-0.1966516525 -0.1916004866 0.4949478507 4292140524
-0.1967162788 -0.1911133528 0.4951104820 4292140524
-0.1967807710 -0.1906257272 0.4952728152 4292008938
-0.1968451440 -0.1901376098 0.4954348505 4292074218
-0.1969093829 -0.1896490306 0.4955965579 4292074218
-0.1966255009 -0.1888257712 0.4948820472 4292140011
-0.1966893971 -0.1883371025 0.4950428605 4292074218
-0.1967531592 -0.1878479421 0.4952033460 4292074985
-0.1968168020 -0.1873583198 0.4953635037 4292009192
-0.1968803108 -0.1868682206 0.4955233634 4291943399
-0.1969437003 -0.1863776445 0.4956829250 4291943399
-0.1970069706 -0.1858866066 0.4958421290 4291943399
-0.1970701069 -0.1853950769 0.4960010350 4291943399
-0.1971331090 -0.1849030852 0.4961596429 4291943399
-0.1975450218 -0.1847370118 0.4971963465 4291877606
-0.1976078898 -0.1842432171 0.4973545671 4291877606
-0.1976706237 -0.1837489307 0.4975124598 4291811813
-0.1977332234 -0.1832541823 0.4976700544 4291680741
-0.1977957040 -0.1827589720 0.4978272915 4291680741
-0.1978580505 -0.1822632849 0.4979842305 4291680741
-0.1979202777 -0.1817671210 0.4981408119 4291680741
-0.1979823709 -0.1812705100 0.4982970953 4291680741
-0.1980443150 -0.1807734072 0.4984530210 4291746534
-0.1981061399 -0.1802758574 0.4986086488 4291811813
-0.1978177279 -0.1794602126 0.4978826940 4291811813
-0.1982294023 -0.1792793423 0.4989188612 4291811813
-0.1982908249 -0.1787803918 0.4990734458 4291811813
-0.1983521283 -0.1782809794 0.4992277324 4291746020
-0.1984132826 -0.1777811050 0.4993816614 4291680227
-0.1984743178 -0.1772807688 0.4995352626 4291680227
-0.1985352039 -0.1767799705 0.4996885061 4291746020
-0.1985959560 -0.1762787104 0.4998414218 4291746020
-0.1986565888 -0.1757769883 0.4999940097 4291680227
-0.1994192451 -0.1758941561 0.5019135475 4291680227
-0.1994798034 -0.1753897369 0.5020659566 4291614434
-0.1995402426 -0.1748848706 0.5022180676 4291548641
-0.1996005177 -0.1743795425 0.5023698211 4291548641
-0.1996606737 -0.1738737524 0.5025211573 4291548641
-0.1993690580 -0.1730622798 0.5017872453 4291548641
-0.1994288266 -0.1725564748 0.5019376278 4291351778
-0.1994884461 -0.1720502079 0.5020877123 4291285985
-0.1995479316 -0.1715434939 0.5022374392 4291220192
-0.1996072829 -0.1710363179 0.5023868084 4291154399
-0.1996664852 -0.1705286950 0.5025358200 4291088606
-0.1997255534 -0.1700206250 0.5026844740 4290957020
-0.1997844726 -0.1695121080 0.5028327703 4290825693
-0.1998432577 -0.1690031290 0.5029807091 4290825693
-0.1995493323 -0.1681965441 0.5022409558 4290563291
-0.1996077299 -0.1676875651 0.5023879409 4290365912
-0.1993132085 -0.1668827832 0.5016466975 4290102740
-0.2000769526 -0.1669627577 0.5035688877 4290036947
-0.1997820437 -0.1661579758 0.5028266907 4289840081
-0.1998398602 -0.1656472236 0.5029721856 4289642702
-0.1998975426 -0.1651360393 0.5031173229 4289445068
-0.1999550611 -0.1646243930 0.5032621622 4289247689
-0.2000124454 -0.1641123295 0.5034065843 4289379275
-0.2000696808 -0.1635998040 0.5035505891 4289379275
-0.2004803568 -0.1633749902 0.5045842528 4289181896
-0.2005373985 -0.1628606766 0.5047277808 4288852931
-0.2005942911 -0.1623459458 0.5048710108 4288589761
-0.2002971619 -0.1615453511 0.5041231513 4288458175
-0.2003536671 -0.1610306352 0.5042653680 4288261309
-0.2004100084 -0.1605155021 0.5044071674 4287998137
-0.2004662156 -0.1599999219 0.5045486093 4287669686
-0.2005222738 -0.1594839096 0.5046896935 4287406514
-0.2005781680 -0.1589674801 0.5048304200 4287077551
-0.2006339282 -0.1584506035 0.5049707294 4286880172
-0.2006895244 -0.1579332948 0.5051106811 4286683306
-0.2010996491 -0.1576936841 0.5061429143 4286551720
-0.2011550367 -0.1571746022 0.5062823296 4286354341
-0.2008554190 -0.1563788205 0.5055282116 4286222755
-0.2009104043 -0.1558597982 0.5056666136 4286353828
-0.2013203204 -0.1556148082 0.5066983104 4286156449
-0.2010199428 -0.1548204869 0.5059422851 4285762204
-0.2010744661 -0.1543001980 0.5060795546 4285433239
-0.2011288553 -0.1537794918 0.5062164068 4285170067
-0.2011830807 -0.1532583535 0.5063529015 4285038481
-0.2012371421 -0.1527367979 0.5064889789 4285038481
-0.2012910545 -0.1522148252 0.5066246986 4284972688
-0.2013448179 -0.1516924351 0.5067600012 4284841102
-0.2013984174 -0.1511696130 0.5068948865 4284775309
-0.2014518678 -0.1506463885 0.5070294142 4284577930
-0.2015051544 -0.1501227468 0.5071635246 4284380551
-0.2015582919 -0.1495986730 0.5072972178 4284183942
-0.2016112655 -0.1490742117 0.5074305534 4284183942
-0.2016640753 -0.1485493183 0.5075634718 4284183940
-0.2017167360 -0.1480240226 0.5076960325 4284183940
-0.2017692327 -0.1474983096 0.5078281760 4284249994
-0.2018215656 -0.1469721794 0.5079599023 4284052615
-0.2018737346 -0.1464456618 0.5080912113 4283855236
-0.2019257545 -0.1459187269 0.5082221031 4283855236
-0.2019776106 -0.1453913748 0.5083526373 4283920516
-0.2020293027 -0.1448636204 0.5084827542 4283788930
-0.2020808309 -0.1443354785 0.5086124539 4283657344
-0.2021322101 -0.1438069195 0.5087417364 4283525758
-0.2021834105 -0.1432779580 0.5088706017 4283723137
-0.2022344619 -0.1427485943 0.5089991093 4283723137
-0.2022853345 -0.1422188282 0.5091271400 4283788930
-0.2019785643 -0.1414383352 0.5083550215 4283788930
-0.2020290345 -0.1409087181 0.5084820390 4283723137
-0.2020793408 -0.1403786987 0.5086086392 4283788930
-0.2017717212 -0.1396007687 0.5078344345 4283723137
-0.2018215954 -0.1390708983 0.5079599619 4283657344
-0.2018713206 -0.1385406405 0.5080850720 4283460478
-0.2019208670 -0.1380099803 0.5082098246 4283526271
-0.2019702494 -0.1374789476 0.5083341002 4283526271
-0.2020194679 -0.1369475126 0.5084579587 4283526271
-0.2024267912 -0.1366575658 0.5094831586 4283526271
-0.2024757713 -0.1361244172 0.5096064210 4283526271
-0.2025245726 -0.1355908811 0.5097292662 4283526271
-0.2025732100 -0.1350569576 0.5098516345 4283526271
-0.2026216686 -0.1345226467 0.5099736452 4283328894
-0.2026699632 -0.1339879632 0.5100951791 4283394687
-0.2030768842 -0.1336890906 0.5111193657 4283460480
-0.2031249255 -0.1331526935 0.5112403035 4283394687
-0.2031728029 -0.1326159239 0.5113607645 4283394687
-0.2032205015 -0.1320787668 0.5114808083 4283328894
-0.2032680213 -0.1315412223 0.5116004348 4283263358
-0.2029561698 -0.1307718605 0.5108155608 4283329151
-0.2030032724 -0.1302345246 0.5109341145 4283526273
-0.2030501962 -0.1296968162 0.5110521913 4283526273
-0.2030969560 -0.1291587353 0.5111699104 4283460478
-0.2031435370 -0.1286202818 0.5112871528 4283460478
-0.2031899542 -0.1280814558 0.5114039183 4283526271
-0.2032361925 -0.1275422722 0.5115203261 4283526271
-0.2032822520 -0.1270027161 0.5116362572 4283526271
-0.2033281326 -0.1264627874 0.5117517114 4283526271
-0.2033738494 -0.1259225011 0.5118668079 4283526784
-0.2037794143 -0.1256037652 0.5128875375 4283460991
-0.2034647465 -0.1248408332 0.5120955706 4283460991
-0.2035099268 -0.1242994517 0.5122092962 4283460991
-0.2039152086 -0.1239767596 0.5132293105 4283460991
-0.2039601207 -0.1234337017 0.5133423805 4283460991
-0.2040048540 -0.1228902936 0.5134549737 4283460991
-0.2036889046 -0.1221303642 0.5126597285 4283395198
-0.2044543773 -0.1220175922 0.5145863295 4283460478
-0.2041379958 -0.1212579161 0.5137900114 4283526271
-0.2041820139 -0.1207130849 0.5139008164 4283657857
-0.2042258531 -0.1201678962 0.5140111446 4283723650
-0.2046304047 -0.1198337078 0.5150293708 4283789443
-0.2046739608 -0.1192868575 0.5151390433 4283921029
-0.2047173381 -0.1187396646 0.5152481794 4283921031
-0.2047605366 -0.1181921214 0.5153568983 4283855238
-0.2048035562 -0.1176442280 0.5154651403 4283920518
-0.2048463821 -0.1170959920 0.5155729651 4283854725
-0.2052503824 -0.1167529672 0.5165898204 4283854725
-0.2045700699 -0.1157939136 0.5148774981 4283854725
-0.2046122700 -0.1152456179 0.5149837732 4283920518
-0.2053774595 -0.1151022762 0.5169095993 4283986311
-0.2046961486 -0.1141480207 0.5151948333 4283920518
-0.2047377974 -0.1135987118 0.5152996778 4283920518
-0.2058646828 -0.1136482731 0.5181359053 4283921031
-0.2059061825 -0.1130953878 0.5182403922 4283986824
-0.2052236199 -0.1121465862 0.5165224075 4284052617
-0.2049025893 -0.1113981679 0.5157144070 4284052617
-0.2053054124 -0.1110430434 0.5167282820 4284118410
-0.2053460330 -0.1104907766 0.5168305039 4284249996
-0.2053864598 -0.1099381819 0.5169323087 4284447375
-0.2054267079 -0.1093852669 0.5170335770 4284513168
-0.2054667622 -0.1088320240 0.5171344280 4284381580
-0.2055066377 -0.1082784608 0.5172347426 4284447373
-0.2055463195 -0.1077245697 0.5173346400 4284578959
-0.2055858225 -0.1071703658 0.5174340606 4284710545
-0.2056251168 -0.1066158339 0.5175329447 4284842131
-0.2056642473 -0.1060609892 0.5176314116 4284973717
-0.2057031691 -0.1055058315 0.5177294016 4285039510
-0.2057419121 -0.1049503610 0.5178269148 4285039510
-0.2065063119 -0.1047628075 0.5197508335 4285171098
-0.2058188170 -0.1038384736 0.5180204511 4285236891
-0.2058569789 -0.1032820642 0.5181165338 4285302684
-0.2058949471 -0.1027253494 0.5182120800 4285434270
-0.2059327364 -0.1021683216 0.5183072090 4285631136
-0.2059703320 -0.1016109884 0.5184018016 4285828515
-0.2060077339 -0.1010533571 0.5184959173 4286157478
-0.2064083368 -0.1006726548 0.5195041895 4286354857
-0.2064454108 -0.1001134291 0.5195975304 4286618029
-0.2064822912 -0.0995539054 0.5196903944 4286683822
-0.2061554044 -0.0988197997 0.5188676119 4286749869
-0.2061918378 -0.0982606634 0.5189592838 4286881455
-0.2065917999 -0.0978735387 0.5199659467 4287209650
-0.2066279054 -0.0973128304 0.5200568438 4287472822
-0.2073915154 -0.0970924944 0.5219787359 4287735994
-0.2074273527 -0.0965292230 0.5220689774 4287867580
-0.2074630111 -0.0959656537 0.5221586823 4287999162
-0.2067703903 -0.0950670615 0.5204154849 4288196541
-0.2075337172 -0.0948376581 0.5223366618 4288393920
-0.2075687647 -0.0942732245 0.5224248767 4288591299
-0.2065109760 -0.0932153091 0.5197625756 4288854471
-0.2076382935 -0.0931435078 0.5225998759 4289051850
-0.2076727599 -0.0925782323 0.5226866007 4289249231
-0.2077070326 -0.0920126662 0.5227728486 4289380817
-0.2077410966 -0.0914468244 0.5228586197 4289511890
-0.2077749670 -0.0908807069 0.5229438543 4289643476
-0.2078086287 -0.0903143138 0.5230286121 4289906648
-0.2082067281 -0.0899050906 0.5240305662 4290104027
-0.2082400620 -0.0893371552 0.5241144300 4290169820
-0.2082731873 -0.0887689441 0.5241978168 4290301406
-0.2083061188 -0.0882004648 0.5242806673 4290432994
-0.2083388418 -0.0876317173 0.5243630409 4290564580
-0.2083713561 -0.0870627016 0.5244449377 4290761441
-0.2084036767 -0.0864934176 0.5245262384 4290893027
-0.2084358037 -0.0859238729 0.5246071219 4291090406
-0.2084677219 -0.0853540674 0.5246874094 4291221992
-0.2084994316 -0.0847839937 0.5247672200 4291287272
-0.2085309476 -0.0842136666 0.5248465538 4291353065
-0.2085622549 -0.0836430788 0.5249253511 4291484651
-0.2085933536 -0.0830722377 0.5250036120 4291550444
-0.2086242586 -0.0825011432 0.5250813961 4291550187
-0.2086549550 -0.0819297880 0.5251586437 4291550187
-0.2086854428 -0.0813581869 0.5252354145 4291615980
-0.2083501965 -0.0806448534 0.5243916512 4291747566
-0.2083802223 -0.0800737590 0.5244672298 4291813359
-0.2084100544 -0.0795024112 0.5245422721 4291879152
-0.2084396780 -0.0789308250 0.5246168375 4292009968
-0.2088348269 -0.0784964710 0.5256114006 4292009968
-0.2088640779 -0.0779233947 0.5256850123 4291944945
-0.2088931352 -0.0773500726 0.5257581472 4291944945
-0.2089219838 -0.0767765194 0.5258307457 4291944945
-0.2089506239 -0.0762027279 0.5259028077 4292010738
-0.2089790553 -0.0756287053 0.5259743929 4292010738
-0.2090072781 -0.0750544444 0.5260454416 4292010738
-0.2090352923 -0.0744799525 0.5261159539 4292010738
-0.2090630978 -0.0739052296 0.5261859298 4292076531
-0.2090907097 -0.0733302832 0.5262554288 4292142324
-0.2091180980 -0.0727551058 0.5263243318 4292010738
-0.2091452777 -0.0721797049 0.5263927579 4292010737
-0.2091722488 -0.0716040730 0.5264606476 4292076530
-0.2099317610 -0.0712770149 0.5283722281 4292076530
-0.2099584192 -0.0706989244 0.5284393430 4292076530
-0.2099848539 -0.0701206252 0.5285058618 4292142323
-0.2096445709 -0.0694207326 0.5276494026 4292142323
-0.2104036659 -0.0690837204 0.5295599699 4292338932
-0.2096963078 -0.0682650656 0.5277796388 4292338932
-0.2097218633 -0.0676869079 0.5278439522 4292404468
-0.2097471952 -0.0671085417 0.5279077291 4292404468
-0.2097723186 -0.0665299743 0.5279709697 4292470261
-0.2101640254 -0.0660664886 0.5289568305 4292470261
-0.2094551176 -0.0652579144 0.5271726251 4292404725
-0.2094795704 -0.0646797419 0.5272341371 4292338932
-0.2095038146 -0.0641013607 0.5272951722 4292338932
-0.2095278352 -0.0635227785 0.5273556113 4292338932
-0.2099186331 -0.0630542412 0.5283392072 4292470518
-0.2099422812 -0.0624742508 0.5283986926 4292470518
-0.2099657059 -0.0618940704 0.5284577012 4292536311
-0.2107231468 -0.0615280755 0.5303640962 4292536311
-0.2103790790 -0.0608393028 0.5294981003 4292602104
-0.2104019076 -0.0602575280 0.5295555592 4292602104
-0.2104245126 -0.0596755669 0.5296124220 4292602358
-0.2104469240 -0.0590934195 0.5296688080 4292733944
-0.1951709688 -0.1961640269 0.4925981760 4292863986
-0.1952365488 -0.1956824362 0.4927636981 4292863734
-0.1956476867 -0.1955458671 0.4938013852 4292732148
-0.1957131475 -0.1950624585 0.4939666092 4292600562
-0.1957784891 -0.1945785731 0.4941315353 4292468976
-0.1954977065 -0.1937512755 0.4934228361 4292468976
-0.1955626905 -0.1932672709 0.4935868680 4292468976
-0.1952813268 -0.1924415827 0.4928767085 4292337390
-0.1953459680 -0.1919574738 0.4930398464 4292205804
-0.1954104751 -0.1914728880 0.4932026863 4292271597
-0.1954748780 -0.1909878254 0.4933651984 4292271597
-0.1955391467 -0.1905022860 0.4935274422 4292271597
-0.1956032962 -0.1900162548 0.4936893582 4292271597
-0.1956673265 -0.1895297617 0.4938509464 4292271597
-0.1957312375 -0.1890427768 0.4940122664 4292271597
-0.1957950294 -0.1885553151 0.4941732585 4292205804
-0.1958586872 -0.1880673915 0.4943339229 4292140011
-0.1959222257 -0.1875789762 0.4944942892 4292140778
-0.1956381500 -0.1867583841 0.4937773049 4292074985
-0.1957013309 -0.1862698942 0.4939367473 4292009192
-0.1957643777 -0.1857809275 0.4940958917 4292009192
-0.1961751282 -0.1856206059 0.4951326251 4292074985
-0.1962380409 -0.1851298362 0.4952914119 4292074985
-0.1963008344 -0.1846385896 0.4954498708 4292009192
-0.1963634938 -0.1841468662 0.4956080317 4292009192
-0.1964260191 -0.1836546808 0.4957658350 4292008938
-0.1964884251 -0.1831620187 0.4959233403 4291943145
-0.1965507120 -0.1826688945 0.4960805476 4291943145
-0.1969614625 -0.1824982911 0.4971172512 4292008938
-0.1970235854 -0.1820033640 0.4972740412 4292008938
-0.1970855892 -0.1815079451 0.4974305332 4291943145
-0.1971474588 -0.1810120791 0.4975866973 4291943145
-0.1972091943 -0.1805157363 0.4977425039 4291943145
-0.1969216466 -0.1797003001 0.4970167577 4291943399
-0.1969830096 -0.1792039126 0.4971716404 4291943399
-0.1970442533 -0.1787070483 0.4973261952 4291943399
-0.1974548250 -0.1785257161 0.4983624816 4291943399
-0.1975159049 -0.1780270487 0.4985166490 4291943399
-0.1975768507 -0.1775279194 0.4986704588 4291877606
-0.1976376623 -0.1770283282 0.4988239408 4291877606
-0.1976983398 -0.1765282750 0.4989770949 4291943399
-0.1981088966 -0.1763393283 0.5000132918 4291943399
-0.1978192925 -0.1755267978 0.4992823601 4291943399
-0.1978795677 -0.1750253737 0.4994344711 4291943399
-0.1979396939 -0.1745234877 0.4995862544 4291943399
-0.1979997009 -0.1740211397 0.4997376800 4291943399
-0.1980595589 -0.1735183448 0.4998887777 4291877606
-0.1984699368 -0.1733213067 0.5009245276 4291811813
-0.1985296309 -0.1728167087 0.5010752082 4291746020
-0.1985891908 -0.1723116487 0.5012255311 4291680227
-0.1982976347 -0.1715026051 0.5004896522 4291680227
-0.1990589499 -0.1716028303 0.5024111867 4291680227
-0.1984158456 -0.1704920083 0.5007880330 4291614434
-0.1984747350 -0.1699860394 0.5009366274 4291548641
-0.1988848746 -0.1697795838 0.5019718409 4291482848
-0.1985920966 -0.1689727455 0.5012328625 4291285983
-0.1986505687 -0.1684654206 0.5013804436 4291285983
-0.1987088919 -0.1679576635 0.5015276670 4291351778
-0.1984152794 -0.1671530753 0.5007866025 4291220192
-0.1984732300 -0.1666453183 0.5009328723 4291089119
-0.1985310316 -0.1661371142 0.5010787249 4291023326
-0.1989407837 -0.1659221351 0.5021129251 4290891740
-0.1989984065 -0.1654121429 0.5022583604 4290760154
-0.1990558803 -0.1649017036 0.5024034381 4290628568
-0.1991132051 -0.1643908322 0.5025480986 4290628568
-0.1991703808 -0.1638795137 0.5026924014 4290496728
-0.1992274225 -0.1633677483 0.5028363466 4290562521
-0.1992843002 -0.1628555506 0.5029799342 4290365913
-0.1986354142 -0.1617682576 0.5013421774 4290102741
-0.1990447342 -0.1615434140 0.5023753047 4289971155
-0.1991010755 -0.1610308141 0.5025175214 4289905362
-0.1991572827 -0.1605177820 0.5026593208 4289774033
-0.1992133409 -0.1600043178 0.5028008223 4289642447
-0.1992692351 -0.1594904065 0.5029419065 4289510863
-0.1993249953 -0.1589760780 0.5030826330 4289313484
-0.1990270913 -0.1581803560 0.5023307800 4289050825
-0.1997896731 -0.1582261622 0.5042554736 4288919239
-0.1998450756 -0.1577096283 0.5043953061 4288787399
-0.1999003291 -0.1571926624 0.5045347810 4288590020
-0.1999554336 -0.1566752642 0.5046738386 4288392641
-0.2000103891 -0.1561574340 0.5048125386 4288326848
-0.2000651956 -0.1556391865 0.5049508810 4288261825
-0.2001198381 -0.1551205069 0.5050888062 4288064446
-0.2001743317 -0.1546014100 0.5052263141 4287801272
-0.2002286762 -0.1540818810 0.5053634644 4287472307
-0.1995739043 -0.1530183554 0.5037108660 4287209135
-0.1996277422 -0.1524998248 0.5038467646 4287011756
-0.2000361085 -0.1522508264 0.5048774481 4286880170
-0.1997349709 -0.1514615119 0.5041173697 4286814377
-0.1997883469 -0.1509417295 0.5042521358 4286683304
-0.1998415738 -0.1504215449 0.5043864846 4286485925
-0.1998946518 -0.1499009281 0.5045204163 4286156960
-0.2006578594 -0.1499105543 0.5064467192 4285893788
-0.2007108033 -0.1493872702 0.5065802932 4285696409
-0.2007635832 -0.1488635540 0.5067135692 4285696409
-0.2001053542 -0.1478143483 0.5050522685 4285696409
-0.2001576424 -0.1472916752 0.5051842332 4285630616
-0.2002097815 -0.1467685848 0.5053157806 4285433755
-0.2002617419 -0.1462450922 0.5054469109 4285170583
-0.2003135532 -0.1457211971 0.5055776834 4284973204
-0.2007210851 -0.1454547942 0.5066062808 4284841618
-0.2004166991 -0.1446721852 0.5058380365 4284775825
-0.2004680187 -0.1441470683 0.5059675574 4284644239
-0.2005191892 -0.1436215639 0.5060967207 4284512653
-0.2005702108 -0.1430956423 0.5062254667 4284381067
-0.2009773999 -0.1428225487 0.5072531700 4284381067
-0.2006717324 -0.1420426071 0.5064817667 4284381067
-0.2007222623 -0.1415154934 0.5066092610 4284315274
-0.2007726282 -0.1409879774 0.5067363381 4284183688
-0.2008228153 -0.1404600590 0.5068630576 4284117895
-0.2008728534 -0.1399317533 0.5069893599 4284117895
-0.2006154656 -0.1386272907 0.5063397288 4284117895
-0.2013790309 -0.1385902017 0.5082669258 4283986309
-0.2010713518 -0.1378145963 0.5074903369 4283986309
-0.2011205703 -0.1372843385 0.5076145530 4283920516
-0.2011696100 -0.1367536783 0.5077383518 4283920516
-0.2012184858 -0.1362226456 0.5078617334 4283854723
-0.2019821852 -0.1361732334 0.5097892284 4283788930
-0.2020308971 -0.1356395334 0.5099121928 4283788932
-0.2020794600 -0.1351054460 0.5100347400 4283854725
-0.2021278441 -0.1345709711 0.5101568103 4283921031
-0.2021760494 -0.1340361089 0.5102785230 4283921031
-0.2022240907 -0.1335008740 0.5103997588 4283986824
-0.2022719681 -0.1329652518 0.5105206370 4283986824
-0.2023196667 -0.1324292570 0.5106410384 4283921031
-0.2023672014 -0.1318928748 0.5107609630 4283921031
-0.2024145722 -0.1313561201 0.5108805299 4283986824
-0.2024617642 -0.1308189929 0.5109996200 4284052617
-0.2025087774 -0.1302814782 0.5111182928 4284117895
-0.2025556266 -0.1297436059 0.5112365484 4284052102
-0.2026023120 -0.1292053461 0.5113543868 4283986309
-0.2026488185 -0.1286667287 0.5114717484 4283920516
-0.2026951462 -0.1281277239 0.5115886927 4283920516
-0.2027412951 -0.1275883615 0.5117051601 4283920516
-0.2027872801 -0.1270486265 0.5118212104 4283986309
-0.2028330863 -0.1265085340 0.5119368434 4283986309
-0.2028787285 -0.1259680688 0.5120519996 4283855236
-0.2029241771 -0.1254272461 0.5121667385 4283855236
-0.2029694617 -0.1248860508 0.5122810602 4283855236
-0.2030145675 -0.1243444979 0.5123949051 4283855236
-0.2023407072 -0.1233643442 0.5106940866 4283855236
-0.2031042576 -0.1232603118 0.5126212835 4283921029
-0.2031488419 -0.1227176785 0.5127337575 4284052613
-0.2031932473 -0.1221746951 0.5128458142 4284118406
-0.2032374591 -0.1216313541 0.5129574537 4284184199
-0.2032815069 -0.1210876554 0.5130686164 4284184199
-0.2033253759 -0.1205436066 0.5131793618 4284184201
-0.2033690661 -0.1199992076 0.5132896304 4284118408
-0.2034125775 -0.1194544584 0.5133994222 4284249481
-0.2034558952 -0.1189093590 0.5135087967 4284315274
-0.2034990489 -0.1183639094 0.5136176944 4284381067
-0.2035420239 -0.1178181171 0.5137261152 4284315274
-0.2035848051 -0.1172719747 0.5138341188 4284644239
-0.2039878219 -0.1169320866 0.5148512721 4284578446
-0.2047512680 -0.1167955473 0.5167782307 4284709262
-0.2047937363 -0.1162454709 0.5168853998 4284775055
-0.2041147798 -0.1152876839 0.5151717067 4284840848
-0.2048781365 -0.1151443049 0.5170983672 4284906641
-0.2049200535 -0.1145932153 0.5172041655 4284906641
-0.2049617916 -0.1140417829 0.5173095465 4284840848
-0.2050033361 -0.1134900227 0.5174143910 4284710545
-0.2043227106 -0.1125402525 0.5156965256 4284776338
-0.2050858736 -0.1123854890 0.5176227093 4284907924
-0.2051268667 -0.1118327156 0.5177261829 4285039510
-0.2044452578 -0.1108877957 0.5160058737 4285171096
-0.2041244507 -0.1101413742 0.5151961446 4285368475
-0.2041646838 -0.1095905453 0.5152976513 4285434268
-0.2045661360 -0.1092323810 0.5163109303 4285500061
-0.2046060562 -0.1086799279 0.5164116621 4285631647
-0.2046457976 -0.1081271470 0.5165119767 4285763233
-0.2046853304 -0.1075740531 0.5166118145 4285894819
-0.2047246993 -0.1070206314 0.5167111158 4286092198
-0.2047638595 -0.1064668968 0.5168099999 4286355368
-0.2048028409 -0.1059128419 0.5169083476 4286486954
-0.2048416436 -0.1053584740 0.5170062780 4286552747
-0.2048802376 -0.1048037857 0.5171037316 4286618540
-0.2056427449 -0.1046171635 0.5190282464 4286881203
-0.2049568892 -0.1036934853 0.5172971487 4287078582
-0.2049949169 -0.1031378657 0.5173931718 4287275961
-0.2053950131 -0.1027631834 0.5184029341 4287407547
-0.2054327279 -0.1022059619 0.5184981823 4287539131
-0.2054702640 -0.1016484424 0.5185928941 4287802303
-0.2055075914 -0.1010906100 0.5186871290 4288065475
-0.2055447400 -0.1005324796 0.5187808871 4288262854
-0.2055816948 -0.0999740511 0.5188741088 4288525510
-0.2056184560 -0.0994153172 0.5189669132 4288525510
-0.2063804269 -0.0992049873 0.5208901167 4288591303
-0.2064169347 -0.0986436829 0.5209822059 4288722889
-0.2064532489 -0.0980820805 0.5210738778 4288920266
-0.2064893544 -0.0975201875 0.5211650133 4289117645
-0.2061623037 -0.0967875943 0.5203395486 4289380817
-0.2061979771 -0.0962261036 0.5204295516 4289512403
-0.2062334269 -0.0956643224 0.5205190778 4289577937
-0.2062686980 -0.0951022431 0.5206080675 4289709523
-0.2063037753 -0.0945398882 0.5206966400 4289972695
-0.2063386589 -0.0939772353 0.5207846165 4290104281
-0.2063733339 -0.0934143066 0.5208721757 4290235867
-0.2064078152 -0.0928510949 0.5209591985 4290367453
-0.2060786486 -0.0921251178 0.5201284289 4290499039
-0.2064761817 -0.0917238221 0.5211317539 4290499039
-0.2065100819 -0.0911597684 0.5212172866 4290564578
-0.2065437734 -0.0905954391 0.5213023424 4290696164
-0.2065772712 -0.0900308266 0.5213868618 4290827750
-0.2066105604 -0.0894659460 0.5214709044 4290893543
-0.2070074677 -0.0890573114 0.5224726796 4291090408
-0.2070404291 -0.0884908885 0.5225558877 4291024615
-0.2070731819 -0.0879242048 0.5226385593 4291025129
-0.2071057260 -0.0873572454 0.5227206945 4291156715
-0.2071380913 -0.0867900252 0.5228023529 4291287785
-0.2071702331 -0.0862225369 0.5228835344 4291353578
-0.2075663507 -0.0858053192 0.5238832235 4291485164
-0.2075981498 -0.0852363035 0.5239635110 4291550957
-0.2076297551 -0.0846670344 0.5240433216 4291616237
-0.2076611519 -0.0840974972 0.5241225362 4291616237
-0.2076923549 -0.0835277066 0.5242012739 4291682030
-0.2077233493 -0.0829576626 0.5242795348 4291747823
-0.2073896676 -0.0822428241 0.5234373212 4291813359
-0.2074202001 -0.0816732720 0.5235143900 4291813359
-0.2074505389 -0.0811034665 0.5235909820 4291944945
-0.2074806690 -0.0805334151 0.5236670375 4291944945
-0.2075105906 -0.0799631178 0.5237425566 4292141554
-0.2079050690 -0.0795321018 0.5247381330 4292141554
-0.2079346329 -0.0789603069 0.5248127580 4292141554
-0.2079640031 -0.0783882737 0.5248869061 4292141554
-0.2079931498 -0.0778159946 0.5249605179 4292010738
-0.2080221027 -0.0772434771 0.5250335932 4291944945
-0.2080508620 -0.0766707212 0.5251061320 4292010738
-0.2077143490 -0.0759642199 0.5242567658 4292076531
-0.2077426314 -0.0753920004 0.5243281722 4292076531
-0.2077707052 -0.0748195425 0.5243990421 4292076531
-0.2077985853 -0.0742468610 0.5244693756 4292142324
-0.2078262419 -0.0736739412 0.5245392323 4292208117
-0.2078537047 -0.0731007978 0.5246085525 4292142324
-0.2078809589 -0.0725274310 0.5246773362 4292076531
-0.2079080045 -0.0719538331 0.5247455835 4292076531
-0.2083002776 -0.0715054646 0.5257356167 4292076531
-0.2086924314 -0.0710548609 0.5267254114 4292076531
-0.2087189406 -0.0704785809 0.5267923474 4292076531
-0.2087452561 -0.0699020848 0.5268587470 4292142324
-0.2087713480 -0.0693253726 0.5269246101 4292208117
-0.2087972313 -0.0687484443 0.5269899368 4292470006
-0.2088229060 -0.0681713000 0.5270547271 4292404213
-0.2088483572 -0.0675939471 0.5271189809 4292404213
-0.2088736147 -0.0670163855 0.5271826982 4292404213
-0.2088986635 -0.0664386079 0.5272459388 4292404725
-0.2085576057 -0.0657452866 0.5263851285 4292404725
-0.2085821778 -0.0651681125 0.5264471173 4292536054
-0.2086065412 -0.0645907372 0.5265086293 4292536054
-0.2089967132 -0.0641254634 0.5274934173 4292470772
-0.2090207040 -0.0635466725 0.5275539756 4292536565
-0.2090444714 -0.0629676804 0.5276139379 4292536565
-0.2090680301 -0.0623884983 0.5276734233 4292602358
-0.2090913802 -0.0618091151 0.5277323723 4292602358
-0.2091145217 -0.0612295419 0.5277907252 4292668151
-0.2091374397 -0.0606497750 0.5278486013 4292733944
-0.1945400089 -0.1944382787 0.4923859537 4292863988
-0.1946050078 -0.1939559877 0.4925504625 4292732402
-0.1946698874 -0.1934732050 0.4927146733 4292732402
-0.1943893731 -0.1926477700 0.4920046926 4292666609
-0.1944538951 -0.1921648830 0.4921680093 4292535023
-0.1945182979 -0.1916815042 0.4923310280 4292403437
-0.1945825964 -0.1911976635 0.4924937189 4292337644
-0.1946467608 -0.1907133311 0.4926561415 4292337644
-0.1947108060 -0.1902285367 0.4928182364 4292271851
-0.1947747320 -0.1897432506 0.4929800332 4292271851
-0.1948385239 -0.1892574877 0.4931415021 4292271597
-0.1949022114 -0.1887712479 0.4933027029 4292271597
-0.1949657649 -0.1882845312 0.4934635460 4292271597
-0.1950291991 -0.1877973378 0.4936241210 4292205804
-0.1950925142 -0.1873096824 0.4937843680 4292140778
-0.1948090643 -0.1864897013 0.4930669367 4292206571
-0.1948720217 -0.1860019565 0.4932262897 4292140778
-0.1949348450 -0.1855137497 0.4933853149 4292140778
-0.1949975491 -0.1850250512 0.4935440123 4292140524
-0.1954072118 -0.1848642528 0.4945808649 4292074731
-0.1951225847 -0.1840462536 0.4938604534 4292008938
-0.1951849014 -0.1835561544 0.4940181971 4292074731
-0.1952471137 -0.1830655932 0.4941756427 4292008938
-0.1953091770 -0.1825745553 0.4943327308 4292008938
-0.1953711212 -0.1820830405 0.4944895208 4292074731
-0.1957806796 -0.1819141805 0.4955261350 4292074731
-0.1958424896 -0.1814208627 0.4956825376 4292074731
-0.1959041506 -0.1809270829 0.4958386421 4292074731
-0.1956176162 -0.1801123470 0.4951134026 4292074731
-0.1956789196 -0.1796185076 0.4952685535 4292074731
-0.1957400888 -0.1791242063 0.4954233766 4292009192
-0.1958011240 -0.1786294430 0.4955778718 4292009192
-0.1962105483 -0.1784511805 0.4966141284 4292009192
-0.1959228218 -0.1776385307 0.4958858788 4292074985
-0.1959834695 -0.1771423817 0.4960393608 4292074731
-0.1967416406 -0.1772744060 0.4979583323 4292008938
-0.1961043626 -0.1761486977 0.4963453710 4291943145
-0.1961646080 -0.1756511778 0.4964978397 4291943145
-0.1962247193 -0.1751531810 0.4966500103 4291943145
-0.1962846965 -0.1746547371 0.4968018234 4291943145
-0.1963445395 -0.1741558462 0.4969532788 4291812329
-0.1964042485 -0.1736564934 0.4971044064 4291812329
-0.1971629858 -0.1737728864 0.4990247786 4291812329
-0.1972226351 -0.1732708514 0.4991757572 4291746536
-0.1972821504 -0.1727683395 0.4993264079 4291680743
-0.1973415315 -0.1722653955 0.4994766712 4291680743
-0.1977507770 -0.1720665246 0.5005124807 4292008679
-0.1978099793 -0.1715617627 0.5006623268 4292008679
-0.1975188404 -0.1707538068 0.4999254346 4291942886
-0.1972273439 -0.1699471772 0.4991876781 4291942886
-0.1972859204 -0.1694428623 0.4993359447 4291943399
-0.1973443627 -0.1689380854 0.4994838536 4291811813
-0.1974026710 -0.1684328765 0.4996314049 4291746020
-0.1974608302 -0.1679272056 0.4997786283 4291746020
-0.1975188553 -0.1674211025 0.4999254644 4291746534
-0.1975767314 -0.1669145375 0.5000719428 4291746534
-0.1969323903 -0.1658163965 0.4984411299 4291680741
-0.1976920664 -0.1659000963 0.5003638864 4291549155
-0.1977495104 -0.1653922051 0.5005092621 4291549157
-0.1978068203 -0.1648838818 0.5006543398 4291417571
-0.1978639811 -0.1643751115 0.5007990003 4291352291
-0.1979210079 -0.1638658941 0.5009433627 4291352291
-0.1979778856 -0.1633562446 0.5010873079 4291351778
-0.1980346143 -0.1628461480 0.5012308955 4291417571
-0.1987949014 -0.1629122943 0.5031552315 4291417571
-0.1984996051 -0.1621120870 0.5024077892 4291220192
-0.1989080459 -0.1618863046 0.5034415722 4291154401
-0.1989644021 -0.1613726467 0.5035842061 4291088608
-0.1990205944 -0.1608585417 0.5037264228 4290891486
-0.1990766525 -0.1603440195 0.5038683414 4290825693
-0.1991325617 -0.1598290652 0.5040098429 4290825693
-0.1991883218 -0.1593136638 0.5041509271 4290759900
-0.1985386312 -0.1582357138 0.5025066137 4290563292
-0.1989466399 -0.1580014378 0.5035392642 4290431706
-0.1986490190 -0.1572064310 0.5027859211 4290234327
-0.1990569085 -0.1569694579 0.5038183331 4290036948
-0.1987587810 -0.1561754197 0.5030637980 4289971155
-0.1991665810 -0.1559357643 0.5040959120 4289971155
-0.1992211938 -0.1554182768 0.5042341352 4289840341
-0.1989223212 -0.1546257138 0.5034776926 4289708755
-0.1989765316 -0.1541083008 0.5036149025 4289577169
-0.1993841082 -0.1538632661 0.5046464801 4289379790
-0.1994380951 -0.1533440948 0.5047831535 4289182411
-0.1994919479 -0.1528244913 0.5049194098 4289050825
-0.1995456368 -0.1523044705 0.5050553083 4288919239
-0.1995991766 -0.1517840326 0.5051908493 4288919239
-0.1992985606 -0.1509949714 0.5044299960 4288787653
-0.1997057796 -0.1507418901 0.5054606795 4288590274
-0.1994046718 -0.1499538571 0.5046985149 4288262077
-0.1998117715 -0.1496980935 0.5057289004 4288064698
-0.1998645216 -0.1491755694 0.5058624744 4287867319
-0.1999171227 -0.1486526281 0.5059955716 4287735733
-0.1999695748 -0.1481292844 0.5061283112 4287669940
-0.2000218630 -0.1476055235 0.5062606931 4287604147
-0.2000739872 -0.1470813602 0.5063925982 4287472822
-0.2001259625 -0.1465567797 0.5065241456 4287275443
-0.2001777738 -0.1460317820 0.5066552758 4287078064
-0.2002294213 -0.1455063969 0.5067859888 4287012271
-0.2002809197 -0.1449805945 0.5069163442 4286946478
-0.1999770552 -0.1441982687 0.5061472654 4286814892
-0.2003834248 -0.1439277828 0.5071758032 4286683306
-0.2004344314 -0.1434007585 0.5073049068 4286617513
-0.2004852891 -0.1428733468 0.5074335933 4286485927
-0.2005359679 -0.1423455328 0.5075618625 4286485927
-0.2002308518 -0.1415658742 0.5067896247 4286354341
-0.1999253780 -0.1407876760 0.5060164928 4286222755
-0.1999754012 -0.1402605474 0.5061430931 4286156962
-0.2000252604 -0.1397330165 0.5062692761 4286025376
-0.2000749558 -0.1392050833 0.5063950419 4285959583
-0.2008366734 -0.1391702890 0.5083230138 4285959583
-0.2008862197 -0.1386396885 0.5084483624 4285827743
-0.2009356022 -0.1381087154 0.5085733533 4285761950
-0.2006284595 -0.1373334080 0.5077959895 4285630364
-0.2010338604 -0.1370455772 0.5088220835 4285564571
-0.2007262111 -0.1362713724 0.5080434084 4285498778
-0.2011314631 -0.1359808743 0.5090690851 4285367192
-0.2011800110 -0.1354479492 0.5091919899 4285367192
-0.2012283802 -0.1349146366 0.5093144178 4285301399
-0.2012766004 -0.1343809515 0.5094364285 4285301399
-0.2013246417 -0.1338468641 0.5095580220 4285235606
-0.2013725191 -0.1333124042 0.5096791983 4285235606
-0.2014202327 -0.1327775717 0.5097999573 4285235606
-0.2014677674 -0.1322423518 0.5099202991 4285235606
-0.2015151381 -0.1317067444 0.5100401640 4285301399
-0.2015623301 -0.1311707646 0.5101596117 4285170583
-0.2016093582 -0.1306344122 0.5102786422 4285170583
-0.2016562074 -0.1300976872 0.5103972554 4285432985
-0.2017028928 -0.1295605898 0.5105153918 4285367192
-0.2017494142 -0.1290231198 0.5106331706 4285367192
-0.2017957568 -0.1284852773 0.5107504129 4285301399
-0.2018419206 -0.1279470623 0.5108672976 4285235606
-0.2018879205 -0.1274084747 0.5109837055 4285235606
-0.2019337416 -0.1268695295 0.5110996962 4285301399
-0.2019793838 -0.1263302118 0.5112152100 4285301399
-0.2020248622 -0.1257905215 0.5113303065 4285104790
-0.2020701617 -0.1252504885 0.5114449859 4285170583
-0.2021152973 -0.1247100756 0.5115591884 4285170583
-0.2021602392 -0.1241693050 0.5116729736 4285236376
-0.2018464953 -0.1234089732 0.5108788610 4285434009
-0.2022496164 -0.1230866835 0.5118991733 4285499802
-0.2022940367 -0.1225448400 0.5120115876 4285565595
-0.2019795328 -0.1217863187 0.5112155676 4285631388
-0.2020235211 -0.1212447211 0.5113269091 4285565595
-0.2024262398 -0.1209171638 0.5123462081 4285631388
-0.2024699599 -0.1203739047 0.5124568939 4285631388
-0.2025135010 -0.1198302880 0.5125670433 4285631388
-0.2025568485 -0.1192863211 0.5126767755 4285762974
-0.2026000321 -0.1187420040 0.5127860904 4285828767
-0.2026430219 -0.1181973442 0.5128949285 4286025376
-0.2026858479 -0.1176523343 0.5130032897 4286025376
-0.2027284950 -0.1171069816 0.5131112337 4286222755
-0.2027709484 -0.1165612862 0.5132187009 4286156962
-0.2031728178 -0.1162209511 0.5142358541 4286288294
-0.2032149881 -0.1156736016 0.5143425465 4286354087
-0.2032569796 -0.1151259169 0.5144488811 4286419880
-0.2036586106 -0.1147806793 0.5154653788 4286617259
-0.2033404261 -0.1140295267 0.5146600008 4286749099
-0.2037418336 -0.1136816740 0.5156760216 4286814892
-0.2034231275 -0.1129317880 0.5148693323 4286881201
-0.2034641951 -0.1123824194 0.5149732828 4286946994
-0.2038652748 -0.1120306551 0.5159884691 4287012787
-0.2035457939 -0.1112826914 0.5151798725 4287144373
-0.2035863250 -0.1107323319 0.5152823925 4287275959
-0.2032662630 -0.1099866256 0.5144723058 4287473338
-0.2033063471 -0.1094365865 0.5145737529 4287604924
-0.2033462375 -0.1088862270 0.5146747231 4287604924
-0.2033859491 -0.1083355322 0.5147752762 4287802303
-0.2034254670 -0.1077845246 0.5148752928 4287999682
-0.2034648061 -0.1072331965 0.5149748921 4288065475
-0.2035039663 -0.1066815481 0.5150739551 4288197061
-0.2035429329 -0.1061295792 0.5151726007 4288394440
-0.2035817057 -0.1055772975 0.5152707100 4288526026
-0.2036202997 -0.1050246954 0.5153684020 4288526026
-0.2043808848 -0.1048422530 0.5172935128 4288657612
-0.2036969066 -0.1039185598 0.5155622959 4288788428
-0.2037349343 -0.1033650264 0.5156585574 4288920014
-0.2041340768 -0.1029934734 0.5166687965 4289117393
-0.2041717768 -0.1024383381 0.5167642236 4289248979
-0.2042093128 -0.1018828973 0.5168591738 4289315026
-0.2042466402 -0.1013271511 0.5169537067 4289446612
-0.2042837739 -0.1007710993 0.5170477033 4289643991
-0.2043207288 -0.1002147421 0.5171412230 4289841370
-0.2043574899 -0.0996580869 0.5172342658 4289709782
-0.2043940574 -0.0991011336 0.5173268318 4289775575
-0.2044304311 -0.0985438824 0.5174188614 4289972441
-0.2044666111 -0.0979863331 0.5175104737 4290169820
-0.2048645616 -0.0976009294 0.5185176730 4290367199
-0.2049004287 -0.0970418006 0.5186084509 4290564578
-0.2049360871 -0.0964823812 0.5186986923 4290630625
-0.2049715668 -0.0959226713 0.5187885165 4290630625
-0.2050068378 -0.0953626707 0.5188778043 4290696418
-0.2054041922 -0.0949698761 0.5198835135 4290762211
-0.2054391354 -0.0944083109 0.5199719667 4291156199
-0.2054738998 -0.0938464627 0.5200599432 4291287785
-0.2055084556 -0.0932843238 0.5201473832 4291221992
-0.2048178017 -0.0923948437 0.5183992982 4291287785
-0.2055769861 -0.0921592042 0.5203208327 4291419371
-0.2056109607 -0.0915962234 0.5204068422 4291419371
-0.2056447268 -0.0910329670 0.5204923153 4291419373
-0.2056783140 -0.0904694274 0.5205773115 4291550959
-0.2057116926 -0.0899056196 0.5206617713 4291682545
-0.2061077356 -0.0894991010 0.5216642022 4291748338
-0.2061407715 -0.0889337510 0.5217478275 4291748338
-0.2061736137 -0.0883681327 0.5218309164 4291682545
-0.2062062621 -0.0878022388 0.5219135284 4291682545
-0.2062387019 -0.0872360766 0.5219956636 4291814131
-0.2062709481 -0.0866696462 0.5220772624 4291420141
