VERSION 0.7
FIELDS x y z rgba
SIZE 4 4 4 4
TYPE F F F U
COUNT 1 1 1 1
WIDTH 920
HEIGHT 1
VIEWPOINT 0.0 0.0 0.0 1.0 0.0 0.0 0.0
POINTS 920
DATA ascii
-0.2701515555 -0.0270509627 0.5740308166 4283869389
-0.2710138857 -0.0264974851 0.5758631229 4283803597
-0.2705996037 -0.0258181337 0.5749828815 4283672011
-0.2701849937 -0.0251407083 0.5741019249 4283803596
-0.2697701156 -0.0244652145 0.5732203126 4283935182
-0.2702059448 -0.0238668229 0.5741464496 4283539908
-0.2702160180 -0.0232297704 0.5741677880 4283737287
-0.2693746984 -0.0225214902 0.5723801851 4284592337
-0.2698097825 -0.0219208803 0.5733045936 4285316060
-0.2689678371 -0.0212174840 0.5715156198 4286039783
-0.2694023848 -0.0206157416 0.5724389553 4286237162
-0.2689854503 -0.0199487992 0.5715530515 4286303212
-0.2689938545 -0.0193143655 0.5715708733 4285711075
-0.2690019608 -0.0186798740 0.5715881586 4284657876
-0.2690098286 -0.0180453248 0.5716048479 4283736774
-0.2690173984 -0.0174107216 0.5716209412 4283013305
-0.2685990334 -0.0167495217 0.5707319975 4282947512
-0.2686060667 -0.0161158200 0.5707468987 4283210684
-0.2686128318 -0.0154820690 0.5707612634 4283342270
-0.2677679062 -0.0148012079 0.5689659715 4283342270
-0.2669226825 -0.0141243208 0.5671699643 4283342270
-0.2660771608 -0.0134514086 0.5653733611 4283538879
-0.2656570375 -0.0128029911 0.5644806623 4283604672
-0.2665138543 -0.0122150835 0.5663012862 4283211459
-0.2652417123 -0.0115305791 0.5635981560 4283277252
-0.2656722665 -0.0109220818 0.5645130277 4283868873
-0.2656767964 -0.0102950437 0.5645226836 4284329424
-0.2669583857 -0.0097144544 0.5672458410 4284854220
-0.2673881948 -0.0090988297 0.5681591034 4285117392
-0.2703724205 -0.0085620685 0.5745001435 4285641422
-0.2716533244 -0.0079612965 0.5772218704 4286891489
-0.2742113769 -0.0073888903 0.5826572776 4287679202
-0.2759175897 -0.0067834640 0.5862827301 4286955479
-0.2767719626 -0.0061510494 0.5880981684 4287806668
-0.2644606233 -0.2537203431 0.5632677674 4288850868
-0.2645535469 -0.2531834245 0.5634656549 4287863973
-0.2646463215 -0.2526459694 0.5636633039 4286811543
-0.2647389770 -0.2521079481 0.5638606548 4286350992
-0.2652256191 -0.2519437075 0.5648971200 4286023058
-0.2653181553 -0.2514037490 0.5650941730 4285825679
-0.2654105425 -0.2508631945 0.5652909875 4285563281
-0.2655028105 -0.2503221035 0.5654875040 4285497488
-0.2655949295 -0.2497804612 0.5656837225 4285300624
-0.2660816908 -0.2496085763 0.5667204857 4285366417
-0.2661736906 -0.2490649968 0.5669164062 4285365904
-0.2662655413 -0.2485208362 0.5671120286 4285365904
-0.2659620643 -0.2476081997 0.5664656758 4285431438
-0.2656581700 -0.2466966212 0.5658184290 4285299852
-0.2657493651 -0.2461524010 0.5660126209 4285168523
-0.2658403814 -0.2456076294 0.5662065148 4285168523
-0.2663269937 -0.2454269677 0.5672429204 4285102730
-0.2660220265 -0.2445163876 0.5665933490 4285168523
-0.2661126256 -0.2439699322 0.5667863488 4285037450
-0.2662030756 -0.2434229106 0.5669789910 4284840071
-0.2658971548 -0.2425139248 0.5663273931 4284642694
-0.2659871876 -0.2419666052 0.5665192008 4284840073
-0.2660771012 -0.2414187342 0.5667106509 4285433755
-0.2657701969 -0.2405113280 0.5660569668 4286354857
-0.2658596635 -0.2399631739 0.5662475824 4285699245
-0.2659490108 -0.2394144535 0.5664378405 4284514971
-0.2656411231 -0.2385086715 0.5657821298 4283465627
-0.2645384371 -0.2368925959 0.5634335279 4284386729
-0.2638321221 -0.2356357574 0.5619291663 4285113538
-0.2631251514 -0.2343816608 0.5604233742 4285837261
-0.2616223097 -0.2324238718 0.5572224855 4285904857
-0.2625046372 -0.2325865328 0.5591018200 4286233822
-0.2602044344 -0.2299327403 0.5542026758 4285578462
-0.2551165223 -0.2248330265 0.5433660746 4285446876
-0.2599782944 -0.2285024375 0.5537209511 4285446365
-0.2493108958 -0.2185365856 0.5310007930 4285380572
-0.2474009097 -0.2162768990 0.5269327164 4285445852
-0.2466850132 -0.2150673121 0.5254079700 4285445852
-0.2451711744 -0.2131673098 0.5221836567 4285380574
-0.2448524833 -0.2123107910 0.5215049386 4285183195
-0.2453312278 -0.2121453434 0.5225245953 4285118429
-0.2454110533 -0.2116336077 0.5226945877 4285315808
-0.2458899021 -0.2114646733 0.5237144828 4285447392
-0.2467681617 -0.2116360217 0.5255850554 4285447392
-0.2476468086 -0.2118035257 0.5274564624 4285644257
-0.2481262535 -0.2116264105 0.5284776688 4285710050
-0.2490055114 -0.2117870599 0.5303503275 4285512160
-0.2502849400 -0.2122829854 0.5330753922 4285051609
-0.2511650622 -0.2124351114 0.5349499583 4284789211
-0.2532457709 -0.2135956585 0.5393815637 4284657625
-0.2541269958 -0.2137375474 0.5412584543 4284789465
-0.2514056563 -0.2108537704 0.5354623199 4285513188
-0.2546891570 -0.2130049467 0.5424557924 4286696691
-0.2551705241 -0.2128036618 0.5434809923 4287617791
-0.2540491223 -0.2112672627 0.5410925746 4287749631
-0.2561334968 -0.2123945057 0.5455320477 4287354875
-0.2562141716 -0.2118550986 0.5457038879 4286499566
-0.2566957772 -0.2116458714 0.5467296243 4285710050
-0.2563750744 -0.2107747346 0.5460465550 4285183706
-0.2560539246 -0.2099047899 0.5453625917 4284920534
-0.2549294829 -0.2083797157 0.5429676175 4284526550
-0.2546072900 -0.2075138539 0.5422813892 4284658136
-0.2542846799 -0.2066491693 0.5415943265 4284527579
-0.2535598576 -0.2054600865 0.5400505066 4284264407
-0.2532363236 -0.2045986503 0.5393614173 4284067541
-0.2529123724 -0.2037384361 0.5386714935 4284264920
-0.2529902458 -0.2032024711 0.5388373733 4284330713
-0.2530679703 -0.2026660293 0.5390028358 4284264920
-0.2531455159 -0.2021290809 0.5391680598 4284264920
-0.2528203428 -0.2012711465 0.5384754539 4284199127
-0.2528974414 -0.2007340640 0.5386396646 4284002518
-0.2529744208 -0.2001965046 0.5388035774 4284002518
-0.2530511916 -0.1996584386 0.5389671326 4284002518
-0.2531278431 -0.1991198957 0.5391303897 4284068311
-0.2532043159 -0.1985808611 0.5392932296 4284003031
-0.2524740100 -0.1974106282 0.5377377868 4283937238
-0.2525499165 -0.1968723387 0.5378994346 4284003031
-0.2526256442 -0.1963335574 0.5380607843 4283937238
-0.2531049252 -0.1961070746 0.5390815735 4283937238
-0.2527766526 -0.1952545643 0.5383824110 4283937238
-0.2532558441 -0.1950253695 0.5394029617 4284002516
-0.2537350953 -0.1947939843 0.5404237509 4283936723
-0.2534061074 -0.1939417422 0.5397230387 4284002516
-0.2538852692 -0.1937076598 0.5407435894 4284002516
-0.2539601028 -0.1931637824 0.5409029722 4283936723
-0.2544392645 -0.1929261386 0.5419235826 4283936723
-0.2549185455 -0.1926862746 0.5429443121 4284002518
-0.2549931109 -0.1921392083 0.5431031585 4283870932
-0.2550674975 -0.1915916800 0.5432616472 4284002518
-0.2551417351 -0.1910436600 0.5434197187 4283936725
-0.2548106909 -0.1901927888 0.5427146554 4283936725
-0.2548844814 -0.1896446943 0.5428717732 4283936725
-0.2549580932 -0.1890961081 0.5430285931 4283871445
-0.2550315261 -0.1885470599 0.5431849957 4283871445
-0.2555103600 -0.1882964224 0.5442048311 4283937238
-0.2555835545 -0.1877455413 0.5443607569 4283937238
-0.2556566000 -0.1871941984 0.5445163250 4284002518
-0.2557294667 -0.1866423786 0.5446715355 4284002518
-0.2553961277 -0.1857947111 0.5439615250 4284002518
-0.2550623715 -0.1849483252 0.5432506800 4284002518
-0.2555407584 -0.1846904755 0.5442695618 4284002518
-0.2556127906 -0.1841376573 0.5444230437 4284002518
-0.2560911477 -0.1838762313 0.5454418659 4283936725
-0.2561629713 -0.1833216101 0.5455948114 4283936725
-0.2562346160 -0.1827664971 0.5457473993 4284002518
-0.2567129135 -0.1825001687 0.5467661023 4284002518
-0.2571912408 -0.1822315902 0.5477849245 4284002518
-0.2572625577 -0.1816733330 0.5479368567 4284002518
-0.2569265366 -0.1808280349 0.5472211242 4284002520
-0.2569974065 -0.1802697331 0.5473720431 4284002520
-0.2570680678 -0.1797109693 0.5475226045 4283936727
-0.2567310631 -0.1788678318 0.5468047857 4283936727
-0.2568012476 -0.1783090383 0.5469542742 4283936727
-0.2568712831 -0.1777497828 0.5471034050 4283936727
-0.2569411099 -0.1771900803 0.5472521782 4283870934
-0.2566028237 -0.1763495505 0.5465316176 4283936727
-0.2562641203 -0.1755103320 0.5458102226 4283936727
-0.2563331723 -0.1749510467 0.5459573269 4284002520
-0.2564020753 -0.1743912995 0.5461040735 4284002520
-0.2564707696 -0.1738311052 0.5462504029 4284002520
-0.2561307847 -0.1729945540 0.5455262661 4284002520
-0.2561990023 -0.1724343449 0.5456715822 4284002520
-0.2562670410 -0.1718737036 0.5458164811 4284002520
-0.2563349009 -0.1713126004 0.5459610224 4284002520
-0.2568114996 -0.1710233986 0.5469760895 4284068313
-0.2568790913 -0.1704605073 0.5471200347 4284068313
-0.2569464743 -0.1698971838 0.5472636223 4284134106
-0.2570136786 -0.1693334132 0.5474067330 4284134106
-0.2570807040 -0.1687692106 0.5475494862 4284003031
-0.2567380667 -0.1679367274 0.5468197465 4284003031
-0.2568046153 -0.1673725247 0.5469614267 4284003031
-0.2564612925 -0.1665418595 0.5462301970 4284003031
-0.2565273345 -0.1659777015 0.5463708639 4283937238
-0.2561832964 -0.1651488543 0.5456381440 4283937238
-0.2562488616 -0.1645847261 0.5457777977 4283937238
-0.2563142478 -0.1640201658 0.5459170341 4283937238
-0.2563794255 -0.1634551734 0.5460558534 4283937238
-0.2564444244 -0.1628897488 0.5461942554 4283805652
-0.2565092146 -0.1623238921 0.5463322997 4283805652
-0.2565738261 -0.1617576033 0.5464698672 4283871445
-0.2562276125 -0.1609329879 0.5457324982 4283871191
-0.2567024529 -0.1606237590 0.5467438698 4283871191
-0.2571773231 -0.1603122950 0.5477552414 4283936984
-0.2568303049 -0.1594882160 0.5470162034 4283936984
-0.2568939328 -0.1589198112 0.5471516848 4284068313
-0.2569573820 -0.1583509743 0.5472868085 4284068313
-0.2574318647 -0.1580341756 0.5482974052 4284068313
-0.2574950159 -0.1574635953 0.5484318733 4284068313
-0.2575579584 -0.1568925977 0.5485659838 4284002518
-0.2576206923 -0.1563211679 0.5486996174 4283936725
-0.2572716177 -0.1555005312 0.5479561090 4283936725
-0.2573338747 -0.1549291909 0.5480887294 4283936725
-0.2578077614 -0.1546044052 0.5490980148 4284068311
-0.2578697205 -0.1540313363 0.5492299795 4284068311
-0.2575194240 -0.1532126963 0.5484839082 4284068311
-0.2575808764 -0.1526397020 0.5486148000 4284002518
-0.2576421499 -0.1520663053 0.5487452745 4284002518
-0.2577031851 -0.1514925063 0.5488752723 4283870932
-0.2581764460 -0.1511597633 0.5498833060 4283805139
-0.2582372129 -0.1505842209 0.5500126481 4283870932
-0.2587103546 -0.1502479017 0.5510204434 4283937238
-0.2587707937 -0.1496706307 0.5511491299 4283937238
-0.2592438161 -0.1493307501 0.5521566272 4283937238
-0.2588910460 -0.1485148817 0.5514052510 4283937238
-0.2589508593 -0.1479364038 0.5515326858 4283937238
-0.2594235539 -0.1475925446 0.5525394678 4283871445
-0.2594830692 -0.1470123380 0.5526661873 4283805652
-0.2595423460 -0.1464317441 0.5527924895 4283871445
-0.2591880560 -0.1456184983 0.5520378947 4283871445
-0.2592468262 -0.1450380385 0.5521630645 4283871445
-0.2593054175 -0.1444571763 0.5522878170 4283937238
-0.2589501143 -0.1436464489 0.5515310764 4283937238
-0.2590081692 -0.1430657357 0.5516547561 4284002518
-0.2590660155 -0.1424846202 0.5517779589 4284002518
-0.2595376074 -0.1421298087 0.5527823567 4284002518
-0.2600091696 -0.1417727470 0.5537866950 4284002518
-0.2600665689 -0.1411886066 0.5539090037 4284002518
-0.2601237595 -0.1406040937 0.5540307760 4284002518
-0.2605950236 -0.1402421445 0.5550345778 4283936725
-0.2606518865 -0.1396559328 0.5551556945 4283936725
-0.2602940500 -0.1388482302 0.5543935299 4284002518
-0.2603504062 -0.1382621825 0.5545135140 4284002518
-0.2604065239 -0.1376757473 0.5546330810 4283936725
-0.2604624331 -0.1370889395 0.5547521710 4283936725
-0.2601032853 -0.1362843961 0.5539872050 4283870932
-0.2601586878 -0.1356977671 0.5541052222 4283936725
-0.2602138519 -0.1351107657 0.5542227030 4284002518
-0.2602688372 -0.1345233917 0.5543397665 4284002518
-0.2603235841 -0.1339356452 0.5544563532 4283936725
-0.2603780925 -0.1333475411 0.5545725226 4283936725
-0.2608477771 -0.1329707950 0.5555728674 4284002518
-0.2609019578 -0.1323809922 0.5556882620 4284134104
-0.2609559000 -0.1317908466 0.5558031797 4284068311
-0.2610096633 -0.1312003136 0.5559176803 4284068311
-0.2610631883 -0.1306094229 0.5560316443 4284068311
-0.2615322769 -0.1302252114 0.5570307374 4284002518
-0.2615854442 -0.1296326667 0.5571439862 4284002518
-0.2616383731 -0.1290397495 0.5572567582 4283936725
-0.2621071637 -0.1286506802 0.5582551956 4283936725
-0.2621597350 -0.1280561090 0.5583671927 4283936725
-0.2617958784 -0.1272588521 0.5575922132 4283936725
-0.2618479431 -0.1266645044 0.5577030778 4283870932
-0.2614834011 -0.1258693784 0.5569266677 4283870932
-0.2619513869 -0.1254747659 0.5579234362 4283870932
-0.2620027661 -0.1248793676 0.5580328703 4283870932
-0.2620539367 -0.1242836118 0.5581418276 4283936725
-0.2621048689 -0.1236875132 0.5582503080 4283936725
-0.2621555924 -0.1230910718 0.5583583117 4283936725
-0.2622060776 -0.1224942803 0.5584658980 4283871445
-0.2622563243 -0.1218971461 0.5585728884 4283937238
-0.2623063624 -0.1212996691 0.5586794615 4283937238
-0.2623561621 -0.1207018495 0.5587855577 4283937238
-0.2624057531 -0.1201036945 0.5588911772 4283871445
-0.2624551058 -0.1195051968 0.5589962602 4283871445
-0.2625042200 -0.1189063638 0.5591008663 4283871445
-0.2625531256 -0.1183071882 0.5592050552 4283937238
-0.2630192637 -0.1178948209 0.5601978898 4283937238
-0.2630677819 -0.1172940359 0.5603011847 4283937238
-0.2631160617 -0.1166929156 0.5604040623 4283871445
-0.2631641328 -0.1160914600 0.5605064034 4283805652
-0.2640475333 -0.1158563122 0.5623879433 4283674580
-0.2640952766 -0.1152522936 0.5624896288 4283674580
-0.2641427815 -0.1146479473 0.5625908375 4283674580
-0.2641900480 -0.1140432805 0.5626915097 4283740373
-0.2642371058 -0.1134382859 0.5627917051 4283871445
-0.2642839253 -0.1128329635 0.5628914237 4283805652
-0.2643304765 -0.1122273281 0.5629906058 4283871445
-0.2643768191 -0.1116213724 0.5630893111 4283937238
-0.2644229233 -0.1110150963 0.5631874800 4283871445
-0.2644687891 -0.1104084998 0.5632851720 4283937238
-0.2645144463 -0.1098015979 0.5633823872 4284003031
-0.2641412318 -0.1090215966 0.5625874996 4283937238
-0.2641863227 -0.1084150299 0.5626835227 4283937238
-0.2642311752 -0.1078081504 0.5627790689 4283937238
-0.2642757893 -0.1072009578 0.5628740788 4283937238
-0.2643201649 -0.1065934598 0.5629686117 4283937238
-0.2639453411 -0.1058176979 0.5621703267 4284002518
-0.2639891803 -0.1052105576 0.5622636676 4284002518
-0.2640327811 -0.1046031117 0.5623565316 4284068311
-0.2644953132 -0.1041604429 0.5633416772 4284068311
-0.2645384967 -0.1035514325 0.5634336472 4284068311
-0.2645814419 -0.1029421315 0.5635251403 4284002518
-0.2646241486 -0.1023325324 0.5636160970 4283937238
-0.2646666467 -0.1017226353 0.5637065768 4283937238
-0.2647088766 -0.1011124477 0.5637965202 4283937238
-0.2647508383 -0.1005019695 0.5638859272 4284003031
-0.2647925913 -0.0998912007 0.5639748573 4284003031
-0.2648341060 -0.0992801413 0.5640632510 4284003031
-0.2648753822 -0.0986687988 0.5641511679 4283871445
-0.2649163902 -0.0980571732 0.5642384887 4283937238
-0.2649571598 -0.0974452570 0.5643253922 4284003031
-0.2654176652 -0.0969865248 0.5653061867 4284068824
-0.2654580176 -0.0963730812 0.5653921366 4284068824
-0.2654981315 -0.0957593620 0.5654775500 4284003031
-0.2659581602 -0.0952959061 0.5664573908 4284003031
-0.2659978569 -0.0946806595 0.5665419102 4283937238
-0.2660372853 -0.0940651372 0.5666258931 4283937238
-0.2656561434 -0.0933017060 0.5658140779 4284003031
-0.2656950355 -0.0926866159 0.5658969283 4284003031
-0.2657336891 -0.0920712501 0.5659792423 4284003031
-0.2653515637 -0.0913109109 0.5651653409 4284003031
-0.2658102214 -0.0908397213 0.5661422610 4284003031
-0.2658481300 -0.0902235657 0.5662229657 4284003031
-0.2654650807 -0.0894653574 0.5654071569 4284068824
-0.2655024230 -0.0888496488 0.5654866695 4284003031
-0.2655395269 -0.0882336795 0.5655657053 4284068824
-0.2655763924 -0.0876174495 0.5656442046 4284003031
-0.2656129897 -0.0870009735 0.5657221675 4284003031
-0.2656493485 -0.0863842368 0.5657995939 4284003031
-0.2661065161 -0.0859031677 0.5667732954 4284003031
-0.2661424279 -0.0852849558 0.5668497682 4284003031
-0.2665992379 -0.0848004520 0.5678228140 4284003031
-0.2670559585 -0.0843137503 0.5687955022 4283937752
-0.2670912147 -0.0836928263 0.5688706040 4283937752
-0.2671262324 -0.0830716640 0.5689452291 4283937752
-0.2675824165 -0.0825803056 0.5699167848 4283937752
-0.2676169872 -0.0819576755 0.5699904561 4283871959
-0.2676513195 -0.0813348070 0.5700635314 4283871959
-0.2681069374 -0.0808387995 0.5710339546 4283871959
-0.2681407928 -0.0802144706 0.5711060762 4283937752
-0.2681744099 -0.0795899108 0.5711776614 4283871959
-0.2677860558 -0.0788409486 0.5703505278 4283937752
-0.2678191066 -0.0782169029 0.5704209208 4283937752
-0.2678519189 -0.0775926262 0.5704907775 4283937752
-0.2683063149 -0.0770893320 0.5714586377 4284003545
-0.2683386505 -0.0764636174 0.5715274811 4284003545
-0.2692146599 -0.0760761574 0.5733932853 4284003545
-0.2692466080 -0.0754480213 0.5734612942 4284003545
-0.2692782581 -0.0748196617 0.5735287666 4283937752
-0.2693096697 -0.0741910860 0.5735956430 4284003545
-0.2693408430 -0.0735622868 0.5736620426 4284003545
-0.2693717182 -0.0729332790 0.5737278461 4284003545
-0.2694023550 -0.0723040476 0.5737930536 4284134617
-0.2694327533 -0.0716746002 0.5738577843 4284068824
-0.2694628537 -0.0710449442 0.5739219189 4284003031
-0.2690703273 -0.0703047141 0.5730858445 4284068824
-0.2690998912 -0.0696756244 0.5731487870 4284134615
-0.2691291869 -0.0690463334 0.5732111931 4284134615
-0.2695807517 -0.0685242414 0.5741730332 4284134615
-0.2696095705 -0.0678935498 0.5742344260 4284134615
-0.2696381211 -0.0672626570 0.5742952228 4284200408
-0.2696664333 -0.0666315705 0.5743554831 4284200408
-0.2696944773 -0.0660002828 0.5744152069 4284134615
-0.2697222531 -0.0653687939 0.5744743943 4284134615
-0.2701725662 -0.0648385882 0.5754334927 4284265688
-0.2701998651 -0.0642057285 0.5754916668 4284199895
-0.2702268958 -0.0635726750 0.5755492449 4284199895
-0.2698307633 -0.0628409311 0.5747054815 4284134102
-0.2707031667 -0.0624035075 0.5765635967 4284134102
-0.2707294524 -0.0617689043 0.5766196251 4284134102
-0.2711785436 -0.0612296350 0.5775761008 4284134102
-0.2712043226 -0.0605936721 0.5776310563 4284134102
-0.2712298632 -0.0599575266 0.5776854157 4284134102
-0.2716783285 -0.0594137497 0.5786405802 4284134102
-0.2717033625 -0.0587762557 0.5786939263 4284068309
-0.2717281282 -0.0581385866 0.5787466764 4284068309
-0.2717526555 -0.0575007461 0.5787988901 4284199895
-0.2722002268 -0.0569513030 0.5797521472 4284199895
-0.2722242475 -0.0563121252 0.5798033476 4284068564
-0.2726714015 -0.0557593629 0.5807557106 4284134357
-0.2726949155 -0.0551188551 0.5808058381 4284134102
-0.2727181911 -0.0544781834 0.5808553100 4284068309
-0.2727411687 -0.0538373478 0.5809043050 4284068309
-0.2727638781 -0.0531963520 0.5809527040 4284068309
-0.2727863193 -0.0525551960 0.5810005069 4284002516
-0.2732321322 -0.0519944951 0.5819499493 4284002516
-0.2732540667 -0.0513520315 0.5819967389 4284002516
-0.2732757628 -0.0507094152 0.5820428729 4283936723
-0.2732971609 -0.0500666462 0.5820884705 4284068309
-0.2733182907 -0.0494237244 0.5821334720 4284068309
-0.2733391523 -0.0487806574 0.5821779370 4284133332
-0.2729359269 -0.0480628125 0.5813191533 4284133332
-0.2725324035 -0.0473468155 0.5804596543 4284067539
-0.2721284926 -0.0466326736 0.5795993805 4284001746
-0.2721481919 -0.0459920242 0.5796413422 4284001746
-0.2721676230 -0.0453512371 0.5796827078 4284001746
-0.2717628181 -0.0446406715 0.5788205266 4284001746
-0.2713576555 -0.0439319722 0.5779576302 4284001746
-0.2709521949 -0.0432251319 0.5770940185 4284001746
-0.2709704638 -0.0425868109 0.5771328807 4284001746
-0.2722606957 -0.0421453007 0.5798809528 4284067539
-0.2710061669 -0.0413097814 0.5772089362 4284067539
-0.2718718946 -0.0407983735 0.5790528059 4284133075
-0.2718891203 -0.0401575491 0.5790895224 4284133075
-0.2719060779 -0.0395166054 0.5791256428 4284133075
-0.2719227672 -0.0388755426 0.5791612267 4284067282
-0.2719391882 -0.0382343605 0.5791961551 4284001489
-0.2719553411 -0.0375930667 0.5792305470 4284001489
-0.2719712257 -0.0369516574 0.5792644024 4283935696
-0.2719868124 -0.0363101363 0.5792976022 4284001489
-0.2720021605 -0.0356685035 0.5793302655 4284001489
-0.2715928555 -0.0349721238 0.5784585476 4283935696
-0.2711832225 -0.0342776403 0.5775861144 4283739344
-0.2716221213 -0.0336903371 0.5785208344 4283805137
-0.2716363370 -0.0330492891 0.5785511732 4283739344
-0.2712258399 -0.0323575027 0.5776768327 4283673551
-0.2712394893 -0.0317172594 0.5777059197 4283804367
-0.2712529004 -0.0310769212 0.5777344704 4283738574
-0.2712660134 -0.0304364879 0.5777623653 4283803596
-0.2708543241 -0.0297493357 0.5768855214 4283869389
-0.2708668709 -0.0291097220 0.5769122839 4283934413
-0.2704545557 -0.0284253992 0.5760341287 4284000206
-0.2700419724 -0.0277429949 0.5751553178 4284000206
-0.2700536549 -0.0271051303 0.5751802325 4283868620
-0.2700650990 -0.0264671836 0.5752046108 4283738316
-0.2692269683 -0.0257479344 0.5734194517 4283672523
-0.2688131332 -0.0250722263 0.5725380778 4283541450
-0.2688237131 -0.0244370569 0.5725606084 4283870415
-0.2688339949 -0.0238018129 0.5725825429 4284723153
-0.2688440382 -0.0231664963 0.5726038814 4285381083
-0.2684290409 -0.0224955156 0.5717200041 4286038500
-0.2684385180 -0.0218610652 0.5717402101 4286762223
-0.2684477270 -0.0212265477 0.5717597604 4286762736
-0.2684566379 -0.0205919668 0.5717787743 4285841634
-0.2688900828 -0.0199889001 0.5727019906 4285315292
-0.2684736848 -0.0193226188 0.5718151331 4284131018
-0.2684817910 -0.0186878555 0.5718324184 4283078844
-0.2680648267 -0.0180244725 0.5709442496 4283078844
-0.2667978704 -0.0173079222 0.5682458282 4283144891
-0.2672299743 -0.0167035684 0.5691661835 4283342270
-0.2659623921 -0.0159949530 0.5664663911 4283473602
-0.2655442357 -0.0153414086 0.5655757189 4283539395
-0.2672501802 -0.0148075353 0.5692091584 4283539908
-0.2647070289 -0.0140402121 0.5637925863 4283671494
-0.2651377916 -0.0134356273 0.5647100210 4283539910
-0.2621690333 -0.0126647800 0.5583869815 4283342531
-0.2621743083 -0.0120446151 0.5583981872 4283539908
-0.2643039525 -0.0115169929 0.5629341006 4284132045
-0.2651585937 -0.0109267524 0.5647543669 4284591565
-0.2681377232 -0.0104149841 0.5710995197 4284459979
-0.2660172880 -0.0097031081 0.5665833354 4285182154
-0.2715457082 -0.0092621632 0.5783581138 4285840084
-0.2685748041 -0.0085252617 0.5720304847 4286956506
-0.2698532343 -0.0079272492 0.5747533441 4287351264
-0.2719813287 -0.0073461365 0.5792859197 4287151056
-0.2741092145 -0.0067549464 0.5838180184 4287085263
-0.2630534470 -0.2535926998 0.5615991950 4288653746
-0.2631461024 -0.2530578375 0.5617969632 4288324524
-0.2632386386 -0.2525224090 0.5619945526 4287403422
-0.2633310258 -0.2519864142 0.5621917844 4286548371
-0.2634232938 -0.2514498532 0.5623887777 4286219406
-0.2635154426 -0.2509127259 0.5625854731 4285825679
-0.2636074424 -0.2503750324 0.5627819300 4285694093
-0.2636992931 -0.2498367727 0.5629780293 4285431695
-0.2641847432 -0.2496700436 0.5640144348 4285431695
-0.2642765045 -0.2491298616 0.5642102957 4285300624
-0.2643680871 -0.2485891134 0.5644058585 4285366417
-0.2644595504 -0.2480478138 0.5646011233 4285366417
-0.2649451494 -0.2478748113 0.5656378269 4285234831
-0.2650364637 -0.2473315746 0.5658327937 4285300109
-0.2647331357 -0.2464205325 0.5651851892 4285234316
-0.2644293904 -0.2455105484 0.5645366907 4285102730
-0.2649148405 -0.2453328669 0.5655730963 4285102730
-0.2650054693 -0.2447881997 0.5657665730 4285168523
-0.2650959790 -0.2442429811 0.5659598112 4284971144
-0.2651863098 -0.2436971962 0.5661526918 4284905351
-0.2648811936 -0.2427884787 0.5655012727 4285036937
-0.2645756602 -0.2418808341 0.5648490191 4284905353
-0.2646653354 -0.2413350046 0.5650404096 4284707974
-0.2647548616 -0.2407886237 0.5652315617 4284643210
-0.2648442388 -0.2402416915 0.5654223561 4284972175
-0.2649334669 -0.2396942079 0.5656129122 4285698470
-0.2650225759 -0.2391461730 0.5658031106 4285895849
-0.2647152245 -0.2382409275 0.5651469827 4284714405
-0.2644074857 -0.2373367697 0.5644899607 4283793303
-0.2644958794 -0.2367887199 0.5646786690 4283599010
-0.2633941174 -0.2351775765 0.5623264909 4284849077
-0.2626881897 -0.2339241654 0.5608193874 4285574344
-0.2603938282 -0.2312633842 0.5559211373 4285969102
-0.2612743378 -0.2314256281 0.5578009486 4285907167
-0.2573887706 -0.2273734212 0.5495055318 4285841374
-0.2542951107 -0.2240373194 0.5429008007 4285446363
-0.2591485381 -0.2276985347 0.5532625318 4285314777
-0.2516794503 -0.2205388695 0.5373165607 4285314779
-0.2489779741 -0.2175810784 0.5315490961 4285380572
-0.2474680990 -0.2156745940 0.5283256769 4285446624
-0.2459570616 -0.2137742639 0.5250996947 4285249245
-0.2444448322 -0.2118800730 0.5218712091 4285052636
-0.2441261709 -0.2110247910 0.5211908817 4285118429
-0.2438071221 -0.2101706713 0.5205097198 4285118427
-0.2438861728 -0.2096602917 0.5206785202 4285052634
-0.2443637103 -0.2094911784 0.5216979980 4285512158
-0.2448413670 -0.2093199044 0.5227177739 4285841123
-0.2453191429 -0.2091464549 0.5237377882 4285906403
-0.2461960614 -0.2093100697 0.5256099105 4285643231
-0.2470733374 -0.2094698399 0.5274828672 4285380832
-0.2483502477 -0.2099633068 0.5302090049 4284986074
-0.2496277988 -0.2104512602 0.5329364538 4284526293
-0.2521045506 -0.2119413018 0.5382241011 4284723672
-0.2529840469 -0.2120805830 0.5401017666 4285052637
-0.2542636693 -0.2125501931 0.5428336859 4285644774
-0.2511448860 -0.2093473375 0.5361753106 4286565105
-0.2552246153 -0.2121426761 0.5448852181 4287091449
-0.2557052374 -0.2119356245 0.5459113121 4287222776
-0.2529836297 -0.2090797871 0.5401008725 4287025397
-0.2558659315 -0.2108549476 0.5462543368 4286827505
-0.2551449537 -0.2096555978 0.5447151661 4286366954
-0.2548239827 -0.2087873966 0.5440298915 4285578464
-0.2545026243 -0.2079204023 0.5433438420 4285249499
-0.2541808486 -0.2070546001 0.5426568985 4284789722
-0.2538586855 -0.2061899900 0.5419690609 4284394964
-0.2539372742 -0.2056514621 0.5421368480 4284264920
-0.2532131076 -0.2044643760 0.5405908227 4284199127
-0.2528897226 -0.2036033720 0.5399004221 4284199127
-0.2525659204 -0.2027435899 0.5392091274 4284330713
-0.2522417307 -0.2018850148 0.5385169983 4284199897
-0.2523189187 -0.2013482600 0.5386817455 4284068311
-0.2519940138 -0.2004912645 0.5379881859 4283870932
-0.2520707548 -0.1999543905 0.5381519794 4283936725
-0.2517451942 -0.1990989894 0.5374569297 4284002518
-0.2514192164 -0.1982448101 0.5367609859 4284068311
-0.2514952421 -0.1977081895 0.5369232893 4284003031
-0.2515710890 -0.1971710771 0.5370852351 4283937238
-0.2512441576 -0.1963188648 0.5363872647 4283937238
-0.2509168088 -0.1954679042 0.5356884003 4283937238
-0.2509919405 -0.1949310601 0.5358487964 4283871445
-0.2514699101 -0.1947057694 0.5368692279 4283871445
-0.2519479394 -0.1944782734 0.5378897786 4284002516
-0.2520228326 -0.1939382553 0.5380496383 4283936723
-0.2520975471 -0.1933977753 0.5382091999 4283936723
-0.2521721125 -0.1928568035 0.5383683443 4283936723
-0.2522464991 -0.1923153400 0.5385271907 4283936723
-0.2527244389 -0.1920802593 0.5395475030 4283936723
-0.2527986169 -0.1915369779 0.5397058725 4284002518
-0.2532765865 -0.1912983358 0.5407263041 4283936725
-0.2533505261 -0.1907532364 0.5408841968 4284002518
-0.2534243166 -0.1902076602 0.5410417318 4283936725
-0.2539022565 -0.1899640858 0.5420620441 4283936725
-0.2539758086 -0.1894166917 0.5422191620 4283936725
-0.2536446750 -0.1885680705 0.5415121913 4283871191
-0.2533131540 -0.1877207160 0.5408043861 4283936984
-0.2537907362 -0.1874726415 0.5418240428 4283936984
-0.2538635135 -0.1869242191 0.5419793725 4284002777
-0.2539361119 -0.1863753349 0.5421344042 4284002518
-0.2540085614 -0.1858259737 0.5422890186 4284068311
-0.2540808022 -0.1852761358 0.5424432755 4284068311
-0.2541528940 -0.1847258359 0.5425971746 4284068311
-0.2538193464 -0.1838813275 0.5418850780 4284002518
-0.2538909614 -0.1833309680 0.5420379639 4284002518
-0.2543680966 -0.1830721200 0.5430566072 4284002518
-0.2548452914 -0.1828110516 0.5440753698 4284002518
-0.2549166083 -0.1822575480 0.5442276597 4284002518
-0.2549877465 -0.1817035675 0.5443795323 4284068311
-0.2550587058 -0.1811491251 0.5445310473 4284068313
-0.2555357516 -0.1808817983 0.5455495119 4284068313
-0.2560128570 -0.1806122214 0.5465680361 4284002520
-0.2560835183 -0.1800546348 0.5467188954 4283936727
-0.2557474077 -0.1792116612 0.5460013151 4284002520
-0.2554108799 -0.1783699989 0.5452829003 4284002520
-0.2554807663 -0.1778127998 0.5454320908 4283936727
-0.2555505037 -0.1772551388 0.5455809236 4284002520
-0.2556200325 -0.1766970307 0.5457293987 4284002520
-0.2552822232 -0.1758579761 0.5450082421 4284002520
-0.2549440265 -0.1750202626 0.5442861915 4283936727
-0.2554201484 -0.1747412533 0.5453026891 4283936727
-0.2550813854 -0.1739044189 0.5445794463 4284002520
-0.2551497817 -0.1733458191 0.5447254777 4284068313
-0.2552179992 -0.1727867723 0.5448710918 4284068313
-0.2548782229 -0.1719521582 0.5441457033 4284068313
-0.2549459636 -0.1713931113 0.5442903042 4284068313
-0.2554215491 -0.1711069643 0.5453056693 4284002520
-0.2550808787 -0.1702736914 0.5445783734 4284002520
-0.2555563152 -0.1699848622 0.5455933809 4284002520
-0.2556234300 -0.1694231480 0.5457366109 4284068313
-0.2556903362 -0.1688609868 0.5458794832 4284068313
-0.2557570636 -0.1682983786 0.5460219383 4283937238
-0.2554149330 -0.1674674004 0.5452915430 4283937238
-0.2554811835 -0.1669048220 0.5454329848 4283937238
-0.2555472553 -0.1663417965 0.5455740094 4283937238
-0.2556131184 -0.1657783538 0.5457146168 4284003031
-0.2548606396 -0.1646857709 0.5441081524 4284003031
-0.2549259067 -0.1641232520 0.5442475080 4284003031
-0.2549909949 -0.1635603160 0.5443864465 4284003031
-0.2550559044 -0.1629969329 0.5445250273 4283871445
-0.2551206052 -0.1624331325 0.5446631312 4283805652
-0.2551851273 -0.1618688852 0.5448008776 4283805398
-0.2552494407 -0.1613042206 0.5449382067 4283871191
-0.2549037635 -0.1604811251 0.5442002416 4283936984
-0.2553775012 -0.1601736248 0.5452116728 4283936984
-0.2558512688 -0.1598638743 0.5462231040 4283936984
-0.2555048168 -0.1590413153 0.5454834104 4284002777
-0.2555681765 -0.1584745347 0.5456186533 4284002520
-0.2556313276 -0.1579073370 0.5457535386 4284068313
-0.2561047077 -0.1575922519 0.5467641950 4284068313
-0.2561675906 -0.1570232958 0.5468983650 4284002520
-0.2562302649 -0.1564539224 0.5470321774 4284002520
-0.2558820248 -0.1556343138 0.5462887287 4283936727
-0.2563550174 -0.1553139240 0.5472985506 4283936725
-0.2560061812 -0.1544953138 0.5465537906 4284002518
-0.2560679615 -0.1539251953 0.5466856956 4284068311
-0.2565406561 -0.1536008120 0.5476948619 4284002518
-0.2561909258 -0.1527837217 0.5469481945 4284002518
-0.2562521100 -0.1522123665 0.5470788479 4284002518
-0.2563130856 -0.1516405940 0.5472090244 4284002516
-0.2563738823 -0.1510684192 0.5473387837 4283936723
-0.2568460703 -0.1507374048 0.5483468771 4283870930
-0.2569065392 -0.1501635164 0.5484760404 4283936723
-0.2573786378 -0.1498289257 0.5494838953 4283937238
-0.2574388087 -0.1492532939 0.5496123433 4283937238
-0.2579107583 -0.1489151418 0.5506199598 4283937238
-0.2575585246 -0.1481008232 0.5498679280 4283937238
-0.2576180696 -0.1475239843 0.5499950647 4284003031
-0.2580897212 -0.1471818686 0.5510019660 4283871445
-0.2581489682 -0.1466033012 0.5511284471 4283871445
-0.2582079768 -0.1460243464 0.5512545109 4283871445
-0.2578542531 -0.1452126503 0.5504993200 4283871445
-0.2579127848 -0.1446338296 0.5506242514 4283871445
-0.2579711080 -0.1440546066 0.5507487655 4283937238
-0.2580291927 -0.1434749961 0.5508728027 4283937238
-0.2576741576 -0.1426663697 0.5501148105 4284002518
-0.2577317655 -0.1420869082 0.5502378345 4284002518
-0.2582022846 -0.1417338252 0.5512423515 4284002518
-0.2586727738 -0.1413785070 0.5522468090 4284002518
-0.2587299347 -0.1407960206 0.5523688197 4284068311
-0.2592002749 -0.1404371411 0.5533729792 4284002518
-0.2592571080 -0.1398529559 0.5534942746 4284002518
-0.2593137026 -0.1392683983 0.5536151528 4284002518
-0.2593701184 -0.1386834383 0.5537355542 4284002518
-0.2594262958 -0.1380981058 0.5538554788 4284002518
-0.2594822645 -0.1375124007 0.5539749861 4283936725
-0.2591241002 -0.1367079318 0.5532103181 4283936725
-0.2591795623 -0.1361223906 0.5533286929 4283870932
-0.2588206828 -0.1353199780 0.5525625348 4283936725
-0.2588756084 -0.1347346306 0.5526798368 4284002518
-0.2593446374 -0.1343635619 0.5536811352 4284002518
-0.2589848340 -0.1335628331 0.5529130101 4284002518
-0.2590391338 -0.1329763830 0.5530289412 4284002518
-0.2595077753 -0.1326013803 0.5540294051 4284002518
-0.2595617175 -0.1320132464 0.5541445613 4284002518
-0.2596154213 -0.1314247549 0.5542593002 4284068311
-0.2596689463 -0.1308358908 0.5543735027 4284068311
-0.2601371408 -0.1304547340 0.5553730726 4284068311
-0.2601902783 -0.1298642009 0.5554865599 4284002518
-0.2602432072 -0.1292733103 0.5555995703 4283936725
-0.2602959275 -0.1286820620 0.5557121038 4283870932
-0.2607636750 -0.1282947510 0.5567106605 4283870932
-0.2604007125 -0.1274984926 0.5559358001 4283870932
-0.2604527771 -0.1269061714 0.5560469031 4283936725
-0.2605046034 -0.1263134927 0.5561575890 4283870932
-0.2601406574 -0.1255199611 0.5553805828 4283936725
-0.2601919472 -0.1249275208 0.5554901361 4283870932
-0.2602430284 -0.1243347377 0.5555991530 4283870932
-0.2602939010 -0.1237416044 0.5557077527 4283870932
-0.2603445351 -0.1231481284 0.5558158755 4283936725
-0.2603949308 -0.1225543022 0.5559234619 4284002518
-0.2604451180 -0.1219601333 0.5560306311 4283871445
-0.2609112263 -0.1215594932 0.5570256710 4283937238
-0.2609610260 -0.1209636927 0.5571320653 4283937238
-0.2605943382 -0.1201755777 0.5563491583 4283937238
-0.2606436312 -0.1195800453 0.5564544201 4283871445
-0.2611091435 -0.1191742420 0.5574482083 4283871445
-0.2615745664 -0.1187662035 0.5584418774 4283937238
-0.2616233230 -0.1181677580 0.5585460067 4283937238
-0.2616718709 -0.1175689846 0.5586495996 4283937238
-0.2621369064 -0.1171561256 0.5596424341 4283937238
-0.2621850669 -0.1165557280 0.5597452521 4283871445
-0.2622329891 -0.1159550026 0.5598475933 4283805652
-0.2626976669 -0.1155373454 0.5608395934 4283805652
-0.2627452016 -0.1149350032 0.5609411001 4283805652
-0.2632096410 -0.1145138144 0.5619326234 4283871445
-0.2632567883 -0.1139098704 0.5620332956 4283871445
-0.2628864050 -0.1131260321 0.5612425804 4283806166
-0.2629330158 -0.1125224009 0.5613420606 4283740373
-0.2629793882 -0.1119184420 0.5614410639 4283740373
-0.2630255520 -0.1113141701 0.5615395904 4283740373
-0.2630714476 -0.1107095778 0.5616375804 4283805652
-0.2631171048 -0.1101046726 0.5617350936 4283871445
-0.2631625533 -0.1094994545 0.5618321300 4283871445
-0.2627899647 -0.1087210700 0.5610367060 4283871445
-0.2628348768 -0.1081161872 0.5611325502 4283937238
-0.2628795207 -0.1075109914 0.5612278581 4283937238
-0.2629239559 -0.1069054902 0.5613227487 4284002518
-0.2629681528 -0.1062996835 0.5614171028 4284002518
-0.2625939548 -0.1055255383 0.5606182218 4283936725
-0.2626376152 -0.1049200892 0.5607113838 4284002518
-0.2630992830 -0.1044804454 0.5616970658 4284002518
-0.2631425261 -0.1038734317 0.5617893934 4284068311
-0.2636039555 -0.1034302860 0.5627744794 4284068311
-0.2640652955 -0.1029849201 0.5637593865 4284068311
-0.2636893988 -0.1022128388 0.5629568696 4284068311
-0.2637317479 -0.1016036719 0.5630472898 4284068311
-0.2637738585 -0.1009942070 0.5631372333 4284068311
-0.2633969784 -0.1002251208 0.5623326302 4284002518
-0.2634385526 -0.0996160433 0.5624213219 4284003031
-0.2634798884 -0.0990066826 0.5625095963 4284003031
-0.2635209560 -0.0983970389 0.5625972748 4283871445
-0.2635618150 -0.0977871045 0.5626844764 4283937238
-0.2640214860 -0.0973313898 0.5636659265 4284068824
-0.2640619278 -0.0967199206 0.5637522340 4284003031
-0.2645213306 -0.0962607265 0.5647329688 4284003031
-0.2641420662 -0.0954961479 0.5639232993 4284003031
-0.2646010816 -0.0950344577 0.5649032593 4284003031
-0.2646405995 -0.0944209099 0.5649876595 4283937238
-0.2646798790 -0.0938070863 0.5650714636 4284134104
-0.2647189200 -0.0931929946 0.5651547909 4284134104
-0.2643381059 -0.0924319103 0.5643418431 4284003031
-0.2647962272 -0.0919639915 0.5653198957 4284068824
-0.2644148171 -0.0912043229 0.5645055771 4284068824
-0.2644528151 -0.0905901268 0.5645866990 4284068824
-0.2644905448 -0.0899756700 0.5646672845 4284068824
-0.2641081512 -0.0892191082 0.5638508797 4284068824
-0.2641453445 -0.0886051059 0.5639302731 4284003031
-0.2646022737 -0.0881307349 0.5649058223 4284068824
-0.2646390498 -0.0875152349 0.5649843216 4284003031
-0.2646755576 -0.0868994817 0.5650622249 4284003031
-0.2647117972 -0.0862834752 0.5651396513 4284068824
-0.2647478282 -0.0856672153 0.5652165413 4284068824
-0.2652038634 -0.0851857066 0.5661901832 4284003031
-0.2652394474 -0.0845679715 0.5662661195 4284003031
-0.2656951547 -0.0840830281 0.5672390461 4283937752
-0.2657302916 -0.0834638178 0.5673140287 4283937752
-0.2661856711 -0.0829754472 0.5682862401 4283937752
-0.2666409314 -0.0824848711 0.5692581534 4283937752
-0.2666754127 -0.0818629712 0.5693317652 4283937752
-0.2667096257 -0.0812408254 0.5694048405 4283937752
-0.2667436004 -0.0806184486 0.5694773793 4284068824
-0.2667773366 -0.0799958333 0.5695493817 4284068824
-0.2668108046 -0.0793729797 0.5696208477 4284068824
-0.2668440342 -0.0787498876 0.5696917772 4284068824
-0.2668769956 -0.0781265721 0.5697621703 4284068824
-0.2669096887 -0.0775030255 0.5698319674 4284068824
-0.2669421434 -0.0768792480 0.5699012876 4284134617
-0.2673954368 -0.0763755217 0.5708690286 4284134617
-0.2678485811 -0.0758695975 0.5718364716 4284134617
-0.2683015764 -0.0753614828 0.5728035569 4284134617
-0.2679119110 -0.0746165365 0.5719716549 4284134617
-0.2679432034 -0.0739896670 0.5720384121 4284200410
-0.2679742277 -0.0733625889 0.5721046925 4284200410
-0.2680049837 -0.0727352872 0.5721703172 4284134617
-0.2680355012 -0.0721077695 0.5722354650 4284134617
-0.2680657506 -0.0714800432 0.5723000765 4284134617
-0.2680957317 -0.0708521008 0.5723640919 4284134615
-0.2677038908 -0.0701135397 0.5715275407 4284134615
-0.2681549489 -0.0695955977 0.5724905133 4284134615
-0.2681841552 -0.0689670295 0.5725528598 4284134615
-0.2682131231 -0.0683382601 0.5726147294 4284068822
-0.2682418227 -0.0677092895 0.5726760030 4284134615
-0.2686920762 -0.0671855882 0.5736372471 4284200408
-0.2687202990 -0.0665552318 0.5736975074 4284266201
-0.2687482536 -0.0659246743 0.5737571716 4284200408
-0.2687759697 -0.0652939156 0.5738163590 4284200408
-0.2688034177 -0.0646629632 0.5738749504 4284265688
-0.2688305974 -0.0640318245 0.5739329457 4284265688
-0.2688575089 -0.0634004921 0.5739904046 4284199895
-0.2688841820 -0.0627689734 0.5740473270 4284199895
-0.2693327367 -0.0622348115 0.5750049949 4284199895
-0.2693589032 -0.0616019256 0.5750608444 4284134102
-0.2698070407 -0.0610644184 0.5760176182 4284134102
-0.2698327303 -0.0604301766 0.5760724545 4284134102
-0.2698581815 -0.0597957522 0.5761267543 4284068309
-0.2698833346 -0.0591611527 0.5761804581 4284134102
-0.2703306377 -0.0586179644 0.5771353841 4284134102
-0.2703553140 -0.0579820164 0.5771880746 4284134102
-0.2703797221 -0.0573458970 0.5772402287 4284134102
-0.2708263695 -0.0567982160 0.5781937838 4284134102
-0.2708502710 -0.0561607592 0.5782448649 4284068309
-0.2708739340 -0.0555231348 0.5782953501 4284134102
-0.2708973289 -0.0548853464 0.5783452392 4284134102
-0.2713430822 -0.0543320216 0.5792969465 4284134102
-0.2713659704 -0.0536929108 0.5793458223 4284199895
-0.2713885903 -0.0530536398 0.5793941021 4284199895
-0.2714109719 -0.0524142087 0.5794418454 4284068309
-0.2718558311 -0.0518552661 0.5803916454 4284002516
-0.2718777061 -0.0512145236 0.5804382563 4284002516
-0.2718992829 -0.0505736321 0.5804843307 4284002516
-0.2719205916 -0.0499325879 0.5805298686 4284002516
-0.2719416320 -0.0492913909 0.5805748105 4284002516
-0.2715394497 -0.0485743880 0.5797162056 4284002516
-0.2711369395 -0.0478592329 0.5788568258 4283936723
-0.2707341015 -0.0471459292 0.5779967904 4283936723
-0.2707539797 -0.0465071462 0.5780392289 4283870930
-0.2707735896 -0.0458682254 0.5780811310 4283870930
-0.2707929313 -0.0452291667 0.5781223774 4283870930
-0.2703888714 -0.0445202999 0.5772597194 4284067539
-0.2699844539 -0.0438132957 0.5763964057 4284067539
-0.2695797384 -0.0431081615 0.5755323172 4284001746
-0.2695979178 -0.0424715653 0.5755711198 4283935953
-0.2696158290 -0.0418348461 0.5756093860 4284001746
-0.2696334720 -0.0411979966 0.5756470561 4284001746
-0.2704974711 -0.0406883769 0.5774916410 4284001746
-0.2705146372 -0.0400492847 0.5775282383 4284001746
-0.2705315351 -0.0394100696 0.5775642991 4284001746
-0.2705481350 -0.0387707353 0.5775998235 4284001746
-0.2705644965 -0.0381312855 0.5776346922 4283935953
-0.2705805898 -0.0374917202 0.5776690245 4283870160
-0.2705963850 -0.0368520394 0.5777028203 4283870160
-0.2706119418 -0.0362122506 0.5777359605 4283870160
-0.2710507214 -0.0356280208 0.5786727667 4283870160
-0.2706421912 -0.0349323452 0.5778005719 4283935953
-0.2702333629 -0.0342385694 0.5769277811 4283739346
-0.2702477872 -0.0335993543 0.5769585967 4283739346
-0.2694147527 -0.0328567177 0.5751800537 4283804367
-0.2702758610 -0.0323206261 0.5770184994 4283804367
-0.2690185308 -0.0315321423 0.5743342042 4283804109
-0.2690318227 -0.0308955442 0.5743625760 4283804109
-0.2694685459 -0.0303065013 0.5752949119 4283935182
-0.2699050009 -0.0297153629 0.5762267709 4284000975
-0.2694937885 -0.0290308371 0.5753488541 4284132562
-0.2690822780 -0.0283482280 0.5744702816 4283803597
-0.2690942287 -0.0277111791 0.5744957924 4283869390
-0.2691058815 -0.0270740483 0.5745207071 4284000976
-0.2682696581 -0.0263535678 0.5727354288 4284000975
-0.2691284120 -0.0257995408 0.5745687485 4283803596
-0.2678677440 -0.0250432920 0.5718773603 4283935693
-0.2678782940 -0.0244088545 0.5718998313 4284725209
-0.2674646676 -0.0237367265 0.5710168481 4285775582
-0.2678985596 -0.0231397618 0.5719431043 4286236133
-0.2674843669 -0.0224695001 0.5710588694 4286367465
-0.2679177225 -0.0218703896 0.5719840527 4286499051
-0.2679269314 -0.0212356020 0.5720036626 4285841123
-0.2679358423 -0.0206007510 0.5720227361 4284722642
-0.2679444849 -0.0199658368 0.5720412135 4284262604
-0.2683768272 -0.0193614494 0.5729642510 4283407295
-0.2671130002 -0.0186366662 0.5702660084 4283078844
-0.2675448060 -0.0180321634 0.5711879134 4283144637
-0.2671283484 -0.0173704512 0.5702987909 4283276223
-0.2662875652 -0.0166841298 0.5685037971 4283407809
-0.2654464841 -0.0160017796 0.5667081475 4283474115
-0.2633329332 -0.0152497292 0.5621958971 4283474115
-0.2637633681 -0.0146489954 0.5631148219 4283539655
-0.2629213631 -0.0139785670 0.5613171458 4283605448
-0.2629271746 -0.0133551992 0.5613296032 4283343559
-0.2633568347 -0.0127523271 0.5622468591 4283738317
-0.2633621395 -0.0121278744 0.5622582436 4284263118
-0.2620948851 -0.0114478143 0.5595527291 4284197325
-0.2629478574 -0.0108613437 0.5613737106 4284327876
-0.2663452923 -0.0103698932 0.5686269999 4284920013
-0.2642289400 -0.0096607311 0.5641087890 4286299605
-0.2659294605 -0.0090921056 0.5677392483 4286562777
-0.2680538893 -0.0085289013 0.5722747445 4287547612
-0.2697539628 -0.0079431236 0.5759042501 4287087061
-0.2723020911 -0.0073722396 0.5813443065 4287149766
-0.2744258642 -0.0067787855 0.5858783722 4288465626
-0.2617419064 -0.2529280782 0.5601272583 4288390574
-0.2618341446 -0.2523946762 0.5603247285 4287863973
-0.2619262934 -0.2518607080 0.5605219007 4287008664
-0.2616260648 -0.2509499490 0.5598794222 4286285715
-0.2621101737 -0.2507910728 0.5609154105 4286154129
-0.2625944316 -0.2506300509 0.5619516969 4285628816
-0.2622935176 -0.2497192025 0.5613077879 4285497230
-0.2623850107 -0.2491824329 0.5615035295 4285431695
-0.2624763548 -0.2486450821 0.5616990328 4285365902
-0.2629606128 -0.2484786063 0.5627353787 4285366417
-0.2630518377 -0.2479393333 0.5629305840 4285366417
-0.2631429136 -0.2473995090 0.5631254911 4285366417
-0.2632338405 -0.2468591183 0.5633201003 4285300624
-0.2633246481 -0.2463181764 0.5635144114 4285234318
-0.2634153366 -0.2457766682 0.5637084246 4285168525
-0.2631119788 -0.2448680252 0.5630592704 4285168266
-0.2635962367 -0.2446919680 0.5640956163 4285036680
-0.2636865079 -0.2441487908 0.5642887354 4284971146
-0.2637766302 -0.2436050475 0.5644816160 4284905353
-0.2638666034 -0.2430607527 0.5646741390 4284971146
-0.2639564276 -0.2425158918 0.5648663640 4285036939
-0.2640461326 -0.2419704795 0.5650583506 4284905353
-0.2637408674 -0.2410636395 0.5644050837 4284707974
-0.2638301253 -0.2405179441 0.5645961165 4284708233
-0.2639192641 -0.2399716824 0.5647868514 4284905612
-0.2640082538 -0.2394248694 0.5649772882 4284776340
-0.2640971243 -0.2388775051 0.5651674271 4285894821
-0.2637903392 -0.2379728109 0.5645109415 4285765549
-0.2638787627 -0.2374251634 0.5647001863 4285041826
-0.2635712922 -0.2365218252 0.5640422106 4283729051
-0.2628675401 -0.2352652699 0.5625361204 4283465879
-0.2621631026 -0.2340114564 0.5610286593 4283862180
-0.2614579797 -0.2327603996 0.5595197082 4285112247
-0.2595633566 -0.2304565609 0.5554652214 4285510351
-0.2560816407 -0.2267563939 0.5480143428 4285905109
-0.2593386173 -0.2290237844 0.5549843311 4285774554
-0.2534740865 -0.2232420743 0.5424342155 4285774554
-0.2507799268 -0.2202729583 0.5366686583 4285446878
-0.2488776445 -0.2180103362 0.5325977802 4285315292
-0.2465768605 -0.2154086232 0.5276741385 4285184222
-0.2450687587 -0.2135084569 0.5244467854 4285052636
-0.2491220087 -0.2164473981 0.5331207514 4285184222
-0.2440363020 -0.2114484757 0.5222373009 4285184222
-0.2433204800 -0.2102497071 0.5207054615 4285249245
-0.2430017143 -0.2093964815 0.5200233459 4285183452
-0.2426825613 -0.2085444480 0.5193403363 4285314779
-0.2431589365 -0.2083756477 0.5203598142 4285512158
-0.2432373464 -0.2078644931 0.5205275416 4285577949
-0.2437138259 -0.2076922059 0.5215472579 4285577949
-0.2441904098 -0.2075177431 0.5225671530 4285906403
-0.2454640865 -0.2080164999 0.5252928138 4285840610
-0.2463397682 -0.2081728727 0.5271667242 4285380832
-0.2472158074 -0.2083253711 0.5290414691 4285051867
-0.2484910637 -0.2088091820 0.5317705274 4284460246
-0.2497669458 -0.2092874497 0.5345008969 4284262867
-0.2514425516 -0.2100936323 0.5380867124 4284723672
-0.2475296408 -0.2062356323 0.5297130942 4285250016
-0.2527995110 -0.2100252807 0.5409905910 4286630898
-0.2536780536 -0.2101520151 0.5428707004 4286828277
-0.2537577152 -0.2096146494 0.5430411696 4287156983
-0.2522382736 -0.2077597678 0.5397895575 4287156983
-0.2543164790 -0.2088668346 0.5442368984 4287025397
-0.2535957992 -0.2076719850 0.5426946878 4286762225
-0.2540748417 -0.2074601650 0.5437198281 4286039015
-0.2537535131 -0.2065944374 0.5430321097 4285117913
-0.2526310086 -0.2050798684 0.5406300426 4284462299
-0.2519081235 -0.2038940787 0.5390830040 4284067541
-0.2519857883 -0.2033578157 0.5392492414 4284067541
-0.2520633340 -0.2028210461 0.5394151807 4284330713
-0.2517398298 -0.2019621879 0.5387228727 4284264920
-0.2514159381 -0.2011045516 0.5380297303 4284001748
-0.2514927387 -0.2005680054 0.5381941199 4283936725
-0.2507669330 -0.1993929297 0.5366408825 4284134104
-0.2504418194 -0.1985389441 0.5359451175 4284068311
-0.2505177855 -0.1980035156 0.5361076593 4284068311
-0.2505935729 -0.1974675953 0.5362699032 4284068311
-0.2502675056 -0.1966155916 0.5355721116 4284002518
-0.2499410361 -0.1957648247 0.5348734856 4283871445
-0.2500161231 -0.1952291578 0.5350341201 4283937238
-0.2500910163 -0.1946930289 0.5351944566 4283937238
-0.2509701848 -0.1947807074 0.5370758176 4283937238
-0.2506426871 -0.1939305961 0.5363750458 4283936723
-0.2511196733 -0.1937025636 0.5373957753 4284002516
-0.2511942089 -0.1931627840 0.5375552177 4284002516
-0.2512685359 -0.1926225126 0.5377143025 4283936723
-0.2513427138 -0.1920817643 0.5378730893 4284002518
-0.2514167428 -0.1915405244 0.5380314589 4284002518
-0.2518936098 -0.1913049072 0.5390520096 4283936725
-0.2523705661 -0.1910670847 0.5400726795 4284002518
-0.2520410419 -0.1902183294 0.5393674970 4284002518
-0.2521145046 -0.1896743327 0.5395247340 4284002518
-0.2525913119 -0.1894324571 0.5405450463 4283936727
-0.2522609532 -0.1885848939 0.5398380756 4283936727
