VERSION 0.7
FIELDS x y z rgba
SIZE 4 4 4 4
TYPE F F F U
COUNT 1 1 1 1
WIDTH 920
HEIGHT 1
VIEWPOINT 0.0 0.0 0.0 1.0 0.0 0.0 0.0
POINTS 920
DATA ascii
-0.3128899932 -0.1880573332 0.6101272702 4283344588
-0.3129687905 -0.1874266267 0.6102809310 4283344588
-0.3134876490 -0.1870581657 0.6112926602 4283278795
-0.3135660887 -0.1864256114 0.6114456654 4283278795
-0.3136443198 -0.1857925951 0.6115981936 4283278795
-0.3132817149 -0.1848990470 0.6108911037 4283213002
-0.3133593500 -0.1842659712 0.6110424995 4283213002
-0.3134368062 -0.1836324185 0.6111935377 4283278795
-0.3135139942 -0.1829984039 0.6113440394 4283278795
-0.3135909736 -0.1823639125 0.6114941835 4283213002
-0.3141088784 -0.1819845587 0.6125040650 4283213004
-0.3141855001 -0.1813482493 0.6126534939 4283213004
-0.3142618835 -0.1807114780 0.6128024459 4283213004
-0.3143380582 -0.1800742447 0.6129509211 4283147211
-0.3144139647 -0.1794365346 0.6130989790 4283147211
-0.3149313629 -0.1790494919 0.6141079068 4283213004
-0.3145651221 -0.1781597584 0.6133937240 4283147211
-0.3150822818 -0.1777700037 0.6144021153 4283081418
-0.3147153556 -0.1768811345 0.6136866808 4283147211
-0.3147900999 -0.1762411296 0.6138324142 4283147211
-0.3148646355 -0.1756006777 0.6139777303 4283213004
-0.3149389029 -0.1749597788 0.6141225696 4283213004
-0.3150129616 -0.1743184179 0.6142669916 4283147209
-0.3150867522 -0.1736766100 0.6144109368 4283081416
-0.3147177100 -0.1727913171 0.6136912107 4283015623
-0.3147909343 -0.1721495092 0.6138340235 4283081416
-0.3144210577 -0.1712660342 0.6131128073 4283016136
-0.3144937158 -0.1706242412 0.6132544875 4282950343
-0.3145661354 -0.1699820012 0.6133956909 4283016136
-0.3146382868 -0.1693393141 0.6135364175 4283016136
-0.3147102296 -0.1686961949 0.6136766672 4283016136
-0.3147819340 -0.1680526286 0.6138164401 4283016136
-0.3152968287 -0.1676444113 0.6148205400 4283081418
-0.3153681159 -0.1669990569 0.6149595380 4283147211
-0.3154391944 -0.1663532704 0.6150981188 4283213004
-0.3155100048 -0.1657070369 0.6152362227 4283278797
-0.3155805767 -0.1650603861 0.6153738499 4283147468
-0.3152069449 -0.1641820520 0.6146453023 4283147468
-0.3148328960 -0.1633051038 0.6139158607 4283081675
-0.3149025440 -0.1626589745 0.6140516400 4283081675
-0.3154161870 -0.1622409225 0.6150532365 4283213261
-0.3154854178 -0.1615930200 0.6151883006 4283147468
-0.3159988821 -0.1611713767 0.6161894798 4283081675
-0.3160677254 -0.1605217159 0.6163237691 4283081675
-0.3161363304 -0.1598716378 0.6164575219 4283081675
-0.3162046671 -0.1592211276 0.6165907979 4283081675
-0.3167176247 -0.1587932110 0.6175910234 4283081675
-0.3167855740 -0.1581409425 0.6177235246 4283081675
-0.3168532550 -0.1574882567 0.6178555489 4283213004
-0.3169206977 -0.1568351537 0.6179870367 4283213004
-0.3169879019 -0.1561816335 0.6181181073 4283278797
-0.3170548379 -0.1555277109 0.6182486415 4283213004
-0.3171215355 -0.1548733562 0.6183786392 4283213002
-0.3171879649 -0.1542185992 0.6185082197 4283147209
-0.3172541559 -0.1535634249 0.6186372638 4283147209
-0.3168744147 -0.1526930779 0.6178967953 4283147209
-0.3169400096 -0.1520380229 0.6180246472 4283213002
-0.3174511790 -0.1515954584 0.6190214753 4283213002
-0.3170703948 -0.1507266611 0.6182789207 4283213002
-0.3171352148 -0.1500703841 0.6184053421 4283278795
-0.3167536259 -0.1492035538 0.6176612377 4283278793
-0.3168178499 -0.1485473961 0.6177864671 4283278793
-0.3164354861 -0.1476825476 0.6170408726 4283278793
-0.3169454932 -0.1472338885 0.6180353761 4283278793
-0.3170089424 -0.1465765387 0.6181591153 4283213002
-0.3170721233 -0.1459187865 0.6182822585 4283147209
-0.3171350360 -0.1452606618 0.6184049845 4283147209
-0.3171976805 -0.1446021348 0.6185271740 4283213002
-0.3177069426 -0.1441459507 0.6195201874 4283278795
-0.3177691698 -0.1434857100 0.6196415424 4283213002
-0.3178311288 -0.1428250968 0.6197623610 4283278795
-0.3183399439 -0.1423640400 0.6207545400 4283278795
-0.3184014559 -0.1417017132 0.6208744645 4283213002
-0.3189100027 -0.1412370950 0.6218661070 4283213002
-0.3189710975 -0.1405730844 0.6219852567 4283278795
-0.3194793761 -0.1401049048 0.6229763627 4283344588
-0.3195399940 -0.1394391954 0.6230946183 4283344588
-0.3200480044 -0.1389674693 0.6240851879 4283278795
-0.3205558956 -0.1384935081 0.6250755787 4283278795
-0.3206159174 -0.1378248036 0.6251925826 4283278795
-0.3206756413 -0.1371557117 0.6253090501 4283213513
-0.3207351267 -0.1364862621 0.6254250407 4283213513
-0.3203462958 -0.1356267482 0.6246668100 4283279306
-0.3204051256 -0.1349574775 0.6247816086 4283279306
-0.3204637170 -0.1342878491 0.6248958111 4283213515
-0.3200737536 -0.1334309727 0.6241353750 4283213515
-0.3201316893 -0.1327615529 0.6242483854 4283279308
-0.3201893866 -0.1320917755 0.6243609190 4283279308
-0.3202468157 -0.1314216256 0.6244728565 4283213515
-0.3203039467 -0.1307511181 0.6245842576 4283279308
-0.3203608096 -0.1300802529 0.6246951818 4283279054
-0.3204174340 -0.1294090301 0.6248055696 4283213261
-0.3209225833 -0.1289177537 0.6257905960 4283213261
-0.3214276433 -0.1284242570 0.6267754436 4283213261
-0.3214835823 -0.1277500838 0.6268845201 4283213261
-0.3210901618 -0.1268980950 0.6261174083 4283279054
-0.3211454749 -0.1262241751 0.6262252331 4283344586
-0.3207512796 -0.1253743023 0.6254565716 4283344586
-0.3208059669 -0.1247006282 0.6255632043 4283344586
-0.3213097453 -0.1242003217 0.6265455484 4283344586
-0.3213639557 -0.1235250160 0.6266512275 4283278793
-0.3218674064 -0.1230211928 0.6276329756 4283278793
-0.3214715123 -0.1221733913 0.6268610358 4283278795
-0.3224242628 -0.1218369231 0.6287188530 4283344588
-0.3224774897 -0.1211583763 0.6288226247 4283278795
-0.3225304484 -0.1204794943 0.6289259195 4283344588
-0.3221332133 -0.1196331903 0.6281512976 4283344588
-0.3221855462 -0.1189545840 0.6282533407 4283278795
-0.3222375810 -0.1182756498 0.6283548474 4283278797
-0.3218392432 -0.1174321547 0.6275780201 4283344590
-0.3218906522 -0.1167535111 0.6276782751 4283344590
-0.3219417632 -0.1160745546 0.6277779937 4283278797
-0.3224429488 -0.1155566573 0.6287552714 4283279308
-0.3229439855 -0.1150365472 0.6297323108 4283213515
-0.3229944110 -0.1143547148 0.6298305988 4283213515
-0.3230445385 -0.1136725768 0.6299284101 4283213515
-0.3230943978 -0.1129901111 0.6300255656 4283213515
-0.3235946596 -0.1124639660 0.6310010552 4283279308
-0.3236440122 -0.1117799282 0.6310973167 4283279308
-0.3236930668 -0.1110955700 0.6311929822 4283279308
-0.3232909441 -0.1102571264 0.6304088831 4283410381
-0.3233393729 -0.1095731109 0.6305032969 4283410381
-0.3229364753 -0.1087369174 0.6297176480 4283410381
-0.3225331604 -0.1079023257 0.6289311647 4283410381
-0.3225806057 -0.1072193012 0.6290236712 4283410381
-0.3230789602 -0.1066849828 0.6299954653 4283410381
-0.3231258690 -0.1060004011 0.6300869584 4283410381
-0.3227211535 -0.1051684394 0.6292977333 4283344588
-0.3232188523 -0.1046303511 0.6302682757 4283147720
-0.3232648969 -0.1039448902 0.6303580403 4283213513
-0.3233106434 -0.1032591313 0.6304472685 4283279306
-0.3233561218 -0.1025730819 0.6305359602 4283279306
-0.3234013021 -0.1018867418 0.6306240559 4283476172
-0.3234461844 -0.1012001187 0.6307115555 4283476172
-0.3239426017 -0.1006535962 0.6316795349 4283476172
-0.3244388402 -0.1001048610 0.6326472163 4283476172
-0.3244829774 -0.0994154736 0.6327332258 4283804367
-0.3245268166 -0.0987257957 0.6328187585 4283870160
-0.3250223994 -0.0981723815 0.6337851286 4284067539
-0.3250657320 -0.0974811912 0.6338695884 4284199125
-0.3251087368 -0.0967897251 0.6339535117 4284264918
-0.3256036937 -0.0962316394 0.6349186301 4284330711
-0.3256461918 -0.0955386683 0.6350015402 4284462040
-0.3247836828 -0.0945819616 0.6333196759 4284527833
-0.3243730664 -0.0937596112 0.6325189471 4284527833
-0.3244144917 -0.0930687189 0.6325997710 4284462040
-0.3244556189 -0.0923775733 0.6326799393 4284396247
-0.3240438998 -0.0915582776 0.6318770647 4284264661
-0.3245370090 -0.0909944773 0.6328386068 4284133075
-0.3245772421 -0.0903025493 0.6329171062 4284198868
-0.3241644502 -0.0894853771 0.6321121454 4284330454
-0.3242040277 -0.0887938961 0.6321893334 4284396247
-0.3242433369 -0.0881021693 0.6322659850 4284330454
-0.3247352242 -0.0875322670 0.6332252026 4284330454
-0.3247739971 -0.0868390724 0.6333007216 4284264661
-0.3248124421 -0.0861456245 0.6333757043 4284264661
-0.3248505890 -0.0854519382 0.6334501505 4284264661
-0.3248884380 -0.0847580060 0.6335239410 4284198868
-0.3253791630 -0.0841810703 0.6344808340 4284133075
-0.3254164755 -0.0834856927 0.6345536113 4284198868
-0.3250001967 -0.0826747641 0.6337418556 4284330453
-0.3254901767 -0.0820942149 0.6346973181 4284396246
-0.3255265951 -0.0813981220 0.6347683072 4284330453
-0.3255626857 -0.0807017982 0.6348387003 4284330453
-0.3255984783 -0.0800052434 0.6349084973 4284264660
-0.3256339729 -0.0793084577 0.6349776983 4284264660
-0.3256691694 -0.0786114484 0.6350463033 4284264660
-0.3257040679 -0.0779142082 0.6351143718 4284133074
-0.3261923194 -0.0773242936 0.6360664368 4284198867
-0.3257729113 -0.0765190721 0.6352486610 4284264660
-0.3258069158 -0.0758211687 0.6353148818 4284264660
-0.3258405626 -0.0751230493 0.6353805661 4284198867
-0.3263278008 -0.0745283738 0.6363306642 4284198867
-0.3263609111 -0.0738288537 0.6363952160 4284133074
-0.3263937235 -0.0731291249 0.6364591718 4284198867
-0.3264262080 -0.0724291876 0.6365225315 4284264660
-0.3264583945 -0.0717290342 0.6365852952 4284133075
-0.3269443810 -0.0711274669 0.6375329494 4284133075
-0.3269760013 -0.0704259351 0.6375945807 4284133075
-0.3270073235 -0.0697241947 0.6376556754 4284067282
-0.3265841007 -0.0689263940 0.6368303895 4284001489
-0.3266147673 -0.0682252347 0.6368901730 4283935696
-0.3266451061 -0.0675238818 0.6369493604 4283869903
-0.3266751468 -0.0668223277 0.6370079517 4283869903
-0.3262504935 -0.0660286248 0.6361798644 4283869903
-0.3262798786 -0.0653276667 0.6362371445 4283935696
-0.3267634213 -0.0647165254 0.6371800900 4283804367
-0.3267922103 -0.0640142187 0.6372362375 4283738574
-0.3268207014 -0.0633117184 0.6372917891 4283738574
-0.3268488944 -0.0626090392 0.6373467445 4283804367
-0.3268767893 -0.0619061850 0.6374011040 4283738574
-0.3269043565 -0.0612031482 0.6374548674 4283738574
-0.3269315958 -0.0604999326 0.6375080347 4283672781
-0.3269585371 -0.0597965457 0.6375605464 4283672781
-0.3274399638 -0.0591751710 0.6384993196 4283606988
-0.3270114958 -0.0583892502 0.6376638412 4283606988
-0.3270375133 -0.0576853454 0.6377145648 4283672781
-0.3266083300 -0.0569020286 0.6368776560 4283672781
-0.3266336918 -0.0561987720 0.6369271278 4283672781
-0.3262037635 -0.0554180630 0.6360887885 4283738574
-0.3257734776 -0.0546391532 0.6352497339 4283804110
-0.3257978261 -0.0539373793 0.6352971792 4283804110
-0.3253667951 -0.0531610958 0.6344567537 4283803856
-0.3258455992 -0.0525333583 0.6353903413 4283803856
-0.3258690238 -0.0518311188 0.6354359984 4283738063
-0.3258921206 -0.0511287302 0.6354810596 4283803856
-0.3254597187 -0.0503557622 0.6346378922 4283869649
-0.3250269592 -0.0495846123 0.6337940097 4283803856
-0.3250490427 -0.0488837473 0.6338371038 4283738063
-0.3246155679 -0.0481152572 0.6329918504 4283803856
-0.3246370256 -0.0474150889 0.6330336332 4283803856
-0.3251135051 -0.0467803031 0.6339628100 4283606477
-0.3251343668 -0.0460788831 0.6340034604 4283343305
-0.3242441118 -0.0452502184 0.6322674751 4283277512
-0.3242642879 -0.0445504971 0.6323068142 4283343305
-0.3242841363 -0.0438506454 0.6323455572 4283343305
-0.3238482177 -0.0430900604 0.6314955354 4283475145
-0.3243229389 -0.0424505584 0.6324211955 4283409352
-0.3243418634 -0.0417503305 0.6324580908 4283409352
-0.3239049315 -0.0409923270 0.6316061020 4283343559
-0.3239232004 -0.0402928405 0.6316416860 4283343559
-0.3239411414 -0.0395932347 0.6316767335 4283343559
-0.3239588141 -0.0388935171 0.6317111850 4283343559
-0.3230648041 -0.0380862467 0.6299679279 4283277766
-0.3230817914 -0.0373882726 0.6300010085 4283343559
-0.3230984509 -0.0366901904 0.6300334930 4283277766
-0.3226590753 -0.0359412357 0.6291767359 4283277766
-0.3222193420 -0.0351941437 0.6283192635 4283277766
-0.3222350180 -0.0344977155 0.6283498406 4283146180
-0.3222503960 -0.0338011868 0.6283798218 4283080387
-0.3218096197 -0.0330577344 0.6275203228 4283145667
-0.3218243420 -0.0323619954 0.6275490522 4283145667
-0.3213829100 -0.0316213071 0.6266882420 4283145667
-0.3213969767 -0.0309263673 0.6267156601 4283079874
-0.3214107454 -0.0302313361 0.6267425418 4283079874
-0.3214242160 -0.0295362175 0.6267687678 4283145667
-0.3214373589 -0.0288410112 0.6267943978 4283079874
-0.3214502037 -0.0281457212 0.6268194318 4283343046
-0.3219186962 -0.0274892859 0.6277329922 4283802827
-0.3205629289 -0.0266789980 0.6250892878 4283473862
-0.3210307956 -0.0260224044 0.6260016561 4283408322
-0.3205863535 -0.0252918061 0.6251349449 4283276736
-0.3192294538 -0.0244931281 0.6224890351 4283342018
-0.3187842965 -0.0237683076 0.6216209531 4283342018
-0.3178826869 -0.0230123736 0.6198629141 4283275972
-0.3160685599 -0.0221962612 0.6163253784 4283078593
-0.3169906139 -0.0215742346 0.6181233525 4282815675
-0.3151757121 -0.0207678657 0.6145843863 4282684089
-0.3147287965 -0.0200565383 0.6137129068 4282815672
-0.3142815530 -0.0193471257 0.6128407717 4282618293
-0.3142901063 -0.0186667256 0.6128574610 4282749103
-0.3142983913 -0.0179862697 0.6128735542 4282946482
-0.3129377961 -0.0172304101 0.6102204919 4283668147
-0.3138577938 -0.0166010726 0.6120144725 4284128698
-0.3134089410 -0.0158983115 0.6111391783 4284916672
-0.3134159446 -0.0152196325 0.6111528277 4285245637
-0.3129664361 -0.0145197436 0.6102763414 4286359998
-0.3116041422 -0.0137814321 0.6076198816 4286688963
-0.3196724057 -0.2702892125 0.6247057915 4289711591
-0.3206288517 -0.2704017162 0.6265748739 4288527317
-0.3207349479 -0.2697947919 0.6267821789 4287086554
-0.3208408356 -0.2691872418 0.6269891262 4286033866
-0.3188183010 -0.2667980790 0.6230366826 4284788944
-0.3202005625 -0.2672595680 0.6257379055 4284525772
-0.3194538057 -0.2659426630 0.6242786050 4284395733
-0.3157237768 -0.2621519268 0.6169893742 4284132561
-0.3128435016 -0.2590811253 0.6113607287 4284526293
-0.3048448563 -0.2517951429 0.5957296491 4284526293
-0.2985467315 -0.2459447831 0.5834218264 4284526550
-0.2901110947 -0.2383655608 0.5669368505 4284658136
-0.2910587788 -0.2385122329 0.5687888265 4284724701
-0.2898722887 -0.2369105667 0.5664701462 4284790494
-0.2908200324 -0.2370537221 0.5683223009 4284856033
-0.2904866338 -0.2361512333 0.5676707625 4284921826
-0.2901528180 -0.2352498472 0.5670183897 4284724699
-0.2893910706 -0.2340039015 0.5655298233 4284724699
-0.2911942303 -0.2348296940 0.5690535307 4284724699
-0.2912873924 -0.2342723459 0.5692355633 4284593113
-0.2913803756 -0.2337144613 0.5694172978 4284593113
-0.2914731801 -0.2331560552 0.5695986748 4284658906
-0.2919939756 -0.2329386473 0.5706164241 4284658906
-0.2925148904 -0.2327190787 0.5716343522 4284593113
-0.2926074862 -0.2321574241 0.5718153119 4284527320
-0.2926999331 -0.2315952331 0.5719959736 4284527320
-0.2932208776 -0.2313707769 0.5730140209 4284462040
-0.2937419415 -0.2311441302 0.5740323067 4284462040
-0.2942630947 -0.2309153080 0.5750507116 4284462040
-0.2943552732 -0.2303485125 0.5752308369 4284462040
-0.2948764861 -0.2301161438 0.5762494206 4284462040
-0.2949684560 -0.2295474559 0.5764291286 4284462040
-0.2954897583 -0.2293115407 0.5774478316 4284462040
-0.2960111201 -0.2290734351 0.5784667730 4284462040
-0.2965326011 -0.2288331389 0.5794858336 4284396247
-0.2961944044 -0.2279290259 0.5788248777 4284396247
-0.2962857485 -0.2273560315 0.5790034533 4284330454
-0.2968071103 -0.2271116376 0.5800222754 4284330454
-0.2968982756 -0.2265367508 0.5802004337 4284330454
-0.2974196672 -0.2262888104 0.5812193155 4284396247
-0.2979411483 -0.2260386646 0.5822384357 4284330713
-0.2967399955 -0.2244830877 0.5798911452 4284330713
-0.2981227636 -0.2248818427 0.5825933218 4284330713
-0.2982133031 -0.2243026346 0.5827702284 4284330713
-0.2987347245 -0.2240462005 0.5837892294 4284264920
-0.2988250256 -0.2234650999 0.5839657187 4284199127
-0.2993465066 -0.2232051045 0.5849847794 4284133334
-0.2998680472 -0.2229428887 0.5860039592 4284133334
-0.3003896475 -0.2226784676 0.5870233178 4284330200
-0.3004796207 -0.2220927477 0.5871990919 4284330200
-0.3010012805 -0.2218247503 0.5882185102 4284264407
-0.3015229702 -0.2215545475 0.5892380476 4284198614
-0.3011805415 -0.2206489891 0.5885688663 4284132821
-0.3017021418 -0.2203760445 0.5895881653 4284198614
-0.3022238314 -0.2201008797 0.5906076431 4284198614
-0.3023130596 -0.2195094824 0.5907820463 4284198614
-0.3024021089 -0.2189175487 0.5909560323 4284198614
-0.3024909794 -0.2183250934 0.5911297202 4284198614
-0.3025796711 -0.2177321166 0.5913030505 4284198614
-0.3031011522 -0.2174492627 0.5923221111 4284132821
-0.3027564585 -0.2165446132 0.5916485190 4284198614
-0.3037110865 -0.2165679634 0.5935140252 4284198614
-0.3042326272 -0.2162792832 0.5945332646 4284198614
-0.3038872182 -0.2153739184 0.5938582420 4284132821
-0.3044086397 -0.2150825113 0.5948771834 4284132821
-0.3049301207 -0.2147888839 0.5958962440 4284132821
-0.3050177395 -0.2141883373 0.5960675478 4284132821
-0.3055392206 -0.2138911188 0.5970866084 4284132821
-0.3060607016 -0.2135916501 0.5981057286 4284067541
-0.3065822721 -0.2132899612 0.5991249681 4284067541
-0.3066695035 -0.2126847953 0.5992954373 4284067541
-0.3063220382 -0.2117787004 0.5986164212 4284133334
-0.3064087629 -0.2111733556 0.5987858176 4283935955
-0.3064952493 -0.2105675042 0.5989549160 4283935955
-0.3061467111 -0.2096633166 0.5982737541 4283870932
-0.3066676855 -0.2093542516 0.5992918611 4283870932
-0.3071887195 -0.2090429515 0.6003100276 4283805139
-0.3072745502 -0.2084341794 0.6004777551 4283739346
-0.3073601723 -0.2078249007 0.6006451249 4283607760
-0.3074455857 -0.2072151154 0.6008120179 4283607760
-0.3079664111 -0.2068974674 0.6018298268 4283541965
-0.3080515265 -0.2062858045 0.6019961834 4283541965
-0.3081364632 -0.2056736350 0.6021621823 4283607758
-0.3082211912 -0.2050609589 0.6023277640 4283673551
-0.3083057106 -0.2044477761 0.6024929285 4283608273
-0.3079538345 -0.2035457790 0.6018052697 4283476687
-0.3080378175 -0.2029324621 0.6019693613 4283476174
-0.3085580170 -0.2026052028 0.6029859781 4283410381
-0.3086417019 -0.2019900084 0.6031495333 4283279308
-0.3082885146 -0.2010894865 0.6024593115 4283279308
-0.3083716631 -0.2004741728 0.6026217937 4283279308
-0.3084546030 -0.1998583525 0.6027838588 4283279308
-0.3089743555 -0.1995242536 0.6037995815 4283344847
-0.3090569973 -0.1989065707 0.6039610505 4283344847
-0.3091394007 -0.1982883960 0.6041221023 4283344847
-0.3092216253 -0.1976697296 0.6042827964 4283344847
-0.3093036115 -0.1970505565 0.6044430137 4283279308
-0.3089478016 -0.1961530745 0.6037476659 4283279308
-0.3090292513 -0.1955337971 0.6039068103 4283410381
-0.3095483184 -0.1951901168 0.6049212217 4283410381
-0.3100673854 -0.1948442012 0.6059355736 4283410381
-0.3101484179 -0.1942217052 0.6060939431 4283344588
-0.3102292418 -0.1935987324 0.6062518954 4283344588
-0.3103098571 -0.1929752529 0.6064093709 4283278795
-0.3103902340 -0.1923513114 0.6065664887 4283410381
-0.3109089136 -0.1919976771 0.6075800657 4283410381
-0.3109889627 -0.1913718730 0.6077365279 4283541197
-0.3115075231 -0.1910146177 0.6087499261 4283606990
-0.3115872741 -0.1903869659 0.6089057326 4283606990
-0.3116667569 -0.1897588372 0.6090610623 4283541197
-0.3117460608 -0.1891302317 0.6092160344 4283475404
-0.3118250966 -0.1885011345 0.6093705297 4283409611
-0.3119039536 -0.1878715605 0.6095245481 4283343820
-0.3119825423 -0.1872415245 0.6096782088 4283278027
-0.3120609224 -0.1866109967 0.6098313928 4283343820
-0.3121390939 -0.1859800071 0.6099840999 4283343820
-0.3122170269 -0.1853485256 0.6101363897 4283343820
-0.3122947514 -0.1847165823 0.6102882624 4283343820
-0.3123722076 -0.1840841770 0.6104397178 4283343820
-0.3124494851 -0.1834512949 0.6105906367 4283278027
-0.3125264943 -0.1828179359 0.6107411981 4283409613
-0.3126032948 -0.1821841151 0.6108912826 4283343820
-0.3126798570 -0.1815498322 0.6110408902 4283343820
-0.3127562106 -0.1809150726 0.6111900806 4283343820
-0.3128322959 -0.1802798659 0.6113387942 4283343820
-0.3129081726 -0.1796441823 0.6114870906 4283278027
-0.3129838407 -0.1790080369 0.6116349101 4283212234
-0.3130592406 -0.1783714443 0.6117822528 4283278027
-0.3131344318 -0.1777343750 0.6119291782 4283146441
-0.3136505187 -0.1773462892 0.6129377484 4283212234
-0.3132840693 -0.1764588803 0.6122216582 4283212234
-0.3133585453 -0.1758204401 0.6123672128 4283278027
-0.3134328127 -0.1751815528 0.6125122905 4283343820
-0.3135068119 -0.1745422184 0.6126568913 4283343820
-0.3135805726 -0.1739024222 0.6128010750 4283147211
-0.3132123649 -0.1730181426 0.6120814681 4283147211
-0.3132855594 -0.1723783612 0.6122245193 4283147211
-0.3129165471 -0.1714958847 0.6115034223 4283147211
-0.3125470877 -0.1706147790 0.6107813716 4283147209
-0.3121771812 -0.1697350442 0.6100585461 4283147209
-0.3122491241 -0.1690961868 0.6101990938 4283081416
-0.3123208284 -0.1684568822 0.6103392243 4283147209
-0.3123922646 -0.1678171307 0.6104788780 4283147209
-0.3129060864 -0.1674137563 0.6114829779 4283015623
-0.3129771650 -0.1667722315 0.6116218567 4283081418
-0.3134907782 -0.1663652509 0.6126255989 4283147211
-0.3135614991 -0.1657219380 0.6127637625 4283147211
-0.3136319518 -0.1650781929 0.6129014492 4283147211
-0.3132590652 -0.1642017812 0.6121727824 4283213004
-0.3133289516 -0.1635580808 0.6123093367 4283213004
-0.3133985698 -0.1629139632 0.6124454141 4283213004
-0.3134679496 -0.1622693986 0.6125810146 4283213004
-0.3135370910 -0.1616244167 0.6127161384 4283213004
-0.3136059940 -0.1609790176 0.6128507257 4283213004
-0.3141183257 -0.1605599672 0.6138519049 4283278797
-0.3141868114 -0.1599127948 0.6139857769 4283213004
-0.3142550588 -0.1592652053 0.6141191721 4283147468
-0.3147670329 -0.1588412225 0.6151196361 4283147468
-0.3152789474 -0.1584150046 0.6161200404 4283081675
-0.3153466284 -0.1577643156 0.6162523031 4283015882
-0.3149698377 -0.1568919271 0.6155160069 4283213004
-0.3150369525 -0.1562413275 0.6156471372 4283213004
-0.3151037991 -0.1555903107 0.6157777905 4283213004
-0.3151704073 -0.1549388766 0.6159079075 4283213004
-0.3152367473 -0.1542870253 0.6160376072 4283147211
-0.3153028488 -0.1536347717 0.6161667705 4283147211
-0.3153687119 -0.1529821157 0.6162954569 4283213004
-0.3149893880 -0.1521141827 0.6155542135 4283213004
-0.3154996336 -0.1516755670 0.6165512800 4283278795
-0.3155647218 -0.1510216743 0.6166784763 4283278795
-0.3156295419 -0.1503673941 0.6168051958 4283278795
-0.3152488470 -0.1495015323 0.6160612106 4283278795
-0.3148677349 -0.1486371309 0.6153164506 4283278795
-0.3149316013 -0.1479834914 0.6154412627 4283278795
-0.3145497143 -0.1471210718 0.6146949530 4283213002
-0.3146129847 -0.1464675516 0.6148186326 4283213002
-0.3151217401 -0.1460201889 0.6158127785 4283278795
-0.3151845932 -0.1453649700 0.6159356236 4283213002
-0.3156930804 -0.1449140310 0.6169293523 4283147209
-0.3157555163 -0.1442570984 0.6170513630 4283213002
-0.3158176839 -0.1435997784 0.6171728373 4283278795
-0.3163257539 -0.1431439668 0.6181656718 4283278795
-0.3163874745 -0.1424849480 0.6182863712 4283213002
-0.3164489567 -0.1418255419 0.6184064746 4283213002
-0.3169565797 -0.1413648576 0.6193984747 4283213002
-0.3174641430 -0.1409019232 0.6203903556 4283213002
-0.3170784116 -0.1400422603 0.6196365356 4283278795
-0.3175855875 -0.1395767033 0.6206277013 4283344588
-0.3176459372 -0.1389135271 0.6207455993 4283344588
-0.3181528449 -0.1384444237 0.6217362285 4283278795
-0.3186596632 -0.1379730701 0.6227266192 4283278795
-0.3191663623 -0.1374994665 0.6237168908 4283344588
-0.3192258775 -0.1368319839 0.6238331795 4283213513
-0.3188379705 -0.1359734237 0.6230750680 4283279306
-0.3184496164 -0.1351163685 0.6223161817 4283279306
-0.3185081780 -0.1344496459 0.6224305630 4283279306
-0.3185664415 -0.1337825656 0.6225444674 4283213513
-0.3186244667 -0.1331151128 0.6226578951 4283213513
-0.3182346225 -0.1322612762 0.6218960285 4283279308
-0.3182920218 -0.1315940320 0.6220082045 4283279308
-0.3187969029 -0.1311105788 0.6229948401 4283279308
-0.3188538253 -0.1304416656 0.6231061220 4283279308
-0.3189105093 -0.1297724098 0.6232168078 4283279308
-0.3189668953 -0.1291027963 0.6233270168 4283279308
-0.3190230131 -0.1284328401 0.6234366894 4283279054
-0.3195270002 -0.1279419512 0.6244215965 4283213261
-0.3195826709 -0.1272703409 0.6245303750 4283213261
-0.3191897273 -0.1264208257 0.6237625480 4283213261
-0.3192447722 -0.1257494539 0.6238700747 4283213513
-0.3188510537 -0.1249020621 0.6231006980 4283213513
-0.3189054728 -0.1242309511 0.6232070327 4283213513
-0.3194082081 -0.1237332746 0.6241894364 4283213513
-0.3194621205 -0.1230605245 0.6242948174 4283279306
-0.3199645579 -0.1225593314 0.6252766848 4283279306
-0.3204668164 -0.1220559105 0.6262582541 4283279308
-0.3205200732 -0.1213802621 0.6263622642 4283279308
-0.3205730617 -0.1207042709 0.6264657974 4283213515
-0.3206257522 -0.1200279519 0.6265687943 4283279308
-0.3202290237 -0.1191841364 0.6257935166 4283279308
-0.3202810884 -0.1185080931 0.6258952618 4283279308
-0.3203328550 -0.1178317294 0.6259964108 4283213515
-0.3199350238 -0.1169907227 0.6252189875 4283279308
-0.3199861646 -0.1163146496 0.6253189445 4283345101
-0.3200370371 -0.1156382561 0.6254183054 4283279308
-0.3205371797 -0.1151230037 0.6263957024 4283344588
-0.3210372031 -0.1146055311 0.6273728609 4283344588
-0.3210873604 -0.1139262766 0.6274709105 4283344588
-0.3211372495 -0.1132467017 0.6275683641 4283344588
-0.3211868405 -0.1125668138 0.6276652813 4283410381
-0.3212361634 -0.1118866056 0.6277616620 4283344588
-0.3217351735 -0.1113618389 0.6287368536 4283344588
-0.3213339448 -0.1105252653 0.6279527545 4283278795
-0.3218325377 -0.1099979728 0.6289270520 4283278795
-0.3214305937 -0.1091626808 0.6281416416 4283344588
-0.3210282326 -0.1083289981 0.6273553371 4283410381
-0.3210757673 -0.1076479033 0.6274482012 4283410381
-0.3211230338 -0.1069665030 0.6275405884 4283410381
-0.3211700022 -0.1062848046 0.6276323795 4283410381
-0.3216671944 -0.1057509184 0.6286039948 4283344588
-0.3212630749 -0.1049205139 0.6278142333 4283278795
-0.3213091791 -0.1042379215 0.6279043555 4283213515
-0.3218057156 -0.1037002802 0.6288746595 4283213515
-0.3218512833 -0.1030161455 0.6289637685 4283213515
-0.3218966126 -0.1023317277 0.6290522814 4283213515
-0.3219416142 -0.1016470194 0.6291402578 4283213515
-0.3219863474 -0.1009620205 0.6292276978 4283279308
-0.3220307827 -0.1002767459 0.6293144822 4283344586
-0.3229770958 -0.0998701453 0.6311637759 4283213000
-0.3230210841 -0.0991823822 0.6312497258 4283344586
-0.3230647445 -0.0984943360 0.6313351393 4283410379
-0.3231081367 -0.0978060141 0.6314198971 4283606988
-0.3231512606 -0.0971174166 0.6315041184 4283672781
-0.3236454427 -0.0965632126 0.6324698925 4283804367
-0.3236880302 -0.0958731025 0.6325531006 4284001746
-0.3241817951 -0.0953154787 0.6335180402 4284133332
-0.3237722814 -0.0944920704 0.6327177286 4284264918
-0.3233623505 -0.0936703309 0.6319166422 4284462040
-0.3234036863 -0.0929801092 0.6319974661 4284593626
-0.3238964677 -0.0924185216 0.6329604387 4284593626
-0.3234854639 -0.0915988758 0.6321572661 4284462040
-0.3230740726 -0.0907809064 0.6313533187 4284396247
-0.3231141567 -0.0900906101 0.6314316392 4284264661
-0.3231539428 -0.0894000530 0.6315094233 4284198868
-0.3227414489 -0.0885851756 0.6307032704 4284133075
-0.3227805793 -0.0878950804 0.6307798028 4284133075
-0.3228194416 -0.0872047320 0.6308557391 4284133075
-0.3228580058 -0.0865141377 0.6309310794 4284133075
-0.3228962719 -0.0858232975 0.6310058236 4284198868
-0.3233865201 -0.0852514431 0.6319639087 4284264661
-0.3238765597 -0.0846774131 0.6329215765 4284264661
-0.3243664205 -0.0841012076 0.6338788271 4284330454
-0.3239512146 -0.0832901597 0.6330674291 4284396247
-0.3239880800 -0.0825961754 0.6331394911 4284396504
-0.3240246475 -0.0819019601 0.6332109571 4284396504
-0.3245135248 -0.0813209265 0.6341663003 4284330711
-0.3240968883 -0.0805128217 0.6333521008 4284264918
-0.3241325617 -0.0798179060 0.6334218383 4284264918
-0.3241679072 -0.0791227594 0.6334909201 4284199125
-0.3242029846 -0.0784273893 0.6335594654 4284199125
-0.3242377341 -0.0777317882 0.6336273551 4284133332
-0.3247250915 -0.0771435648 0.6345797777 4284199125
-0.3247593045 -0.0764465481 0.6346465945 4284199125
-0.3243402243 -0.0756436735 0.6338276267 4284199125
-0.3243737817 -0.0749471933 0.6338931918 4284199125
-0.3248600960 -0.0743542090 0.6348435879 4284199125
-0.3248930871 -0.0736563280 0.6349080205 4284199125
-0.3249257803 -0.0729582384 0.6349719167 4284199125
-0.3249581456 -0.0722599402 0.6350352168 4284133332
-0.3249902129 -0.0715614334 0.6350978613 4284264660
-0.3254753053 -0.0709615573 0.6360458136 4284198867
-0.3259601593 -0.0703595206 0.6369933486 4284133074
-0.3259914219 -0.0696584508 0.6370543838 4284067281
-0.3255689144 -0.0688612759 0.6362287402 4284001488
-0.3255994916 -0.0681607798 0.6362885237 4284001488
-0.3251762390 -0.0673661381 0.6354613900 4283935695
-0.3252061903 -0.0666662306 0.6355199218 4283935695
-0.3247821927 -0.0658741295 0.6346913576 4283935695
-0.3248114884 -0.0651748180 0.6347485781 4283935695
-0.3248404562 -0.0644753128 0.6348052025 4283935695
-0.3253228366 -0.0638647005 0.6357478499 4283869902
-0.3253512383 -0.0631638467 0.6358033419 4283804109
-0.3253793120 -0.0624628179 0.6358582377 4283869902
-0.3254070878 -0.0617616065 0.6359125376 4283804110
-0.3254345655 -0.0610602163 0.6359661818 4283738317
-0.3254617155 -0.0603586473 0.6360192895 4283738574
-0.3254885674 -0.0596569069 0.6360717416 4283738574
-0.3259691000 -0.0590372160 0.6370108128 4283804367
-0.3255413175 -0.0582529046 0.6361748576 4283804367
-0.3255672455 -0.0575506501 0.6362255216 4283804367
-0.3255928457 -0.0568482317 0.6362755299 4283804367
-0.3251640201 -0.0560673401 0.6354374886 4283804110
-0.3251889646 -0.0553655699 0.6354862452 4283804110
-0.3247593939 -0.0545872971 0.6346467733 4283869903
-0.3247837126 -0.0538861901 0.6346942782 4283935696
-0.3243533969 -0.0531105399 0.6338533759 4283869903
-0.3248313665 -0.0524835102 0.6347874403 4283804110
-0.3244003952 -0.0517095178 0.6339452267 4283869390
-0.3244234025 -0.0510087758 0.6339901686 4283935183
-0.3244461119 -0.0503078923 0.6340345740 4283869390
-0.3240140676 -0.0495373793 0.6331902742 4283803597
-0.3235816658 -0.0487686880 0.6323452592 4283606731
-0.3231488764 -0.0480018221 0.6314995289 4283738317
-0.3236247897 -0.0473698378 0.6324295402 4283869390
-0.3236458898 -0.0466702059 0.6324707270 4283737804
-0.3236666620 -0.0459704362 0.6325113773 4283606218
-0.3232325017 -0.0452069528 0.6316629648 4283474632
-0.3232526481 -0.0445079021 0.6317023039 4283409352
-0.3232724667 -0.0438087210 0.6317409873 4283409352
-0.3232919574 -0.0431094132 0.6317791343 4283475145
-0.3233111799 -0.0424099788 0.6318166256 4283475145
-0.3233300447 -0.0417104214 0.6318535805 4283409351
-0.3228938580 -0.0409530625 0.6310011148 4283409351
-0.3224572837 -0.0401975513 0.6301479936 4283475144
-0.3224751651 -0.0394996069 0.6301829219 4283409351
-0.3224927485 -0.0388015434 0.6302173138 4283343558
-0.3220551610 -0.0380496271 0.6293621659 4283343558
-0.3220720887 -0.0373523235 0.6293952465 4283343559
-0.3220887184 -0.0366549119 0.6294277310 4283343559
-0.3216500878 -0.0359066054 0.6285705566 4283277766
-0.3212110996 -0.0351601690 0.6277126670 4283277766
-0.3212267458 -0.0344644114 0.6277432442 4283277766
-0.3212420642 -0.0337685570 0.6277732253 4283146180
-0.3208020627 -0.0330257565 0.6269133687 4283080387
-0.3203617036 -0.0322848335 0.6260527968 4283146180
-0.3203760684 -0.0315906592 0.6260808110 4283211459
-0.3203901052 -0.0308963954 0.6261082888 4283145666
-0.3204038441 -0.0302020386 0.6261351109 4283145666
-0.3204172850 -0.0295075942 0.6261613965 4283211459
-0.3204303980 -0.0288130641 0.6261870265 4283079873
-0.3204431832 -0.0281184483 0.6262120605 4283211459
-0.3209108710 -0.0274627060 0.6271259785 4283606217
-0.3204678595 -0.0267289747 0.6262602806 4283343045
-0.3195692897 -0.0259601586 0.6245042086 4283604672
-0.3186703324 -0.0251952130 0.6227474809 4283604672
-0.3182262480 -0.0244691502 0.6218796372 4283407809
-0.3159607351 -0.0236089155 0.6174523830 4283407809
-0.3164264858 -0.0229566731 0.6183625460 4283211459
-0.3159813583 -0.0222383011 0.6174926758 4283145666
-0.3155359030 -0.0215218384 0.6166221499 4283013566
-0.3141794503 -0.0207471512 0.6139713526 4282750394
-0.3146439791 -0.0200946517 0.6148791313 4282815158
-0.3132867813 -0.0193277486 0.6122269630 4282815158
-0.3137507141 -0.0186751336 0.6131335497 4282945970
-0.3123928010 -0.0179160219 0.6104799509 4283011763
-0.3128561080 -0.0172633007 0.6113853455 4283208627
-0.3119529188 -0.0165361315 0.6096203327 4283406006
-0.3115048110 -0.0158360191 0.6087445617 4283538106
-0.3110563457 -0.0151378354 0.6078682542 4283735485
-0.3110630214 -0.0144627597 0.6078812480 4284982205
-0.3106139302 -0.0137674557 0.6070036292 4285508549
-0.3097090721 -0.0130548896 0.6052353978 4286557888
-0.3177250028 -0.2699183524 0.6222506762 4291023840
-0.3178305924 -0.2693164647 0.6224575043 4287806423
-0.3175115585 -0.2683552206 0.6218326688 4287609044
-0.3176167011 -0.2677529454 0.6220386028 4286233302
-0.3177216649 -0.2671500742 0.6222441792 4285049028
-0.3169766366 -0.2658339143 0.6207851171 4284395215
-0.3166559637 -0.2648759186 0.6201570630 4284263629
-0.3099570870 -0.2585979998 0.6070376039 4284329426
-0.3079321384 -0.2562385201 0.6030718088 4284329426
-0.3131384254 -0.2598894536 0.6132681370 4284657109
-0.3098359406 -0.2564743161 0.6068003178 4284591316
-0.3022736609 -0.2495567203 0.5919899344 4284460759
-0.2925768495 -0.2409144193 0.5729991794 4284592345
-0.2901157737 -0.2382566184 0.5681792498 4284593113
-0.2889313102 -0.2366551757 0.5658595562 4284790492
-0.2877458930 -0.2350580990 0.5635378957 4285053149
-0.2882651985 -0.2348550409 0.5645549297 4285053149
-0.2892111838 -0.2349964380 0.5664076209 4284724699
-0.2893041372 -0.2344424576 0.5665896535 4284724699
-0.2885432541 -0.2331980020 0.5650995374 4284724699
-0.2899165452 -0.2336770296 0.5677890778 4284658906
-0.2904362977 -0.2334639579 0.5688069463 4284593113
-0.2892471254 -0.2318786681 0.5664780736 4284593113
-0.2906213105 -0.2323479056 0.5691692829 4284527833
-0.2911410928 -0.2321299613 0.5701872706 4284527833
-0.2912333310 -0.2315697819 0.5703679323 4284527833
-0.2917532027 -0.2313482910 0.5713860393 4284462040
-0.2922731638 -0.2311246246 0.5724043846 4284527833
-0.2923651934 -0.2305611968 0.5725846291 4284527833
-0.2924570441 -0.2299972475 0.5727644563 4284462040
-0.2929770350 -0.2297686785 0.5737829208 4284462040
-0.2934971452 -0.2295379341 0.5748015046 4284527833
-0.2935887575 -0.2289707363 0.5749809146 4284462040
-0.2941089272 -0.2287364453 0.5759996176 4284462040
-0.2942003310 -0.2281673551 0.5761786699 4284462040
-0.2947205603 -0.2279295027 0.5771974921 4284396247
-0.2952408791 -0.2276894599 0.5782164931 4284396247
-0.2949027717 -0.2267870158 0.5775543451 4284330454
-0.2949936092 -0.2262149751 0.5777322650 4284330454
-0.2955138087 -0.2259708494 0.5787510276 4284330454
-0.2956044376 -0.2253969163 0.5789285302 4284396247
-0.2965544760 -0.2254760116 0.5807891488 4284330711
-0.2966450155 -0.2248993665 0.5809664726 4284330711
-0.2971654236 -0.2246472836 0.5819856524 4284330713
-0.2972557247 -0.2240687311 0.5821625590 4284330713
-0.2973458767 -0.2234896570 0.5823390484 4284264920
-0.2978662848 -0.2232326567 0.5833582878 4284199127
-0.2988173366 -0.2232951820 0.5852208734 4284133334
-0.2984766364 -0.2223910987 0.5845535994 4284067541
-0.2989971340 -0.2221283168 0.5855730176 4284264407
-0.2990867496 -0.2215440869 0.5857484937 4284264407
-0.2996073067 -0.2212777287 0.5867679715 4284264407
-0.2996966839 -0.2206916064 0.5869430304 4284198614
-0.3002172410 -0.2204216719 0.5879625082 4284198614
-0.3007378578 -0.2201495171 0.5889821053 4284264407
-0.3008269370 -0.2195601314 0.5891565681 4284264407
-0.3009158373 -0.2189702392 0.5893307328 4284198614
-0.3010045588 -0.2183798105 0.5895044804 4284264407
-0.3010931015 -0.2177888602 0.5896778703 4284264407
-0.3011814356 -0.2171974033 0.5898508430 4284198614
-0.3012695909 -0.2166054100 0.5900235176 4284132821
-0.3017899096 -0.2163228244 0.5910425186 4284132821
-0.3018778265 -0.2157289535 0.5912146568 4284132821
-0.3023981452 -0.2154427618 0.5922337174 4284067028
-0.3029185236 -0.2151543647 0.5932528377 4284067028
-0.3034389615 -0.2148637474 0.5942721367 4284133334
-0.3035264611 -0.2142652422 0.5944435000 4284067541
-0.3040468991 -0.2139710188 0.5954627395 4284001748
-0.3041341603 -0.2133706212 0.5956336260 4284001748
-0.3046545684 -0.2130728066 0.5966528058 4284067541
-0.3051750362 -0.2127727568 0.5976721048 4284067541
-0.3052619398 -0.2121690959 0.5978423357 4284067541
-0.3049148917 -0.2112644017 0.5971626639 4284067541
-0.3054351509 -0.2109602392 0.5981815457 4283935955
-0.3055214584 -0.2103550434 0.5983505845 4283935955
-0.3056075573 -0.2097493261 0.5985192060 4283805139
-0.3052592278 -0.2088460326 0.5978370309 4283739346
-0.3062134981 -0.2088325918 0.5997059345 4283673553
-0.3062991500 -0.2082244903 0.5998736620 4283607760
-0.3063845634 -0.2076158673 0.6000409722 4283476174
-0.3064697981 -0.2070067525 0.6002078652 4283476174
-0.3065547943 -0.2063971162 0.6003743410 4283410381
-0.3062046766 -0.2054950744 0.5996886492 4283476174
-0.3062891662 -0.2048853040 0.5998541117 4283476174
-0.3063734472 -0.2042750120 0.6000192165 4283541967
-0.3064575195 -0.2036642283 0.6001838446 4283607760
-0.3061059713 -0.2027645111 0.5994953513 4283541967
-0.3061895370 -0.2021535933 0.5996589661 4283476174
-0.3067085445 -0.2018288672 0.6006754637 4283476174
-0.3067917824 -0.2012160718 0.6008384824 4283344588
-0.3068748415 -0.2006027848 0.6010011435 4283344588
-0.3065216541 -0.1997049302 0.6003094316 4283345101
-0.3070403039 -0.1993747205 0.6013251543 4283345101
-0.3071227074 -0.1987599432 0.6014866233 4283345101
-0.3076412976 -0.1984261274 0.6025022268 4283345101
-0.3077234030 -0.1978094876 0.6026630402 4283410383
-0.3082419038 -0.1974720508 0.6036784649 4283344590
-0.3083237112 -0.1968535483 0.6038386822 4283344590
-0.3079684675 -0.1959566027 0.6031429768 4283344590
-0.3084866703 -0.1956150830 0.6041578650 4283344590
-0.3085678518 -0.1949951053 0.6043168306 4283410383
-0.3090859652 -0.1946499497 0.6053315401 4283410383
-0.3091668189 -0.1940281242 0.6054898500 4283344590
-0.3092474341 -0.1934058070 0.6056477427 4283278797
-0.3093278408 -0.1927830130 0.6058052182 4283278797
-0.3094080389 -0.1921597123 0.6059622765 4283475406
-0.3094880283 -0.1915359497 0.6061189175 4283475406
-0.3095677793 -0.1909116805 0.6062751412 4283541199
-0.3100852668 -0.1905560941 0.6072886586 4283541199
-0.3101647198 -0.1899299920 0.6074442267 4283475406
-0.3102439046 -0.1893034130 0.6075993180 4283409613
-0.3103229105 -0.1886763424 0.6077539921 4283409613
-0.3104016483 -0.1880488098 0.6079082489 4283409613
-0.3104802072 -0.1874207854 0.6080620885 4283278025
-0.3101198673 -0.1865284592 0.6073564291 4283212232
-0.3101978600 -0.1859003752 0.6075091362 4283278025
-0.3107144833 -0.1855338812 0.6085209250 4283278025
-0.3107921183 -0.1849039644 0.6086729765 4283278025
-0.3104304671 -0.1840132922 0.6079646945 4283278025
-0.3105075359 -0.1833833307 0.6081156135 4283343820
-0.3105843961 -0.1827528924 0.6082661748 4283278027
-0.3106610179 -0.1821219921 0.6084161997 4283343820
-0.3107374310 -0.1814906150 0.6085658669 4283278027
-0.3108136058 -0.1808587909 0.6087150574 4283278027
-0.3113292754 -0.1804814041 0.6097249985 4283278027
-0.3109652698 -0.1795937270 0.6090120673 4283278027
-0.3110407591 -0.1789605021 0.6091598868 4283212234
-0.3111160100 -0.1783268154 0.6093072891 4283212234
-0.3111910522 -0.1776926666 0.6094542146 4283212234
-0.3117060959 -0.1773084998 0.6104629636 4283146441
-0.3117807508 -0.1766725481 0.6106091738 4283212234
-0.3118551970 -0.1760361344 0.6107549667 4283278027
-0.3114888072 -0.1751515269 0.6100374460 4283278027
-0.3115626872 -0.1745151132 0.6101821065 4283278027
-0.3116363287 -0.1738782376 0.6103262901 4283278027
-0.3117097020 -0.1732409000 0.6104699969 4283343820
-0.3113418818 -0.1723589897 0.6097496152 4283343820
-0.3114146888 -0.1717216820 0.6098922491 4283343820
-0.3114872873 -0.1710839123 0.6100344062 4283343820
-0.3106770217 -0.1699628532 0.6084475517 4283343820
-0.3103075325 -0.1690854877 0.6077238917 4283343820
-0.3103790879 -0.1684491038 0.6078640819 4283147211
-0.3104504347 -0.1678122729 0.6080037355 4283147211
-0.3105215132 -0.1671750098 0.6081429720 4283147211
-0.3110341728 -0.1667742133 0.6091470122 4283015625
-0.3115468025 -0.1663711518 0.6101509929 4283081418
-0.3120594025 -0.1659658551 0.6111548543 4283081418
-0.3121298254 -0.1653241217 0.6112928391 4283147211
-0.3122000396 -0.1646819562 0.6114302874 4283213004
-0.3122699857 -0.1640393585 0.6115672588 4283213004
-0.3123396933 -0.1633963287 0.6117038131 4283213004
-0.3119666576 -0.1625223458 0.6109732389 4283213004
-0.3120357692 -0.1618793756 0.6111086011 4283213004
-0.3121046722 -0.1612359732 0.6112435460 4283213004
-0.3126161098 -0.1608199477 0.6122451425 4283213004
-0.3122417033 -0.1599479020 0.6115118861 4283278797
-0.3127528429 -0.1595291942 0.6125129461 4283278797
-0.3128208220 -0.1588831842 0.6126461029 4283278797
-0.3128885925 -0.1582367569 0.6127787828 4283213004
-0.3129560947 -0.1575899124 0.6129109859 4283147468
-0.3130233586 -0.1569426358 0.6130427122 4283147468
-0.3130903542 -0.1562949568 0.6131739616 4283278797
-0.3131571114 -0.1556468606 0.6133047342 4283213004
-0.3132236302 -0.1549983472 0.6134349704 4283147211
-0.3132898808 -0.1543494165 0.6135647297 4283147211
-0.3133558929 -0.1537000835 0.6136940122 4283147211
-0.3138656020 -0.1532671303 0.6146922708 4283213004
-0.3134871721 -0.1524001807 0.6139510870 4283213004
-0.3135524392 -0.1517496258 0.6140789390 4283213004
-0.3136174381 -0.1510986537 0.6142062545 4283278797
-0.3141264915 -0.1506603807 0.6152032018 4283278797
-0.3137466908 -0.1497955173 0.6144593954 4283278795
-0.3138109446 -0.1491433382 0.6145852208 4283278795
-0.3134303391 -0.1482804418 0.6138398051 4283278795
-0.3130493164 -0.1474189907 0.6130936146 4283278795
-0.3126678765 -0.1465590000 0.6123465300 4283278795
-0.3131756783 -0.1461155564 0.6133410335 4283278795
-0.3132384717 -0.1454632580 0.6134639978 4283278795
-0.3133009970 -0.1448105574 0.6135864854 4283278795
-0.3133632839 -0.1441574693 0.6137084365 4283278795
-0.3138705194 -0.1437078267 0.6147018671 4283213002
-0.3139323592 -0.1430530399 0.6148229837 4283278795
-0.3144393265 -0.1425998360 0.6158158779 4283213002
-0.3145007491 -0.1419433504 0.6159361601 4283213002
-0.3145619333 -0.1412864625 0.6160559654 4283213002
-0.3146228194 -0.1406292021 0.6161752343 4283213002
-0.3151291907 -0.1401698291 0.6171669364 4283213002
-0.3151896596 -0.1395108700 0.6172853708 4283213002
-0.3152498603 -0.1388515383 0.6174032688 4283278795
-0.3157557845 -0.1383872926 0.6183940768 4283344588
-0.3162616193 -0.1379208118 0.6193847060 4283344588
-0.3167673349 -0.1374520808 0.6203752160 4283278795
-0.3168267608 -0.1367884427 0.6204915047 4283344588
-0.3168858886 -0.1361244321 0.6206073165 4283213513
-0.3164983690 -0.1352692693 0.6198483706 4283279306
-0.3161104023 -0.1344155967 0.6190885901 4283213513
-0.3166151345 -0.1339412779 0.6200770736 4283213513
-0.3166731298 -0.1332767308 0.6201906800 4283279308
-0.3167308569 -0.1326118261 0.6203036904 4283279308
-0.3163414896 -0.1317604482 0.6195411682 4283213515
-0.3163985908 -0.1310957521 0.6196529865 4283279308
-0.3164554238 -0.1304306984 0.6197643280 4283279308
-0.3169590533 -0.1299485713 0.6207506061 4283279308
-0.3174625635 -0.1294642091 0.6217367053 4283279308
-0.3175187409 -0.1287962049 0.6218467355 4283279308
-0.3175746500 -0.1281278580 0.6219562888 4283279308
-0.3176302910 -0.1274591386 0.6220652461 4283213515
-0.3176856637 -0.1267900765 0.6221736670 4283147722
-0.3172932565 -0.1259430349 0.6214051247 4283081929
-0.3173480034 -0.1252742261 0.6215123534 4283147720
-0.3169547915 -0.1244293228 0.6207423210 4283213513
-0.3170089126 -0.1237607598 0.6208482981 4283147720
-0.3170627654 -0.1230918616 0.6209537983 4283147720
-0.3175642490 -0.1225955337 0.6219359040 4283279306
-0.3176176548 -0.1219250113 0.6220404506 4283279306
-0.3185668588 -0.1215961948 0.6238994598 4283279308
-0.3186198473 -0.1209231019 0.6240032315 4283279308
-0.3186725378 -0.1202496812 0.6241064072 4283213515
-0.3191732466 -0.1197440997 0.6250870228 4283279308
-0.3187771142 -0.1189018264 0.6243112087 4283279308
-0.3188289702 -0.1182274073 0.6244128346 4283279308
-0.3184320927 -0.1173873246 0.6236354709 4283213515
-0.3180347383 -0.1165488139 0.6228573322 4283279308
-0.3180856407 -0.1158753186 0.6229569912 4283279308
-0.3181362450 -0.1152014956 0.6230561137 4283279308
-0.3186353743 -0.1146888807 0.6240336299 4283344588
-0.3191343546 -0.1141740531 0.6250108480 4283344588
-0.3191842437 -0.1134973690 0.6251085997 4283344588
-0.3192338943 -0.1128203645 0.6252058148 4283344588
-0.3192832470 -0.1121430546 0.6253024340 4283344588
-0.3193323016 -0.1114654243 0.6253985167 4283344588
-0.3193810880 -0.1107874811 0.6254940629 4283344586
-0.3194296062 -0.1101092324 0.6255890727 4283344586
-0.3194777966 -0.1094306782 0.6256834865 4283410379
-0.3195257485 -0.1087518111 0.6257773638 4283410379
-0.3191239238 -0.1079206467 0.6249904633 4283410379
-0.3191712201 -0.1072421297 0.6250830889 4283410379
-0.3196678460 -0.1067133993 0.6260556579 4283410379
-0.3197146356 -0.1060333252 0.6261473298 4283410379
-0.3197611570 -0.1053529531 0.6262384057 4283344586
-0.3198073804 -0.1046722904 0.6263289452 4283278793
-0.3203031719 -0.1041375920 0.6272999644 4283345101
-0.3203488886 -0.1034553796 0.6273894906 4283213515
-0.3208443224 -0.1029172167 0.6283597350 4283213515
-0.3208895028 -0.1022334695 0.6284482479 4283147722
-0.3209344447 -0.1015494317 0.6285362244 4283081929
-0.3209790587 -0.1008651033 0.6286236644 4283147722
-0.3210234046 -0.1001804918 0.6287104487 4283344588
-0.3215177357 -0.0996351466 0.6296786070 4283278795
-0.3215615749 -0.0989490077 0.6297644377 4283344588
-0.3216050863 -0.0982625932 0.6298496723 4283344588
-0.3216483295 -0.0975759029 0.6299343705 4283344586
-0.3216912746 -0.0968889371 0.6300184727 4283344586
-0.3217339218 -0.0962016955 0.6301019788 4283410379
-0.3222269416 -0.0956479535 0.6310675740 4283541965
-0.3222690523 -0.0949591994 0.6311500669 4283738574
-0.3223108947 -0.0942701846 0.6312319636 4283804367
-0.3223524392 -0.0935809016 0.6313133240 4283869903
-0.3223936856 -0.0928913504 0.6313940883 4284133075
-0.3224346340 -0.0922015309 0.6314743161 4284264661
-0.3229262829 -0.0916394442 0.6324372292 4284396247
-0.3225156367 -0.0908211172 0.6316329837 4284593626
-0.3221045732 -0.0900044665 0.6308279037 4284527833
-0.3216930926 -0.0891894922 0.6300220490 4284330454
-0.3217324615 -0.0885003209 0.6300991178 4284264661
-0.3213202357 -0.0876877382 0.6292918324 4284067282
-0.3213589489 -0.0869990289 0.6293676496 4284001489
-0.3213973641 -0.0863100737 0.6294428706 4284067282
-0.3214354813 -0.0856208727 0.6295174956 4284067282
-0.3214733005 -0.0849314258 0.6295915842 4284067282
-0.3219623864 -0.0843600556 0.6305494308 4284067282
-0.3229028881 -0.0839038491 0.6323913932 4284133075
-0.3224883080 -0.0830943957 0.6315794587 4284198868
-0.3225250542 -0.0824020505 0.6316514015 4284330711
-0.3230132461 -0.0818239078 0.6326075196 4284396504
-0.3230494559 -0.0811301246 0.6326783895 4284396504
-0.3226334751 -0.0803236142 0.6318637133 4284330711
-0.3226689994 -0.0796303377 0.6319333315 4284330711
-0.3227042258 -0.0789368302 0.6320023537 4284264918
-0.3227391839 -0.0782431066 0.6320707798 4284199125
-0.3232258856 -0.0776577592 0.6330239177 4284199125
-0.3232602477 -0.0769626126 0.6330912709 4284199125
-0.3232943416 -0.0762672424 0.6331580281 4284199125
-0.3228759170 -0.0754659623 0.6323385239 4284264918
-0.3229093254 -0.0747711286 0.6324040294 4284264918
-0.3229424655 -0.0740760788 0.6324688792 4284264918
-0.3234276474 -0.0734835938 0.6334190965 4284264918
-0.3234601915 -0.0727871507 0.6334828734 4284264918
-0.3234924674 -0.0720904917 0.6335460544 4284199125
-0.3235244155 -0.0713936314 0.6336086392 4284330194
-0.3235560656 -0.0706965625 0.6336706281 4284330194
