VERSION 0.7
FIELDS x y z rgba
SIZE 4 4 4 4
TYPE F F F U
COUNT 1 1 1 1
WIDTH 920
HEIGHT 1
VIEWPOINT 0.0 0.0 0.0 1.0 0.0 0.0 0.0
POINTS 920
DATA ascii
-0.2028237283 -0.1291910112 0.5090591311 4281089869
-0.2028703988 -0.1286550164 0.5091763139 4281024076
-0.2029168904 -0.1281186342 0.5092930198 4280958283
-0.2029632181 -0.1275818944 0.5094092488 4280892490
-0.2037305385 -0.1274960935 0.5113351345 4280958283
-0.2030553371 -0.1265073121 0.5096405149 4281024077
-0.2034619004 -0.1261932254 0.5106608868 4281089870
-0.2042292655 -0.1260996461 0.5125868320 4281024847
-0.2042749524 -0.1255582124 0.5127015710 4280959054
-0.2039594799 -0.1247955337 0.5119097829 4280959054
-0.2036436796 -0.1240344197 0.5111171007 4280959054
-0.2036886811 -0.1234938130 0.5112301111 4280959054
-0.2040947378 -0.1231708601 0.5122492313 4280893261
-0.2037781626 -0.1224115416 0.5114546418 4280893261
-0.2041840255 -0.1220859513 0.5124733448 4280893261
-0.2038669288 -0.1213278472 0.5116774440 4281024079
-0.2042725980 -0.1209996268 0.5126956105 4281089872
-0.2043166161 -0.1204559356 0.5128061175 4281155665
-0.2039987445 -0.1196996570 0.5120083094 4281221458
-0.2040423304 -0.1191562340 0.5121176839 4281221458
-0.2048094422 -0.1190330684 0.5140430331 4281221458
-0.2041289508 -0.1180683300 0.5123350620 4281155665
-0.2045339942 -0.1177322417 0.5133516788 4281155665
-0.2049390078 -0.1173938736 0.5143682361 4281221456
-0.2049818337 -0.1168467849 0.5144757032 4281221456
-0.2053867131 -0.1165048331 0.5154919028 4281155663
-0.2054292560 -0.1159560978 0.5155986547 4281155663
-0.2054716200 -0.1154070199 0.5157049894 4281221456
-0.2055137902 -0.1148576066 0.5158108473 4281221456
-0.2055557668 -0.1143078506 0.5159162283 4281221456
-0.2055975795 -0.1137577593 0.5160211325 4281221456
-0.2056391984 -0.1132073328 0.5161255598 4281090640
-0.2056806237 -0.1126565784 0.5162295699 4281156433
-0.2057218701 -0.1121054813 0.5163331032 4281156179
-0.2057629377 -0.1115540639 0.5164361596 4281156179
-0.2054408342 -0.1108065397 0.5156277418 4281156179
-0.2051184177 -0.1100606397 0.5148184896 4281221972
-0.2058849931 -0.1098978296 0.5167425275 4281156692
-0.2059253156 -0.1093450934 0.5168437362 4281156692
-0.2059654295 -0.1087920368 0.5169444084 4281156692
-0.2056420445 -0.1080477610 0.5161327720 4281156692
-0.2060451210 -0.1076849625 0.5171444416 4281288280
-0.2060846835 -0.1071309447 0.5172437429 4281288280
-0.2061240524 -0.1065766066 0.5173425078 4281288280
-0.2061632425 -0.1060219482 0.5174408555 4281222487
-0.2062022388 -0.1054669842 0.5175387263 4281222487
-0.2062410414 -0.1049116999 0.5176361203 4281288280
-0.2062796503 -0.1043561026 0.5177330375 4281157464
-0.2063180655 -0.1038001925 0.5178294778 4281223257
-0.2063563019 -0.1032439768 0.5179254413 4281157464
-0.2060303241 -0.1025063396 0.5171073079 4281157464
-0.2064321935 -0.1021306142 0.5181158781 4281289050
-0.2064698488 -0.1015734747 0.5182104111 4281289050
-0.2061430961 -0.1008378714 0.5173903108 4281289050
-0.2065445781 -0.1004582867 0.5183979869 4281354843
-0.2069460005 -0.1000764295 0.5194054842 4281355100
-0.2073473483 -0.0996923074 0.5204128623 4281355100
-0.2073841691 -0.0991316885 0.5205052495 4281420893
-0.2074207962 -0.0985707790 0.5205971599 4281420893
-0.2074572295 -0.0980095640 0.5206885934 4281420893
-0.2074934691 -0.0974480584 0.5207795501 4281486686
-0.2075295001 -0.0968862623 0.5208700299 4281486686
-0.2075653374 -0.0963241681 0.5209599733 4281486686
-0.2076009959 -0.0957617909 0.5210494399 4281552479
-0.2076364458 -0.0951991230 0.5211384296 4281618272
-0.2076716870 -0.0946361646 0.5212268829 4281684065
-0.2077067494 -0.0940729231 0.5213148594 4281749858
-0.2077416033 -0.0935093910 0.5214023590 4281750373
-0.2077762634 -0.0929455832 0.5214893222 4281881959
-0.2078107297 -0.0923814923 0.5215758681 4282013545
-0.2078449875 -0.0918171182 0.5216618180 4282013545
-0.2078790516 -0.0912524685 0.5217473507 4282145131
-0.2079129219 -0.0906875432 0.5218323469 4282145131
-0.2079465836 -0.0901223347 0.5219168067 4282210670
-0.2079800516 -0.0895568654 0.5220008492 4282342256
-0.2080133259 -0.0889911130 0.5220842957 4282473842
-0.2080463916 -0.0884250924 0.5221673250 4282539635
-0.2091763318 -0.0883220360 0.5250033140 4282605428
-0.2092091739 -0.0877524912 0.5250857472 4282605428
-0.2092418075 -0.0871826783 0.5251676440 4282540152
-0.2092742324 -0.0866126046 0.5252490640 4282671738
-0.2093064636 -0.0860422626 0.5253299475 4282934910
-0.2093384862 -0.0854716599 0.5254102945 4283066496
-0.2090042830 -0.0847523659 0.5245714784 4283066496
-0.2094019353 -0.0843296722 0.5255695581 4283198082
-0.2090671957 -0.0836118609 0.5247294307 4283329670
-0.2094645500 -0.0831866562 0.5257267356 4283263877
-0.2094955593 -0.0826147571 0.5258045197 4283132291
-0.2095263600 -0.0820426121 0.5258818269 4283263877
-0.2095569521 -0.0814702138 0.5259586573 4283395463
-0.2095873505 -0.0808975697 0.5260348916 4283461256
-0.2096175402 -0.0803246722 0.5261106491 4283461256
-0.2096475065 -0.0797515288 0.5261859298 4283461256
-0.2096772790 -0.0791781396 0.5262606144 4283527049
-0.2100734711 -0.0787419304 0.5272549987 4283592842
-0.2101028860 -0.0781670585 0.5273288488 4283461515
-0.2101320773 -0.0775919408 0.5274021029 4283395722
-0.2101610750 -0.0770165846 0.5274748802 4283593355
-0.2101898640 -0.0764409900 0.5275471210 4283659148
-0.2102184445 -0.0758651644 0.5276188850 4283593355
-0.2102468163 -0.0752891004 0.5276901126 4283724941
-0.2102749795 -0.0747128054 0.5277607441 4283922320
-0.2099359185 -0.0740068927 0.5269097686 4283988113
-0.2103306800 -0.0735595226 0.5279005766 4284119186
-0.2103582174 -0.0729825422 0.5279696584 4284119186
-0.2103855312 -0.0724053308 0.5280382633 4284579221
-0.2104126513 -0.0718279034 0.5281063318 4285039772
-0.2100722939 -0.0711259022 0.5272520781 4285302944
-0.2104662508 -0.0706723705 0.5282407999 4285566116
-0.2104927301 -0.0700942799 0.5283073187 4285829288
-0.2105190009 -0.0695159659 0.5283732414 4285960874
-0.2105450630 -0.0689374357 0.5284386277 4286289836
-0.2105709165 -0.0683586970 0.5285035372 4286618801
-0.2105965465 -0.0677797422 0.5285678506 4287013302
-0.2106219828 -0.0672005787 0.5286316872 4287408060
-0.1962790787 -0.1972751766 0.4940101504 4287602606
-0.1963451356 -0.1967924982 0.4941763878 4287339434
-0.1967574656 -0.1966555566 0.4952141941 4287272871
-0.1968234032 -0.1961710453 0.4953801334 4287009699
-0.1968892068 -0.1956860572 0.4955457747 4286220953
-0.1969549060 -0.1952005774 0.4957111180 4285957781
-0.1970204860 -0.1947146058 0.4958761334 4285760402
-0.1967389435 -0.1938862056 0.4951675832 4285563023
-0.1964570731 -0.1930590421 0.4944581091 4285365645
-0.1965220571 -0.1925733387 0.4946216643 4285036680
-0.1969342381 -0.1924265325 0.4956590831 4284839558
-0.1969990879 -0.1919390112 0.4958223104 4284839558
-0.1970638335 -0.1914509982 0.4959852397 4284708487
-0.1971284300 -0.1909625083 0.4961478710 4284576901
-0.1971929222 -0.1904735565 0.4963101745 4284576901
-0.1972572803 -0.1899840981 0.4964721501 4284445315
-0.1973215193 -0.1894941777 0.4966338277 4284379522
-0.1973856390 -0.1890037805 0.4967952073 4284379522
-0.1974496245 -0.1885128915 0.4969562590 4284379522
-0.1975134909 -0.1880215406 0.4971170127 4284313729
-0.1972287744 -0.1871989667 0.4964004159 4284182141
-0.1972922832 -0.1867075264 0.4965602160 4284116348
-0.1973556578 -0.1862156093 0.4967197478 4284050555
-0.1974188983 -0.1857232153 0.4968789220 4283918969
-0.1974820197 -0.1852303594 0.4970377982 4283853176
-0.1975450218 -0.1847370118 0.4971963465 4283918969
-0.1986552775 -0.1852197647 0.4999907315 4283853176
-0.1987183392 -0.1847228706 0.5001494884 4283787383
-0.1987812817 -0.1842254996 0.5003078580 4283721590
-0.1988440901 -0.1837276518 0.5004659295 4283655797
-0.1989067793 -0.1832293421 0.5006237030 4283721590
-0.1986196339 -0.1824094057 0.4999010265 4283721590
-0.1990317404 -0.1822313070 0.5009382367 4283655797
-0.1987441182 -0.1814121902 0.5002143383 4283655797
-0.1984561533 -0.1805943698 0.4994895756 4283589491
-0.1981678456 -0.1797778308 0.4987639189 4283655284
-0.1989298612 -0.1799128503 0.5006818175 4283655284
-0.1989915073 -0.1794121265 0.5008369684 4283589491
-0.1990530193 -0.1789109558 0.5009917617 4283524211
-0.1991143972 -0.1784093082 0.5011462569 4283524211
-0.1991756409 -0.1779071987 0.5013003945 4283392627
-0.1992367357 -0.1774046272 0.5014541745 4283261041
-0.1992977113 -0.1769016087 0.5016076565 4283261041
-0.1993585527 -0.1763981134 0.5017607808 4283195248
-0.1994192451 -0.1758941561 0.5019135475 4283129455
-0.1994798034 -0.1753897369 0.5020659566 4283129455
-0.1995402426 -0.1748848706 0.5022180676 4282932590
-0.1996005177 -0.1743795425 0.5023698211 4282866797
-0.1996606737 -0.1738737524 0.5025211573 4282866797
-0.1997206807 -0.1733675003 0.5026721954 4282866797
-0.1990770996 -0.1722521335 0.5010523796 4282997869
-0.1994884461 -0.1720502079 0.5020877123 4282997869
-0.1995479316 -0.1715434939 0.5022374392 4282932076
-0.1996072829 -0.1710363179 0.5023868084 4282800490
-0.1993143409 -0.1702279449 0.5016494989 4282800490
-0.1993733048 -0.1697207689 0.5017979145 4282866283
-0.1994321197 -0.1692131460 0.5019459724 4282932076
-0.1994908005 -0.1687050611 0.5020936131 4282866283
-0.1999018937 -0.1684937030 0.5031282902 4282800490
-0.1999603957 -0.1679838300 0.5032755136 4282734697
-0.2000187486 -0.1674735248 0.5034223795 4282668904
-0.2000769526 -0.1669627577 0.5035688877 4282668904
-0.2001350224 -0.1664515436 0.5037150383 4282537318
-0.2001929432 -0.1659398973 0.5038608313 4282405732
-0.2002507150 -0.1654277891 0.5040062666 4282405732
-0.2003083378 -0.1649152488 0.5041512847 4282405732
-0.2000124454 -0.1641123295 0.5034065843 4282274914
-0.2004231662 -0.1638888568 0.5044403076 4282274914
-0.2004803568 -0.1633749902 0.5045842528 4282209121
-0.2005373985 -0.1628606766 0.5047277808 4282143328
-0.1998867393 -0.1617732942 0.5030901432 4282011742
-0.1995894015 -0.1609745175 0.5023418069 4282011742
-0.2003536671 -0.1610306352 0.5042653680 4282011742
-0.2004100084 -0.1605155021 0.5044071674 4282011742
-0.2001120299 -0.1597172320 0.5036572218 4281879902
-0.2005222738 -0.1594839096 0.5046896935 4281879902
-0.2002237886 -0.1586866081 0.5039384961 4281945695
-0.2006339282 -0.1584506035 0.5049707294 4282011488
-0.2006895244 -0.1579332948 0.5051106811 4281945695
-0.2007449716 -0.1574155688 0.5052502155 4281945695
-0.2008002698 -0.1568974108 0.5053893924 4281945695
-0.2005005479 -0.1561025232 0.5046350360 4281879902
-0.2009104043 -0.1558597982 0.5056666136 4281748316
-0.2009652555 -0.1553403586 0.5058046579 4281748316
-0.2010199428 -0.1548204869 0.5059422851 4281682523
-0.2010744661 -0.1543001980 0.5060795546 4281682523
-0.2011288553 -0.1537794918 0.5062164068 4281616730
-0.2008276284 -0.1529875845 0.5054582953 4281550937
-0.2012371421 -0.1527367979 0.5064889789 4281551191
-0.2009354234 -0.1519458890 0.5057295561 4281485398
-0.2013448179 -0.1516924351 0.5067600012 4281616214
-0.2006867677 -0.1506354511 0.5051037073 4281616214
-0.2014518678 -0.1506463885 0.5070294142 4281550421
-0.2015051544 -0.1501227468 0.5071635246 4281550421
-0.2015582919 -0.1495986730 0.5072972178 4281616213
-0.2012550533 -0.1488108188 0.5065340400 4281550420
-0.2016640753 -0.1485493183 0.5075634718 4281550420
-0.2017167360 -0.1480240226 0.5076960325 4281550420
-0.2017692327 -0.1474983096 0.5078281760 4281418837
-0.2018215656 -0.1469721794 0.5079599023 4281484630
-0.2011604011 -0.1459281743 0.5062958002 4281484630
-0.2019257545 -0.1459187269 0.5082221031 4281484630
-0.2019776106 -0.1453913748 0.5083526373 4281484630
-0.2013154179 -0.1443517357 0.5066859722 4281418837
-0.2013667673 -0.1438254565 0.5068151951 4281418835
-0.2014179528 -0.1432987601 0.5069440603 4281418835
-0.2014689893 -0.1427716762 0.5070724487 4281418835
-0.2015198469 -0.1422441751 0.5072004795 4281418835
-0.2015705556 -0.1417162865 0.5073280931 4281222226
-0.2023360580 -0.1416886747 0.5092548132 4281222226
-0.2020290345 -0.1409087181 0.5084820390 4281222226
-0.2020793408 -0.1403786987 0.5086086392 4281222226
-0.2021294683 -0.1398482770 0.5087348223 4281222226
-0.2021794319 -0.1393174678 0.5088605881 4281222226
-0.2022292465 -0.1387862712 0.5089859366 4281353041
-0.2022788823 -0.1382546872 0.5091108680 4281353041
-0.2016121447 -0.1372351795 0.5074328184 4281287248
-0.2023776621 -0.1371903270 0.5093594790 4281287248
-0.2024267912 -0.1366575658 0.5094831586 4281221455
-0.2024757713 -0.1361244172 0.5096064210 4281221455
-0.2025245726 -0.1355908811 0.5097292662 4281221455
-0.2018561363 -0.1345788836 0.5080468655 4281221455
-0.2026216686 -0.1345226467 0.5099736452 4281156433
-0.2026699632 -0.1339879632 0.5100951791 4281090640
-0.2020004988 -0.1329804957 0.5084102750 4281090640
-0.2027660459 -0.1329174489 0.5103370547 4281090640
-0.2028138340 -0.1323816180 0.5104572773 4281090640
-0.2028614581 -0.1318453997 0.5105771422 4281090640
-0.2029088885 -0.1313088238 0.5106965303 4281090640
-0.2022377402 -0.1303089559 0.5090073347 4281090640
-0.2030032724 -0.1302345246 0.5109341145 4281221456
-0.2030501962 -0.1296968162 0.5110521913 4281221456
-0.2030969560 -0.1291587353 0.5111699104 4281221456
-0.2031435370 -0.1286202818 0.5112871528 4281089870
-0.2024706900 -0.1276280731 0.5095936656 4280959054
-0.2032361925 -0.1275422722 0.5115203261 4281024847
-0.2032822520 -0.1270027161 0.5116362572 4281090640
-0.2029682547 -0.1262389570 0.5108459592 4281090640
-0.2033738494 -0.1259225011 0.5118668079 4281090640
-0.2034193873 -0.1253818423 0.5119813681 4281024847
-0.2034647465 -0.1248408332 0.5120955706 4281025104
-0.2035099268 -0.1242994517 0.5122092962 4281090897
-0.2031946629 -0.1235386804 0.5114157796 4281090897
-0.2035997659 -0.1232156232 0.5124353766 4281025104
-0.2036444247 -0.1226731688 0.5125477910 4281025104
-0.2033283859 -0.1219142005 0.5117523670 4281025104
-0.2037332058 -0.1215871945 0.5127712488 4280959313
-0.2037773281 -0.1210436746 0.5128822923 4280959313
-0.2038212568 -0.1204998046 0.5129928589 4281025106
-0.2038650215 -0.1199555844 0.5131030083 4281090899
-0.2039086074 -0.1194110140 0.5132127404 4281156692
-0.2043129951 -0.1190764755 0.5142304897 4281156692
-0.2043562829 -0.1185302436 0.5143394470 4281090899
-0.2043994069 -0.1179836690 0.5144479871 4281025106
-0.2044423521 -0.1174367443 0.5145560503 4281156692
-0.2045276761 -0.1163418666 0.5147708058 4281156692
-0.2045700699 -0.1157939136 0.5148774981 4281090899
-0.2046122700 -0.1152456179 0.5149837732 4281156692
-0.2046543062 -0.1146969870 0.5150895119 4281222485
-0.2046961486 -0.1141480207 0.5151948333 4281222483
-0.2047377974 -0.1135987118 0.5152996778 4281354069
-0.2047792673 -0.1130490750 0.5154040456 4281222485
-0.2048205584 -0.1124991030 0.5155079961 4281222485
-0.2048616707 -0.1119488031 0.5156114697 4281288278
-0.2049025893 -0.1113981679 0.5157144070 4281288278
-0.2045812309 -0.1106513590 0.5149056315 4281354071
-0.2049838752 -0.1102959067 0.5159190297 4281354071
-0.2050242275 -0.1097442880 0.5160205960 4281419864
-0.2047021091 -0.1089994311 0.5152098536 4281485657
-0.2047420144 -0.1084481329 0.5153102875 4281289050
-0.2051838040 -0.1075345799 0.5164222121 4281289050
-0.2048606426 -0.1067923382 0.5156088471 4281354843
-0.2048998177 -0.1062397659 0.5157074332 4281420636
-0.2053015232 -0.1058739349 0.5167185068 4281420636
-0.2053403705 -0.1053197533 0.5168163180 4281354843
-0.2053790390 -0.1047652587 0.5169135928 4281354843
-0.2054175287 -0.1042104512 0.5170104504 4281289309
-0.2054558098 -0.1036553383 0.5171068311 4281289309
-0.2054939121 -0.1030999050 0.5172027349 4281289309
-0.2055318207 -0.1025441736 0.5172981620 4281289309
-0.2052063346 -0.1018079370 0.5164789557 4281420895
-0.2056070715 -0.1014317796 0.5174875259 4281486688
-0.2056815475 -0.1003181785 0.5176749825 4281421408
-0.2060819566 -0.0999371782 0.5186827183 4281487201
-0.2064822912 -0.0995539054 0.5196903944 4281487201
-0.2065189928 -0.0989940837 0.5197827220 4281552994
-0.2065554857 -0.0984339565 0.5198745728 4281552994
-0.2065917999 -0.0978735387 0.5199659467 4281618787
-0.2066279054 -0.0973128304 0.5200568438 4281618787
-0.2066638172 -0.0967518240 0.5201472640 4281684580
-0.2066995353 -0.0961905271 0.5202371478 4281684580
-0.2067350596 -0.0956289321 0.5203265548 4281684580
-0.2067703903 -0.0950670615 0.5204154849 4281750373
-0.2068055272 -0.0945048928 0.5205038786 4281881959
-0.2068404555 -0.0939424410 0.5205917954 4281947752
-0.2068752050 -0.0933797061 0.5206792355 4282013291
-0.2069097459 -0.0928166956 0.5207661986 4282210670
-0.2069440782 -0.0922533944 0.5208526254 4282342256
-0.2069782317 -0.0916898176 0.5209385753 4282342256
-0.2070121765 -0.0911259577 0.5210239887 4282539636
-0.2070459276 -0.0905618295 0.5211089253 4282473843
-0.2070794702 -0.0899974182 0.5211933851 4282539636
-0.2071128339 -0.0894327387 0.5212773085 4282671222
-0.2075106800 -0.0890242383 0.5222786665 4282802808
-0.2071789354 -0.0883025602 0.5214437246 4282868601
-0.2072116882 -0.0877370685 0.5215261579 4282934394
-0.2076091021 -0.0873247758 0.5225263834 4283000187
-0.2076415122 -0.0867577493 0.5226079822 4282869117
-0.2080387026 -0.0863419399 0.5236076713 4283066496
-0.2080707699 -0.0857733935 0.5236883163 4283198082
-0.2081026286 -0.0852045864 0.5237685442 4283263875
-0.2081342787 -0.0846355110 0.5238482356 4283263875
-0.2081657350 -0.0840661824 0.5239273906 4283395461
-0.2081969976 -0.0834965929 0.5240060687 4283527049
-0.2082280368 -0.0829267502 0.5240842104 4283592842
-0.2078935206 -0.0822121724 0.5232422352 4283263877
-0.2079241127 -0.0816428214 0.5233192444 4283461256
-0.2079544961 -0.0810732245 0.5233957171 4283592842
-0.2079846710 -0.0805033743 0.5234716535 4283592842
-0.2080146521 -0.0799332783 0.5235471129 4283658635
-0.2080444247 -0.0793629363 0.5236220360 4283724428
-0.2080739886 -0.0787923485 0.5236964822 4283724428
-0.2084690928 -0.0783589929 0.5246908665 4283724428
-0.2084982991 -0.0777869225 0.5247643590 4283659662
-0.2088931352 -0.0773500726 0.5257581472 4283593869
-0.2089219838 -0.0767765194 0.5258307457 4283856527
-0.2085846812 -0.0760692731 0.5249817967 4284119699
-0.2086130679 -0.0754962564 0.5250532627 4284251285
-0.2086412311 -0.0749230012 0.5251241326 4284382871
-0.2086692005 -0.0743495151 0.5251945257 4284645528
-0.2086969614 -0.0737757981 0.5252644420 4284777114
-0.2087245136 -0.0732018575 0.5253337622 4284645528
-0.2087518573 -0.0726276860 0.5254026055 4284842907
-0.2087790072 -0.0720532909 0.5254709125 4285368735
-0.2088059336 -0.0714786723 0.5255386829 4285895079
-0.2088326514 -0.0709038377 0.5256059170 4286224044
-0.2088591605 -0.0703287795 0.5256726146 4286553009
-0.2092519253 -0.0698758736 0.5266611576 4286881974
-0.2092780620 -0.0692993701 0.5267269611 4287145146
-0.2093039900 -0.0687226504 0.5267922282 4287539646
-0.1960589290 -0.1954070926 0.4948393404 4287471020
-0.1957784891 -0.1945785731 0.4941315353 4287207848
-0.1954977065 -0.1937512755 0.4934228361 4287010469
-0.1955626905 -0.1932672709 0.4935868680 4286681504
-0.1956275702 -0.1927827895 0.4937506020 4286352539
-0.1956923157 -0.1922978312 0.4939140081 4285891988
-0.1957569569 -0.1918123811 0.4940771461 4285892246
-0.1961680502 -0.1916650832 0.4951147139 4285629074
-0.1962325424 -0.1911778152 0.4952775240 4285366415
-0.1962969303 -0.1906900704 0.4954400063 4285169036
-0.1963611841 -0.1902018487 0.4956021905 4284971659
-0.1964253187 -0.1897131354 0.4957640767 4284905866
-0.1964893341 -0.1892239600 0.4959256351 4284840073
-0.1962059587 -0.1884008497 0.4952104092 4284708487
-0.1962696016 -0.1879115701 0.4953710437 4284576901
-0.1959856451 -0.1870900989 0.4946543574 4284445315
-0.1960489303 -0.1866007447 0.4948140979 4284445315
-0.1961120963 -0.1861109138 0.4949735105 4284379522
-0.1961751282 -0.1856206059 0.4951326251 4284313729
-0.1962380409 -0.1851298362 0.4952914119 4284247936
-0.1973449886 -0.1856207103 0.4980852306 4284247934
-0.1967116594 -0.1844733655 0.4964867532 4284247934
-0.1971225739 -0.1843059361 0.4975238740 4284050555
-0.1971852034 -0.1838115305 0.4976819456 4283984762
-0.1972476989 -0.1833166480 0.4978396893 4283984762
-0.1973100603 -0.1828213036 0.4979971051 4283984762
-0.1973723024 -0.1823254824 0.4981541932 4283918969
-0.1974344105 -0.1818291992 0.4983109534 4283918969
-0.1974963844 -0.1813324541 0.4984673560 4283853176
-0.1975582391 -0.1808352321 0.4986234605 4283721590
-0.1976199448 -0.1803375334 0.4987792373 4283721590
-0.1973322779 -0.1795216501 0.4980531633 4283721590
-0.1973936260 -0.1790239066 0.4982079864 4283655797
-0.1974548250 -0.1785257161 0.4983624816 4283655797
-0.1975159049 -0.1780270487 0.4985166490 4283721590
-0.1975768507 -0.1775279194 0.4986704588 4283721590
-0.1976376623 -0.1770283282 0.4988239408 4283590004
-0.1980482489 -0.1768407226 0.4998602271 4283524211
-0.1977588832 -0.1760277748 0.4991298914 4283327602
-0.1978192925 -0.1755267978 0.4992823601 4283261809
-0.1982297897 -0.1753351539 0.5003184080 4283261809
-0.1982900351 -0.1748323739 0.5004704595 4283261809
-0.1983501464 -0.1743291467 0.5006221533 4283261809
-0.1987606585 -0.1741325706 0.5016583204 4283130223
-0.1984699368 -0.1733213067 0.5009245276 4283130223
-0.1981788725 -0.1725113839 0.5001899004 4283130223
-0.1982383281 -0.1720072180 0.5003399849 4282998637
-0.1979466677 -0.1711990535 0.4996038377 4282998637
-0.1983568072 -0.1709975302 0.5006390214 4282932844
-0.1984158456 -0.1704920083 0.5007880330 4282867051
-0.1984747350 -0.1699860394 0.5009366274 4282867051
-0.1985334903 -0.1694796234 0.5010849237 4282932844
-0.1985920966 -0.1689727455 0.5012328625 4282867051
-0.1986505687 -0.1684654206 0.5013804436 4282867051
-0.1990605891 -0.1682549268 0.5024152994 4282801258
-0.1991188824 -0.1677458137 0.5025624633 4282801258
-0.1991770267 -0.1672362536 0.5027092099 4282801258
-0.1992350370 -0.1667262465 0.5028555989 4282735465
-0.1989407837 -0.1659221351 0.5021129251 4282669418
-0.1993506104 -0.1657049060 0.5031473041 4282537832
-0.1990558803 -0.1649017036 0.5024034381 4282537832
-0.1987607926 -0.1640998721 0.5016586185 4282603625
-0.1988178641 -0.1635894626 0.5018026829 4282538086
-0.1988748014 -0.1630786061 0.5019463897 4282538086
-0.1989315897 -0.1625673175 0.5020897388 4282472293
-0.1989882290 -0.1620555818 0.5022326708 4282406500
-0.1990447342 -0.1615434140 0.5023753047 4282340707
-0.1991010755 -0.1610308141 0.5025175214 4282340707
-0.1991572827 -0.1605177820 0.5026593208 4282340707
-0.1988601238 -0.1597206146 0.5019093156 4282406500
-0.1992692351 -0.1594904065 0.5029419065 4282208867
-0.1993249953 -0.1589760780 0.5030826330 4282274660
-0.1990270913 -0.1581803560 0.5023307800 4282274660
-0.1990824491 -0.1576660722 0.5024704933 4282274660
-0.1991376579 -0.1571513563 0.5026098490 4282208867
-0.1991927177 -0.1566362232 0.5027487874 4282208867
-0.1996015310 -0.1563979536 0.5037806034 4282143074
-0.1993023902 -0.1556046605 0.5030255914 4282077281
-0.1993570030 -0.1550882459 0.5031633973 4282012001
-0.1990572512 -0.1542968601 0.5024068952 4282012001
-0.2001743317 -0.1546014100 0.5052263141 4281946208
-0.1995199025 -0.1535364538 0.5035746098 4281880415
-0.1995739043 -0.1530183554 0.5037108660 4281879902
-0.1996277422 -0.1524998248 0.5038467646 4281814109
-0.2000361085 -0.1522508264 0.5048774481 4281814109
-0.1997349709 -0.1514615119 0.5041173697 4281814109
-0.1997883469 -0.1509417295 0.5042521358 4281748570
-0.1998415738 -0.1504215449 0.5043864846 4281682777
-0.2006047517 -0.1504334360 0.5063126683 4281813593
-0.1999475658 -0.1493798941 0.5046539307 4281747800
-0.2000003159 -0.1488584578 0.5047870874 4281747800
-0.2000529170 -0.1483366042 0.5049198866 4281747800
-0.2001053542 -0.1478143483 0.5050522685 4281682007
-0.2008686811 -0.1478149146 0.5069788098 4281682007
-0.2002097815 -0.1467685848 0.5053157806 4281682525
-0.2002617419 -0.1462450922 0.5054469109 4281616732
-0.2003135532 -0.1457211971 0.5055776834 4281616732
-0.2007210851 -0.1454547942 0.5066062808 4281550939
-0.2004166991 -0.1446721852 0.5058380365 4281485144
-0.2004680187 -0.1441470683 0.5059675574 4281485144
-0.2005702108 -0.1430956423 0.5062254667 4281550937
-0.2006210536 -0.1425693184 0.5063537955 4281550937
-0.2006717324 -0.1420426071 0.5064817667 4281550937
-0.2007222623 -0.1415154934 0.5066092610 4281550937
-0.2007726282 -0.1409879774 0.5067363381 4281550937
-0.2008228153 -0.1404600590 0.5068630576 4281485144
-0.2008728534 -0.1399317533 0.5069893599 4281419351
-0.2009227276 -0.1394030601 0.5071152449 4281419351
-0.2006154656 -0.1386272907 0.5063397288 4281419351
-0.2006649226 -0.1380987465 0.5064645410 4281551191
-0.2010713518 -0.1378145963 0.5074903369 4281485398
-0.2007633299 -0.1370404959 0.5067129135 4281419605
-0.2008122951 -0.1365107745 0.5068364739 4281353812
-0.2008610815 -0.1359806806 0.5069596171 4281288019
-0.2009097189 -0.1354501992 0.5070823431 4281288019
-0.2009581774 -0.1349193305 0.5072046518 4281288019
-0.2010064721 -0.1343880743 0.5073265433 4281288019
-0.2010545880 -0.1338564306 0.5074480176 4281353812
-0.2007447183 -0.1330871880 0.5066659451 4281353812
-0.2007924169 -0.1325557381 0.5067863464 4281353812
-0.2011979520 -0.1322592497 0.5078098774 4281353812
-0.2016035020 -0.1319604814 0.5088334084 4281353812
-0.2012926936 -0.1311925650 0.5080489516 4281353812
-0.2013397962 -0.1306586564 0.5081678629 4281288019
-0.2013867497 -0.1301243752 0.5082863569 4281288019
-0.2017919421 -0.1298203170 0.5093090534 4281353812
-0.2014801204 -0.1290546954 0.5085220337 4281353812
-0.2015265375 -0.1285192966 0.5086392164 4281288019
-0.2015728056 -0.1279835403 0.5087559819 4281222226
-0.2016188800 -0.1274474114 0.5088722706 4281222226
-0.2016647905 -0.1269109100 0.5089881420 4281288019
-0.2017105371 -0.1263740361 0.5091035962 4281288019
-0.2017561048 -0.1258368045 0.5092185736 4281222226
-0.2018014938 -0.1252992153 0.5093331337 4281353558
-0.2025650293 -0.1252052486 0.5112602711 4281287765
-0.2018917501 -0.1242229417 0.5095609426 4281222485
-0.2019366175 -0.1236842573 0.5096741915 4281222485
-0.2027001083 -0.1235834658 0.5116012096 4281288278
-0.2027447820 -0.1230421513 0.5117139816 4281222485
-0.2020701766 -0.1220660806 0.5100113153 4281222485
-0.2024739683 -0.1217422187 0.5110304356 4281354071
-0.2025180459 -0.1212007999 0.5111416578 4281288280
-0.2025619298 -0.1206590235 0.5112524629 4281222487
-0.2026056349 -0.1201169044 0.5113627911 4281222485
-0.2026491761 -0.1195744276 0.5114726424 4281288278
-0.2034125775 -0.1194544584 0.5133994222 4281354071
-0.2034558952 -0.1189093590 0.5135087967 4281419864
-0.2031388730 -0.1181544140 0.5127086043 4281354071
-0.2028215230 -0.1174010560 0.5119076371 4281288278
-0.2028641552 -0.1168568507 0.5120152235 4281288278
-0.2029066086 -0.1163123026 0.5121223927 4281222485
-0.2033093721 -0.1159730405 0.5131389499 4281288278
-0.2029909790 -0.1152221859 0.5123353601 4281288278
-0.2030328959 -0.1146766171 0.5124411583 4281288278
-0.2030746341 -0.1141307130 0.5125464797 4281354071
-0.2031161785 -0.1135844737 0.5126513243 4281485657
-0.2035183907 -0.1132386774 0.5136665106 4281485657
-0.2031987309 -0.1124909893 0.5128597021 4281419864
-0.2032397240 -0.1119437516 0.5129631758 4281419864
-0.2036416084 -0.1115940362 0.5139774680 4281419864
-0.2033211738 -0.1108482778 0.5131687522 4281485657
-0.2040840536 -0.1106918752 0.5150941610 4281551452
-0.2034018934 -0.1097514927 0.5133724809 4281617245
-0.2034419775 -0.1092026159 0.5134736300 4281617245
-0.2038432956 -0.1088463962 0.5144864917 4281617245
-0.2035215795 -0.1081038862 0.5136744976 4281486429
-0.2035610974 -0.1075540334 0.5137742758 4281486429
-0.2036004364 -0.1070038676 0.5138735771 4281486429
-0.2036395818 -0.1064533889 0.5139723420 4281552222
-0.2036785483 -0.1059025824 0.5140706897 4281617761
-0.2044410110 -0.1057257205 0.5159950852 4281617761
-0.2037559003 -0.1048000380 0.5142659545 4281551968
-0.2045182586 -0.1046186239 0.5161901116 4281486175
-0.2045566142 -0.1040646061 0.5162869096 4281486688
-0.2045947611 -0.1035102829 0.5163831711 4281486688
-0.2046327293 -0.1029556468 0.5164790154 4281552481
-0.2039460093 -0.1020382196 0.5147457719 4281618274
-0.2050704211 -0.1020257026 0.5175836682 4281684067
-0.2051078826 -0.1014691666 0.5176782608 4281749860
-0.2044202536 -0.1005557403 0.5159427524 4281750373
-0.2051822245 -0.1003551781 0.5178658962 4281684580
-0.2052191198 -0.0997977257 0.5179589987 4281750373
-0.2056184560 -0.0994153172 0.5189669132 4281750373
-0.2056550235 -0.0988562852 0.5190591812 4281816166
-0.2056913972 -0.0982969552 0.5191509724 4281881959
-0.2057275772 -0.0977373272 0.5192422867 4282013545
-0.2057635635 -0.0971774086 0.5193331242 4282013545
-0.2057993561 -0.0966171920 0.5194234848 4281948266
-0.2058349401 -0.0960566923 0.5195133090 4282014059
-0.2058703452 -0.0954958946 0.5196026564 4282144877
-0.2055424005 -0.0947673768 0.5187749863 4282210670
-0.2055773586 -0.0942069963 0.5188632011 4282276463
-0.2056121081 -0.0936463326 0.5189508796 4282408049
-0.2056466639 -0.0930853859 0.5190380812 4282539636
-0.2056810260 -0.0925241560 0.5191248655 4282737015
-0.2057151943 -0.0919626430 0.5192110538 4282737015
-0.2057491541 -0.0914008468 0.5192968249 4282802808
-0.2057829350 -0.0908387825 0.5193820596 4282868603
-0.2061801404 -0.0904359370 0.5203845501 4282868603
-0.2062135786 -0.0898723230 0.5204689503 4283000189
-0.2062468082 -0.0893084407 0.5205528140 4283065982
-0.2066436559 -0.0889007971 0.5215544701 4283197568
-0.2066765577 -0.0883353725 0.5216374993 4283263361
-0.2067092508 -0.0877696797 0.5217199922 4283328900
-0.2067417502 -0.0872037187 0.5218020082 4283394693
-0.2067740411 -0.0866374895 0.5218835473 4283263875
-0.2068061382 -0.0860709995 0.5219645500 4283395461
-0.2068380415 -0.0855042487 0.5220450759 4283461254
-0.2068697363 -0.0849372298 0.5221250653 4283461254
-0.2069012374 -0.0843699574 0.5222045779 4283527047
-0.2069325298 -0.0838024169 0.5222835541 4283592840
-0.2069636136 -0.0832346305 0.5223619938 4283658633
-0.2069945037 -0.0826665834 0.5224399567 4283724426
-0.2070251852 -0.0820982829 0.5225173831 4283658633
-0.2070556730 -0.0815297365 0.5225943327 4283724426
-0.2070859522 -0.0809609294 0.5226707458 4283856012
-0.2071160227 -0.0803918839 0.5227466822 4283856012
-0.2075105906 -0.0799631178 0.5237425566 4283921805
-0.2075403184 -0.0793925673 0.5238175392 4283987598
-0.2075698376 -0.0788217783 0.5238920450 4284119184
-0.2075991482 -0.0782507509 0.5239660144 4284053391
-0.2076282501 -0.0776794776 0.5240395069 4284053904
-0.2076571584 -0.0771079585 0.5241124630 4284185490
-0.2076858580 -0.0765362084 0.5241848826 4284317076
-0.2077143490 -0.0759642199 0.5242567658 4284580248
-0.2077426314 -0.0753920004 0.5243281722 4284974747
-0.2077707052 -0.0748195425 0.5243990421 4285172126
-0.2077985853 -0.0742468610 0.5244693756 4285435298
-0.2078262419 -0.0736739412 0.5245392323 4285632677
-0.2074884027 -0.0729723275 0.5236865282 4285895078
-0.2075156122 -0.0723999664 0.5237551928 4286158250
-0.2075426131 -0.0718273818 0.5238233209 4286553008
-0.2079348415 -0.0713800192 0.5248132944 4286881973
-0.2083269507 -0.0709304214 0.5258029699 4287342267
-0.1947992891 -0.1925061941 0.4930422008 4287602606
-0.1948638111 -0.1920219809 0.4932054877 4287273641
-0.1949282140 -0.1915372610 0.4933685064 4287076775
-0.1949924827 -0.1910520792 0.4935311973 4286682017
-0.1947108060 -0.1902285367 0.4928182364 4286352797
-0.1947747320 -0.1897432506 0.4929800332 4286089625
-0.1948385239 -0.1892574877 0.4931415021 4285761173
-0.1952483952 -0.1891065389 0.4941788912 4285563794
-0.1953120679 -0.1886189580 0.4943400621 4285300622
-0.1953756064 -0.1881309152 0.4945008755 4285037450
-0.1950925142 -0.1873096824 0.4937843680 4284905866
-0.1951557100 -0.1868215352 0.4939442873 4284708487
-0.1952187717 -0.1863329262 0.4941039085 4284576901
-0.1952817142 -0.1858438402 0.4942632020 4284576901
-0.1960384697 -0.1860127300 0.4961785674 4284576899
-0.1954072118 -0.1848642528 0.4945808649 4284576899
-0.1954697818 -0.1843737513 0.4947392046 4284511106
-0.1951849014 -0.1835561544 0.4940181971 4284379520
-0.1955945194 -0.1833913326 0.4950549603 4284116348
-0.1956567019 -0.1828994155 0.4952123463 4284116348
-0.1964140236 -0.1830550134 0.4971291423 4284182141
-0.1964761764 -0.1825604141 0.4972864389 4284182141
-0.1958424896 -0.1814208627 0.4956825376 4284116348
-0.1959041506 -0.1809270829 0.4958386421 4284050555
-0.1959656924 -0.1804328263 0.4959943891 4283918969
-0.1967234761 -0.1805773228 0.4979123473 4283853176
-0.1967849731 -0.1800803840 0.4980680048 4283787382
-0.1968463361 -0.1795829833 0.4982233047 4283853175
-0.1965590566 -0.1787681431 0.4974962175 4283787382
-0.1966200471 -0.1782706976 0.4976505935 4283721589
-0.1966809183 -0.1777727753 0.4978046417 4283721589
-0.1967416406 -0.1772744060 0.4979583323 4283655796
-0.1968022436 -0.1767755598 0.4981117249 4283459187
-0.1972117424 -0.1765888184 0.4991481900 4283459187
-0.1969230324 -0.1757765114 0.4984174371 4283327602
-0.1969832182 -0.1752762944 0.4985697865 4283327602
-0.1970432848 -0.1747756153 0.4987218082 4283327602
-0.1971032023 -0.1742744893 0.4988734722 4283393395
-0.1971629858 -0.1737728864 0.4990247786 4283393395
-0.1972226351 -0.1732708514 0.4991757572 4283327602
-0.1972821504 -0.1727683395 0.4993264079 4283261809
-0.1973415315 -0.1722653955 0.4994766712 4283261809
-0.1974007785 -0.1717619896 0.4996266067 4283195762
-0.1974598765 -0.1712581217 0.4997762144 4283195762
-0.1975188404 -0.1707538068 0.4999254346 4283195762
-0.1972273439 -0.1699471772 0.4991876781 4283064176
-0.1972859204 -0.1694428623 0.4993359447 4282998637
-0.1973443627 -0.1689380854 0.4994838536 4282932844
-0.1974026710 -0.1684328765 0.4996314049 4282932844
-0.1974608302 -0.1679272056 0.4997786283 4282932844
-0.1978696883 -0.1677184701 0.5008134246 4282867051
-0.1979276687 -0.1672110111 0.5009601712 4282867051
-0.1979855001 -0.1667031199 0.5011065602 4282867051
-0.1980431974 -0.1661947668 0.5012525916 4282801258
-0.1981007606 -0.1656859815 0.5013982654 4282867051
-0.1981581599 -0.1651767492 0.5015435815 4282801258
-0.1978639811 -0.1643751115 0.5007990003 4282735465
-0.1979210079 -0.1638658941 0.5009433627 4282801258
-0.1979778856 -0.1633562446 0.5010873079 4282735465
-0.1980346143 -0.1628461480 0.5012308955 4282669672
-0.1980912089 -0.1623356193 0.5013741255 4282603879
-0.1981476545 -0.1618246585 0.5015169978 4282538086
-0.1982039511 -0.1613132507 0.5016594529 4282603879
-0.1982600987 -0.1608014107 0.5018016100 4282603879
-0.1983160973 -0.1602891386 0.5019433498 4282538086
-0.1990766525 -0.1603440195 0.5038683414 4282603879
-0.1991325617 -0.1598290652 0.5040098429 4282472039
-0.1991883218 -0.1593136638 0.5041509271 4282537832
-0.1988912821 -0.1585167795 0.5033991337 4282472039
-0.1989466399 -0.1580014378 0.5035392642 4282406246
-0.1990018487 -0.1574856639 0.5036789775 4282340453
-0.1990569085 -0.1569694579 0.5038183331 4282274660
-0.1991118193 -0.1564528197 0.5039573312 4282208867
-0.1991665810 -0.1559357643 0.5040959120 4282208867
-0.1988679618 -0.1551427096 0.5033401251 4282143587
-0.1992756426 -0.1549003720 0.5043720007 4282143587
-0.1986231059 -0.1538345814 0.5027203560 4282077794
-0.1986770630 -0.1533176601 0.5028569698 4282077794
-0.1987308711 -0.1528003216 0.5029931664 4282012001
-0.1987845302 -0.1522825658 0.5031289458 4281946208
-0.1988380253 -0.1517643780 0.5032643676 4282011488
-0.1988913715 -0.1512457877 0.5033993721 4282011488
-0.1989445686 -0.1507267803 0.5035340190 4281945695
-0.1989976019 -0.1502073407 0.5036682487 4282011488
-0.1990504861 -0.1496874988 0.5038021207 4281945949
-0.1991032213 -0.1491672546 0.5039355755 4281880156
-0.1991557926 -0.1486465782 0.5040686131 4281814363
-0.1992082000 -0.1481254995 0.5042012930 4281748570
-0.1992604584 -0.1476040035 0.5043335557 4281748570
-0.1996672153 -0.1473438144 0.5053630471 4281748570
-0.1997192502 -0.1468205750 0.5054947734 4281814111
-0.1997711211 -0.1462969184 0.5056260824 4281814111
-0.1994679272 -0.1455139518 0.5048586130 4281748318
-0.1995193958 -0.1449904144 0.5049889088 4281748318
-0.1995707005 -0.1444664747 0.5051187873 4281682525
-0.1996218562 -0.1439421326 0.5052482486 4281682525
-0.1996728480 -0.1434173882 0.5053772926 4281617245
-0.1997236758 -0.1428922564 0.5055059195 4281683038
-0.1997743398 -0.1423667073 0.5056341887 4281748831
-0.1998248547 -0.1418407559 0.5057620406 4281683038
-0.1998751909 -0.1413144171 0.5058894753 4281683038
-0.1999253780 -0.1407876760 0.5060164928 4281683038
-0.1999754012 -0.1402605474 0.5061430931 4281617245
-0.2000252604 -0.1397330165 0.5062692761 4281617245
-0.2000749558 -0.1392050833 0.5063950419 4281617245
-0.2008366734 -0.1391702890 0.5083230138 4281551452
-0.2008862197 -0.1386396885 0.5084483624 4281682777
-0.2009356022 -0.1381087154 0.5085733533 4281616984
-0.2006284595 -0.1373334080 0.5077959895 4281551191
-0.2003209740 -0.1365595907 0.5070177317 4281485398
-0.2003696859 -0.1360293329 0.5071409941 4281419605
-0.2004182339 -0.1354986727 0.5072638988 4281419605
-0.2004666030 -0.1349676400 0.5073863268 4281485398
-0.2001580298 -0.1341970116 0.5066053271 4281485398
-0.2005628496 -0.1339044124 0.5076299310 4281419862
-0.1998968124 -0.1328976005 0.5059441328 4281419862
-0.1999443471 -0.1323669255 0.5060644746 4281419864
-0.2000389099 -0.1313044578 0.5063038468 4281419864
-0.2008005381 -0.1312396973 0.5082315207 4281419864
-0.2008475661 -0.1307056248 0.5083505511 4281419864
-0.2008944303 -0.1301711798 0.5084691644 4281419864
-0.2009411156 -0.1296363473 0.5085873604 4281485144
-0.2009876370 -0.1291011572 0.5087050796 4281485144
-0.2010339946 -0.1285655946 0.5088223815 4281485144
-0.2010801733 -0.1280296445 0.5089392662 4281419351
-0.2011261731 -0.1274933517 0.5090557337 4281354071
-0.2011720091 -0.1269566715 0.5091717243 4281354071
-0.2012176663 -0.1264196336 0.5092872977 4281354071
-0.2012631446 -0.1258822232 0.5094023943 4281354071
-0.2013084590 -0.1253444552 0.5095170736 4281419864
-0.2013536096 -0.1248063296 0.5096313357 4281419864
-0.2013985664 -0.1242678389 0.5097451806 4281419864
-0.2014433593 -0.1237289831 0.5098585486 4281419864
-0.2014879733 -0.1231897771 0.5099714398 4281419864
-0.2015324235 -0.1226502061 0.5100839138 4281354071
-0.2015766799 -0.1221102849 0.5101959705 4281354071
-0.2016207725 -0.1215699986 0.5103075504 4281419864
-0.2016646862 -0.1210293695 0.5104187131 4281419866
-0.2017084211 -0.1204883829 0.5105293989 4281485659
-0.2017519772 -0.1199470460 0.5106396675 4281485659
-0.2017953545 -0.1194053590 0.5107494593 4281485659
-0.2018385679 -0.1188633218 0.5108587742 4281551452
-0.2026000321 -0.1187420040 0.5127860904 4281551452
-0.2026430219 -0.1181973442 0.5128949285 4281551452
-0.2026858479 -0.1176523343 0.5130032897 4281551452
-0.2027284950 -0.1171069816 0.5131112337 4281551452
-0.2024114281 -0.1163546219 0.5123087168 4281419866
-0.2028132230 -0.1160152480 0.5133256912 4281419864
-0.2028553188 -0.1154688746 0.5134322047 4281485657
-0.2028972358 -0.1149221510 0.5135383010 4281485657
-0.2029389739 -0.1143750995 0.5136439800 4281617243
-0.2026206255 -0.1136258841 0.5128382444 4281683036
-0.2030218989 -0.1132799760 0.5138538480 4281683036
-0.2030630857 -0.1127319112 0.5139580965 4281617245
-0.2027439773 -0.1119846106 0.5131503940 4281617245
-0.2031449080 -0.1116347834 0.5141651630 4281486429
-0.2031855434 -0.1110857278 0.5142680407 4281552222
-0.2032259852 -0.1105363443 0.5143703818 4281618015
-0.2032662630 -0.1099866256 0.5144723058 4281618015
-0.2029458731 -0.1092425510 0.5136613846 4281683808
-0.2033462375 -0.1088862270 0.5146747231 4281683808
-0.2033859491 -0.1083355322 0.5147752762 4281618015
-0.2034254670 -0.1077845246 0.5148752928 4281618015
-0.2034648061 -0.1072331965 0.5149748921 4281618274
-0.2035039663 -0.1066815481 0.5150739551 4281684067
-0.2031820416 -0.1059414074 0.5142591596 4281684067
-0.2035817057 -0.1055772975 0.5152707100 4281684067
-0.2032592744 -0.1048384830 0.5144546032 4281684067
-0.2040197998 -0.1046570167 0.5163795352 4281618274
-0.2033357471 -0.1037343070 0.5146481991 4281618274
-0.2033737004 -0.1031817570 0.5147442818 4281618274
-0.2037727684 -0.1028111801 0.5157543421 4281749860
-0.2034490556 -0.1020757258 0.5149349570 4281881446
-0.2042093128 -0.1018828973 0.5168591738 4281816166
-0.2038851380 -0.1011478081 0.5160387158 4281881959
-0.2039222121 -0.1005927399 0.5161325932 4281947752
-0.2039591074 -0.1000373736 0.5162259340 4281947752
-0.2043574899 -0.0996580869 0.5172342658 4281947752
-0.2043940574 -0.0991011336 0.5173268318 4282013545
-0.2044304311 -0.0985438824 0.5174188614 4282013545
-0.2044666111 -0.0979863331 0.5175104737 4282145131
-0.2045026124 -0.0974284858 0.5176015496 4282145645
-0.2045384049 -0.0968703479 0.5176921487 4282277231
-0.2045740038 -0.0963119194 0.5177822709 4282343024
-0.2046094239 -0.0957532004 0.5178719163 4282474610
-0.2046446353 -0.0951941833 0.5179610252 4282605429
-0.2046796679 -0.0946348906 0.5180496573 4282671222
-0.2043521702 -0.0939087942 0.5172207952 4282737015
-0.2047491223 -0.0935154334 0.5182254910 4282802808
-0.2044211179 -0.0927907601 0.5173953176 4283000187
-0.2044553012 -0.0922313109 0.5174818039 4283065980
-0.2048518509 -0.0918341279 0.5184854865 4283065982
-0.2048857063 -0.0912731364 0.5185711980 4283131775
-0.2049193531 -0.0907118618 0.5186563730 4283197568
-0.2049528062 -0.0901503116 0.5187410116 4283197568
-0.2057116926 -0.0899056196 0.5206617713 4283329154
-0.2057448626 -0.0893415362 0.5207457542 4283394947
-0.2054149210 -0.0886206031 0.5199106336 4283329668
-0.2054476589 -0.0880569741 0.5199934840 4283395461
-0.2058432251 -0.0876476541 0.5209946632 4283461254
-0.2058756053 -0.0870824903 0.5210766792 4283527047
-0.2059077919 -0.0865170658 0.5211580992 4283723910
-0.2059397846 -0.0859513655 0.5212390423 4283789703
-0.2059715688 -0.0853854120 0.5213195086 4283593094
-0.2060031444 -0.0848191902 0.5213994980 4283593094
-0.2060345411 -0.0842527151 0.5214788914 4283593094
-0.2060657144 -0.0836859792 0.5215578079 4283593094
-0.2060967088 -0.0831189901 0.5216362476 4283724680
-0.2061274797 -0.0825517401 0.5217141509 4283856266
-0.2061580718 -0.0819842368 0.5217915773 4283790473
-0.2061884403 -0.0814164877 0.5218684673 4283922059
-0.2062186152 -0.0808484852 0.5219448209 4284053391
-0.2062485963 -0.0802802294 0.5220206976 4284184977
-0.2066421658 -0.0798523203 0.5230168700 4284184977
-0.2066717893 -0.0792825744 0.5230917931 4284250770
-0.2067012042 -0.0787125826 0.5231662393 4284382610
-0.2067304105 -0.0781423450 0.5232402086 4284448403
-0.2067594230 -0.0775718763 0.5233136415 4284908183
-0.2067882270 -0.0770011619 0.5233865380 4285171355
-0.2068168223 -0.0764302090 0.5234588981 4285237918
-0.2068452239 -0.0758590251 0.5235307813 4285501090
-0.2068734020 -0.0752876028 0.5236021280 4286026918
-0.2069013864 -0.0747159421 0.5236729383 4286290090
-0.2069291621 -0.0741440579 0.5237432122 4286553262
-0.2065923810 -0.0734424144 0.5228908062 4286882227
-0.2066196948 -0.0728710815 0.5229599476 4287210679
-0.1948544830 -0.1914550811 0.4945722222 4287799985
-0.1949186474 -0.1909684241 0.4947350621 4287405485
-0.1949826777 -0.1904813051 0.4948976040 4287142313
-0.1950466037 -0.1899936944 0.4950598180 4286879141
-0.1944197267 -0.1888347864 0.4934687316 4286550176
-0.1944831759 -0.1883479506 0.4936297536 4286221211
-0.1945464909 -0.1878606379 0.4937904775 4285826453
-0.1946097016 -0.1873728484 0.4939509034 4285694867
-0.1946727633 -0.1868845820 0.4941109717 4285497488
-0.1947357208 -0.1863958538 0.4942707717 4285168523
-0.1947985440 -0.1859066337 0.4944302142 4285036937
-0.1945151389 -0.1850876212 0.4937108755 4285102730
-0.1945776045 -0.1845983267 0.4938694239 4285036937
-0.1953326166 -0.1847637594 0.4957857728 4284839558
-0.1953950375 -0.1842717826 0.4959442317 4284576386
-0.1954573542 -0.1837793440 0.4961023927 4284444800
-0.1955195367 -0.1832864285 0.4962601960 4284444800
-0.1952348053 -0.1824689507 0.4955375493 4284444800
-0.1952966303 -0.1819759607 0.4956944287 4284444800
-0.1957053095 -0.1818048656 0.4967317283 4284379520
-0.1957669854 -0.1813100725 0.4968882501 4284313727
-0.1954813004 -0.1804942340 0.4961631596 4284182141
-0.1955426037 -0.1799993813 0.4963187575 4284050555
-0.1956037730 -0.1795040667 0.4964740276 4283918968
-0.1956648082 -0.1790082902 0.4966289401 4283918968
-0.1953780651 -0.1781949848 0.4959011674 4283918968
-0.1954387426 -0.1776991636 0.4960551560 4283918968
-0.1958471388 -0.1775181890 0.4970917404 4283787382
-0.1955596805 -0.1767061353 0.4963621199 4283655796
-0.1959680319 -0.1765224785 0.4973985851 4283524981
-0.1960282773 -0.1760239303 0.4975515008 4283524981
-0.1960883886 -0.1755249202 0.4977040589 4283393395
-0.1961483806 -0.1750254631 0.4978563190 4283393395
-0.1962082237 -0.1745255440 0.4980081916 4283459188
-0.1962679327 -0.1740251631 0.4981597662 4283524981
-0.1959787905 -0.1732161045 0.4974258542 4283524981
-0.1963869482 -0.1730230302 0.4984618425 4283459188
-0.1960973144 -0.1722148508 0.4977267087 4283393395
-0.1965054125 -0.1720190793 0.4987625182 4283327602
-0.1962153018 -0.1712117791 0.4980261922 4283458934
-0.1962740868 -0.1707095653 0.4981753826 4283327348
-0.1963327378 -0.1702069044 0.4983242452 4283327348
-0.1963912547 -0.1697037965 0.4984727800 4283261555
-0.1964496225 -0.1692002267 0.4986209273 4283129969
-0.1961582005 -0.1683960408 0.4978812337 4283064176
-0.1965659559 -0.1681917608 0.4989161789 4283064176
-0.1966239065 -0.1676868498 0.4990632832 4283129969
-0.1966817230 -0.1671815068 0.4992100298 4282998383
-0.1967393905 -0.1666757017 0.4993564188 4282998383
-0.1967969239 -0.1661694646 0.4995024204 4282998637
-0.1968543082 -0.1656627804 0.4996480942 4282932844
-0.1969115585 -0.1651556492 0.4997934103 4282932844
-0.1969686747 -0.1646480709 0.4999383390 4282932844
-0.1970256269 -0.1641400605 0.5000829101 4282932844
-0.1970824599 -0.1636316180 0.5002271533 4282932844
-0.1971391290 -0.1631227136 0.5003709793 4282867308
-0.1971956640 -0.1626133919 0.5005145073 4282801515
-0.1972520500 -0.1621036232 0.5006576180 4282669929
-0.1969572157 -0.1613058895 0.4999092519 4282604136
-0.1973643899 -0.1610827744 0.5009427667 4282669931
-0.1970690638 -0.1602859944 0.5001931787 4282604138
-0.1974761486 -0.1600601971 0.5012264252 4282604138
-0.1975318044 -0.1595482528 0.5013676882 4282669931
-0.1975873113 -0.1590358764 0.5015085936 4282604138
-0.1976426840 -0.1585230678 0.5016490817 4282604138
-0.1976978928 -0.1580098271 0.5017892122 4282538345
-0.1974010915 -0.1572159231 0.5010358691 4282406759
-0.1974559128 -0.1567027420 0.5011750460 4282406761
-0.1975105852 -0.1561891288 0.5013138056 4282340968
-0.1975650936 -0.1556750983 0.5014522076 4282275175
-0.1976194680 -0.1551606357 0.5015901923 4282275175
-0.1976736933 -0.1546457559 0.5017278194 4282275173
-0.1977277696 -0.1541304439 0.5018650293 4282209380
-0.1977816820 -0.1536147147 0.5020019412 4282209380
-0.1978354603 -0.1530985683 0.5021383762 4282209380
-0.1978890747 -0.1525820047 0.5022744536 4282143587
-0.1979425400 -0.1520650089 0.5024101734 4282077794
-0.1979958415 -0.1515475959 0.5025454760 4282077794
-0.1980490088 -0.1510297805 0.5026804209 4282077794
-0.1981020123 -0.1505115330 0.5028149486 4282143587
-0.1981548667 -0.1499928683 0.5029491186 4282143587
-0.1982075572 -0.1494738013 0.5030828714 4282208867
-0.1982600987 -0.1489543170 0.5032162070 4282143074
-0.1983124763 -0.1484344155 0.5033491850 4282077281
-0.1983647197 -0.1479141116 0.5034817457 4282011488
-0.1984167844 -0.1473933905 0.5036138892 4282011488
-0.1988224834 -0.1471340656 0.5046436191 4282011488
-0.1988743395 -0.1466115862 0.5047752261 4281945697
-0.1989260316 -0.1460887194 0.5049064755 4281945697
-0.1989775747 -0.1455654353 0.5050372481 4281945697
-0.1986747980 -0.1447836608 0.5042687654 4281945697
-0.1987259388 -0.1442604959 0.5043985844 4281945697
-0.1987769008 -0.1437369287 0.5045279264 4281879904
-0.1988277137 -0.1432129592 0.5046569109 4281814624
-0.1988783628 -0.1426885873 0.5047854781 4281814624
-0.1985742599 -0.1419104040 0.5040135980 4281880417
-0.1986244917 -0.1413861811 0.5041410923 4281814624
-0.1986745745 -0.1408615410 0.5042682290 4281814624
-0.1987244934 -0.1403365135 0.5043949485 4281814624
-0.1991292089 -0.1400607675 0.5054221153 4281748831
-0.1991788894 -0.1395340115 0.5055482388 4281748831
-0.1992284060 -0.1390068531 0.5056739450 4281748831
-0.1992777735 -0.1384793222 0.5057992339 4281683038
-0.1996822655 -0.1381972879 0.5068259239 4281748827
-0.1993760020 -0.1374230683 0.5060485005 4281748827
