VERSION 0.7
FIELDS x y z rgba
SIZE 4 4 4 4
TYPE F F F U
COUNT 1 1 1 1
WIDTH 920
HEIGHT 1
VIEWPOINT 0.0 0.0 0.0 1.0 0.0 0.0 0.0
POINTS 920
DATA ascii
-0.3241407275 -0.1162227541 0.5167843699 4284907014
-0.3241966963 -0.1156685352 0.5168735981 4284972039
-0.3258188367 -0.1156701371 0.5194598436 4284906246
-0.3279635310 -0.1158505753 0.5228791237 4284839427
-0.3316756189 -0.1165743172 0.5287973881 4284773634
-0.3348663151 -0.1171025634 0.5338844061 4284708101
-0.3380577862 -0.1176197827 0.5389726162 4284642308
-0.3412500620 -0.1181259751 0.5440621376 4284576515
-0.3449658155 -0.1188011318 0.5499862432 4284576515
-0.3481597602 -0.1192843467 0.5550783873 4284576515
-0.3497858942 -0.1192218736 0.5576710105 4284642308
-0.3519352376 -0.1193310395 0.5610977411 4284708355
-0.3530389667 -0.1190799028 0.5628573895 4284708355
-0.3541427255 -0.1188248768 0.5646172166 4284708355
-0.3547233939 -0.1183913425 0.5655429363 4284642562
-0.3547806442 -0.1177819967 0.5656342506 4284576769
-0.3537909091 -0.1168267131 0.5640562773 4284510976
-0.3528005779 -0.1158747375 0.5624773502 4284971527
-0.3518096209 -0.1149260700 0.5608974695 4285103113
-0.3513416648 -0.1141508371 0.5601513982 4285103113
-0.3503496051 -0.1132078916 0.5585697293 4285037320
-0.3488331437 -0.1120999604 0.5561519861 4284971526
-0.3478397727 -0.1111645699 0.5545682311 4285432077
-0.3473697305 -0.1103990152 0.5538188815 4285563661
-0.3474232852 -0.1098006070 0.5539042354 4285497868
-0.3474765420 -0.1092019230 0.5539891720 4285563915
-0.3475295305 -0.1086029634 0.5540736318 4285498122
-0.3486307859 -0.1083295345 0.5558293462 4285498122
-0.3497320414 -0.1080522165 0.5575851798 4285498122
-0.3503089547 -0.1076099128 0.5585049391 4285563915
-0.3519347012 -0.1074859053 0.5610969067 4285629708
-0.3530361056 -0.1071969122 0.5628528595 4285432075
-0.3541375101 -0.1069040224 0.5646088719 4285103110
-0.3552389443 -0.1066072434 0.5663648844 4285037320
-0.3563403785 -0.1063065678 0.5681209564 4284839941
-0.3569169939 -0.1058463380 0.5690402389 4284576515
-0.3585433662 -0.1056935266 0.5716332197 4284642308
-0.3385898769 -0.1342366636 0.5407785177 4284184378
-0.3386539817 -0.1336611211 0.5408809185 4284381757
-0.3371593356 -0.1324729025 0.5384937525 4283790384
-0.3361834288 -0.1314928979 0.5369350910 4283856177
-0.3336478174 -0.1299090534 0.5328853130 4283988264
-0.3331901431 -0.1291395873 0.5321543813 4283790885
-0.3322121501 -0.1281710118 0.5305923820 4283132696
-0.3322735131 -0.1276050508 0.5306903720 4282606352
-0.3307743669 -0.1264423430 0.5282959938 4282343683
-0.3292743862 -0.1252846420 0.5259003043 4281948928
-0.3267330527 -0.1237378940 0.5218414068 4281686784
-0.3247108757 -0.1223958582 0.5186117291 4281752576
-0.3247695565 -0.1218416691 0.5187054276 4282474240
-0.3237868845 -0.1208984256 0.5171359777 4283790099
-0.3238449097 -0.1203454137 0.5172286034 4284841481
-0.3218196929 -0.1190217361 0.5139940977 4285170446
-0.3229185343 -0.1188550889 0.5157490373 4285367311
-0.3219337761 -0.1179213449 0.5141762495 4285433104
-0.3219904304 -0.1173707098 0.5142667294 4284972302
-0.3225679398 -0.1170088202 0.5151891708 4284840716
-0.3226242065 -0.1164567173 0.5152789950 4284840967
-0.3232015371 -0.1160915643 0.5162010193 4284840967
-0.3243001401 -0.1159107015 0.5179557204 4284905991
-0.3253988922 -0.1157259718 0.5197105408 4284905991
-0.3254545927 -0.1151682511 0.5197995305 4284839941
-0.3312482238 -0.1166306213 0.5290528536 4284774148
-0.3344348669 -0.1171591431 0.5341423750 4284773894
-0.3381441236 -0.1178585216 0.5400665998 4284708101
-0.3408105075 -0.1181830913 0.5443252325 4284708101
-0.3439995348 -0.1186785027 0.5494185686 4284642308
-0.3471893072 -0.1191628650 0.5545130968 4284642308
-0.3493355215 -0.1192795783 0.5579409003 4284642308
-0.3509598672 -0.1192114204 0.5605352521 4284708101
-0.3520621359 -0.1189610735 0.5622957349 4284773894
-0.3531644642 -0.1187068373 0.5640563369 4284708355
-0.3537443280 -0.1182740107 0.5649824739 4284642562
-0.3538014889 -0.1176652908 0.5650737882 4284642562
-0.3528130054 -0.1167104617 0.5634950399 4284642562
-0.3513011634 -0.1155869365 0.5610803366 4284971527
-0.3503113687 -0.1146396250 0.5594995022 4284971527
-0.3498439193 -0.1138658375 0.5587528944 4285103113
-0.3488529921 -0.1129242629 0.5571702719 4285037320
-0.3473383784 -0.1118176058 0.5547512174 4284905733
-0.3468693495 -0.1110510826 0.5540021062 4285366284
-0.3463998735 -0.1102860793 0.5532522798 4285497868
-0.3464533389 -0.1096882969 0.5533376336 4285497868
-0.3465065062 -0.1090902388 0.5534225702 4285563915
-0.3465594053 -0.1084919125 0.5535070896 4285498122
-0.3471356034 -0.1080562845 0.5544273853 4285563915
-0.3482353687 -0.1077806577 0.5561838150 4285563915
-0.3493351638 -0.1075011343 0.5579403639 4285563915
-0.3514826298 -0.1075382531 0.5613701940 4285498122
-0.3525826335 -0.1072491333 0.5631271005 4285103110
-0.3542066514 -0.1071145758 0.5657208562 4284774145
-0.3553068042 -0.1068167612 0.5674780011 4284839941
-0.3558828533 -0.1063584089 0.5683979988 4284576769
-0.3569829762 -0.1060537025 0.5701550245 4284313344
-0.3586073816 -0.1058999225 0.5727494955 4284576515
-0.3397068083 -0.1349188238 0.5435266495 4284447550
-0.3366588056 -0.1331097782 0.5386498570 4284710722
-0.3346470296 -0.1317194551 0.5354310274 4284448314
-0.3357477784 -0.1315558553 0.5371922255 4283724591
-0.3358106315 -0.1309835166 0.5372927785 4283593760
-0.3332776129 -0.1294030398 0.5332399607 4283462174
-0.3328202665 -0.1286338121 0.5325082541 4283066903
-0.3308045268 -0.1272666603 0.5292830467 4283001110
-0.3277489543 -0.1255084872 0.5243941545 4282935820
-0.3293675482 -0.1255427897 0.5269839168 4282409476
-0.3294276297 -0.1249800771 0.5270800591 4282147328
-0.3263693154 -0.1232396066 0.5221868157 4281949952
-0.3253887892 -0.1222909093 0.5206179619 4282540032
-0.3244076371 -0.1213454604 0.5190481544 4283658511
-0.3214033246 -0.1190789789 0.5142412782 4285367824
-0.3225007951 -0.1189122722 0.5159971714 4285301518
-0.3220376074 -0.1181690022 0.5152561069 4285235725
-0.3220943511 -0.1176172346 0.5153468847 4284972302
-0.3221508265 -0.1170651764 0.5154373050 4284774923
-0.3227276206 -0.1167010516 0.5163601041 4284840967
-0.3227837086 -0.1161475182 0.5164498687 4284840967
-0.3233602345 -0.1157801449 0.5173723102 4284971784
-0.3270615041 -0.1165239811 0.5232943296 4284905991
-0.3271175623 -0.1159624308 0.5233839750 4284839687
-0.3302992284 -0.1165031567 0.5284746289 4284773894
-0.3340027928 -0.1172157079 0.5344002247 4284839687
-0.3377073109 -0.1179154366 0.5403274298 4284773894
-0.3403702974 -0.1182401925 0.5445882082 4284773894
-0.3435552418 -0.1187358573 0.5496840477 4284708101
-0.3467409909 -0.1192204729 0.5547811985 4284708101
-0.3483629823 -0.1191588789 0.5573763847 4284708101
-0.3499852121 -0.1190916076 0.5599719286 4284773894
-0.3510860205 -0.1188420579 0.5617331862 4284773894
-0.3516651392 -0.1184129342 0.5626597404 4284708355
-0.3522441387 -0.1179817095 0.5635861754 4284642562
-0.3523011208 -0.1173745096 0.5636773705 4284642562
-0.3513137996 -0.1164210364 0.5620976686 4284642562
-0.3503258526 -0.1154708788 0.5605169535 4284971527
-0.3493373096 -0.1145240292 0.5589352846 4284971527
-0.3483481705 -0.1135804951 0.5573526621 4285103113
-0.3473584354 -0.1126402840 0.5557690859 4285103113
-0.3463680744 -0.1117033958 0.5541845560 4284971527
-0.3453771174 -0.1107698381 0.5525990129 4285366285
-0.3454307318 -0.1101729572 0.5526848435 4285497868
-0.3454840779 -0.1095758080 0.5527701974 4285563661
-0.3455371559 -0.1089783832 0.5528551340 4285563915
-0.3455899656 -0.1083806828 0.5529395938 4285498122
-0.3461654186 -0.1079457626 0.5538603067 4285498122
-0.3472637236 -0.1076709256 0.5556175709 4285563915
-0.3483620584 -0.1073921844 0.5573748946 4285432075
-0.3499836028 -0.1072698981 0.5599693060 4285300489
-0.3516052961 -0.1071419045 0.5625640750 4284905731
-0.3527038991 -0.1068496704 0.5643218160 4284642560
-0.3543259203 -0.1067111641 0.5669170022 4284708355
-0.3554246426 -0.1064102277 0.5686749220 4284445184
-0.3565233946 -0.1061053872 0.5704329014 4284247552
-0.3560513258 -0.1053319499 0.5696776509 4284642310
-0.3371933401 -0.1341589689 0.5404655337 4284512829
-0.3388115168 -0.1341994107 0.5430591702 4284052278
-0.3357665837 -0.1323953867 0.5381786823 4284579898
-0.3342749774 -0.1312119514 0.5357878804 4284185140
-0.3343376219 -0.1306411177 0.5358882546 4283527967
-0.3328446448 -0.1294649988 0.5334953070 4283133209
-0.3318694234 -0.1284946501 0.5319321752 4283066901
-0.3314121664 -0.1277274191 0.5311992764 4282672143
-0.3304357529 -0.1267626435 0.5296342373 4282541062
-0.3273833990 -0.1250086576 0.5247417688 4282804234
-0.3274431825 -0.1244483590 0.5248376727 4282673410
-0.3259456754 -0.1232987493 0.5224373937 4282476032
-0.3249664903 -0.1223496124 0.5208678842 4283131651
-0.3250250816 -0.1217928529 0.5209618211 4283986960
-0.3230062127 -0.1204611138 0.5177258849 4284907273
-0.3220251501 -0.1195217595 0.5161533952 4285367824
-0.3210434616 -0.1185856685 0.5145799518 4285367565
-0.3216199279 -0.1182258278 0.5155038834 4285499151
-0.3216766417 -0.1176738143 0.5155948400 4284972813
-0.3217331171 -0.1171215102 0.5156853199 4284841227
-0.3223091960 -0.1167572364 0.5166087151 4284906760
-0.3234051466 -0.1165783033 0.5183653235 4284906760
-0.3234611452 -0.1160224527 0.5184550881 4284971784
-0.3245571554 -0.1158375815 0.5202118158 4284905991
-0.3266936839 -0.1160183325 0.5236362815 4284774407
-0.3298712969 -0.1165593341 0.5287294984 4284642821
-0.3335700929 -0.1172722578 0.5346580148 4284839687
-0.3372698426 -0.1179723442 0.5405882001 4284773894
-0.3399294615 -0.1182972714 0.5448510647 4284773894
-0.3425896764 -0.1186129376 0.5491150022 4284773894
-0.3457712531 -0.1190987006 0.5542145371 4284773894
-0.3473911285 -0.1190379933 0.5568109155 4284773894
-0.3490112126 -0.1189716011 0.5594076514 4284773894
-0.3495895863 -0.1185461804 0.5603346825 4284773894
-0.3501678407 -0.1181186661 0.5612614751 4284708101
-0.3507459760 -0.1176890507 0.5621882081 4284576515
-0.3508027792 -0.1170833781 0.5622792244 4284576769
-0.3498166203 -0.1161312610 0.5606985688 4284576769
-0.3488298357 -0.1151824594 0.5591169596 4285103113
-0.3483639657 -0.1144082397 0.5583702326 4285103113
-0.3478976488 -0.1136355400 0.5576227903 4285103113
-0.3469092548 -0.1126948893 0.5560384989 4285037320
-0.3459202349 -0.1117575616 0.5544533134 4285103113
-0.3449305892 -0.1108235642 0.5528671145 4285432078
-0.3449842036 -0.1102264225 0.5529530048 4285563663
-0.3445155621 -0.1094631404 0.5522018075 4285629456
-0.3445685208 -0.1088663489 0.5522867441 4285563661
-0.3451433778 -0.1084333211 0.5532081723 4285432075
-0.3451958895 -0.1078350693 0.5532923341 4285432075
-0.3457704484 -0.1073987782 0.5542132258 4285497868
-0.3468672633 -0.1071217358 0.5559712648 4285300489
-0.3484866023 -0.1070012227 0.5585667491 4285168903
-0.3501061201 -0.1068749949 0.5611625910 4284839940
-0.3512032032 -0.1065844446 0.5629210472 4284576768
-0.3528229892 -0.1064477041 0.5655173063 4284708355
-0.3544429839 -0.1063052416 0.5681138635 4284445184
-0.3576316833 -0.1066247150 0.5732248425 4284247552
-0.3576834500 -0.1060031578 0.5733078122 4284839689
-0.3367538154 -0.1342230290 0.5407236218 4284448055
-0.3378525376 -0.1340582222 0.5424878597 4284316469
-0.3353289962 -0.1324586570 0.5384358168 4283987761
-0.3343569934 -0.1314782053 0.5368751287 4284119347
-0.3323490024 -0.1300956756 0.5336508751 4283988003
-0.3303399682 -0.1287199259 0.5304250121 4283856417
-0.3314371705 -0.1285561472 0.5321867466 4283264535
-0.3320165277 -0.1281885356 0.5331169963 4282672398
-0.3294874430 -0.1266242564 0.5290560722 4282211075
-0.3285116255 -0.1256631762 0.5274892449 4282211075
-0.3259804249 -0.1241133735 0.5234249234 4282277888
-0.3239664137 -0.1227685809 0.5201909542 4282014720
-0.3235066831 -0.1220172197 0.5194528103 4282475008
-0.3230465353 -0.1212673336 0.5187139511 4283725066
-0.3231045902 -0.1207126975 0.5188071728 4285170192
-0.3221249580 -0.1197720170 0.5172341466 4285301778
-0.3211447001 -0.1188346073 0.5156601667 4285368851
-0.3212016523 -0.1182826385 0.5157516003 4285171472
-0.3212583363 -0.1177303791 0.5158426762 4285103112
-0.3213147819 -0.1171778291 0.5159332752 4284971526
-0.3218901753 -0.1168133914 0.5168572068 4284906761
-0.3224654794 -0.1164468825 0.5177809596 4285038347
-0.3230407536 -0.1160783023 0.5187046528 4285102600
-0.3241353631 -0.1158933640 0.5204622746 4284971014
-0.3241910338 -0.1153348908 0.5205516815 4284577796
-0.3294427097 -0.1166154966 0.5289842486 4284512003
-0.3331367373 -0.1173287854 0.5349157453 4284708103
-0.3363119662 -0.1178470850 0.5400142074 4284773896
-0.3394879997 -0.1183543280 0.5451139212 4284773894
-0.3421448171 -0.1186701655 0.5493799448 4284773894
-0.3448022306 -0.1189767346 0.5536469817 4284839687
-0.3469401002 -0.1190954670 0.5570797324 4284773894
-0.3485581577 -0.1190290600 0.5596778393 4284708101
-0.3491358161 -0.1186034530 0.5606054068 4284708101
-0.3491929770 -0.1179998964 0.5606971383 4284510722
-0.3497703373 -0.1175709963 0.5616242290 4284576515
-0.3498270214 -0.1169659421 0.5617152452 4284576769
-0.3488421142 -0.1160142869 0.5601337552 4284774148
-0.3483773470 -0.1152381971 0.5593875051 4285037320
-0.3484329581 -0.1146349758 0.5594767928 4285103113
-0.3474465013 -0.1136905625 0.5578927994 4285103113
-0.3464594185 -0.1127494723 0.5563078523 4285168906
-0.3454717100 -0.1118117124 0.5547219515 4285168903
-0.3444834352 -0.1108772829 0.5531350374 4285432075
-0.3445370197 -0.1102798656 0.5532211065 4285497617
-0.3445903361 -0.1096821651 0.5533066988 4285497617
-0.3441219926 -0.1089191586 0.5525546670 4285498128
-0.3441746831 -0.1083218157 0.5526393056 4285432335
-0.3452702165 -0.1080506369 0.5543983579 4285432075
-0.3458441496 -0.1076132432 0.5553199053 4285432075
-0.3469396532 -0.1073351726 0.5570790172 4285234698
-0.3480352461 -0.1070532054 0.5588381290 4285103112
-0.3496527076 -0.1069269329 0.5614353418 4284511488
-0.3512703478 -0.1067949459 0.5640327930 4284708865
-0.3523661792 -0.1064994708 0.5657923222 4284511488
-0.3539841175 -0.1063569486 0.5683902502 4284314112
-0.3550800383 -0.1060527563 0.5701499581 4284247301
-0.3572205007 -0.1060547531 0.5735868812 4285102610
-0.3373468518 -0.1346996278 0.5426436067 4284448055
-0.3363775611 -0.1337114125 0.5410844684 4284382262
-0.3354076147 -0.1327264160 0.5395242572 4284119601
-0.3344370425 -0.1317446232 0.5379630327 4284185394
-0.3334658146 -0.1307660639 0.5364007354 4283988003
-0.3324939609 -0.1297907084 0.5348374844 4283593245
-0.3304871023 -0.1284166574 0.5316092968 4283132947
-0.3295137882 -0.1274495423 0.5300436616 4283132947
-0.3269876838 -0.1258880943 0.5259802938 4282934796
-0.3286002278 -0.1259216368 0.5285741687 4282869003
-0.3286603689 -0.1253572851 0.5286709070 4282409473
-0.3256142437 -0.1236134917 0.5237709880 4282343680
-0.3246378005 -0.1226625964 0.5222003460 4282606592
-0.3236607313 -0.1217149645 0.5206286311 4283659273
-0.3216471374 -0.1203828827 0.5173896551 4284972813
-0.3217047453 -0.1198294833 0.5174823403 4285104399
-0.3207258284 -0.1188916415 0.5159076452 4285237008
-0.3207827508 -0.1183394268 0.5159992576 4285171215
-0.3208394349 -0.1177869216 0.5160903931 4285037319
-0.3208958507 -0.1172341257 0.5161811709 4285037319
-0.3214705586 -0.1168695390 0.5171055794 4284972554
-0.3220451772 -0.1165028736 0.5180299282 4285038347
-0.3221010268 -0.1159474179 0.5181198120 4285234186
-0.3253251910 -0.1159451678 0.5233060718 4284643591
-0.3290134966 -0.1166716442 0.5292389393 4284512005
-0.3327027857 -0.1173852906 0.5351733565 4284708101
-0.3358739316 -0.1179038584 0.5402743816 4284773894
-0.3390458822 -0.1184113696 0.5453765988 4284839687
-0.3416993022 -0.1187273785 0.5496448278 4284839687
-0.3443533182 -0.1190341115 0.5539139509 4284839941
-0.3464884460 -0.1191529185 0.5573484898 4284839941
-0.3481044769 -0.1190865040 0.5599479079 4284773894
-0.3486814201 -0.1186607108 0.5608760118 4284773894
-0.3492582738 -0.1182328165 0.5618039370 4284576515
-0.3498350382 -0.1178028286 0.5627316833 4284576515
-0.3498917818 -0.1171966046 0.5628229380 4284708355
-0.3489083052 -0.1162436008 0.5612409711 4284905734
-0.3484442830 -0.1154662594 0.5604945421 4285037320
-0.3484999537 -0.1148618609 0.5605841279 4285037320
-0.3469946682 -0.1137455702 0.5581627488 4285103113
-0.3460089266 -0.1128040403 0.5565770864 4285103113
-0.3445021808 -0.1116971150 0.5541534424 4285234696
-0.3440356255 -0.1109309793 0.5534029603 4285432075
-0.3440891802 -0.1103332862 0.5534890890 4285497617
-0.3441424966 -0.1097353175 0.5535748601 4285497617
-0.3441955149 -0.1091370657 0.5536601543 4285498383
-0.3442482650 -0.1085385457 0.5537449718 4285498383
-0.3443007469 -0.1079397425 0.5538294315 4285432075
-0.3453948498 -0.1076654568 0.5555893779 4285366282
-0.3470100462 -0.1075487509 0.5581874847 4285103112
-0.3481043279 -0.1072657555 0.5599477291 4284971526
-0.3497198224 -0.1071385294 0.5625463128 4284511488
-0.3513354957 -0.1070055887 0.5651452541 4284643072
-0.3529513776 -0.1068669260 0.5677444935 4284511488
-0.3540459871 -0.1065655947 0.5695052147 4284445696
-0.3551406264 -0.1062603518 0.5712660551 4284182021
-0.3588431478 -0.1067268401 0.5772217512 4285168916
-0.3358728290 -0.1343510896 0.5412395597 4284119088
-0.3369687796 -0.1341861784 0.5430056453 4284184881
-0.3349681199 -0.1327897459 0.5397816896 4284185394
-0.3339988887 -0.1318075061 0.5382198095 4284119601
-0.3330290020 -0.1308284849 0.5366568565 4283988258
-0.3320584595 -0.1298526973 0.5350929499 4283527707
-0.3310873210 -0.1288801432 0.5335279703 4283001361
-0.3301155269 -0.1279108077 0.5319619775 4283198740
-0.3291431069 -0.1269447207 0.5303949714 4283000843
-0.3266196549 -0.1253866702 0.5263285637 4283066636
-0.3266794980 -0.1248247474 0.5264250040 4283001094
-0.3251881003 -0.1236726642 0.5240217447 4283001094
-0.3242129982 -0.1227213368 0.5224503875 4283001344
-0.3242716193 -0.1221629456 0.5225448608 4283856652
-0.3222609162 -0.1208284646 0.5193046927 4285104399
-0.3202491999 -0.1195008159 0.5160629749 4285301778
-0.3208238184 -0.1191408187 0.5169889331 4285302801
-0.3208808005 -0.1185874715 0.5170807838 4285302801
-0.3209375441 -0.1180338264 0.5171722174 4285234185
-0.3209940493 -0.1174798906 0.5172632933 4285234185
-0.3220859766 -0.1173028424 0.5190228224 4284972554
-0.3226600587 -0.1169342324 0.5199479461 4285038347
-0.3227160871 -0.1163767353 0.5200382471 4285234188
-0.3232899904 -0.1160048619 0.5209630132 4285036809
-0.3249001503 -0.1160009205 0.5235577226 4284643591
-0.3285836875 -0.1167277694 0.5294935107 4284643591
-0.3317498565 -0.1172585636 0.5345956087 4284773894
-0.3354352713 -0.1179606169 0.5405344367 4284839687
-0.3380845785 -0.1182869673 0.5448036194 4284839941
-0.3407345116 -0.1186040491 0.5490738153 4284905734
-0.3428663015 -0.1187322214 0.5525091290 4284905734
-0.3455173671 -0.1190316305 0.5567811131 4284839941
-0.3471312225 -0.1189661026 0.5593817830 4284839941
-0.3482263684 -0.1187179461 0.5611465573 4284839941
-0.3482834697 -0.1181138381 0.5612385869 4284708355
-0.3488594592 -0.1176845655 0.5621667504 4284576769
-0.3494353294 -0.1172531843 0.5630947351 4284708355
-0.3489724696 -0.1164730713 0.5623488426 4284971527
-0.3485091925 -0.1156944633 0.5616022944 4285037320
-0.3480454683 -0.1149173677 0.5608550310 4285037320
-0.3470617235 -0.1139711738 0.5592697859 4285103113
-0.3460774124 -0.1130283102 0.5576836467 4285103113
-0.3445727527 -0.1119199619 0.5552589893 4285234950
-0.3441069424 -0.1111525595 0.5545083284 4285498122
-0.3441605866 -0.1105536893 0.5545947552 4285497871
-0.3442139328 -0.1099545434 0.5546807647 4285432078
-0.3442670405 -0.1093551144 0.5547662973 4285498383
-0.3443198502 -0.1087554097 0.5548514128 4285498383
-0.3443723917 -0.1081554368 0.5549361110 4285432075
-0.3454652131 -0.1078801230 0.5566971302 4285300489
-0.3465580642 -0.1076009050 0.5584582090 4284971527
-0.3481714129 -0.1074784473 0.5610579848 4284839941
-0.3492644131 -0.1071905196 0.5628193021 4284577280
-0.3503574431 -0.1068986878 0.5645806789 4284643072
-0.3519711792 -0.1067608818 0.5671811104 4284511488
-0.3535850942 -0.1066173464 0.5697818398 4284511488
-0.3546783626 -0.1063119769 0.5715435743 4284115974
-0.3573343158 -0.1064682975 0.5758234859 4285431834
-0.3369127214 -0.1356129944 0.5438886881 4284577858
-0.3354313970 -0.1344150901 0.5414973497 4284119088
-0.3365259767 -0.1342501193 0.5432643890 4284250674
-0.3345279992 -0.1328530461 0.5400389433 4284251185
-0.3335600793 -0.1318703592 0.5384764671 4284119599
-0.3331071734 -0.1310938299 0.5377452970 4284119589
-0.3316223621 -0.1299146712 0.5353482962 4283659038
-0.3306525350 -0.1289416701 0.5337826610 4283067154
-0.3296820819 -0.1279719025 0.5322160721 4282935568
-0.3287110031 -0.1270053685 0.5306484103 4282540292
-0.3277392685 -0.1260420829 0.5290797353 4282606085
-0.3247020543 -0.1242916286 0.5241766572 4282606336
-0.3237287104 -0.1233383939 0.5226053596 4282606336
-0.3227547407 -0.1223884150 0.5210330486 4282738432
-0.3228131831 -0.1218315512 0.5211273432 4283791113
-0.3218381405 -0.1208863184 0.5195533633 4285038860
-0.3208625317 -0.1199443489 0.5179783702 4285433618
-0.3198862672 -0.1190056503 0.5164023638 4285434385
-0.3204600215 -0.1186443120 0.5173286200 4285171213
-0.3205167651 -0.1180904210 0.5174201727 4285365771
-0.3205732405 -0.1175362393 0.5175113678 4285365771
-0.3206294775 -0.1169817671 0.5176021457 4285038347
-0.3212026954 -0.1166147888 0.5185275674 4284972554
-0.3233278394 -0.1168063954 0.5219582319 4285234188
-0.3228663802 -0.1160605773 0.5212132335 4285102602
-0.3244744837 -0.1160566583 0.5238092542 4284840200
-0.3281532526 -0.1167838797 0.5297480226 4284840200
-0.3313153088 -0.1173149422 0.5348526835 4284839941
-0.3349959552 -0.1180173531 0.5407944322 4284905734
-0.3371239901 -0.1181623712 0.5442298055 4284905734
-0.3397704363 -0.1184805185 0.5485019684 4284905734
-0.3424174488 -0.1187893823 0.5527751446 4284905734
-0.3440288305 -0.1187313348 0.5553764701 4284905734
-0.3461586833 -0.1188455001 0.5588147640 4284839941
-0.3467340767 -0.1184211373 0.5597436428 4284839941
-0.3478277326 -0.1181707829 0.5615091324 4284774148
-0.3484030068 -0.1177413166 0.5624378324 4284576769
-0.3489781916 -0.1173097566 0.5633663535 4284642562
-0.3485159874 -0.1165292785 0.5626202226 4284905734
-0.3480533659 -0.1157503128 0.5618733764 4285103113
-0.3475902975 -0.1149728596 0.5611258745 4285103113
-0.3466079235 -0.1140262261 0.5595399737 4285037320
-0.3456249237 -0.1130829230 0.5579531193 4285103113
-0.3446413279 -0.1121429428 0.5563652515 4285169157
-0.3441762626 -0.1113742888 0.5556144714 4285498122
-0.3442299664 -0.1107742414 0.5557011962 4285563663
-0.3442834020 -0.1101739183 0.5557874441 4285432077
-0.3443365395 -0.1095733047 0.5558732152 4285498381
-0.3443894088 -0.1089724228 0.5559585690 4285498381
-0.3444420099 -0.1083712652 0.5560435057 4285300489
-0.3455335498 -0.1080949232 0.5578055978 4285168903
-0.3466251194 -0.1078146845 0.5595676899 4284708614
-0.3482364714 -0.1076912731 0.5621689558 4284642821
-0.3493281603 -0.1074023098 0.5639313459 4284708867
-0.3504199088 -0.1071094498 0.5656937957 4284643074
-0.3515116870 -0.1068126708 0.5674562454 4284511233
-0.3531235158 -0.1066690832 0.5700582862 4284511233
-0.3547355533 -0.1065197662 0.5726606846 4284050184
-0.3568679690 -0.1065199897 0.5761030912 4285760802
-0.3348608613 -0.1356308907 0.5415472984 4284709446
-0.3359541595 -0.1354700625 0.5433154106 4284643653
-0.3344747424 -0.1342724860 0.5409228802 4284316467
-0.3350531757 -0.1339026541 0.5418583155 4284250674
-0.3335724771 -0.1327115148 0.5394636989 4284185392
-0.3331206739 -0.1319331974 0.5387330055 4284185392
-0.3321534395 -0.1309532970 0.5371688008 4284119589
-0.3311856091 -0.1299766153 0.5356035829 4283461659
-0.3297019601 -0.1288019270 0.5332041979 4283001361
-0.3292479813 -0.1280329674 0.5324699879 4283264533
-0.3282782435 -0.1270660013 0.5309017301 4282869257
-0.3267924190 -0.1259036809 0.5284987688 4282737671
-0.3253057897 -0.1247463971 0.5260945559 4282606336
-0.3243339658 -0.1237909421 0.5245229006 4282408960
-0.3223300874 -0.1224469244 0.5212821364 4282541056
-0.3213568330 -0.1214997694 0.5197081566 4283791113
-0.3214147985 -0.1209441498 0.5198019147 4284841481
-0.3204405010 -0.1200017482 0.5182262659 4285367825
-0.3194656074 -0.1190626249 0.5166496038 4285434385
-0.3200386465 -0.1187011302 0.5175763965 4284973834
-0.3200953603 -0.1181470007 0.5176680684 4285299978
-0.3201518357 -0.1175925732 0.5177593827 4285299978
-0.3202080429 -0.1170378476 0.5178503394 4285104140
-0.3207805753 -0.1166707128 0.5187762380 4285038347
-0.3208363950 -0.1161145195 0.5188664794 4285234188
-0.3245090842 -0.1168606132 0.5248060822 4285168395
-0.3276659548 -0.1174086854 0.5299115181 4284971784
-0.3277221918 -0.1168399602 0.5300024152 4284905991
-0.3308801651 -0.1173713058 0.5351095796 4284971527
-0.3345560133 -0.1180740669 0.5410543084 4284971527
-0.3366813362 -0.1182191819 0.5444914103 4284971527
-0.3388070762 -0.1183568016 0.5479292274 4284971527
-0.3414505720 -0.1186667308 0.5522044301 4284971527
-0.3430598080 -0.1186095774 0.5548069477 4284905734
-0.3446693122 -0.1185467169 0.5574098229 4284839941
-0.3462790549 -0.1184781641 0.5600131750 4284839941
-0.3473713398 -0.1182277054 0.5617796183 4284774148
-0.3479458988 -0.1177980527 0.5627088547 4284642562
-0.3485203683 -0.1173662990 0.5636379123 4284642308
-0.3480588496 -0.1165854633 0.5628915429 4284905480
-0.3481149077 -0.1159787327 0.5629822016 4285102859
-0.3476525843 -0.1152000204 0.5622345209 4285037066
-0.3466716409 -0.1142520458 0.5606480837 4284971527
-0.3456900716 -0.1133073941 0.5590606332 4285037320
-0.3452262580 -0.1125350446 0.5583105683 4285169416
-0.3447620273 -0.1117642298 0.5575597882 4285432588
-0.3442973495 -0.1109949350 0.5568082929 4285497870
-0.3443508148 -0.1103934273 0.5568947792 4285432077
-0.3444040418 -0.1097916439 0.5569808483 4285498381
-0.3444569707 -0.1091895774 0.5570664406 4285432588
-0.3450284898 -0.1087507680 0.5579906702 4285103625
-0.3461187780 -0.1084724963 0.5597539544 4284972039
-0.3472091258 -0.1081903204 0.5615172982 4284642823
-0.3482995033 -0.1079042405 0.5632807016 4284577030
-0.3493899107 -0.1076142415 0.5650441051 4284708612
-0.3504803479 -0.1073203385 0.5668076277 4284577026
-0.3515708148 -0.1070225313 0.5685711503 4284511235
-0.3531806767 -0.1068779752 0.5711746812 4284511235
-0.3547907174 -0.1067276895 0.5737785101 4283984139
-0.3569204509 -0.1067270190 0.5772227645 4286023722
-0.3340327144 -0.1343363374 0.5411800742 4284250674
-0.3335824609 -0.1335547864 0.5404506326 4284053295
-0.3331317604 -0.1327746660 0.5397204161 4284185392
-0.3321664333 -0.1317919940 0.5381564498 4284382771
-0.3317147493 -0.1310156584 0.5374246240 4283988003
-0.3302338421 -0.1298363060 0.5350253582 4283001108
-0.3292666078 -0.1288633049 0.5334582925 4282738191
-0.3282987177 -0.1278935522 0.5318902135 4283527707
-0.3273302019 -0.1269270331 0.5303210616 4283329808
-0.3258463144 -0.1257650703 0.5279169679 4282935050
-0.3248764575 -0.1248059347 0.5263456702 4283132678
-0.3239059746 -0.1238500550 0.5247733593 4282869506
-0.3229348958 -0.1228974238 0.5232000351 4282869760
-0.3219631612 -0.1219480634 0.5216256976 4284054031
-0.3199603558 -0.1206135154 0.5183808804 4284775434
-0.3189872205 -0.1196724698 0.5168042779 4285367571
-0.3195597231 -0.1193120107 0.5177317858 4285565201
-0.3196166754 -0.1187579334 0.5178240538 4285302029
-0.3196733594 -0.1182035506 0.5179159045 4285300232
-0.3197298050 -0.1176488772 0.5180073380 4285300232
-0.3213333488 -0.1176605001 0.5206053257 4285038347
-0.3213895559 -0.1171025559 0.5206964016 4284972554
-0.3224774599 -0.1169184595 0.5224589705 4285234188
-0.3225333691 -0.1163581386 0.5225495100 4285234188
-0.3241374493 -0.1163533553 0.5251483917 4285103370
-0.3272905052 -0.1168960333 0.5302567482 4285037577
-0.3309606910 -0.1176111251 0.5362029672 4285037320
-0.3341154456 -0.1181307659 0.5413141251 4284971527
-0.3362379968 -0.1182759628 0.5447529554 4285037066
-0.3383609951 -0.1184136719 0.5481925011 4285037066
-0.3404844105 -0.1185438856 0.5516327620 4284971273
-0.3426082730 -0.1186666042 0.5550736785 4284905480
-0.3442156911 -0.1186037362 0.5576779842 4284905734
-0.3453064561 -0.1183579862 0.5594451427 4284839941
-0.3474313021 -0.1184608936 0.5628876686 4284839941
-0.3474881649 -0.1178547665 0.5629797578 4284708355
-0.3480619192 -0.1174228266 0.5639093518 4284708355
-0.3481183052 -0.1168152094 0.5640007257 4284905734
-0.3481744528 -0.1162072942 0.5640916824 4285037320
-0.3477128744 -0.1154273227 0.5633438826 4284971527
-0.3467333317 -0.1144779995 0.5617568493 4284839941
-0.3457531929 -0.1135320142 0.5601689219 4284971527
-0.3452901244 -0.1127584055 0.5594186783 4285235209
-0.3448266387 -0.1119863242 0.5586677790 4285498381
-0.3448805213 -0.1113830134 0.5587550998 4285497868
-0.3449341655 -0.1107794195 0.5588419437 4285366282
-0.3444695175 -0.1100101173 0.5580891967 4285432588
-0.3450405896 -0.1095713899 0.5590143800 4285366795
-0.3450933993 -0.1089669615 0.5590999722 4284971784
-0.3461824059 -0.1086876616 0.5608642697 4284840198
-0.3472714424 -0.1084044576 0.5626286864 4284642569
-0.3483605087 -0.1081173420 0.5643931031 4284510983
-0.3494496047 -0.1078263149 0.5661576390 4284642819
-0.3505387306 -0.1075313762 0.5679221749 4284511233
-0.3516278863 -0.1072325185 0.5696867704 4284511237
-0.3527170718 -0.1069297567 0.5714513659 4284511237
-0.3548438251 -0.1069357470 0.5748970509 4283918094
-0.3543766439 -0.1061570495 0.5741401315 4286286642
-0.3340392113 -0.1351835132 0.5421662331 4284709446
-0.3335900605 -0.1344001740 0.5414372087 4284250672
-0.3331404626 -0.1336182654 0.5407074690 4284119086
-0.3326904178 -0.1328378022 0.5399770141 4284316978
-0.3317264318 -0.1318546832 0.5384123921 4284382771
-0.3307617903 -0.1308747828 0.5368467569 4283922212
-0.3297965229 -0.1298981160 0.5352800488 4283198489
-0.3288306296 -0.1289246678 0.5337123275 4282803984
-0.3278640807 -0.1279544681 0.5321435928 4283330328
-0.3263829350 -0.1267878562 0.5297395587 4283198222
-0.3254150450 -0.1258250326 0.5281686187 4282671878
-0.3244465292 -0.1248654574 0.5265966654 4283000581
-0.3234773874 -0.1239091381 0.5250236988 4282737409
-0.3225076199 -0.1229560822 0.5234497190 4282672384
-0.3225661814 -0.1223967001 0.5235447288 4283988238
-0.3205662668 -0.1210597530 0.5202987790 4284775434
-0.3195946515 -0.1201164946 0.5187217593 4285301778
-0.3191371560 -0.1193690374 0.5179792643 4285565201
-0.3191940784 -0.1188147143 0.5180716515 4285367822
-0.3192507327 -0.1182600856 0.5181636214 4285496841
-0.3193071485 -0.1177051738 0.5182551742 4285562634
-0.3193633258 -0.1171499565 0.5183463693 4285038347
-0.3199344575 -0.1167825088 0.5192733407 4284906761
-0.3210208118 -0.1166001335 0.5210365057 4285168393
-0.3221072555 -0.1164138839 0.5227999091 4285234186
-0.3237092793 -0.1164091155 0.5254000425 4285103625
-0.3237649202 -0.1158452705 0.5254904032 4285103625
-0.3305236101 -0.1176675335 0.5364601612 4284971527
-0.3336742520 -0.1181874424 0.5415738225 4284971527
-0.3357940614 -0.1183327287 0.5450144410 4285037066
-0.3384301960 -0.1186513975 0.5492930412 4285037066
-0.3405509591 -0.1187807918 0.5527351499 4284971273
-0.3421560824 -0.1187236160 0.5553403497 4284971273
-0.3442775905 -0.1188389063 0.5587837100 4284905734
-0.3453670442 -0.1185921505 0.5605519414 4284839941
-0.3469728827 -0.1185178608 0.5631583333 4284839941
-0.3475461304 -0.1180869266 0.5640887618 4284774148
-0.3481192887 -0.1176538914 0.5650190711 4284774148
-0.3481757641 -0.1170450971 0.5651106834 4284971527
-0.3482319415 -0.1164360046 0.5652018785 4285037320
-0.3482878506 -0.1158266217 0.5652926564 4284905734
-0.3478266597 -0.1150459945 0.5645440817 4284905733
-0.3468481302 -0.1140968502 0.5629558563 4284971526
-0.3458689749 -0.1131510362 0.5613666177 4285235207
-0.3454062939 -0.1123767942 0.5606156588 4285498379
-0.3454603553 -0.1117713973 0.5607033968 4285432329
-0.3455141187 -0.1111657098 0.5607906580 4285300743
-0.3450503051 -0.1103942394 0.5600378513 4285301000
-0.3451034427 -0.1097889021 0.5601240993 4285169414
-0.3456737697 -0.1093469784 0.5610498190 4284840198
-0.3462439775 -0.1089029610 0.5619753003 4284774405
-0.3473317325 -0.1086187288 0.5637407899 4284708363
-0.3489371836 -0.1084915474 0.5663465261 4284576777
-0.3500250876 -0.1081985757 0.5681122541 4284642819
-0.3505951166 -0.1077425405 0.5690374374 4284511233
-0.3516829610 -0.1074426472 0.5708031058 4284576776
-0.3527708352 -0.1071388423 0.5725687742 4284510983
-0.3559829891 -0.1068304777 0.5777822733 4286353206
-0.3325063288 -0.1354068816 0.5406528711 4284512065
-0.3335952759 -0.1352476627 0.5424234867 4284512065
-0.3331467807 -0.1344639659 0.5416942239 4284119086
-0.3332104683 -0.1338876933 0.5417978168 4284382258
-0.3322484493 -0.1329009086 0.5402335525 4284053805
-0.3317986131 -0.1321215481 0.5395021439 4283922219
-0.3303225040 -0.1309370100 0.5371019840 4283790624
-0.3293585777 -0.1299598962 0.5355346203 4283790624
-0.3283940256 -0.1289860159 0.5339662433 4283396121
-0.3274288177 -0.1280153841 0.5323968530 4283330328
-0.3259496987 -0.1268482208 0.5299918056 4283132428
-0.3249831498 -0.1258849651 0.5284202099 4282803463
-0.3240159750 -0.1249249578 0.5268476009 4282540032
-0.3230481744 -0.1239682063 0.5252739787 4282474240
-0.3210524023 -0.1226223186 0.5220288634 4282606592
-0.3216245174 -0.1222597882 0.5229591131 4284119824
-0.3201410770 -0.1211175248 0.5205470324 4285038606
-0.3191708028 -0.1201738343 0.5189694166 4285367571
-0.3187139928 -0.1194260418 0.5182266235 4285367822
-0.3187708855 -0.1188714728 0.5183191299 4285236236
-0.3188275099 -0.1183166057 0.5184112191 4285562634
-0.3188839257 -0.1177614406 0.5185029507 4285694220
-0.3189400733 -0.1172059849 0.5185942650 4285104140
-0.3195104897 -0.1168383807 0.5195217133 4284972554
-0.3195662498 -0.1162814423 0.5196123719 4285234186
-0.3273986876 -0.1179484949 0.5323478580 4285103112
-0.3264252841 -0.1170081049 0.5307651162 4285103112
-0.3300858736 -0.1177239195 0.5367172360 4284971527
-0.3332324028 -0.1182441041 0.5418334603 4284905734
-0.3358646035 -0.1185713336 0.5461133718 4285037066
-0.3379821777 -0.1187083125 0.5495565534 4285037066
-0.3401001692 -0.1188377887 0.5530003905 4284971527
-0.3422186077 -0.1189597622 0.5564449430 4284971527
-0.3443374634 -0.1190742254 0.5598902106 4284971526
-0.3454256058 -0.1188264713 0.5616595149 4284905733
-0.3465138376 -0.1185748056 0.5634289384 4284905733
-0.3470863700 -0.1181436852 0.5643599033 4284708354
-0.3481746316 -0.1178851053 0.5661294460 4284774148
-0.3482311666 -0.1172751337 0.5662213564 4284971527
-0.3488034010 -0.1168377027 0.5671517849 4285037319
-0.3483434021 -0.1160542965 0.5664038062 4285037319
-0.3483991027 -0.1154434383 0.5664944053 4284971526
-0.3474220634 -0.1144920439 0.5649057031 4284905733
-0.3469607234 -0.1137131974 0.5641556382 4285169414
-0.3464989662 -0.1129358783 0.5634047985 4285498379
-0.3465532362 -0.1123274788 0.5634930134 4285432329
-0.3466072381 -0.1117188036 0.5635808110 4285234950
-0.3461443186 -0.1109442562 0.5628281236 4285103875
-0.3461976647 -0.1103359163 0.5629149079 4284906496
-0.3462507427 -0.1097273007 0.5630012155 4284708612
-0.3468204141 -0.1092812642 0.5639274716 4284840198
-0.3473899662 -0.1088331342 0.5648535490 4284577547
-0.3489934504 -0.1087049991 0.5674608350 4284445961
-0.3500800431 -0.1084109917 0.5692275763 4284577026
-0.3511666358 -0.1081130654 0.5709943771 4284577026
-0.3517359793 -0.1076529101 0.5719201565 4284642569
-0.3523052037 -0.1071906611 0.5728456974 4284445190
-0.3539091349 -0.1070392877 0.5754536390 4283918865
-0.3549957275 -0.1067265943 0.5772204399 4286550585
-0.3320631385 -0.1354710460 0.5409091115 4284446783
-0.3326389492 -0.1351039410 0.5418470502 4284446783
-0.3321910203 -0.1343207806 0.5411174297 4284053557
-0.3327665329 -0.1339512318 0.5420548916 4284250936
-0.3318058550 -0.1329640001 0.5404900312 4284579639
-0.3308445513 -0.1319799870 0.5389240980 4284382260
-0.3298825920 -0.1309992075 0.5373571515 4283921182
-0.3289200068 -0.1300216466 0.5357891321 4282934287
-0.3274443448 -0.1288456917 0.5333853960 4283526682
-0.3269929290 -0.1280762553 0.5326500535 4283131924
-0.3255158365 -0.1269085705 0.5302439332 4282936081
-0.3245506287 -0.1259448677 0.5286716819 4283265046
-0.3235847950 -0.1249844357 0.5270984173 4282672899
-0.3226183653 -0.1240272447 0.5255241394 4282475520
-0.3216512799 -0.1230733246 0.5239488482 4283066112
-0.3201704919 -0.1219272688 0.5215367675 4284250383
-0.3192020953 -0.1209807694 0.5199592710 4285235728
-0.3182330728 -0.1200375408 0.5183808208 4285564693
-0.3182902038 -0.1194830239 0.5184738636 4285695247
-0.3183470666 -0.1189282089 0.5185664892 4285563661
-0.3184036911 -0.1183730960 0.5186587572 4285432588
-0.3184600770 -0.1178176850 0.5187506080 4285366795
-0.3200574219 -0.1178293824 0.5213525295 4285104140
-0.3201135695 -0.1172706932 0.5214440227 4284972554
-0.3217112422 -0.1172737330 0.5240465403 4284971784
-0.3212531507 -0.1165253222 0.5233003497 4285103370
-0.3228510320 -0.1165205911 0.5259031653 4285299978
-0.3265059292 -0.1172487512 0.5318567753 4285036806
-0.3296475410 -0.1177802905 0.5369741917 4284840453
-0.3327899277 -0.1183007360 0.5420929790 4284906246
-0.3354186714 -0.1186281443 0.5463750362 4284971527
-0.3380480409 -0.1189462543 0.5506581068 4285037320
-0.3401633501 -0.1190749109 0.5541038513 4285037320
-0.3422791362 -0.1191960573 0.5575502515 4284971527
-0.3443953097 -0.1193096936 0.5609973669 4284972039
-0.3454821408 -0.1190609410 0.5627678037 4284906246
-0.3465690613 -0.1188082695 0.5645383000 4284840453
-0.3471409976 -0.1183760539 0.5654699206 4284708867
-0.3477128148 -0.1179417372 0.5664014220 4284774660
-0.3477693200 -0.1173314899 0.5664934516 4284906246
-0.3488561511 -0.1170667857 0.5682638288 4284906246
-0.3489122689 -0.1164541319 0.5683552027 4284906246
-0.3484526575 -0.1156700775 0.5676065087 4284906244
-0.3479925990 -0.1148875430 0.5668571591 4284906244
-0.3475320935 -0.1141065285 0.5661070347 4285366282
-0.3470711708 -0.1133270338 0.5653561950 4285563661
-0.3471255600 -0.1127165481 0.5654448271 4285431824
-0.3471797109 -0.1121057793 0.5655329823 4285234445
-0.3472335637 -0.1114947274 0.5656207204 4285103112
-0.3472871482 -0.1108833849 0.5657079816 4284839940
-0.3473404348 -0.1102717668 0.5657948256 4284708867
-0.3479096293 -0.1098228097 0.5667220354 4284708867
-0.3479624689 -0.1092097163 0.5668080449 4284577280
-0.3490476906 -0.1089185923 0.5685757995 4284643072
-0.3506493568 -0.1087837592 0.5711848140 4284577028
-0.3512182236 -0.1083245873 0.5721114874 4284511235
-0.3517869711 -0.1078633070 0.5730379224 4284840198
-0.3523555696 -0.1073999330 0.5739641190 4284313856
-0.3534407616 -0.1070910320 0.5757318139 4284180514
-0.3545259833 -0.1067782044 0.5774995685 4286812234
-0.3317471743 -0.1343844384 0.5413738489 4284382779
-0.3312994540 -0.1336023808 0.5406432152 4283790642
-0.3293171823 -0.1322059035 0.5374084115 4284382260
-0.3304026723 -0.1320426017 0.5391798019 4284250674
-0.3304651678 -0.1314684004 0.5392817855 4284119074
-0.3284808099 -0.1300833821 0.5360435247 4283658523
-0.3270072043 -0.1289069057 0.5336387157 4283658268
-0.3260445893 -0.1279362738 0.5320678949 4282671373
-0.3250813484 -0.1269688904 0.5304960012 4282278151
-0.3241175115 -0.1260047704 0.5289230943 4283067667
-0.3231530190 -0.1250438839 0.5273491740 4282278144
-0.3221879303 -0.1240862682 0.5257742405 4282475520
-0.3212221861 -0.1231319085 0.5241982937 4283263488
-0.3207682669 -0.1223763078 0.5234575272 4284447762
-0.3198013902 -0.1214275882 0.5218796730 4285433107
-0.3188339174 -0.1204821467 0.5203008652 4285630486
-0.3178658187 -0.1195399836 0.5187210441 4285629454
-0.3179226518 -0.1189849228 0.5188137889 4285497868
-0.3179792464 -0.1184295639 0.5189061761 4285366795
-0.3180356324 -0.1178739145 0.5189981461 4285366795
-0.3180917203 -0.1173179671 0.5190896988 4285235726
-0.3186607361 -0.1169500500 0.5200182796 4285038347
-0.3212825954 -0.1173297539 0.5242968798 4285037577
-0.3228784800 -0.1173271313 0.5269011855 4285103370
-0.3229344189 -0.1167619303 0.5269924402 4285234185
-0.3301790655 -0.1187826768 0.5388148427 4285102599
-0.3297221363 -0.1180204675 0.5380692482 4284840453
-0.3328604996 -0.1185402796 0.5431906581 4284972039
-0.3354858756 -0.1188669652 0.5474749804 4284971527
-0.3381118774 -0.1191843450 0.5517603159 4285037320
-0.3407384753 -0.1194924116 0.5560466051 4285037320
-0.3423376083 -0.1194325089 0.5586562753 4284971527
-0.3444511294 -0.1195453182 0.5621052980 4284906246
-0.3455366492 -0.1192955524 0.5638767481 4284840453
-0.3466222584 -0.1190418825 0.5656483173 4284840453
-0.3477079272 -0.1187842935 0.5674200058 4284774660
-0.3477647901 -0.1181731671 0.5675128102 4284774660
-0.3478213549 -0.1175617352 0.5676050782 4284906246
-0.3483922482 -0.1171230152 0.5685367584 4284840453
-0.3489630520 -0.1166821867 0.5694682002 4284840453
-0.3490189612 -0.1160680577 0.5695594549 4284906244
-0.3485597372 -0.1152833477 0.5688100457 4284906244
-0.3481000662 -0.1145001575 0.5680599213 4285366536
-0.3476399481 -0.1137184948 0.5673090816 4285563915
-0.3476944864 -0.1131059229 0.5673980713 4285431824
-0.3477487564 -0.1124930605 0.5674866438 4285234445
-0.3478027582 -0.1118799075 0.5675747991 4284971527
-0.3478564918 -0.1112664789 0.5676624179 4284774148
-0.3479099274 -0.1106527597 0.5677496195 4284708867
-0.3484785855 -0.1102017760 0.5686776042 4284708867
-0.3485315442 -0.1095865890 0.5687640309 4284577280
-0.3496155441 -0.1092935205 0.5705329776 4284643072
-0.3506995440 -0.1089965254 0.5723019838 4284642821
-0.3512677848 -0.1085362360 0.5732293129 4284511235
-0.3518359065 -0.1080738381 0.5741564035 4284577028
-0.3524038792 -0.1076093465 0.5750832558 4284379649
-0.3529717028 -0.1071427539 0.5760098696 4284246308
-0.3311749101 -0.1355993301 0.5414212942 4284118588
-0.3312388957 -0.1350238621 0.5415259600 4284381760
-0.3313661814 -0.1338719428 0.5417340398 4283922230
-0.3309187889 -0.1330900937 0.5410025716 4284580152
-0.3289386034 -0.1316962093 0.5377652645 4283922222
-0.3290008903 -0.1311235279 0.5378671288 4283789854
-0.3275300264 -0.1299423724 0.5354624987 4283855647
-0.3265694082 -0.1289680749 0.5338919759 4283922210
-0.3256081343 -0.1279970109 0.5323204994 4283198487
-0.3246462643 -0.1270291954 0.5307479501 4282475530
-0.3236837685 -0.1260646284 0.5291743875 4282607116
-0.3222091794 -0.1249050573 0.5267636776 4281948928
-0.3212453127 -0.1239478961 0.5251879096 4282277888
-0.3207924962 -0.1231904775 0.5244476199 4283131648
-0.3203392029 -0.1224345341 0.5237065554 4284315922
-0.3193736970 -0.1214853898 0.5221281052 4285367314
-0.3184075654 -0.1205395162 0.5205485821 4285630486
-0.3174408078 -0.1195969209 0.5189681053 4285695247
-0.3174976408 -0.1190416217 0.5190610290 4285629454
-0.3180664182 -0.1186771244 0.5199908614 4285432588
-0.3176105618 -0.1179301217 0.5192456245 4285432588
-0.3176666498 -0.1173739284 0.5193373561 4285301518
-0.3182349503 -0.1170058548 0.5202664137 4285169932
-0.3193157315 -0.1168232113 0.5220333338 4285103625
-0.3219345212 -0.1171965376 0.5263146758 4285037832
-0.3245539665 -0.1175605804 0.5305970311 4285168646
-0.3261484206 -0.1175456941 0.5332037210 4285168646
-0.3334420323 -0.1189630032 0.5451276898 4284972039
-0.3360641301 -0.1192880645 0.5494144559 4285037319
-0.3386868536 -0.1196038052 0.5537022352 4285037319
-0.3407969177 -0.1197299212 0.5571518540 4285037319
-0.3429074287 -0.1198485196 0.5606021881 4284905733
-0.3445049226 -0.1197810844 0.5632138848 4284840453
-0.3455891311 -0.1195303202 0.5649864078 4284774660
-0.3466734290 -0.1192756370 0.5667590499 4284840453
-0.3477577865 -0.1190170422 0.5685318708 4284708867
-0.3483284712 -0.1185796335 0.5694648027 4284774660
-0.3483851850 -0.1179661155 0.5695574880 4284840453
-0.3484416306 -0.1173523068 0.5696497560 4284840453
-0.3490117788 -0.1169103757 0.5705819130 4284774660
-0.3490677476 -0.1162950695 0.5706734061 4284840451
-0.3491234481 -0.1156794652 0.5707644820 4284840451
-0.3486646116 -0.1148940995 0.5700143576 4285366536
-0.3482053280 -0.1141102612 0.5692634583 4285563915
-0.3482600152 -0.1134955958 0.5693528652 4285366031
-0.3483144343 -0.1128806397 0.5694418550 4285102859
-0.3483685553 -0.1122653931 0.5695303679 4284839941
-0.3484224081 -0.1116498634 0.5696184039 4284774148
-0.3484759927 -0.1110340431 0.5697060227 4284708612
-0.3485293090 -0.1104179472 0.5697931051 4284642819
-0.3490971923 -0.1099637523 0.5707215667 4284577281
-0.3496649861 -0.1095074564 0.5716497898 4284643074
-0.3507477045 -0.1092094257 0.5734198689 4284642821
-0.3513152897 -0.1087480187 0.5743478537 4284577028
-0.3518827856 -0.1082845032 0.5752755404 4284511235
-0.3524501324 -0.1078188941 0.5762031078 4284511235
-0.3530173302 -0.1073511764 0.5771303773 4284311849
-0.3540998399 -0.1070371568 0.5789000988 4286943569
-0.3307298124 -0.1356634349 0.5416772366 4284644678
-0.3307937980 -0.1350877136 0.5417820215 4284381506
-0.3293281496 -0.1338898987 0.5393815637 4284185402
-0.3309210539 -0.1339352876 0.5419903994 4284119609
-0.3304742873 -0.1331530958 0.5412586927 4284448312
-0.3295170069 -0.1321677715 0.5396908522 4284185140
-0.3270285428 -0.1305745393 0.5356152058 4283724061
-0.3260697126 -0.1295983344 0.5340447426 4283131924
-0.3251102269 -0.1286253780 0.5324733257 4282540559
-0.3251710832 -0.1280577183 0.5325729847 4282869524
-0.3242105544 -0.1270894706 0.5309997797 4282870034
-0.3227387369 -0.1259252280 0.5285891891 4282870034
-0.3217768371 -0.1249643713 0.5270138383 4282870024
-0.3213251829 -0.1242042407 0.5262740850 4282935817
-0.3203621805 -0.1232490167 0.5246968269 4283526406
-0.3199095726 -0.1224927381 0.5239555240 4284447508
-0.3189453781 -0.1215431616 0.5223764181 4285301521
-0.3179806173 -0.1205968633 0.5207962394 4285630486
-0.3170152009 -0.1196538433 0.5192151070 4285695247
-0.3170720041 -0.1190982908 0.5193081498 4285497868
-0.3176400661 -0.1187336445 0.5202385187 4285498381
-0.3176964819 -0.1181766018 0.5203309059 4285432588
-0.3177526295 -0.1176192686 0.5204228759 4285301518
-0.3188320994 -0.1174386442 0.5221908092 4285169932
-0.3193998039 -0.1170665324 0.5231206417 4285169418
-0.3220152259 -0.1174391583 0.5274042487 4285037832
-0.3230951726 -0.1172450706 0.5291730165 4285168646
-0.3365816772 -0.1203015894 0.5512615442 4285103112
-0.3412505090 -0.1213493347 0.5589082241 4285037319
-0.3392584622 -0.1200235933 0.5556455851 4285037319
-0.3418784738 -0.1203283891 0.5599367619 4285037319
-0.3434738219 -0.1202648506 0.5625496507 4284905733
-0.3450694084 -0.1201955974 0.5651628971 4284840453
-0.3461523950 -0.1199429259 0.5669366717 4284774660
-0.3472354710 -0.1196863353 0.5687105656 4284840453
-0.3478056192 -0.1192499399 0.5696443915 4284708867
-0.3483756483 -0.1188114285 0.5705779791 4284774660
-0.3484324217 -0.1181967407 0.5706709623 4284840453
-0.3484889269 -0.1175817475 0.5707635283 4284774660
-0.3485451639 -0.1169664562 0.5708556175 4284708867
-0.3491145074 -0.1165222228 0.5717880726 4284708867
-0.3491702676 -0.1159054339 0.5718793869 4284840453
-0.3487121761 -0.1151188016 0.5711291432 4285366536
-0.3487672806 -0.1145023331 0.5712193847 4285498122
-0.3483083844 -0.1137178466 0.5704678297 4285168652
-0.3483628631 -0.1131016985 0.5705570579 4284905480
-0.3484170437 -0.1124852672 0.5706458092 4284839941
-0.3484709561 -0.1118685454 0.5707340837 4284839941
-0.3485246003 -0.1112515405 0.5708219409 4284774405
-0.3485779762 -0.1106342524 0.5709093213 4284642819
-0.3486310244 -0.1100166813 0.5709962845 4284577281
-0.3497124016 -0.1097215340 0.5727673173 4284643074
-0.3507937789 -0.1094224676 0.5745384693 4284577026
-0.3513607681 -0.1089599356 0.5754670501 4284642819
-0.3519276083 -0.1084953025 0.5763954520 4284445442
-0.3519797325 -0.1078708619 0.5764808059 4284511235
-0.3525462449 -0.1074029356 0.5774086714 4284311851
-0.3536273539 -0.1070887819 0.5791793466 4287404122
-0.3297752142 -0.1355183721 0.5410980582 4284513094
-0.3293300569 -0.1347350478 0.5403676033 4284513094
-0.3293935657 -0.1341605335 0.5404718518 4284184889
-0.3294568360 -0.1335856915 0.5405756831 4283987510
-0.3295198679 -0.1330105066 0.5406790972 4284250676
-0.3285638392 -0.1320256144 0.5391104221 4284513848
-0.3281166852 -0.1312477589 0.5383766890 4284184614
-0.3266498744 -0.1300655305 0.5359699726 4283592477
-0.3256919682 -0.1290903538 0.5343981981 4282606098
-0.3237138391 -0.1277161539 0.5311524868 4282935063
