VERSION 0.7
FIELDS x y z rgba
SIZE 4 4 4 4
TYPE F F F U
COUNT 1 1 1 1
WIDTH 920
HEIGHT 1
VIEWPOINT 0.0 0.0 0.0 1.0 0.0 0.0 0.0
POINTS 920
DATA ascii
-0.3382452726 -0.1674035192 0.6539045572 4289775406
-0.3374211192 -0.1662708521 0.6523112655 4289973296
-0.3365963101 -0.1651414186 0.6507167220 4290039089
-0.3366674185 -0.1644531637 0.6508542299 4290039091
-0.3367382884 -0.1637644768 0.6509912014 4290039091
-0.3372573555 -0.1632925123 0.6519946456 4290104371
-0.3377763331 -0.1628182530 0.6529979706 4290104371
-0.3378465772 -0.1621264368 0.6531337500 4290104625
-0.3388140500 -0.1618629545 0.6550041437 4290104625
-0.3393327892 -0.1613819003 0.6560069919 4290170418
-0.3398514390 -0.1608985811 0.6570096016 4290170418
-0.3408190310 -0.1606246084 0.6588801742 4290170164
-0.3413375914 -0.1601358354 0.6598826647 4290170164
-0.3414068222 -0.1594349891 0.6600165367 4290170164
-0.3419251144 -0.1589425802 0.6610184908 4290170164
-0.3419938982 -0.1582399756 0.6611514688 4290170418
-0.3420624137 -0.1575369388 0.6612839103 4290236211
-0.3421306312 -0.1568334848 0.6614158154 4290104372
-0.3417489231 -0.1559244394 0.6606778502 4290104372
-0.3413667381 -0.1550168246 0.6599390507 4290170167
-0.3405342400 -0.1539073437 0.6583296657 4290235960
-0.3392512202 -0.1525987685 0.6558492780 4290235960
-0.3379673660 -0.1512953341 0.6533672810 4290170167
-0.3366827071 -0.1499970555 0.6508837342 4290235958
-0.3349470496 -0.1485043466 0.6475283504 4290235958
-0.3332104087 -0.1470186710 0.6441710591 4290235960
-0.3319231868 -0.1457377672 0.6416825652 4290235960
-0.3315360844 -0.1448556781 0.6409342289 4290235706
-0.3306980133 -0.1437791735 0.6393139958 4290301499
-0.3307605684 -0.1430959105 0.6394349337 4290235706
-0.3312735558 -0.1426062882 0.6404266357 4290169913
-0.3317864239 -0.1421144158 0.6414181590 4290170167
-0.3332009614 -0.1420046091 0.6441527605 4290170167
-0.3341647685 -0.1416975856 0.6460160017 4290039091
-0.3346775770 -0.1411961615 0.6470074058 4290236470
-0.3351902664 -0.1406924874 0.6479985118 4290301751
-0.3352516294 -0.1399981380 0.6481171846 4290235958
-0.3353127241 -0.1393034160 0.6482352614 4290301753
-0.3353735209 -0.1386083066 0.6483528018 4290301753
-0.3354340196 -0.1379128247 0.6484698057 4290104372
-0.3345911801 -0.1368476003 0.6468403935 4289906993
-0.3341993690 -0.1359695047 0.6460828781 4289907513
-0.3338070810 -0.1350928992 0.6453245282 4289381169
-0.3334143758 -0.1342178136 0.6445652843 4288132136
-0.3330211937 -0.1333442330 0.6438052654 4287737378
-0.3326275945 -0.1324721575 0.6430443525 4287080737
-0.3322335482 -0.1316016018 0.6422825456 4287080737
-0.3318390846 -0.1307325661 0.6415199041 4286818079
-0.3323484957 -0.1302193999 0.6425047517 4286686493
-0.3324055672 -0.1295277625 0.6426150799 4285634847
-0.3329146504 -0.1290110499 0.6435992718 4285240089
-0.3334236145 -0.1284921020 0.6445831656 4284779089
-0.3343849182 -0.1281443238 0.6464416385 4285700191
-0.3348936737 -0.1276199669 0.6474251747 4288064420
-0.3355695605 -0.1982195228 0.6501277685 4289771958
-0.3356530666 -0.1975463182 0.6502895355 4290761584
-0.3357363343 -0.1968726367 0.6504508257 4290958963
-0.3358193338 -0.1961984336 0.6506116390 4290958941
-0.3350158334 -0.1950078458 0.6490549445 4291024734
-0.3337683976 -0.1935632676 0.6466381550 4291024223
-0.3325200379 -0.1921235323 0.6442196369 4291090016
-0.3317142725 -0.1909439415 0.6426585913 4291024722
-0.3313514292 -0.1900218129 0.6419555545 4290958929
-0.3305444121 -0.1888474822 0.6403920650 4290893649
-0.3297367394 -0.1876762658 0.6388272643 4290893649
-0.3302600682 -0.1872632205 0.6398411989 4290827602
-0.3298953772 -0.1863463074 0.6391346455 4290893395
-0.3299743235 -0.1856806129 0.6392875910 4290696519
-0.3309414685 -0.1855124533 0.6411613226 4290696519
-0.3323531151 -0.1855883598 0.6438962221 4290696518
-0.3328762949 -0.1851639599 0.6449097991 4290630725
-0.3338439465 -0.1849835962 0.6467845440 4290564932
-0.3348117769 -0.1847991794 0.6486596465 4290499139
-0.3353350461 -0.1843661517 0.6496734023 4290433346
-0.3363031149 -0.1841744781 0.6515489221 4290367553
-0.3372713327 -0.1839787066 0.6534247398 4290302014
-0.3382397294 -0.1837788671 0.6553008556 4290302014
-0.3392082453 -0.1835749447 0.6571772695 4290367546
-0.3397316933 -0.1831269264 0.6581913829 4290367546
-0.3407004476 -0.1829157174 0.6600682139 4290301753
-0.3412238657 -0.1824622303 0.6610823274 4290235960
-0.3417472243 -0.1820064634 0.6620962620 4290235960
-0.3427162170 -0.1817847937 0.6639735699 4290104374
-0.3432395756 -0.1813235432 0.6649875045 4290104120
-0.3433170021 -0.1806254238 0.6651375294 4290038327
-0.3438401222 -0.1801605225 0.6661509871 4290104120
-0.3443631828 -0.1796933115 0.6671643853 4290169913
-0.3444400132 -0.1789919734 0.6673132181 4290170167
-0.3445165753 -0.1782901585 0.6674615741 4290104374
-0.3441465199 -0.1773578525 0.6667445898 4290038838
-0.3442224562 -0.1766560227 0.6668916941 4290038838
-0.3438515365 -0.1757255048 0.6661731601 4289973299
-0.3430335224 -0.1745690554 0.6645883322 4289841713
-0.3422148526 -0.1734157801 0.6630022526 4289973299
-0.3413955271 -0.1722657084 0.6614148617 4289381162
-0.3401285708 -0.1708942801 0.6589603424 4287407372
-0.3388607800 -0.1695278585 0.6565040946 4287341579
-0.3380393088 -0.1683892310 0.6549125910 4287934228
-0.3372171819 -0.1672538072 0.6533197761 4288986916
-0.3363943696 -0.1661216021 0.6517257094 4289973039
-0.3355709612 -0.1649926305 0.6501304507 4290038832
-0.3351944089 -0.1640859544 0.6494008899 4290104625
-0.3352650106 -0.1633988321 0.6495376825 4290104625
-0.3357830644 -0.1629285216 0.6505413651 4290104371
-0.3363010287 -0.1624559313 0.6515448689 4290170164
-0.3372668028 -0.1621964872 0.6534159780 4290170164
-0.3377847075 -0.1617184430 0.6544193029 4290170164
-0.3383025229 -0.1612381339 0.6554225087 4290038578
-0.3392684162 -0.1609681845 0.6572938561 4290104371
-0.3397861421 -0.1604824066 0.6582968831 4290170165
-0.3407521248 -0.1602051556 0.6601684093 4290170165
-0.3408213258 -0.1595040411 0.6603024006 4290170165
-0.3408902287 -0.1588024944 0.6604359150 4290170165
-0.3414075077 -0.1583085656 0.6614380479 4290170165
-0.3414759338 -0.1576052457 0.6615706682 4290170165
-0.3410952985 -0.1566953361 0.6608332396 4290170164
-0.3407142162 -0.1557868570 0.6600949168 4290170164
-0.3403326571 -0.1548798084 0.6593557000 4290235957
-0.3399506509 -0.1539741904 0.6586155891 4290235957
-0.3391190171 -0.1528675407 0.6570044160 4290170164
-0.3373882771 -0.1513610929 0.6536512375 4290170164
-0.3361058533 -0.1500622928 0.6511667371 4290235958
-0.3343732357 -0.1485689580 0.6478099823 4290170165
-0.3330891728 -0.1472814083 0.6453222632 4290367544
-0.3318042755 -0.1459990442 0.6428329349 4290235958
-0.3309683204 -0.1449187696 0.6412132978 4290235960
-0.3305814862 -0.1440377831 0.6404638886 4290301753
-0.3301942050 -0.1431582868 0.6397135854 4290170167
-0.3307063878 -0.1426684707 0.6407058835 4290170167
-0.3312184215 -0.1421764046 0.6416979432 4290170424
-0.3326306045 -0.1420665681 0.6444338560 4290038838
-0.3335928023 -0.1417594403 0.6462979913 4290170418
-0.3341047764 -0.1412578225 0.6472899318 4290236211
-0.3341662884 -0.1405645013 0.6474090815 4290301499
-0.3342275321 -0.1398708075 0.6475276947 4290301499
-0.3342884779 -0.1391767412 0.6476457715 4290235706
-0.3343491554 -0.1384822875 0.6477633119 4290235706
-0.3339588344 -0.1376017630 0.6470071673 4290039092
-0.3335680962 -0.1367227286 0.6462501287 4289973299
-0.3331769109 -0.1358451992 0.6454922557 4289907767
-0.3327852786 -0.1349691749 0.6447334886 4289447216
-0.3323931992 -0.1340946555 0.6439738870 4288001067
-0.3320006728 -0.1332216561 0.6432134509 4287408930
-0.3316077292 -0.1323501617 0.6424521208 4287146278
-0.3307631016 -0.1313010603 0.6408157349 4287014692
-0.3308205009 -0.1306117326 0.6409269571 4286818592
-0.3313290179 -0.1300992966 0.6419121623 4286752799
-0.3318374157 -0.1295846254 0.6428971291 4285700396
-0.3318941295 -0.1288923472 0.6430070400 4285174052
-0.3324021995 -0.1283741295 0.6439913511 4284909907
-0.3329101503 -0.1278536767 0.6449754238 4285699423
-0.3338697255 -0.1275035292 0.6468344927 4288129186
-0.3336628377 -0.1975182295 0.6478276253 4289771958
-0.3341879845 -0.1971081942 0.6488472819 4290761839
-0.3338287771 -0.1961761862 0.6481498480 4290959218
-0.3339113891 -0.1955044270 0.6483102441 4290958941
-0.3331090212 -0.1943160444 0.6467524171 4291024734
-0.3323059678 -0.1931307316 0.6451932192 4291090014
-0.3310596347 -0.1916922182 0.6427733898 4291090014
-0.3302551210 -0.1905139536 0.6412113309 4291024721
-0.3298927248 -0.1895932555 0.6405077577 4290893135
-0.3295298815 -0.1886738539 0.6398032904 4290827856
-0.3291665912 -0.1877557635 0.6390979290 4290827856
-0.3288028240 -0.1868389696 0.6383916736 4290827856
-0.3293250799 -0.1864253134 0.6394056678 4290893649
-0.3289606273 -0.1855093688 0.6386980414 4290762312
-0.3303695023 -0.1855911911 0.6414334774 4290696519
-0.3322223425 -0.1859153807 0.6450308561 4290630725
-0.3314138055 -0.1847479790 0.6434609890 4290564932
-0.3332671821 -0.1850622296 0.6470595002 4290499139
-0.3337895274 -0.1846322268 0.6480736732 4290499139
-0.3347558379 -0.1844445914 0.6499497890 4290498882
-0.3357222974 -0.1842528582 0.6518262029 4290498882
-0.3366889060 -0.1840570569 0.6537029743 4290367294
-0.3376556933 -0.1838571578 0.6555800438 4290367294
-0.3381782174 -0.1834121794 0.6565945745 4290433085
-0.3391452134 -0.1832050085 0.6584720612 4290367292
-0.3396677673 -0.1827545464 0.6594865918 4290301753
-0.3401902616 -0.1823018044 0.6605010629 4290301753
-0.3407126963 -0.1818467826 0.6615154147 4290235960
-0.3416799605 -0.1816259623 0.6633934379 4290170167
-0.3422023654 -0.1811654568 0.6644077301 4290170167
-0.3422796428 -0.1804679781 0.6645576954 4290104374
-0.3428018093 -0.1800038069 0.6655715704 4290104374
-0.3428786397 -0.1793044955 0.6657207608 4290170167
-0.3429552317 -0.1786047071 0.6658694148 4290104631
-0.3430315256 -0.1779044420 0.6660175323 4290038838
-0.3426619470 -0.1769735813 0.6653000116 4289973299
-0.3427376151 -0.1762733012 0.6654469371 4290039092
-0.3419214487 -0.1751159430 0.6638622880 4289907506
-0.3415504992 -0.1741891652 0.6631420851 4290039092
-0.3407331109 -0.1730372608 0.6615550518 4289973299
-0.3394689560 -0.1716629714 0.6591006517 4289446955
-0.3386501670 -0.1705183834 0.6575108767 4288065302
-0.3373844326 -0.1691532433 0.6550533772 4288394267
-0.3361178637 -0.1677931398 0.6525942683 4288789024
-0.3357433677 -0.1668819338 0.6518671513 4289249575
-0.3349218667 -0.1657510996 0.6502721906 4290104371
-0.3345463872 -0.1648435891 0.6495431662 4290170164
-0.3341704607 -0.1639374644 0.6488132477 4290170164
-0.3342409134 -0.1632509977 0.6489500403 4290104371
-0.3347580433 -0.1627814323 0.6499540210 4290104371
-0.3357221186 -0.1625260115 0.6518258452 4290104371
-0.3362391591 -0.1620509773 0.6528297663 4290104371
-0.3367561400 -0.1615736783 0.6538335085 4290104371
-0.3372730315 -0.1610940993 0.6548370719 4290170165
-0.3382372260 -0.1608249992 0.6567091346 4290104372
-0.3387540281 -0.1603399664 0.6577125788 4290104372
-0.3397183418 -0.1600635350 0.6595848203 4290104372
-0.3402350545 -0.1595730335 0.6605880260 4290104372
-0.3403038979 -0.1588712186 0.6607217193 4290170165
-0.3403724730 -0.1581689715 0.6608548760 4290170165
-0.3404407799 -0.1574663073 0.6609874964 4290235958
-0.3405087888 -0.1567632258 0.6611195207 4290235958
-0.3401284218 -0.1558543742 0.6603810191 4290170165
-0.3397475779 -0.1549469531 0.6596415639 4290170165
-0.3393662870 -0.1540409774 0.6589012742 4290170165
-0.3385361433 -0.1529338807 0.6572895050 4290170167
-0.3368084133 -0.1514268070 0.6539350152 4290170167
-0.3355282843 -0.1501274556 0.6514495611 4290235960
-0.3342473507 -0.1488332748 0.6489625573 4290235960
-0.3329656124 -0.1475442648 0.6464739442 4290235960
-0.3316830993 -0.1462604403 0.6439838409 4290235960
-0.3308486938 -0.1451787800 0.6423637867 4290235706
-0.3304626644 -0.1442965120 0.6416143179 4290235706
-0.3300761878 -0.1434157193 0.6408639550 4290235706
-0.3305876255 -0.1429247856 0.6418569684 4290235706
-0.3315481842 -0.1426248550 0.6437219381 4290235706
-0.3325088322 -0.1423207968 0.6455870867 4290235706
-0.3334695101 -0.1420126259 0.6474522948 4290104884
-0.3335312605 -0.1413194239 0.6475721598 4290170677
-0.3335927129 -0.1406258345 0.6476914883 4290236221
-0.3336538970 -0.1399318576 0.6478102803 4290236221
-0.3337147832 -0.1392374933 0.6479285359 4290235708
-0.3337754011 -0.1385427564 0.6480461955 4290235708
-0.3333858252 -0.1376618743 0.6472898126 4290104631
-0.3325457871 -0.1365976334 0.6456588507 4289973045
-0.3321552575 -0.1357206851 0.6449006200 4289842490
-0.3317642808 -0.1348452419 0.6441414952 4289316146
-0.3313728273 -0.1339713037 0.6433814764 4287935020
-0.3309809566 -0.1330988705 0.6426206231 4287408676
-0.3305886686 -0.1322279572 0.6418589354 4287277865
-0.3301959038 -0.1313585639 0.6410964131 4287212072
-0.3298027217 -0.1304906905 0.6403329968 4286884387
-0.3303103447 -0.1299789846 0.6413186193 4286752801
-0.3308178484 -0.1294650435 0.6423039436 4285503787
-0.3308744431 -0.1287734210 0.6424137950 4284977443
-0.3313816190 -0.1282559484 0.6433985233 4284843860
-0.3318886459 -0.1277362406 0.6443829536 4285699169
-0.3323955536 -0.1272142828 0.6453671455 4288063907
-0.3322011232 -0.1970779449 0.6463835239 4289706165
-0.3322839439 -0.1964087039 0.6465446949 4290761839
-0.3323664963 -0.1957389712 0.6467053294 4290893425
-0.3324488103 -0.1950687319 0.6468654871 4290958939
-0.3312060833 -0.1936235130 0.6444473863 4291024732
-0.3308458626 -0.1926976889 0.6437465549 4291155805
-0.3300433755 -0.1915167719 0.6421850920 4291090012
-0.3292402327 -0.1903389394 0.6406223178 4291024721
-0.3288784325 -0.1894187927 0.6399183869 4290958928
-0.3285161555 -0.1884999275 0.6392135024 4290827855
-0.3281534612 -0.1875823885 0.6385077834 4290827855
-0.3282326460 -0.1869180501 0.6386618614 4290762062
-0.3287540674 -0.1865042597 0.6396763921 4290827855
-0.3288328946 -0.1858380735 0.6398297548 4290827592
-0.3297968209 -0.1856698543 0.6417053342 4290761799
-0.3312037289 -0.1857458949 0.6444428563 4290696261
-0.3321681023 -0.1855686307 0.6463192701 4290630468
-0.3326896727 -0.1851407737 0.6473341584 4290564675
-0.3336542845 -0.1849562675 0.6492110491 4290498882
-0.3341758847 -0.1845229566 0.6502259374 4290498882
-0.3351407349 -0.1843311787 0.6521033049 4290498882
-0.3356623352 -0.1838923991 0.6531181931 4290367294
-0.3370709121 -0.1839353889 0.6558589339 4290367294
-0.3375926018 -0.1834902465 0.6568740606 4290433085
-0.3381142616 -0.1830428243 0.6578891277 4290433085
-0.3390797079 -0.1828324199 0.6597675681 4290367292
-0.3396013379 -0.1823795140 0.6607825756 4290367292
-0.3401229382 -0.1819243282 0.6617975235 4290301499
-0.3406444788 -0.1814668477 0.6628122926 4290235706
-0.3407217264 -0.1807714105 0.6629626155 4290235960
-0.3407987356 -0.1800754964 0.6631124020 4290235960
-0.3413198888 -0.1796129793 0.6641264558 4290104631
-0.3413964510 -0.1789152026 0.6642754078 4290104631
-0.3414727449 -0.1782169640 0.6644238830 4290038838
-0.3415487707 -0.1775182635 0.6645718217 4290038838
-0.3411797285 -0.1765888631 0.6638537049 4290039092
-0.3408102095 -0.1756608188 0.6631347537 4290039092
-0.3404402137 -0.1747341305 0.6624148488 4290104885
-0.3396246731 -0.1735813171 0.6608279943 4289775920
-0.3388084471 -0.1724316925 0.6592398286 4289841713
-0.3379915953 -0.1712852567 0.6576504111 4290039092
-0.3367286623 -0.1699172705 0.6551930308 4288723232
-0.3354648948 -0.1685543209 0.6527340412 4288065302
-0.3350914717 -0.1676422805 0.6520074606 4288591646
-0.3342719376 -0.1665096134 0.6504127979 4289973299
-0.3338975012 -0.1656012535 0.6496843100 4290235958
-0.3335226476 -0.1646942943 0.6489548683 4290235958
-0.3331473172 -0.1637887359 0.6482245922 4290170165
-0.3336636722 -0.1633212566 0.6492293477 4290104372
-0.3337337971 -0.1626340896 0.6493657827 4290104372
-0.3346961737 -0.1623795033 0.6512383223 4290104372
-0.3352123201 -0.1619052291 0.6522426009 4290104372
-0.3357283771 -0.1614286602 0.6532467008 4290038579
-0.3366908729 -0.1611635834 0.6551194787 4290170165
-0.3372068405 -0.1606815606 0.6561234593 4290104372
-0.3381694555 -0.1604091674 0.6579964757 4290104372
-0.3386853337 -0.1599216759 0.6590002179 4290104372
-0.3392011225 -0.1594319195 0.6600038409 4290170165
-0.3397168219 -0.1589398831 0.6610072851 4290170165
-0.3397853374 -0.1582373679 0.6611405611 4290235958
-0.3394064009 -0.1573271304 0.6604032516 4290235958
-0.3394742608 -0.1566247046 0.6605353355 4290235960
-0.3395418525 -0.1559218317 0.6606668830 4290170167
-0.3391617537 -0.1550140530 0.6599272490 4290235960
-0.3387811780 -0.1541077048 0.6591867208 4290235960
-0.3379525244 -0.1530001462 0.6575743556 4290235960
-0.3362278342 -0.1514924467 0.6542185545 4290235960
-0.3349499404 -0.1501925737 0.6517320871 4290301499
-0.3336712718 -0.1488978565 0.6492441297 4290235706
-0.3328397870 -0.1478072405 0.6476262212 4290235706
-0.3315595984 -0.1465219557 0.6451352835 4290235706
-0.3307267725 -0.1454389244 0.6435148120 4290235706
-0.3303415477 -0.1445553601 0.6427652836 4290301499
-0.3308525085 -0.1440636963 0.6437594891 4290366778
-0.3309149742 -0.1433754861 0.6438810229 4290366778
-0.3314256370 -0.1428802460 0.6448746324 4290432571
-0.3323847651 -0.1425751448 0.6467408538 4290432571
-0.3328952789 -0.1420744509 0.6477341652 4290104885
-0.3329569697 -0.1413809657 0.6478542089 4290236471
-0.3330183625 -0.1406870931 0.6479737163 4290301760
-0.3330794871 -0.1399928480 0.6480926275 4290235967
-0.3331403434 -0.1392982006 0.6482110023 4290170174
-0.3327518404 -0.1384163946 0.6474550962 4290170174
-0.3323629200 -0.1375360787 0.6466983557 4290104633
-0.3315243125 -0.1364723444 0.6450666189 4289907254
-0.3311344087 -0.1355959624 0.6443079710 4289908030
-0.3307440579 -0.1347211003 0.6435484290 4289315893
-0.3308027387 -0.1340298355 0.6436626315 4287935022
-0.3304115832 -0.1331570446 0.6429015398 4287408678
-0.3295703828 -0.1321055442 0.6412647367 4287278381
-0.3296279907 -0.1314160228 0.6413767934 4287212588
-0.3292355239 -0.1305477917 0.6406131983 4286949927
-0.3297423124 -0.1300358772 0.6415992975 4286686755
-0.3297990859 -0.1293452829 0.6417097449 4285569582
-0.3303055465 -0.1288298368 0.6426951885 4284977445
-0.3303618133 -0.1281375736 0.6428046823 4284843860
-0.3308679461 -0.1276185960 0.6437894702 4285699169
-0.3313739300 -0.1270973682 0.6447740197 4288129700
-0.3307417631 -0.1966371238 0.6449377537 4289640372
-0.3312647939 -0.1962303817 0.6459576488 4290761839
-0.3304659426 -0.1950411797 0.6443998814 4290893425
-0.3305478394 -0.1943733841 0.6445596218 4290958939
-0.3297478557 -0.1931885332 0.6429996490 4291024732
-0.3289471865 -0.1920067668 0.6414383650 4291155805
-0.3285868764 -0.1910845488 0.6407358050 4291090012
-0.3277849853 -0.1899080426 0.6391720772 4291024721
-0.3274236619 -0.1889893264 0.6384675503 4290958928
-0.3275032640 -0.1883257329 0.6386227608 4290827855
-0.3271411359 -0.1874087304 0.6379166245 4290762062
-0.3272201717 -0.1867450476 0.6380707026 4290762060
-0.3277406394 -0.1863320172 0.6390856504 4290762060
-0.3282610774 -0.1859167069 0.6401004791 4290761799
-0.3292233944 -0.1857484579 0.6419770122 4290761799
-0.3301859200 -0.1855761260 0.6438538432 4290696006
-0.3311485648 -0.1853997409 0.6457310319 4290630213
-0.3316692114 -0.1849726290 0.6467462182 4290564675
-0.3326320946 -0.1847889721 0.6486238837 4290498882
-0.3335951865 -0.1846012473 0.6505018473 4290498882
-0.3345584273 -0.1844094396 0.6523801088 4290433089
-0.3350791931 -0.1839705110 0.6533955932 4290302014
-0.3360426426 -0.1837714165 0.6552743316 4290302014
-0.3370062411 -0.1835682541 0.6571533084 4290367807
-0.3375270665 -0.1831206679 0.6581689119 4290367807
-0.3380478323 -0.1826708019 0.6591843963 4290302012
-0.3385685384 -0.1822186410 0.6601997614 4290302012
-0.3390891850 -0.1817642003 0.6612150073 4290236219
-0.3396098018 -0.1813074797 0.6622301340 4290236219
-0.3396868706 -0.1806126833 0.6623804569 4290236217
-0.3397637010 -0.1799174100 0.6625302434 4290236217
-0.3398402631 -0.1792216599 0.6626795530 4290170424
-0.3403603137 -0.1787585169 0.6636936665 4290104631
-0.3399925828 -0.1778287739 0.6629766226 4290038838
-0.3400683403 -0.1771316230 0.6631243229 4290038838
-0.3396998048 -0.1762036830 0.6624056697 4290038838
-0.3393307924 -0.1752770841 0.6616861224 4290038838
-0.3385170698 -0.1741233617 0.6600993872 4290104631
-0.3381470442 -0.1732004136 0.6593778729 4290038838
-0.3373321295 -0.1720521450 0.6577888131 4289775920
-0.3365165591 -0.1709070951 0.6561984420 4289841713
-0.3352556825 -0.1695403755 0.6537397504 4289775407
-0.3339939713 -0.1681787074 0.6512794495 4290170165
-0.3336210847 -0.1672681421 0.6505523324 4290301751
-0.3328028023 -0.1661368459 0.6489567161 4290170165
-0.3324289024 -0.1652299613 0.6482276320 4290170165
-0.3324996829 -0.1645447463 0.6483656168 4290170165
-0.3321249783 -0.1636397541 0.6476349831 4290104372
-0.3326404095 -0.1631730199 0.6486400366 4290104372
-0.3331557810 -0.1627040356 0.6496450305 4290104372
-0.3341165483 -0.1624493599 0.6515184641 4290104372
-0.3346318305 -0.1619749069 0.6525232792 4290104372
-0.3351470530 -0.1614981741 0.6535279751 4290038579
-0.3361079693 -0.1612330079 0.6554017067 4290104372
-0.3366231024 -0.1607508063 0.6564061642 4290104372
-0.3375840783 -0.1604783237 0.6582800746 4290104372
-0.3380991518 -0.1599906534 0.6592844129 4290104372
-0.3386141062 -0.1595007032 0.6602885723 4290170165
-0.3386827409 -0.1587992609 0.6604224443 4290170165
-0.3387511075 -0.1580973864 0.6605557799 4290170165
-0.3388192058 -0.1573950946 0.6606885195 4290170165
-0.3388870060 -0.1566923857 0.6608207822 4290170424
-0.3389545679 -0.1559892446 0.6609524488 4290104631
-0.3381284773 -0.1548765004 0.6593416333 4290170424
-0.3377485275 -0.1539707184 0.6586007476 4290236217
-0.3369212747 -0.1528636366 0.6569876671 4290236217
-0.3356464803 -0.1515580416 0.6545017958 4290236217
-0.3343708515 -0.1502576172 0.6520143747 4290301753
-0.3330944479 -0.1489623636 0.6495254636 4290235960
-0.3322644532 -0.1478713155 0.6479069591 4290170167
-0.3314338326 -0.1467835754 0.6462872624 4290235960
-0.3314973116 -0.1460934877 0.6464110613 4290235960
-0.3311130702 -0.1452067643 0.6456617713 4290235960
-0.3307283819 -0.1443215311 0.6449116468 4290235960
-0.3312384784 -0.1438264847 0.6459063292 4290301753
-0.3317484856 -0.1433291733 0.6469008327 4290432569
-0.3322583735 -0.1428296119 0.6478950977 4290432569
-0.3327681720 -0.1423277855 0.6488891840 4290104631
-0.3328298628 -0.1416330934 0.6490095258 4290302010
-0.3328913152 -0.1409379989 0.6491293311 4290301760
-0.3329524696 -0.1402425319 0.6492485404 4290170174
-0.3325651288 -0.1393588632 0.6484932899 4290235710
-0.3321773708 -0.1384766847 0.6477371454 4290301503
-0.3317891657 -0.1375960112 0.6469801068 4290104635
-0.3309520483 -0.1365318298 0.6453478336 4289907256
-0.3305628896 -0.1356550902 0.6445889473 4289842239
-0.3301732540 -0.1347798556 0.6438291669 4289315895
-0.3297832012 -0.1339061409 0.6430685520 4287935024
-0.3298414648 -0.1332151741 0.6431821585 4287408680
-0.3290017545 -0.1321632415 0.6415448189 4287212590
-0.3290593028 -0.1314734370 0.6416569948 4287146797
-0.3286675811 -0.1306048334 0.6408931017 4286884136
-0.3287244737 -0.1299152523 0.6410040855 4286620964
-0.3292302489 -0.1294018328 0.6419903636 4285635375
-0.3292866647 -0.1287105978 0.6421003342 4285043238
-0.3297921121 -0.1281936467 0.6430859566 4284778837
-0.3298480511 -0.1275007576 0.6431950331 4285699939
-0.3303531408 -0.1269802600 0.6441799402 4288195495
-0.3288451433 -0.1959338635 0.6426311731 4289574579
-0.3289272487 -0.1952685863 0.6427916288 4290761584
-0.3290091157 -0.1946028322 0.6429516077 4290893170
-0.3286507726 -0.1936772913 0.6422513127 4290958939
-0.3274118304 -0.1922362745 0.6398302317 4291024732
-0.3279327452 -0.1918300837 0.6408481598 4291221598
-0.3271327317 -0.1906518340 0.6392847896 4291155805
-0.3267724812 -0.1897323579 0.6385807395 4291024721
-0.3264117539 -0.1888141930 0.6378758550 4290893135
-0.3260505795 -0.1878973246 0.6371700168 4290762062
-0.3256889284 -0.1869817674 0.6364632845 4290762062
-0.3266493082 -0.1868238896 0.6383400559 4290762060
-0.3258461654 -0.1856570244 0.6367705464 4290762060
-0.3272475302 -0.1857449412 0.6395090818 4290696519
-0.3286492527 -0.1858269870 0.6422483921 4290630726
-0.3296101391 -0.1856546253 0.6441261768 4290630726
-0.3305712044 -0.1854781806 0.6460042596 4290564933
-0.3310909867 -0.1850509346 0.6470200419 4290499140
-0.3316107094 -0.1846214086 0.6480357051 4290433347
-0.3325720727 -0.1844345331 0.6499143839 4290367553
-0.3335336149 -0.1842435896 0.6517934203 4290367553
-0.3344952762 -0.1840485334 0.6536727548 4290301760
-0.3354571462 -0.1838494092 0.6555523872 4290301760
-0.3359770477 -0.1834048629 0.6565684080 4290367807
-0.3364969194 -0.1829580218 0.6575843692 4290367807
-0.3370167613 -0.1825089157 0.6586002111 4290367807
-0.3375365138 -0.1820574999 0.6596159339 4290302014
-0.3376137614 -0.1813661158 0.6597668529 4290236221
-0.3385758996 -0.1811478287 0.6616470814 4290236221
-0.3386527896 -0.1804536879 0.6617973447 4290301499
-0.3387294412 -0.1797590554 0.6619471312 4290301499
-0.3388058543 -0.1790639609 0.6620964408 4290235706
-0.3388819695 -0.1783683896 0.6622452140 4290169913
-0.3385147452 -0.1774401069 0.6615275741 4290104120
-0.3385902643 -0.1767445207 0.6616751552 4290169913
-0.3382222354 -0.1758180261 0.6609559059 4290170167
-0.3378537297 -0.1748929024 0.6602358222 4290170167
-0.3370412886 -0.1737405360 0.6586481333 4290301753
-0.3362282217 -0.1725913584 0.6570591927 4290038581
-0.3354144692 -0.1714453846 0.6554690003 4289972788
-0.3346000910 -0.1703026146 0.6538774967 4290301753
-0.3333411813 -0.1689380854 0.6514173746 4290104374
-0.3325254023 -0.1678026468 0.6498231292 4290038581
-0.3317089677 -0.1666704267 0.6482276917 4290104374
-0.3317801952 -0.1659858376 0.6483668685 4290038581
-0.3314069211 -0.1650795192 0.6476374269 4290104372
-0.3314775229 -0.1643949598 0.6477754116 4290104372
-0.3311034143 -0.1634905189 0.6470443606 4290104372
-0.3316179514 -0.1630245447 0.6480497718 4290170165
-0.3321323693 -0.1625562906 0.6490551233 4290104372
-0.3330914378 -0.1623024642 0.6509293318 4290104372
-0.3340506256 -0.1620445251 0.6528037786 4290104372
-0.3345650136 -0.1615676135 0.6538089514 4290104372
-0.3350793123 -0.1610884368 0.6548140049 4290104372
-0.3360385895 -0.1608199775 0.6566886902 4290104372
-0.3365527987 -0.1603353322 0.6576935649 4290104372
-0.3370669186 -0.1598483920 0.6586982608 4290104372
-0.3375809491 -0.1593591869 0.6597027779 4290170165
-0.3380948901 -0.1588677019 0.6607071161 4290170165
-0.3381631970 -0.1581655592 0.6608405709 4290235958
-0.3377856016 -0.1572555304 0.6601027250 4290235958
-0.3378532827 -0.1565534621 0.6602349281 4290170424
-0.3379206657 -0.1558509767 0.6603666544 4290170424
-0.3375418782 -0.1549433917 0.6596264243 4290170424
-0.3367166817 -0.1538334936 0.6580137610 4290170424
-0.3358908296 -0.1527268887 0.6563999057 4290170424
-0.3346182108 -0.1514216959 0.6539129615 4290170424
-0.3333447874 -0.1501216590 0.6514244080 4290236217
-0.3325168788 -0.1490268409 0.6498064995 4290236217
-0.3316883743 -0.1479353309 0.6481874585 4290170424
-0.3313057423 -0.1470453292 0.6474397182 4290170424
-0.3313692510 -0.1463540196 0.6475638151 4290235960
-0.3309858143 -0.1454660147 0.6468145251 4290235960
-0.3310486972 -0.1447748542 0.6469373703 4290301753
-0.3311113119 -0.1440833062 0.6470597386 4290301753
-0.3316205740 -0.1435848773 0.6480548978 4290301753
-0.3321297169 -0.1430841833 0.6490498781 4290301753
-0.3326387405 -0.1425812393 0.6500446796 4290170424
-0.3327004910 -0.1418853253 0.6501653194 4290302010
-0.3327619433 -0.1411890239 0.6502854228 4290433089
-0.3328231275 -0.1404923350 0.6504049897 4290301503
-0.3324366212 -0.1396073699 0.6496496797 4290235710
-0.3320496380 -0.1387238950 0.6488934755 4290301503
-0.3316622376 -0.1378419101 0.6481363773 4290104635
-0.3308267295 -0.1367763579 0.6465036273 4289841463
-0.3299905956 -0.1357141733 0.6448696256 4289841469
-0.3296017051 -0.1348385811 0.6441096663 4289380918
-0.3296602964 -0.1341467649 0.6442241669 4287935024
-0.3288226128 -0.1330919266 0.6425871253 4287474473
-0.3284324110 -0.1322208792 0.6418246031 4287343406
-0.3284898996 -0.1315307915 0.6419369578 4287211820
-0.3280988932 -0.1306618303 0.6411728263 4286883882
-0.3281557262 -0.1299719661 0.6412839293 4286620710
-0.3282123208 -0.1292817444 0.6413944960 4285569582
-0.3287170529 -0.1287668198 0.6423808932 4285043238
-0.3287731409 -0.1280749440 0.6424905062 4284975446
-0.3292775452 -0.1275564879 0.6434761882 4285962341
-0.3293331563 -0.1268629581 0.6435848475 4288261288
-0.3273912370 -0.1954919100 0.6411816478 4289574579
-0.3274730444 -0.1948281825 0.6413418651 4290827377
-0.3275546432 -0.1941639632 0.6415016055 4290958963
-0.3271967769 -0.1932398677 0.6408007741 4291024732
-0.3263991773 -0.1920585632 0.6392386556 4291024732
-0.3251614869 -0.1906227320 0.6368147135 4291221598
-0.3256809711 -0.1902185977 0.6378321052 4291090012
-0.3253211677 -0.1893005669 0.6371274590 4291024721
-0.3249609470 -0.1883838326 0.6364219785 4290958928
-0.3246002495 -0.1874684095 0.6357155442 4290827855
-0.3246790469 -0.1868074238 0.6358698606 4290762062
-0.3247576058 -0.1861459613 0.6360237598 4290762060
-0.3257162273 -0.1859866679 0.6379011869 4290762060
-0.3266750276 -0.1858233213 0.6397789717 4290630728
-0.3276340365 -0.1856558919 0.6416571140 4290630728
-0.3285931945 -0.1854844093 0.6435356140 4290630728
-0.3295525312 -0.1853088289 0.6454144120 4290564935
-0.3305120468 -0.1851291806 0.6472935677 4290499140
-0.3310309350 -0.1846995056 0.6483098269 4290433347
-0.3315497935 -0.1842675507 0.6493259668 4290367553
-0.3325096071 -0.1840774566 0.6512057185 4290301760
-0.3330284655 -0.1836400330 0.6522218585 4290301760
-0.3339884877 -0.1834426671 0.6541020274 4290301760
-0.3345073760 -0.1829997748 0.6551182270 4290301760
-0.3354676068 -0.1827951223 0.6569988132 4290367553
-0.3359864652 -0.1823467463 0.6580150127 4290367807
-0.3365052938 -0.1818960905 0.6590310931 4290302014
-0.3365823627 -0.1812053472 0.6591820121 4290236221
-0.3371009529 -0.1807510257 0.6601976752 4290236221
-0.3371776044 -0.1800584346 0.6603478193 4290301499
-0.3372539878 -0.1793653518 0.6604974270 4290301499
-0.3373301029 -0.1786718220 0.6606464982 4290235706
-0.3374059796 -0.1779778153 0.6607950330 4290169913
-0.3370392621 -0.1770509779 0.6600768566 4290169913
-0.3371145129 -0.1763569564 0.6602241993 4290169913
-0.3367469907 -0.1754319221 0.6595044136 4290169913
-0.3359363973 -0.1742786467 0.6579169631 4290169913
-0.3351251483 -0.1731285602 0.6563281417 4290104120
-0.3343132436 -0.1719816625 0.6547380686 4290169913
-0.3339436054 -0.1710648537 0.6540141106 4290301753
-0.3331305087 -0.1699234396 0.6524217129 4290235960
-0.3318736553 -0.1685602069 0.6499602795 4290104374
-0.3310591578 -0.1674261391 0.6483650804 4290235960
-0.3306873143 -0.1665185094 0.6476368308 4290235960
-0.3303150237 -0.1656122804 0.6469076872 4290104374
-0.3303857148 -0.1649288088 0.6470462084 4290104371
-0.3304561675 -0.1642449200 0.6471841335 4290104371
-0.3305263519 -0.1635605842 0.6473215818 4290170164
-0.3310400248 -0.1630944312 0.6483276486 4290170164
-0.3315536380 -0.1626260132 0.6493334770 4290170165
-0.3325110972 -0.1623720974 0.6512086391 4290104372
-0.3334686458 -0.1621140838 0.6530839801 4290104372
-0.3339821994 -0.1616369933 0.6540897489 4290104372
-0.3344956636 -0.1611576378 0.6550953388 4290104372
-0.3350090384 -0.1606760025 0.6561007500 4290104372
-0.3359667063 -0.1604042649 0.6579763293 4290170165
-0.3364799917 -0.1599171460 0.6589815617 4290170165
-0.3365486264 -0.1592174321 0.6591159701 4290235958
-0.3366169631 -0.1585173011 0.6592497826 4290235958
-0.3371298015 -0.1580252051 0.6602541208 4290170165
-0.3367528319 -0.1571157277 0.6595158577 4290170165
-0.3368203342 -0.1564143151 0.6596481204 4290039351
-0.3364425600 -0.1555067897 0.6589082479 4290105144
-0.3360643089 -0.1546006948 0.6581674814 4290170424
-0.3356856108 -0.1536960304 0.6574258208 4290104631
-0.3348611891 -0.1525899023 0.6558111906 4290170424
-0.3335907459 -0.1512850970 0.6533230543 4290104631
-0.3327649534 -0.1501865089 0.6517058015 4290104633
-0.3319385648 -0.1490912437 0.6500873566 4290170426
-0.3315571845 -0.1481984854 0.6493404508 4290236219
-0.3311753869 -0.1473071873 0.6485927105 4290236219
-0.3307931125 -0.1464173496 0.6478440166 4290236219
-0.3308562934 -0.1457253844 0.6479677558 4290236219
-0.3309192061 -0.1450330168 0.6480909586 4290236219
-0.3309818208 -0.1443402469 0.6482136250 4290236219
-0.3314903378 -0.1438406855 0.6492094994 4290236219
-0.3319987357 -0.1433388740 0.6502051950 4290236219
-0.3325070143 -0.1428347975 0.6512006521 4290301499
-0.3325687945 -0.1421376616 0.6513216496 4290433085
-0.3326302767 -0.1414401531 0.6514420509 4290433087
-0.3322449327 -0.1405533254 0.6506873965 4290301501
-0.3323057890 -0.1398559809 0.6508065462 4290235710
-0.3319196403 -0.1389712095 0.6500502825 4290301503
-0.3315330148 -0.1380879283 0.6492931247 4290169915
-0.3306990862 -0.1370209903 0.6476598978 4289972536
-0.3303115368 -0.1361416429 0.6469008923 4289775676
-0.3294764757 -0.1350805312 0.6452654600 4289315125
-0.3290879428 -0.1342051476 0.6445045471 4287935022
-0.3286989629 -0.1333312839 0.6437427402 4287474471
-0.3278622925 -0.1322784722 0.6421041489 4287343404
-0.3279197216 -0.1315881014 0.6422166228 4287211818
-0.3275294602 -0.1307187825 0.6414523125 4286818343
-0.3271387219 -0.1298509985 0.6406871080 4286620964
-0.3271951973 -0.1291614324 0.6407976747 4285569582
-0.3276990354 -0.1286472678 0.6417844296 4284977445
-0.3277550042 -0.1279560477 0.6418939829 4284975446
-0.3282584846 -0.1274383217 0.6428800821 4285896548
-0.3287618756 -0.1269183755 0.6438659430 4288326565
-0.3259397149 -0.1950494498 0.6397303939 4289508784
-0.3255830407 -0.1941259950 0.6390303373 4290827632
-0.3256641924 -0.1934642047 0.6391896605 4291025011
-0.3253067136 -0.1925424337 0.6384879947 4291024730
-0.3245102465 -0.1913633496 0.6369247437 4291024730
-0.3241517544 -0.1904450506 0.6362211108 4291155805
-0.3237927854 -0.1895280480 0.6355165839 4291090012
-0.3234333992 -0.1886123568 0.6348111629 4291090514
-0.3235124946 -0.1879529804 0.6349664330 4291024721
-0.3231522739 -0.1870390028 0.6342594028 4290827855
-0.3232307732 -0.1863795668 0.6344135404 4290827855
-0.3237483203 -0.1859719902 0.6354293227 4290827853
-0.3247052431 -0.1858135760 0.6373074651 4290762060
-0.3261018097 -0.1859016269 0.6400485635 4290696521
-0.3270592093 -0.1857341826 0.6419276595 4290696521
-0.3280167580 -0.1855626404 0.6438070536 4290630728
-0.3285346627 -0.1851391941 0.6448236108 4290564935
-0.3294924498 -0.1849604100 0.6467034817 4290499142
-0.3300104141 -0.1845314950 0.6477200389 4290433349
-0.3309684098 -0.1843454391 0.6496003866 4290433347
-0.3314864039 -0.1839110553 0.6506170034 4290367554
-0.3324446380 -0.1837177277 0.6524977684 4290301760
-0.3329626024 -0.1832778752 0.6535144448 4290301760
-0.3334805369 -0.1828357279 0.6545310020 4290301760
-0.3339984119 -0.1823913008 0.6555474401 4290367553
-0.3345162570 -0.1819445938 0.6565638185 4290367807
-0.3350340426 -0.1814955920 0.6575800776 4290302014
-0.3355517685 -0.1810443103 0.6585962176 4290236219
-0.3356283903 -0.1803537458 0.6587466002 4290236219
-0.3357047737 -0.1796627045 0.6588965058 4290301501
-0.3357808888 -0.1789711863 0.6590459347 4290301501
-0.3358567357 -0.1782792062 0.6591947675 4290301499
-0.3354908824 -0.1773533970 0.6584767699 4290301499
-0.3355661333 -0.1766613871 0.6586244106 4290235706
-0.3356411159 -0.1759689301 0.6587715745 4290235706
-0.3348323405 -0.1748147309 0.6571842432 4290169913
-0.3344647884 -0.1738934517 0.6564627886 4290169913
-0.3336548209 -0.1727447361 0.6548730731 4290301499
-0.3328442276 -0.1715992093 0.6532820463 4290235706
-0.3320329487 -0.1704568863 0.6516897678 4290301753
-0.3312210441 -0.1693177670 0.6500962377 4290104374
-0.3304085135 -0.1681818664 0.6485013962 4290170424
-0.3295952976 -0.1670491844 0.6469053030 4290236217
-0.3292239606 -0.1661430299 0.6461765170 4290104631
-0.3292947710 -0.1654606611 0.6463155150 4290038838
-0.3293653429 -0.1647778600 0.6464539766 4290170164
-0.3294356167 -0.1640946120 0.6465919018 4290104371
-0.3299485445 -0.1636305749 0.6475986242 4290170165
-0.3304613829 -0.1631642580 0.6486052275 4290170165
-0.3309741318 -0.1626956612 0.6496115923 4290170165
-0.3319299817 -0.1624416858 0.6514876485 4290104372
-0.3328859508 -0.1621835679 0.6533639431 4290104372
-0.3333986402 -0.1617063135 0.6543702483 4290170165
-0.3339112699 -0.1612267792 0.6553763747 4290170165
-0.3344238102 -0.1607449651 0.6563823223 4290170165
-0.3349362314 -0.1602608711 0.6573881507 4290235958
-0.3354485929 -0.1597745121 0.6583937407 4290235958
-0.3359608650 -0.1592858583 0.6593992114 4290235958
-0.3360291421 -0.1585854441 0.6595332026 4290235958
-0.3356531858 -0.1576760411 0.6587952971 4290235960
-0.3357208073 -0.1569757015 0.6589280367 4290235960
-0.3357881904 -0.1562749296 0.6590602398 4290104631
-0.3354110420 -0.1553679705 0.6583200097 4290170424
-0.3350334167 -0.1544624269 0.6575788856 4290170424
-0.3342109323 -0.1533544064 0.6559645534 4290170424
-0.3338323236 -0.1524526924 0.6552214622 4290170426
-0.3330086768 -0.1513503492 0.6536048651 4290104633
-0.3321844041 -0.1502513140 0.6519870162 4290038840
-0.3313595057 -0.1491556019 0.6503679752 4290104633
-0.3309788406 -0.1482624710 0.6496208310 4290236219
-0.3305977583 -0.1473708153 0.6488728523 4290302012
-0.3302161992 -0.1464806199 0.6481239796 4290236221
-0.3302793205 -0.1457883716 0.6482478976 4290236221
-0.3303421736 -0.1450957358 0.6483712196 4290302014
-0.3308500350 -0.1445973068 0.6493680477 4290302014
-0.3313578069 -0.1440966278 0.6503646374 4290302014
-0.3318654597 -0.1435936689 0.6513609886 4290302014
-0.3323729932 -0.1430884600 0.6523571610 4290302012
-0.3324348032 -0.1423901170 0.6524784565 4290433598
-0.3320506215 -0.1415014565 0.6517244577 4290498880
-0.3321117759 -0.1408032626 0.6518444419 4290367294
-0.3317267895 -0.1399166435 0.6510888338 4290301503
-0.3317872882 -0.1392186284 0.6512076259 4290301503
-0.3314014971 -0.1383340508 0.6504504085 4290104381
-0.3305691481 -0.1372657269 0.6488167048 4289972795
-0.3297362030 -0.1362007856 0.6471818686 4289841469
-0.3293489218 -0.1353226006 0.6464217305 4289315125
-0.3289611936 -0.1344459206 0.6456607580 4287935020
-0.3281266093 -0.1333892643 0.6440227032 4287540262
-0.3272914290 -0.1323360056 0.6423834562 4287409451
-0.3269022405 -0.1314657629 0.6416195631 4287146279
-0.3269592822 -0.1307756901 0.6417315006 4286752550
-0.3265692890 -0.1299075484 0.6409661174 4286555171
-0.3266256750 -0.1292176992 0.6410768032 4285569582
-0.3266817927 -0.1285274923 0.6411869526 4285043238
-0.3271846175 -0.1280118227 0.6421738267 4284974933
-0.3276872933 -0.1274938881 0.6431604624 4285830242
-0.3281898499 -0.1269737333 0.6441468000 4288194979
-0.3244905472 -0.1946064681 0.6382775307 4289442991
-0.3245717883 -0.1939458251 0.6384372711 4290827630
-0.3246527612 -0.1932846904 0.6385965943 4291025009
-0.3234205842 -0.1918442696 0.6361728311 4291024730
-0.3226252496 -0.1906674057 0.6346084476 4290958937
-0.3222671151 -0.1897514462 0.6339039803 4291221852
-0.3223465085 -0.1890937090 0.6340601444 4291090266
-0.3219875991 -0.1881794482 0.6333541274 4291090514
-0.3220663965 -0.1875216365 0.6335091591 4291024721
-0.3221449852 -0.1868633330 0.6336637139 4290827855
-0.3222233057 -0.1862045527 0.6338177919 4290827855
-0.3227398992 -0.1857977360 0.6348339319 4290893646
-0.3241336942 -0.1858917475 0.6375755668 4290893646
-0.3250891566 -0.1857292205 0.6394550204 4290762060
-0.3260448277 -0.1855626404 0.6413347721 4290696267
-0.3270006478 -0.1853919625 0.6432148814 4290630474
-0.3279566467 -0.1852172166 0.6450953484 4290564681
-0.3284736872 -0.1847913414 0.6461123824 4290499142
-0.3289906681 -0.1843631864 0.6471292973 4290499142
-0.3299469650 -0.1841779947 0.6490103602 4290433347
-0.3304640055 -0.1837443709 0.6500273347 4290433347
-0.3314205110 -0.1835518926 0.6519088149 4290301760
-0.3319375515 -0.1831128001 0.6529258490 4290367553
-0.3328942955 -0.1829130501 0.6548077464 4290301760
-0.3325316012 -0.1819870174 0.6540943980 4290301760
-0.3330484033 -0.1815419644 0.6551108956 4290433087
-0.3335651159 -0.1810946316 0.6561273336 4290367294
-0.3340817988 -0.1806450039 0.6571435928 4290235706
-0.3345984221 -0.1801930815 0.6581597924 4290301499
-0.3346746266 -0.1795026958 0.6583096981 4290498110
-0.3347505629 -0.1788118333 0.6584591269 4290432317
-0.3343856931 -0.1778861284 0.6577413678 4290498364
-0.3340203464 -0.1769617945 0.6570227742 4290498364
-0.3340953290 -0.1762713492 0.6571702361 4290301499
-0.3337291777 -0.1753488034 0.6564500332 4290235706
-0.3333625793 -0.1744276136 0.6557289362 4290169913
-0.3325544596 -0.1732779890 0.6541393399 4290169913
-0.3317456841 -0.1721315533 0.6525484920 4290235960
-0.3309362829 -0.1709883064 0.6509563327 4290038581
-0.3301262259 -0.1698482782 0.6493629217 4290170424
-0.3297569454 -0.1689376086 0.6486365795 4290170424
-0.3289456964 -0.1678030938 0.6470408440 4290302264
-0.3281337917 -0.1666717827 0.6454437971 4290104885
-0.3282047212 -0.1659905165 0.6455833316 4289973299
-0.3278335333 -0.1650863141 0.6448532343 4290368057
-0.3279038370 -0.1644050926 0.6449915171 4290170165
-0.3284159005 -0.1639440656 0.6459987164 4290104372
-0.3289278746 -0.1634807736 0.6470057964 4290104372
-0.3298819959 -0.1632340252 0.6488825083 4290104372
-0.3303939104 -0.1627652645 0.6498894691 4290170165
-0.3313481212 -0.1625111997 0.6517664790 4290170165
-0.3318599761 -0.1620369554 0.6527733207 4290170165
-0.3323717713 -0.1615604460 0.6537799835 4290170165
-0.3328834474 -0.1610816568 0.6547864676 4290235960
-0.3333950639 -0.1606005877 0.6557927728 4290235960
-0.3339065611 -0.1601172388 0.6567989588 4290235960
-0.3344179988 -0.1596316099 0.6578049660 4290170167
-0.3349293470 -0.1591437161 0.6588107347 4290170167
-0.3349974751 -0.1584439576 0.6589447856 4290235960
-0.3350653350 -0.1577437669 0.6590782404 4290301753
-0.3346896172 -0.1568354219 0.6583392024 4290301753
-0.3347568214 -0.1561353058 0.6584714055 4290301753
-0.3343802989 -0.1552289128 0.6577308178 4290301753
-0.3340033293 -0.1543239355 0.6569892764 4290235960
-0.3336258829 -0.1534204185 0.6562468410 4290170167
-0.3328042626 -0.1523152441 0.6546307206 4290235960
-0.3319820464 -0.1512133777 0.6530133486 4290170167
-0.3311591744 -0.1501148343 0.6513947845 4290104633
-0.3307796717 -0.1492198855 0.6506482959 4290104633
-0.3303997517 -0.1483264118 0.6499009728 4290236219
-0.3300193548 -0.1474343985 0.6491527557 4290302012
-0.3296385407 -0.1465438306 0.6484037042 4290302012
-0.3297016323 -0.1458513141 0.6485277414 4290302012
-0.3302088380 -0.1453540325 0.6495254636 4290367807
-0.3302714527 -0.1446597874 0.6496486068 4290302014
-0.3307783604 -0.1441588998 0.6506457329 4290302014
-0.3312851787 -0.1436557621 0.6516426802 4290367807
-0.3317918777 -0.1431503594 0.6526393294 4290302012
-0.3318536282 -0.1424517334 0.6527608037 4290433598
-0.3319151103 -0.1417527199 0.6528816819 4290499393
-0.3319762945 -0.1410533190 0.6530020833 4290367807
-0.3320372105 -0.1403535306 0.6531218886 4290367296
-0.3312074840 -0.1392789483 0.6514897943 4290301503
-0.3308224082 -0.1383940130 0.6507323980 4290104381
-0.3304369152 -0.1375105828 0.6499740481 4289972795
-0.3296055496 -0.1364442557 0.6483387351 4289776446
-0.3292190731 -0.1355647594 0.6475785375 4289250102
-0.3283865750 -0.1345042735 0.6459410787 4288000813
-0.3275535107 -0.1334471852 0.6443023682 4287606055
-0.3267198205 -0.1323935091 0.6426625252 4287278379
-0.3263313770 -0.1315228939 0.6418983936 4286883621
-0.3263883591 -0.1308325380 0.6420105100 4286620964
-0.3259991109 -0.1299640387 0.6412448287 4286423585
-0.3260554373 -0.1292739064 0.6413556933 4285700398
-0.3261115253 -0.1285834312 0.6414659619 4285174054
-0.3261673152 -0.1278925836 0.6415756941 4284975187
-0.3266690671 -0.1273754090 0.6425626874 4285764703
-0.3267243803 -0.1266829073 0.6426714659 4288326052
-0.3229626119 -0.1948215663 0.6366629601 4291351493
-0.3230437636 -0.1941629797 0.6368229389 4289443496
-0.3231247067 -0.1935038865 0.6369825006 4290696044
-0.3232053816 -0.1928443015 0.6371415257 4291156595
-0.3219752312 -0.1914050877 0.6347165108 4291024981
-0.3211811781 -0.1902295649 0.6331511736 4291024981
-0.3208235204 -0.1893150508 0.6324461102 4291156310
-0.3209026158 -0.1886588484 0.6326020360 4291024724
-0.3209814727 -0.1880021840 0.6327574849 4291024722
-0.3210601211 -0.1873450279 0.6329125166 4291024722
-0.3211385012 -0.1866873801 0.6330670714 4290893648
-0.3212166727 -0.1860292554 0.6332210898 4290827855
-0.3217323124 -0.1856232136 0.6342375875 4290828107
-0.3231236041 -0.1857181787 0.6369802952 4290762314
-0.3245152831 -0.1858072877 0.6397237778 4290696521
-0.3254693151 -0.1856406629 0.6416044235 4290630728
-0.3264235258 -0.1854699701 0.6434854865 4290564935
-0.3269396424 -0.1850471348 0.6445029378 4290564935
-0.3274557292 -0.1846220195 0.6455203295 4290564935
-0.3279717565 -0.1841946095 0.6465376019 4290564935
-0.3289263546 -0.1840102822 0.6484193802 4290499140
-0.3294424117 -0.1835774183 0.6494367123 4290433347
-0.3303972185 -0.1833858043 0.6513189077 4290433346
-0.3309132755 -0.1829474568 0.6523362994 4290367553
-0.3314293325 -0.1825068295 0.6533535719 4290367553
-0.3319453001 -0.1820639074 0.6543707252 4290367553
-0.3324612379 -0.1816187054 0.6553878188 4290367553
-0.3329771161 -0.1811712086 0.6564047933 4290301760
-0.3326141834 -0.1802452207 0.6556892991 4290236221
-0.3331297636 -0.1797949672 0.6567056775 4290170428
-0.3332056999 -0.1791061312 0.6568553448 4290235706
-0.3332813680 -0.1784168333 0.6570045352 4290235706
-0.3329170048 -0.1774925888 0.6562862396 4290301501
-0.3325521946 -0.1765697151 0.6555670500 4290433087
-0.3326268792 -0.1758808345 0.6557143331 4290301501
-0.3322612643 -0.1749597490 0.6549935341 4290169915
-0.3314549923 -0.1738092154 0.6534041166 4290169913
-0.3310883343 -0.1728917658 0.6526813507 4289972534
-0.3302808702 -0.1717467010 0.6510895491 4289972788
-0.3294727504 -0.1706048399 0.6494964957 4290104374
-0.3286639750 -0.1694661975 0.6479021311 4290169913
-0.3278545737 -0.1683307439 0.6463065147 4290169913
-0.3274852633 -0.1674238592 0.6455785632 4290235960
-0.3271155059 -0.1665183455 0.6448496580 4290170167
-0.3267453313 -0.1656142324 0.6441198587 4290170165
-0.3268157244 -0.1649340987 0.6442586780 4290235958
-0.3268858790 -0.1642535329 0.6443969607 4290170164
-0.3273969889 -0.1637932658 0.6454045177 4290104371
-0.3283493519 -0.1635505557 0.6472819448 4290170418
-0.3288604319 -0.1630848199 0.6482894421 4290170418
-0.3293713927 -0.1626168042 0.6492967606 4290170164
-0.3303239346 -0.1623635888 0.6511744261 4290170164
-0.3312765360 -0.1621062309 0.6530523896 4290170165
-0.3313456774 -0.1614143252 0.6531887054 4290170165
-0.3318564594 -0.1609362811 0.6541955471 4290104885
-0.3323671222 -0.1604559571 0.6552022696 4290170678
-0.3328776956 -0.1599733680 0.6562087536 4290170678
-0.3333882093 -0.1594884843 0.6572151184 4290170678
-0.3334563673 -0.1587907225 0.6573494673 4290170424
-0.3339665830 -0.1583022177 0.6583552957 4290170424
-0.3335918784 -0.1573939323 0.6576166153 4290104633
-0.3336592019 -0.1566949040 0.6577493548 4290170426
-0.3337262869 -0.1559954435 0.6578816175 4290235706
-0.3337930739 -0.1552955657 0.6580132842 4290235706
-0.3329740465 -0.1541852057 0.6563986540 4290235706
-0.3325972259 -0.1532822549 0.6556558609 4290235706
-0.3317770362 -0.1521775573 0.6540389657 4290235706
-0.3309561908 -0.1510761827 0.6524208784 4290235706
-0.3301347494 -0.1499781162 0.6508015394 4290235706
-0.3293126822 -0.1488833725 0.6491809487 4290235706
-0.3293766081 -0.1481908411 0.6493069530 4290301499
-0.3289968669 -0.1472993940 0.6485583782 4290301499
-0.3290601373 -0.1466069967 0.6486831307 4290498880
-0.3291231692 -0.1459141970 0.6488073468 4290498880
-0.3291859031 -0.1452210099 0.6489310265 4290367294
-0.3296920955 -0.1447221935 0.6499289274 4290433087
-0.3301981986 -0.1442211270 0.6509265900 4290498880
-0.3307041824 -0.1437177956 0.6519240141 4290367294
-0.3312100470 -0.1432121843 0.6529212594 4290433085
-0.3317157924 -0.1427043229 0.6539182663 4290630464
-0.3313331306 -0.1418139935 0.6531639695 4290564671
-0.3313942850 -0.1411143094 0.6532844305 4290433085
