VERSION 0.7
FIELDS x y z rgba
SIZE 4 4 4 4
TYPE F F F U
COUNT 1 1 1 1
WIDTH 920
HEIGHT 1
VIEWPOINT 0.0 0.0 0.0 1.0 0.0 0.0 0.0
POINTS 920
DATA ascii
-0.3347887993 -0.1714629382 0.6500138044 4289513260
-0.3335244954 -0.1700959355 0.6475591063 4289579053
-0.3309214115 -0.1680545062 0.6425049901 4289709867
-0.3278708160 -0.1657980084 0.6365820765 4289775660
-0.3257109523 -0.1640031785 0.6323885918 4289906992
-0.3235498965 -0.1622170657 0.6281927228 4290038578
-0.3222803473 -0.1608853191 0.6257278323 4290104374
-0.3214564323 -0.1597805768 0.6241281629 4290104374
-0.3210784495 -0.1589000523 0.6233942509 4289973298
-0.3211466670 -0.1582410485 0.6235267520 4289973298
-0.3225549161 -0.1582391113 0.6262608767 4290038832
-0.3239634335 -0.1582312584 0.6289956570 4290104625
-0.3258192241 -0.1584347934 0.6325988173 4290104625
-0.3272284865 -0.1584141552 0.6353349090 4290170418
-0.3286380172 -0.1583875865 0.6380716562 4290104884
-0.3300478458 -0.1583550721 0.6408089399 4290170677
-0.3310106695 -0.1581029743 0.6426783204 4290170164
-0.3319735825 -0.1578467488 0.6445478797 4290170164
-0.3329365849 -0.1575864404 0.6464176178 4290170164
-0.3338997066 -0.1573220044 0.6482875943 4290170164
-0.3348629177 -0.1570534557 0.6501576900 4290235957
-0.3358262181 -0.1567808092 0.6520280242 4290235957
-0.3363417387 -0.1562959254 0.6530289650 4290235957
-0.3368571997 -0.1558087766 0.6540297270 4290301750
-0.3378205597 -0.1555256248 0.6559001803 4290235960
-0.3383359015 -0.1550330073 0.6569007635 4290301753
-0.3392993808 -0.1547425389 0.6587713361 4290301753
-0.3398146033 -0.1542444676 0.6597716808 4290235960
-0.3403297067 -0.1537441164 0.6607718468 4290301753
-0.3412932158 -0.1534431428 0.6626425385 4290301753
-0.3418082297 -0.1529373229 0.6636424661 4290301499
-0.3423231244 -0.1524292380 0.6646421552 4290301499
-0.3428378999 -0.1519188881 0.6656416655 4290367292
-0.3433525860 -0.1514062732 0.6666409373 4290301499
-0.3438671529 -0.1508913785 0.6676399708 4290301499
-0.3439325988 -0.1501781642 0.6677671075 4290301499
-0.3439977765 -0.1494645476 0.6678935885 4290301501
-0.3445118368 -0.1489447057 0.6688916683 4290367294
-0.3450257480 -0.1484226137 0.6698895097 4290433087
-0.3455395699 -0.1478982419 0.6708871126 4290498880
-0.3460532725 -0.1473715901 0.6718844771 4290367296
-0.3461173475 -0.1466522217 0.6720088720 4290367296
-0.3461811244 -0.1459324658 0.6721326709 4290367296
-0.3462446034 -0.1452123076 0.6722559333 4290367296
-0.3463077843 -0.1444917470 0.6723786592 4290367296
-0.3463706970 -0.1437707990 0.6725007892 4290367296
-0.3464333117 -0.1430494487 0.6726223230 4290367294
-0.3464956284 -0.1423277110 0.6727433205 4290367294
-0.3461075723 -0.1414216906 0.6719899178 4290301763
-0.3452689052 -0.1403341889 0.6703616381 4290499142
-0.3448798954 -0.1394320875 0.6696062684 4290498637
-0.3435897529 -0.1381693035 0.6671014428 4290564430
-0.3427492678 -0.1370919347 0.6654695868 4290629976
-0.3428091109 -0.1363763511 0.6655857563 4290893148
-0.3415170312 -0.1351256073 0.6630770564 4290958690
-0.3406747878 -0.1340574622 0.6614418030 4291024483
-0.3398319483 -0.1329926997 0.6598054171 4290958698
-0.3394393027 -0.1321067959 0.6590430737 4291090284
-0.3394970596 -0.1313969195 0.6591551900 4291221885
-0.3391036093 -0.1305131167 0.6583912969 4291485057
-0.3391607106 -0.1298034489 0.6585021615 4291746983
-0.3401196897 -0.1294367611 0.6603640914 4292207534
-0.3349046409 -0.1863734126 0.6516439319 4290036672
-0.3349835873 -0.1856931448 0.6517975330 4286615436
-0.3350622952 -0.1850124002 0.6519506574 4286751544
-0.3351407349 -0.1843311787 0.6521033049 4286751544
-0.3352189064 -0.1836494803 0.6522554159 4286622232
-0.3352968395 -0.1829673052 0.6524070501 4286688025
-0.3358181417 -0.1825257689 0.6534214020 4286950681
-0.3358956575 -0.1818417460 0.6535722613 4287016474
-0.3364167809 -0.1813965589 0.6545861363 4287081756
-0.3364938796 -0.1807106882 0.6547362208 4287147549
-0.3361267149 -0.1797868311 0.6540217996 4287082005
-0.3357591033 -0.1788643301 0.6533064842 4286884626
-0.3362794518 -0.1784145385 0.6543189883 4287147032
-0.3363554478 -0.1777276993 0.6544668674 4287410204
-0.3364311755 -0.1770403832 0.6546142101 4287214104
-0.3365066350 -0.1763526201 0.6547610760 4287214104
-0.3365818560 -0.1756643802 0.6549074054 4287345686
-0.3357673585 -0.1745133996 0.6533225775 4287411479
-0.3353970051 -0.1735958308 0.6526019573 4288133917
-0.3345812857 -0.1724503040 0.6510148048 4288791847
-0.3337649405 -0.1713079661 0.6494263411 4289579053
-0.3325027823 -0.1699413359 0.6469705105 4289579053
-0.3299041688 -0.1678999662 0.6419141889 4289775406
-0.3273041248 -0.1658691168 0.6368551254 4289775406
-0.3242572248 -0.1636240333 0.6309266090 4289841200
-0.3225452602 -0.1620628536 0.6275955439 4289972786
-0.3212778866 -0.1607314944 0.6251295209 4289973045
-0.3204553425 -0.1596272141 0.6235290766 4290038838
-0.3205237687 -0.1589683592 0.6236622334 4289973298
-0.3205919564 -0.1583090872 0.6237948537 4289973298
-0.3219977915 -0.1583071798 0.6265303493 4290038578
-0.3234039545 -0.1582993567 0.6292663813 4290104371
-0.3252566159 -0.1585030109 0.6328712106 4290170164
-0.3271097243 -0.1586989015 0.6364769340 4290170164
-0.3285169899 -0.1586714238 0.6392151117 4290170678
-0.3294781148 -0.1584233493 0.6410852075 4290170678
-0.3308858573 -0.1583849043 0.6438243389 4290170165
-0.3318472505 -0.1581276804 0.6456949711 4290170165
-0.3328087628 -0.1578663588 0.6475658417 4290170164
-0.3333235383 -0.1573899388 0.6485674977 4290235957
-0.3342851698 -0.1571213156 0.6504385471 4290235958
-0.3352468610 -0.1568485647 0.6523097754 4290235958
-0.3362086415 -0.1565717012 0.6541811824 4290301751
-0.3367233276 -0.1560834497 0.6551826596 4290301751
-0.3372379541 -0.1555929184 0.6561839581 4290170424
-0.3381997943 -0.1553055495 0.6580555439 4290236217
-0.3387143016 -0.1548095495 0.6590566039 4290236217
-0.3396762311 -0.1545148641 0.6609283090 4290236217
-0.3401906192 -0.1540133953 0.6619291902 4290302012
-0.3407048881 -0.1535096616 0.6629298329 4290302012
-0.3412190676 -0.1530036628 0.6639302969 4290367805
-0.3417331278 -0.1524953842 0.6649305224 4290302012
-0.3422470987 -0.1519848406 0.6659305692 4290302012
-0.3427609503 -0.1514720172 0.6669303775 4290236219
-0.3432746828 -0.1509569287 0.6679300070 4290236221
-0.3437882960 -0.1504395604 0.6689293981 4290236221
-0.3438535035 -0.1497247219 0.6690562367 4290236221
-0.3439184129 -0.1490094811 0.6691825390 4290302014
-0.3439830244 -0.1482938379 0.6693083048 4290367807
-0.3449445069 -0.1479626000 0.6711790562 4290367807
-0.3450087309 -0.1472442746 0.6713040471 4290498113
-0.3450726569 -0.1465255618 0.6714284420 4290498113
-0.3451362848 -0.1458064318 0.6715522408 4290498112
-0.3451996446 -0.1450869143 0.6716755033 4290498112
-0.3452627063 -0.1443670094 0.6717982292 4290367294
-0.3453254700 -0.1436467022 0.6719203591 4290367294
-0.3453879356 -0.1429260075 0.6720418930 4290367294
-0.3454501331 -0.1422049105 0.6721628904 4290367294
-0.3450627029 -0.1412994564 0.6714091301 4290498629
-0.3446748555 -0.1403954923 0.6706544161 4290630215
-0.3442865312 -0.1394930184 0.6698988676 4290301260
-0.3438977897 -0.1385920346 0.6691424251 4290696018
-0.3430589437 -0.1375123262 0.6675102711 4290761308
-0.3417698145 -0.1362567246 0.6650018692 4291024480
-0.3409296870 -0.1351847351 0.6633672118 4291090276
-0.3400889337 -0.1341161430 0.6617313623 4291156069
-0.3392476141 -0.1330509335 0.6600943208 4290958698
-0.3388556838 -0.1321646720 0.6593317389 4291090284
-0.3389134109 -0.1314544827 0.6594440341 4291287678
-0.3385206759 -0.1305703074 0.6586798429 4291550850
-0.3385777175 -0.1298603565 0.6587908864 4291878569
-0.3395351171 -0.1294935346 0.6606537104 4292273327
-0.3329958618 -0.1857125163 0.6493331790 4289970879
-0.3330744505 -0.1850347072 0.6494864225 4286615436
-0.3331527412 -0.1843564212 0.6496390700 4286751544
-0.3332307935 -0.1836776435 0.6497913003 4286685751
-0.3333086073 -0.1829984039 0.6499430537 4286688023
-0.3333861828 -0.1823186874 0.6500942707 4286753816
-0.3339063227 -0.1818797141 0.6511085629 4286950680
-0.3344264328 -0.1814384609 0.6521227360 4287016473
-0.3345034122 -0.1807555109 0.6522728801 4287147547
-0.3345801532 -0.1800720841 0.6524225473 4287147547
-0.3346566558 -0.1793882102 0.6525716782 4287082005
-0.3347328901 -0.1787038445 0.6527203321 4287016212
-0.3348088562 -0.1780190319 0.6528685093 4287147032
-0.3353281319 -0.1775686145 0.6538810730 4287410204
-0.3354036808 -0.1768819541 0.6540284157 4287279897
-0.3354789913 -0.1761948317 0.6541752219 4287279897
-0.3351101875 -0.1752750874 0.6534560323 4287345686
-0.3347409070 -0.1743567139 0.6527360082 4287477272
-0.3343711793 -0.1734396964 0.6520150304 4288133917
-0.3335568607 -0.1722946316 0.6504271030 4288791847
-0.3327418566 -0.1711527556 0.6488378644 4289513260
-0.3310375214 -0.1695588827 0.6455144882 4289513260
-0.3284432590 -0.1675184965 0.6404557228 4289709613
-0.3262921274 -0.1657144129 0.6362611055 4289775406
-0.3232505023 -0.1634692997 0.6303299665 4289841200
-0.3215414584 -0.1619084030 0.6269974113 4289972786
-0.3207210600 -0.1608004272 0.6253976226 4289973045
-0.3199000359 -0.1596956998 0.6237966418 4290038838
-0.3199684024 -0.1590366066 0.6239299774 4289973299
-0.3204816282 -0.1585973501 0.6249307394 4289973299
-0.3214399815 -0.1583752036 0.6267995238 4290104372
-0.3228437603 -0.1583673954 0.6295368671 4290104372
-0.3246932626 -0.1585711688 0.6331433058 4290170165
-0.3265432417 -0.1587671787 0.6367507577 4290170165
-0.3279481232 -0.1587397158 0.6394901872 4290235958
-0.3293533027 -0.1587063074 0.6422302723 4290235958
-0.3303129971 -0.1584531218 0.6441016793 4290235960
-0.3317186534 -0.1584087312 0.6468426585 4290235960
-0.3322326839 -0.1579344124 0.6478450298 4290235960
-0.3327466547 -0.1574578136 0.6488472223 4290235960
-0.3337066472 -0.1571891010 0.6507191658 4290235960
-0.3346667290 -0.1569162607 0.6525913477 4290235960
-0.3356269300 -0.1566393077 0.6544636488 4290235960
-0.3361407816 -0.1561508626 0.6554657221 4290235960
-0.3366545439 -0.1556601524 0.6564675570 4290301753
-0.3371682465 -0.1551671624 0.6574692130 4290301753
-0.3381284773 -0.1548765004 0.6593416333 4290301753
-0.3386420310 -0.1543780416 0.6603431106 4290301753
-0.3396023512 -0.1540800631 0.6622156501 4290367292
-0.3396688700 -0.1533743292 0.6623453498 4290367292
-0.3401821256 -0.1528690457 0.6633461714 4290433085
-0.3406952620 -0.1523615122 0.6643468142 4290367292
-0.3412083089 -0.1518516988 0.6653472185 4290367292
-0.3421685100 -0.1515377015 0.6672196388 4290301499
-0.3426814377 -0.1510224193 0.6682198048 4290301499
-0.3427467644 -0.1503086239 0.6683471799 4290235706
-0.3432593644 -0.1497897357 0.6693467498 4290301499
-0.3433242142 -0.1490741968 0.6694731712 4290367292
-0.3433887959 -0.1483582705 0.6695991158 4290367294
-0.3434530795 -0.1476419270 0.6697244644 4290433087
-0.3439649343 -0.1471167505 0.6707226038 4290498113
-0.3440287411 -0.1463986635 0.6708469987 4290498113
-0.3440922201 -0.1456801891 0.6709707975 4290367296
-0.3446035683 -0.1451500803 0.6719678640 4290433089
-0.3442183733 -0.1442420632 0.6712167859 4290433085
-0.3442809880 -0.1435223967 0.6713389158 4290433085
-0.3443433344 -0.1428023428 0.6714604497 4290433087
-0.3444053829 -0.1420819014 0.6715814471 4290433087
-0.3440186381 -0.1411770135 0.6708272696 4290367302
-0.3436314166 -0.1402736008 0.6700721979 4290169923
-0.3432437479 -0.1393716931 0.6693162918 4289709125
-0.3428556323 -0.1384712905 0.6685594320 4290564434
-0.3420182168 -0.1373920739 0.6669265032 4290827101
-0.3398334086 -0.1357781589 0.6626662612 4291156066
-0.3403415680 -0.1352438033 0.6636570692 4291024740
-0.3395023346 -0.1341747642 0.6620206237 4291156326
-0.3386625051 -0.1331091225 0.6603829861 4291024490
-0.3382712901 -0.1322224736 0.6596201658 4291090283
-0.3383289576 -0.1315120161 0.6597325802 4291287932
-0.3379369676 -0.1306274682 0.6589682102 4291616897
-0.3379939795 -0.1299172193 0.6590793729 4291747753
-0.3380506933 -0.1292066127 0.6591899395 4292208304
-0.3319739103 -0.1855444163 0.6487454176 4289839293
-0.3316107094 -0.1846214086 0.6480357051 4286681229
-0.3316887617 -0.1839446723 0.6481881738 4286817337
-0.3313247859 -0.1830234230 0.6474769115 4286619958
-0.3314022124 -0.1823466420 0.6476281881 4286819609
-0.3319213390 -0.1819116026 0.6486427188 4286819609
-0.3319983780 -0.1812329590 0.6487932801 4286819864
-0.3325173259 -0.1807942688 0.6498073936 4286885657
-0.3325939476 -0.1801137775 0.6499571204 4287082267
-0.3331127167 -0.1796714365 0.6509708762 4287082267
-0.3331889212 -0.1789890975 0.6511198282 4287147798
-0.3332648873 -0.1783062965 0.6512683034 4287213591
-0.3337832689 -0.1778589189 0.6522813439 4287213339
-0.3338588476 -0.1771742851 0.6524289846 4287344925
-0.3343770206 -0.1767232567 0.6534416080 4287213850
-0.3344521523 -0.1760367751 0.6535884142 4287213850
-0.3340839446 -0.1751175970 0.6528688669 4287279895
-0.3337152600 -0.1741997600 0.6521484256 4287543067
-0.3333461583 -0.1732833087 0.6514270902 4288265503
-0.3325332105 -0.1721386909 0.6498383880 4288857640
-0.3312761188 -0.1707686633 0.6473817825 4289447467
-0.3300181925 -0.1694036573 0.6449235678 4289447467
-0.3274284005 -0.1673633456 0.6398625970 4289709613
-0.3248372078 -0.1653335690 0.6347988844 4289775406
-0.3226884604 -0.1635392755 0.6305997372 4289906993
-0.3209824562 -0.1619777232 0.6272658706 4289972786
-0.3197194934 -0.1606462002 0.6247977614 4289973045
-0.3193439841 -0.1597641408 0.6240639687 4290038838
-0.3194122910 -0.1591047794 0.6241974235 4290104374
-0.3199246824 -0.1586653739 0.6251987815 4290104374
-0.3213258684 -0.1586626023 0.6279369593 4290038838
-0.3227273822 -0.1586539149 0.6306757927 4290104631
-0.3245738149 -0.1588568836 0.6342841387 4290104631
-0.3259760141 -0.1588353813 0.6370242834 4290170424
-0.3273785114 -0.1588079482 0.6397650838 4290235960
-0.3287813067 -0.1587745547 0.6425064206 4290235960
-0.3301843703 -0.1587352157 0.6452483535 4290301753
-0.3311426640 -0.1584769040 0.6471210122 4290301753
-0.3316558599 -0.1580024064 0.6481239200 4290301499
-0.3321689963 -0.1575256288 0.6491266489 4290235706
-0.3331273794 -0.1572568268 0.6509995461 4290235706
-0.3340858817 -0.1569838971 0.6528726220 4290235706
-0.3350444436 -0.1567068547 0.6547458768 4290235960
-0.3355574906 -0.1562182307 0.6557484865 4290235960
-0.3360704184 -0.1557273269 0.6567508578 4290301753
-0.3365832567 -0.1552341580 0.6577530503 4290301753
-0.3370960057 -0.1547387093 0.6587550640 4290301753
-0.3380546272 -0.1544447541 0.6606283784 4290367546
-0.3385672569 -0.1539438367 0.6616302133 4290367546
-0.3390797973 -0.1534406394 0.6626317501 4290433339
-0.3395922184 -0.1529351771 0.6636331677 4290433339
-0.3401045203 -0.1524274498 0.6646343470 4290433339
-0.3406167328 -0.1519174427 0.6656352878 4290433085
-0.3411288261 -0.1514051557 0.6666360497 4290367292
-0.3416408300 -0.1508906037 0.6676365733 4290235706
-0.3417060077 -0.1501774639 0.6677639484 4290235706
-0.3422176838 -0.1496593058 0.6687638760 4290235706
-0.3422824144 -0.1489444226 0.6688903570 4290301499
-0.3423468471 -0.1482291222 0.6690162420 4290367292
-0.3428579867 -0.1477060169 0.6700151563 4290433085
-0.3429219425 -0.1469889879 0.6701401472 4290367041
-0.3429855704 -0.1462715566 0.6702645421 4290367041
-0.3430489600 -0.1455537379 0.6703883410 4290433087
-0.3435593545 -0.1450243443 0.6713858247 4290433087
-0.3431748152 -0.1441168934 0.6706343293 4290433085
-0.3432373106 -0.1433978826 0.6707564592 4290498878
-0.3432995081 -0.1426784694 0.6708779931 4290433600
-0.3429137766 -0.1417735964 0.6701241732 4290433600
-0.3425275683 -0.1408702135 0.6693694592 4290367556
-0.3421409130 -0.1399683058 0.6686138511 4289775419
-0.3422017097 -0.1392501742 0.6687326431 4289117499
-0.3413662612 -0.1381690055 0.6671000123 4290235980
-0.3409782350 -0.1372716129 0.6663417816 4290696026
-0.3401416540 -0.1361962706 0.6647068858 4291024991
-0.3384079933 -0.1347673386 0.6613189578 4291024740
-0.3380183578 -0.1338782310 0.6605575085 4291156326
-0.3376282454 -0.1329906434 0.6597951651 4291024490
-0.3372376859 -0.1321045756 0.6590319276 4291090283
-0.3372952342 -0.1313947588 0.6591444016 4291288189
-0.3378010988 -0.1308583617 0.6601329446 4291617154
-0.3378581405 -0.1301468760 0.6602444053 4291747752
-0.3379148841 -0.1294350326 0.6603552699 4292142510
-0.3305120468 -0.1851291806 0.6472935677 4289707705
-0.3305901587 -0.1844535768 0.6474465728 4286812813
-0.3302271068 -0.1835324466 0.6467355490 4286883384
-0.3298636377 -0.1826126426 0.6460236907 4286620212
-0.3299407959 -0.1819374114 0.6461747885 4286819609
-0.3300176859 -0.1812617034 0.6463254094 4286885402
-0.3305356503 -0.1808269471 0.6473398209 4286819862
-0.3310535550 -0.1803899109 0.6483541131 4286885655
-0.3311299086 -0.1797109842 0.6485036016 4287082267
-0.3316476047 -0.1792702973 0.6495175362 4287148060
-0.3317235410 -0.1785895228 0.6496662498 4287213591
-0.3317992389 -0.1779082865 0.6498144865 4287345177
-0.3323166072 -0.1774625629 0.6508277059 4287344925
-0.3323918879 -0.1767794937 0.6509751678 4287344925
-0.3329090178 -0.1763301194 0.6519879699 4287213850
-0.3329838812 -0.1756452024 0.6521345973 4287213850
-0.3326161802 -0.1747274846 0.6514144540 4287411481
-0.3322480321 -0.1738111228 0.6506934166 4287608860
-0.3318794072 -0.1728961170 0.6499715447 4288199967
-0.3310677409 -0.1717528701 0.6483818889 4288660518
-0.3302554190 -0.1706128269 0.6467910409 4289185065
-0.3289996684 -0.1692481786 0.6443316340 4289250858
-0.3264143765 -0.1672079414 0.6392684579 4289709613
-0.3238276541 -0.1651782393 0.6342024803 4289841199
-0.3216826022 -0.1633841246 0.6300015450 4289972786
-0.3204227388 -0.1620469838 0.6275340915 4290038579
-0.3191620111 -0.1607149243 0.6250650287 4289973045
-0.3187872469 -0.1598325223 0.6243310571 4289973045
-0.3188554943 -0.1591729075 0.6244646907 4290170167
-0.3193670511 -0.1587333381 0.6254665852 4290170167
-0.3207658529 -0.1587305963 0.6282060742 4290104631
-0.3221649528 -0.1587219238 0.6309461594 4290104631
-0.3240082264 -0.1589250118 0.6345561743 4290170424
-0.3258519769 -0.1591203213 0.6381670833 4290170424
-0.3268081546 -0.1588761210 0.6400396824 4290235960
-0.3282085657 -0.1588427424 0.6427823305 4290235960
-0.3291650414 -0.1585893929 0.6446555257 4290235960
-0.3305659294 -0.1585450172 0.6473991275 4290301753
-0.3315227032 -0.1582825184 0.6492729187 4290301499
-0.3320350945 -0.1578046381 0.6502764225 4290301499
-0.3329919577 -0.1575348228 0.6521503925 4290301499
-0.3339489102 -0.1572608799 0.6540245414 4290301499
-0.3344612122 -0.1567743421 0.6550278664 4290301753
-0.3349734247 -0.1562855393 0.6560309529 4290367546
-0.3354855180 -0.1557944417 0.6570339203 4290301753
-0.3359975219 -0.1553010941 0.6580366492 4290301753
-0.3365094364 -0.1548054665 0.6590391994 4290301753
-0.3370212317 -0.1543075591 0.6600415707 4290367546
-0.3375329375 -0.1538073719 0.6610437036 4290367546
-0.3384899497 -0.1535069048 0.6629179120 4290367546
-0.3385560513 -0.1528002024 0.6630474329 4290433339
-0.3395130038 -0.1524933279 0.6649215817 4290433339
-0.3395787477 -0.1517839283 0.6650503278 4290433085
-0.3400899172 -0.1512723863 0.6660514474 4290367292
-0.3406009972 -0.1507585645 0.6670523286 4290301499
-0.3406660557 -0.1500460804 0.6671797633 4290235706
-0.3411768079 -0.1495286524 0.6681800485 4290235706
-0.3412413895 -0.1488144100 0.6683065295 4290301499
-0.3413056731 -0.1480997652 0.6684324145 4290367292
-0.3413696587 -0.1473847330 0.6685577631 4290367292
-0.3418796957 -0.1468610018 0.6695566773 4290367041
-0.3419432044 -0.1461442262 0.6696810722 4290367041
-0.3420064449 -0.1454270482 0.6698048711 4290302014
-0.3420693874 -0.1447094679 0.6699281335 4290367807
-0.3421320319 -0.1439915001 0.6700508595 4290367805
-0.3421944082 -0.1432731450 0.6701729894 4290433598
-0.3418096602 -0.1423682868 0.6694194674 4290433600
-0.3418713510 -0.1416500658 0.6695402861 4290433600
-0.3414857984 -0.1407472491 0.6687852144 4290433349
-0.3410997987 -0.1398459226 0.6680292487 4289907005
-0.3411604762 -0.1391284466 0.6681480408 4289446462
-0.3403264284 -0.1380477697 0.6665146351 4290367564
-0.3394917846 -0.1369704753 0.6648799777 4290696026
-0.3391039073 -0.1360760927 0.6641203761 4290959198
-0.3382681310 -0.1350046545 0.6624835134 4291024740
-0.3374317586 -0.1339365989 0.6608455181 4291222119
-0.3374899626 -0.1332253367 0.6609595418 4290827881
-0.3371002376 -0.1323379576 0.6601962447 4290959467
-0.3367100358 -0.1314521134 0.6594321132 4291288189
-0.3367672563 -0.1307416409 0.6595441103 4291617154
-0.3368241489 -0.1300308108 0.6596555710 4291616679
-0.3368807733 -0.1293196231 0.6597664356 4292077230
-0.3286126256 -0.1844665110 0.6449766159 4289510326
-0.3286903501 -0.1837933660 0.6451291442 4286944399
-0.3287678361 -0.1831197292 0.6452812552 4287014970
-0.3288450539 -0.1824456304 0.6454328299 4286751798
-0.3284817040 -0.1815277040 0.6447196603 4287082267
-0.3285583556 -0.1808535606 0.6448700428 4287016474
-0.3290752470 -0.1804204583 0.6458846331 4287082264
-0.3295921087 -0.1799850911 0.6468990445 4287082264
-0.3296681941 -0.1793077141 0.6470484138 4287148060
-0.3297440112 -0.1786298752 0.6471972466 4287148060
-0.3302605450 -0.1781894714 0.6482110023 4287410200
-0.3307769895 -0.1777467877 0.6492246389 4287541786
-0.3308522701 -0.1770657450 0.6493723989 4287344925
-0.3313685060 -0.1766193956 0.6503856778 4287344925
-0.3314433694 -0.1759365201 0.6505326033 4287213850
-0.3315179646 -0.1752531677 0.6506789923 4287279643
-0.3315923214 -0.1745693535 0.6508249044 4287477274
-0.3312247694 -0.1736535430 0.6501035094 4287608860
-0.3308567703 -0.1727391034 0.6493812203 4288134174
-0.3300464749 -0.1715963036 0.6477908492 4288594725
-0.3292355537 -0.1704567224 0.6461992264 4289185065
-0.3279819489 -0.1690924466 0.6437387466 4289250858
-0.3254011273 -0.1670522839 0.6386733651 4289775407
-0.3228189051 -0.1650226563 0.6336051226 4289972786
-0.3206776083 -0.1632287204 0.6294022799 4290104374
-0.3194198906 -0.1618919671 0.6269337535 4290104374
-0.3186038435 -0.1607835740 0.6253321171 4289973045
-0.3182297647 -0.1599008292 0.6245979071 4289973045
-0.3182979524 -0.1592409760 0.6247317195 4290170165
-0.3192514479 -0.1590217948 0.6266031861 4290235958
-0.3202050924 -0.1587985307 0.6284748912 4290170424
-0.3220447898 -0.1590086073 0.6320857406 4290170424
-0.3238849938 -0.1592108905 0.6356975436 4290170424
-0.3257256746 -0.1594053805 0.6393103600 4290170424
-0.3266803324 -0.1591601819 0.6411840320 4290301751
-0.3276351094 -0.1589108557 0.6430580020 4290301751
-0.3290334046 -0.1588715464 0.6458024979 4290301751
-0.3299884796 -0.1586130708 0.6476770043 4290235958
-0.3309436142 -0.1583504826 0.6495517492 4290301753
-0.3318988979 -0.1580837667 0.6514266133 4290367546
-0.3324104249 -0.1576025188 0.6524306536 4290367546
-0.3333657682 -0.1573284864 0.6543057561 4290367546
-0.3338772357 -0.1568417698 0.6553095579 4290433339
-0.3343885839 -0.1563527733 0.6563132405 4290433339
-0.3348998725 -0.1558615118 0.6573167443 4290367546
-0.3354110420 -0.1553679705 0.6583200097 4290367546
-0.3359220922 -0.1548721492 0.6593230963 4290367546
-0.3364330828 -0.1543740481 0.6603260040 4290367546
-0.3369439542 -0.1538736820 0.6613287330 4290367546
-0.3374547064 -0.1533710510 0.6623312235 4290367546
-0.3379653990 -0.1528661251 0.6633335352 4290367546
-0.3384759426 -0.1523589343 0.6643356085 4290433339
-0.3385415375 -0.1516501904 0.6644643545 4290367292
-0.3390517831 -0.1511393785 0.6654658318 4290367292
-0.3391169012 -0.1504288912 0.6655936241 4290367292
-0.3396268487 -0.1499144584 0.6665945053 4290301499
-0.3396914899 -0.1492022127 0.6667214036 4290301501
-0.3397558331 -0.1484895647 0.6668476462 4290301501
-0.3402652740 -0.1479701847 0.6678475738 4290235708
-0.3403291404 -0.1472557932 0.6679729223 4290235708
-0.3403927088 -0.1465409994 0.6680976748 4290235968
-0.3404560089 -0.1458258033 0.6682219505 4290235968
-0.3405190110 -0.1451102197 0.6683455706 4290301760
-0.3405817449 -0.1443942189 0.6684687138 4290301760
-0.3406441808 -0.1436778456 0.6685912013 4290367807
-0.3407063186 -0.1429610699 0.6687132120 4290367807
-0.3407681584 -0.1422438920 0.6688346267 4290433346
-0.3403836191 -0.1413410902 0.6680798531 4290433346
-0.3399986327 -0.1404397786 0.6673241854 4290564935
-0.3400594592 -0.1397233307 0.6674435735 4290499142
-0.3396736383 -0.1388240755 0.6666863561 4290432844
-0.3392873704 -0.1379263103 0.6659282446 4290696016
-0.3384541571 -0.1368495226 0.6642928720 4290827353
-0.3380669355 -0.1359557062 0.6635327935 4291024732
-0.3376792371 -0.1350634247 0.6627718806 4291090533
-0.3368443847 -0.1339949220 0.6611332893 4291287912
-0.3364557326 -0.1331066042 0.6603704691 4291090284
-0.3360666335 -0.1322198063 0.6596068144 4291156077
-0.3361240923 -0.1315094084 0.6597195268 4291353984
-0.3361812234 -0.1307986528 0.6598317027 4291551363
-0.3362380862 -0.1300875247 0.6599433422 4291550887
-0.3358474672 -0.1292040050 0.6591765881 4292077231
-0.3267171383 -0.1838031560 0.6426572204 4289444531
-0.3267944753 -0.1831324697 0.6428093314 4287010190
-0.3268715739 -0.1824612916 0.6429610252 4287146043
-0.3269484043 -0.1817896366 0.6431121826 4286948664
-0.3270250261 -0.1811175197 0.6432628632 4287148060
-0.3271013796 -0.1804449260 0.6434130073 4287082267
-0.3276172280 -0.1800134927 0.6444277167 4287148057
-0.3281330466 -0.1795797795 0.6454423070 4287213850
-0.3282088637 -0.1789039820 0.6455914378 4287213340
-0.3282844126 -0.1782276928 0.6457400918 4287213340
-0.3287998736 -0.1777889580 0.6467540264 4287475993
-0.3293152750 -0.1773479283 0.6477678418 4287475993
-0.3293902874 -0.1766684502 0.6479153633 4287344925
-0.3299054801 -0.1762237698 0.6489287615 4287344925
-0.3304206431 -0.1757768095 0.6499421000 4287213850
-0.3304950893 -0.1750941128 0.6500884891 4287213850
-0.3305692673 -0.1744109541 0.6502344012 4287477274
-0.3302023113 -0.1734957099 0.6495126486 4287543067
-0.3298349380 -0.1725818217 0.6487900019 4288068381
-0.3294670880 -0.1716693044 0.6480664015 4288660518
-0.3286576271 -0.1705292612 0.6464742422 4289185065
-0.3274062872 -0.1691644341 0.6440128088 4289316651
-0.3248300850 -0.1671234369 0.6389453411 4289775407
-0.3222524524 -0.1650929749 0.6338751316 4290038579
-0.3201149404 -0.1632983088 0.6296706200 4290104374
-0.3184178472 -0.1617366821 0.6263324022 4290104374
-0.3180449307 -0.1608521789 0.6255989075 4289907765
-0.3176715970 -0.1599690914 0.6248645186 4289907765
-0.3181816339 -0.1595305353 0.6258677840 4290235957
-0.3186916113 -0.1590897292 0.6268708706 4290235957
-0.3200857341 -0.1590861380 0.6296131611 4290170678
-0.3214801550 -0.1590765864 0.6323560476 4290170678
-0.3233171999 -0.1592789888 0.6359695196 4290236471
-0.3251547217 -0.1594735980 0.6395838857 4290236471
-0.3265502155 -0.1594443619 0.6423289180 4290301751
-0.3275034726 -0.1591940522 0.6442039609 4290301751
-0.3288994730 -0.1591538191 0.6469499469 4290301751
-0.3298529983 -0.1588943452 0.6488255262 4290235958
-0.3308066428 -0.1586307436 0.6507013440 4290301751
-0.3313174546 -0.1581515819 0.6517060995 4290367544
-0.3322711885 -0.1578806639 0.6535820961 4290301753
-0.3327818811 -0.1573960483 0.6545866728 4290433339
-0.3332924843 -0.1569091380 0.6555910707 4290499130
-0.3338030279 -0.1564199626 0.6565952897 4290433337
-0.3338700533 -0.1557217091 0.6567271352 4290367803
-0.3343802989 -0.1552289128 0.6577308178 4290367803
-0.3348904550 -0.1547338367 0.6587342620 4290367803
-0.3354004920 -0.1542364806 0.6597375274 4290367803
-0.3359104395 -0.1537368447 0.6607406139 4290302010
-0.3364202976 -0.1532349437 0.6617434621 4290236217
-0.3369300365 -0.1527307779 0.6627461314 4290236219
-0.3374396861 -0.1522243172 0.6637486219 4290302012
-0.3375051320 -0.1515162289 0.6638773680 4290302012
-0.3380144536 -0.1510061473 0.6648792028 4290302012
-0.3380794227 -0.1502963006 0.6650069952 4290236221
-0.3385884464 -0.1497826129 0.6660082936 4290236221
-0.3386529386 -0.1490710229 0.6661351323 4290170428
-0.3387171626 -0.1483590305 0.6662614346 4290170428
-0.3387810886 -0.1476466209 0.6663871408 4290170174
-0.3392893970 -0.1471266448 0.6673870683 4290170174
-0.3393528461 -0.1464124918 0.6675118208 4290235968
-0.3389711380 -0.1455069929 0.6667610407 4290235968
-0.3390339315 -0.1447929889 0.6668845415 4290301760
-0.3390964270 -0.1440785974 0.6670074463 4290301760
-0.3391586542 -0.1433637887 0.6671298742 4290367553
-0.3392205834 -0.1426486075 0.6672516465 4290433346
-0.3392822146 -0.1419330239 0.6673728824 4290433346
-0.3393435478 -0.1412170678 0.6674935818 4290433346
-0.3385137916 -0.1401319355 0.6658614278 4290564935
-0.3385744095 -0.1394170821 0.6659806371 4290828107
-0.3386347294 -0.1387018412 0.6660993099 4291025235
-0.3382491171 -0.1378046572 0.6653408408 4290630477
-0.3378630579 -0.1369089633 0.6645814180 4290629974
-0.3370307386 -0.1358351260 0.6629442573 4290893146
-0.3366437256 -0.1349433959 0.6621829867 4291155815
-0.3358102739 -0.1338754147 0.6605435610 4291353194
-0.3354222775 -0.1329876631 0.6597803831 4291221870
-0.3354799747 -0.1322773397 0.6598938704 4291287663
-0.3355373740 -0.1315666586 0.6600067616 4291353984
-0.3351481855 -0.1306816041 0.6592412591 4291485570
-0.3352049291 -0.1299711317 0.6593528390 4291616167
-0.3352613747 -0.1292603016 0.6594638824 4292208304
-0.3248255551 -0.1831391007 0.6403353810 4289576105
-0.3249025047 -0.1824708730 0.6404871345 4287075971
-0.3249792159 -0.1818021536 0.6406383514 4287080512
-0.3250556886 -0.1811329722 0.6407890916 4286948926
-0.3255707026 -0.1807068586 0.6418042779 4287082264
-0.3260856569 -0.1802784652 0.6428194642 4287148057
-0.3266005516 -0.1798477918 0.6438344717 4287148060
-0.3266763389 -0.1791740060 0.6439839005 4287213853
-0.3267518580 -0.1784997582 0.6441327929 4287344926
-0.3272664249 -0.1780640483 0.6451471448 4287344926
-0.3277809620 -0.1776260734 0.6461614370 4287213593
-0.3282954395 -0.1771858037 0.6471756101 4287279386
-0.3283702731 -0.1765069664 0.6473231316 4287345179
-0.3288845122 -0.1760630459 0.6483369470 4287345179
-0.3293987215 -0.1756168455 0.6493505836 4287345688
-0.3299128711 -0.1751683652 0.6503641605 4287477274
-0.3299869895 -0.1744849533 0.6505102515 4287543065
-0.3296207786 -0.1735693365 0.6497883201 4287477272
-0.3292540908 -0.1726550907 0.6490654349 4288002588
-0.3288869560 -0.1717422307 0.6483417153 4288594725
-0.3280789852 -0.1706017256 0.6467489600 4289185065
-0.3263894320 -0.1690082699 0.6434183121 4289316651
-0.3238177299 -0.1669673622 0.6383486390 4289710124
-0.3212445974 -0.1649369746 0.6332761645 4289907503
-0.3195515573 -0.1633678228 0.6299386621 4290039091
-0.3182983994 -0.1620299816 0.6274682879 4290039091
-0.3179262877 -0.1611442268 0.6267347336 4289973558
-0.3175537288 -0.1602598578 0.6260003448 4290105144
-0.3180630207 -0.1598202437 0.6270043254 4290038579
-0.3185722530 -0.1593783498 0.6280081868 4290038579
-0.3204054236 -0.1595936865 0.6316218972 4290301753
-0.3217976391 -0.1595823318 0.6343663931 4290301753
-0.3231901824 -0.1595650166 0.6371115446 4290235960
-0.3250246048 -0.1597588211 0.6407278180 4290301753
-0.3259761333 -0.1595125347 0.6426035166 4290235958
-0.3273695409 -0.1594773531 0.6453503966 4290367544
-0.3283213675 -0.1592219174 0.6472267509 4290301751
-0.3292732835 -0.1589623541 0.6491032839 4290301751
-0.3302252889 -0.1586986780 0.6509799957 4290301753
-0.3307352364 -0.1582193375 0.6519852877 4290433339
-0.3316873610 -0.1579483300 0.6538622379 4290433339
-0.3321972191 -0.1574635357 0.6548673511 4290367546
-0.3327070177 -0.1569764465 0.6558722854 4290433339
-0.3327741623 -0.1562792659 0.6560046673 4290433339
-0.3337262869 -0.1559954435 0.6578816175 4290367544
-0.3337930739 -0.1552955657 0.6580132842 4290499130
-0.3343023956 -0.1548003107 0.6590172648 4290433339
-0.3348115981 -0.1543027759 0.6600211263 4290433339
-0.3348777592 -0.1535997838 0.6601514816 4290433339
-0.3353866637 -0.1530986130 0.6611547470 4290433339
-0.3358954787 -0.1525951773 0.6621577740 4290301753
-0.3364042044 -0.1520894617 0.6631606221 4290301753
-0.3364695013 -0.1513820291 0.6632893682 4290301499
-0.3369778991 -0.1508726925 0.6642916203 4290301499
-0.3370427489 -0.1501635015 0.6644194126 4290301499
-0.3375508487 -0.1496505439 0.6654210091 4290367292
-0.3376151919 -0.1489396095 0.6655479074 4290367292
-0.3376792669 -0.1482282579 0.6656741500 4290301499
-0.3377430439 -0.1475165039 0.6657999158 4290301499
-0.3378065526 -0.1468043476 0.6659250855 4290367292
-0.3378697634 -0.1460917890 0.6660497189 4290301501
-0.3379326761 -0.1453788429 0.6661737561 4290301501
-0.3379953504 -0.1446654797 0.6662972569 4290367296
-0.3380576968 -0.1439517289 0.6664202213 4290433089
-0.3381197751 -0.1432375908 0.6665425897 4290498627
-0.3377371728 -0.1423357725 0.6657883525 4290564420
-0.3377985954 -0.1416217834 0.6659094095 4290696261
-0.3378597498 -0.1409074068 0.6660299301 4290630468
-0.3374759555 -0.1400081813 0.6652733684 4290828105
-0.3375364244 -0.1392939836 0.6653926373 4290696519
-0.3371518254 -0.1383967996 0.6646344662 4290696270
-0.3367667794 -0.1375011355 0.6638754010 4290630477
-0.3363813162 -0.1366069764 0.6631155014 4290695769
-0.3359953761 -0.1357143223 0.6623547077 4290893148
-0.3356089890 -0.1348231733 0.6615930200 4291155815
-0.3347769976 -0.1337556839 0.6599528790 4291221608
-0.3343896568 -0.1328685135 0.6591892838 4290894450
-0.3348925412 -0.1323348284 0.6601806283 4290960243
-0.3345044553 -0.1314488202 0.6594156027 4291091331
-0.3341159523 -0.1305643469 0.6586497426 4291354503
-0.3341725469 -0.1298545301 0.6587613225 4291616420
-0.3337832391 -0.1289721727 0.6579938531 4292208557
-0.3229379058 -0.1824743599 0.6380111575 4289378722
-0.3230144680 -0.1818085760 0.6381624341 4286944381
-0.3235285878 -0.1813877821 0.6391781569 4287014719
-0.3236047924 -0.1807201654 0.6393286586 4286817340
-0.3241187334 -0.1802957058 0.6403440237 4287082264
-0.3246326447 -0.1798689812 0.6413593292 4287148057
-0.3251464963 -0.1794399619 0.6423745155 4287148060
-0.3256603181 -0.1790086776 0.6433896422 4287148060
-0.3261740804 -0.1785750985 0.6444047093 4287213852
-0.3262493014 -0.1779001355 0.6445533037 4287213852
-0.3263242543 -0.1772247106 0.6447013617 4287279384
-0.3272763789 -0.1770233959 0.6465824842 4287279384
-0.3277898729 -0.1765816063 0.6475968957 4287345179
-0.3283032775 -0.1761375368 0.6486112475 4287410972
-0.3288166523 -0.1756911874 0.6496254802 4287411481
-0.3288908303 -0.1750088781 0.6497720480 4287477274
-0.3294039965 -0.1745588630 0.6507858634 4287543065
-0.3285991549 -0.1734110713 0.6491957903 4287477272
-0.3282330930 -0.1724973917 0.6484726071 4288002588
-0.3278665841 -0.1715850681 0.6477484703 4288528932
-0.3270600140 -0.1704450399 0.6461549401 4289316651
-0.3258130848 -0.1690800339 0.6436915398 4289382444
-0.3232459724 -0.1670382917 0.6386197805 4289775406
-0.3206774592 -0.1650070697 0.6335452795 4289972785
-0.3189874887 -0.1634372771 0.6302065253 4290104372
-0.3181766570 -0.1623234153 0.6286045909 4290170165
-0.3178053498 -0.1614363939 0.6278710365 4289973558
-0.3174336255 -0.1605507582 0.6271366477 4290039351
-0.3179421723 -0.1601100713 0.6281413436 4290104372
-0.3188911080 -0.1598879397 0.6300160885 4290235958
-0.3202807307 -0.1598816365 0.6327614784 4290367544
-0.3221112788 -0.1600883752 0.6363780499 4290235958
-0.3235016167 -0.1600692421 0.6391248107 4290235958
-0.3248922229 -0.1600441635 0.6418721676 4290367544
-0.3258422017 -0.1597968787 0.6437490582 4290235958
-0.3267922997 -0.1595454812 0.6456260681 4290038579
-0.3277424872 -0.1592899561 0.6475033164 4289906993
-0.3286927938 -0.1590303183 0.6493808031 4290038579
-0.3296431899 -0.1587665528 0.6512584090 4290301753
-0.3301523030 -0.1582870334 0.6522642374 4290367546
-0.3306613266 -0.1578052491 0.6532699466 4290301753
-0.3316118419 -0.1575309634 0.6551477909 4290235960
-0.3316791058 -0.1568348557 0.6552807093 4290367544
-0.3321878612 -0.1563462466 0.6562858224 4290433337
-0.3326965272 -0.1558553427 0.6572907567 4290433339
-0.3332051039 -0.1553621739 0.6582955122 4290433339
-0.3332715631 -0.1546616107 0.6584268212 4290499132
-0.3333377540 -0.1539606154 0.6585575938 4290499132
-0.3338458538 -0.1534624845 0.6595613956 4290433085
-0.3343538344 -0.1529620588 0.6605650187 4290433085
-0.3348617256 -0.1524593532 0.6615684032 4290367292
-0.3353695273 -0.1519543827 0.6625716090 4290367292
-0.3358772099 -0.1514471322 0.6635746360 4290367294
-0.3359421492 -0.1507389992 0.6637029648 4290301501
-0.3364495337 -0.1502281278 0.6647053361 4290367294
-0.3365140259 -0.1495182514 0.6648327708 4290367294
-0.3370210826 -0.1490037590 0.6658345461 4290367294
-0.3366421461 -0.1480972618 0.6650859118 4290301501
-0.3367058039 -0.1473861635 0.6652116179 4290367294
-0.3367691636 -0.1466746628 0.6653367877 4290367294
-0.3363890350 -0.1457706988 0.6645858288 4290301501
-0.3364517391 -0.1450593323 0.6647097468 4290301501
-0.3365141749 -0.1443475783 0.6648330688 4290432834
-0.3365763128 -0.1436354220 0.6649558544 4290432834
-0.3366381824 -0.1429228634 0.6650780439 4290498627
-0.3366997540 -0.1422099322 0.6651996970 4290564420
-0.3363173306 -0.1413101703 0.6644442081 4290630468
-0.3363782763 -0.1405973881 0.6645645499 4290630468
-0.3364388943 -0.1398842186 0.6646843553 4290762312
-0.3360553086 -0.1389870644 0.6639265418 4290696519
-0.3361153007 -0.1382740736 0.6640450358 4290696270
-0.3352868259 -0.1371972561 0.6624082327 4290696270
-0.3353460729 -0.1364853829 0.6625252962 4290695769
-0.3349607885 -0.1355933100 0.6617640853 4290893148
-0.3341307342 -0.1345238537 0.6601242423 4291155815
-0.3337444961 -0.1336357594 0.6593611240 4291287401
-0.3333577812 -0.1327491701 0.6585971713 4290894450
-0.3338597715 -0.1322162151 0.6595889330 4290960243
-0.3334723413 -0.1313307881 0.6588234901 4291091329
-0.3330844939 -0.1304468960 0.6580572128 4291354501
-0.3331409693 -0.1297377348 0.6581688523 4291616420
-0.3327523172 -0.1288559586 0.6574009657 4292208557
-0.3214910030 -0.1820562780 0.6365493536 4289313183
-0.3215672970 -0.1813920587 0.6367003918 4286878842
-0.3220803440 -0.1809729189 0.6377162933 4287014719
-0.3221562803 -0.1803068668 0.6378665566 4286751547
-0.3222319484 -0.1796403378 0.6380164027 4286885657
-0.3227446973 -0.1792161763 0.6390316486 4287017243
-0.3232573867 -0.1787897348 0.6400467753 4287148060
-0.3242075741 -0.1786020398 0.6419281363 4287213853
-0.3247202933 -0.1781701446 0.6429433227 4287213850
-0.3252329826 -0.1777359545 0.6439584494 4287279643
-0.3257455826 -0.1772994846 0.6449733973 4287279384
-0.3262581825 -0.1768607348 0.6459882855 4287279384
-0.3267706931 -0.1764197052 0.6470031142 4287345179
-0.3272831738 -0.1759763807 0.6480177641 4287410972
-0.3277955651 -0.1755307764 0.6490323544 4287345688
-0.3278695941 -0.1748491377 0.6491789222 4287477274
-0.3283818066 -0.1743998826 0.6501930952 4287477272
-0.3280169070 -0.1734844744 0.6494705677 4287411479
-0.3276515603 -0.1725704372 0.6487472057 4287936795
-0.3272857368 -0.1716577709 0.6480228901 4288528932
-0.3260418475 -0.1702881008 0.6455599666 4289382444
-0.3247970939 -0.1689234525 0.6430954337 4289448237
-0.3222345114 -0.1668817848 0.6380214691 4289775406
-0.3201095760 -0.1650771052 0.6338141561 4289906992
-0.3184226751 -0.1635066718 0.6304740906 4290038579
-0.3176133335 -0.1623923630 0.6288716197 4290104372
-0.3176821470 -0.1617286801 0.6290078759 4290038840
-0.3173112273 -0.1608417928 0.6282734275 4290038840
-0.3178190291 -0.1604000181 0.6292788982 4289972786
-0.3187664449 -0.1601769030 0.6311547756 4290235958
-0.3205935061 -0.1603897214 0.6347723603 4290301751
-0.3219812214 -0.1603756398 0.6375200152 4290170165
-0.3229292631 -0.1601374447 0.6393971443 4290170165
-0.3243174851 -0.1601123810 0.6421457529 4290367544
-0.3257060051 -0.1600813419 0.6448950171 4290235958
-0.3266545534 -0.1598289460 0.6467731595 4289643821
-0.3271628916 -0.1593579352 0.6477796435 4288920098
-0.3281115592 -0.1590982080 0.6496580243 4289380649
-0.3286198378 -0.1586217284 0.6506643891 4290104374
-0.3291280270 -0.1581429690 0.6516705751 4290433339
-0.3296360970 -0.1576619297 0.6526765823 4290367546
-0.3310256898 -0.1575983167 0.6554279327 4290367546
-0.3310928941 -0.1569019556 0.6555610299 4290499132
-0.3316008151 -0.1564131528 0.6565666795 4290564925
-0.3316675723 -0.1557150185 0.6566988826 4290433087
-0.3321752250 -0.1552225798 0.6577039957 4290433087
-0.3322415352 -0.1545226723 0.6578353047 4290498880
-0.3323075771 -0.1538223326 0.6579660773 4290564673
-0.3328147531 -0.1533249468 0.6589702368 4290498880
-0.3333218098 -0.1528252661 0.6599742770 4290433087
-0.3338287771 -0.1523233056 0.6609780192 4290433087
-0.3343356252 -0.1518190801 0.6619815826 4290367294
-0.3348423839 -0.1513125598 0.6629849672 4290433089
-0.3349072039 -0.1506050825 0.6631132960 4290301503
-0.3349717557 -0.1498972028 0.6632410884 4290367296
-0.3354780078 -0.1493857205 0.6642435193 4290433089
-0.3355420530 -0.1486760825 0.6643703580 4290367041
-0.3356058598 -0.1479660422 0.6644966006 4290367041
-0.3352271020 -0.1470615864 0.6637467146 4290432834
-0.3352902234 -0.1463516802 0.6638717055 4290367041
-0.3353530765 -0.1456413716 0.6639961600 4290367296
-0.3349731565 -0.1447394490 0.6632438898 4290367296
-0.3350353539 -0.1440292895 0.6633670926 4290432834
-0.3350972831 -0.1433187127 0.6634896994 4290498627
-0.3351589143 -0.1426077634 0.6636117101 4290564422
-0.3352202773 -0.1418964118 0.6637331843 4290630215
-0.3348384500 -0.1409981698 0.6629771590 4290696006
-0.3348991573 -0.1402869821 0.6630973816 4290696006
-0.3349595666 -0.1395754069 0.6632170081 4290696521
-0.3345765471 -0.1386797726 0.6624586582 4290696521
-0.3346363306 -0.1379683763 0.6625769734 4290696270
-0.3342525065 -0.1370747983 0.6618170142 4290696270
-0.3338682353 -0.1361827403 0.6610561609 4290761562
-0.3339269757 -0.1354720891 0.6611725092 4290958941
-0.3335419297 -0.1345821023 0.6604100466 4291221610
-0.3327127695 -0.1335156262 0.6587683558 4291287403
-0.3327704370 -0.1328066885 0.6588825583 4290894450
-0.3328278065 -0.1320973933 0.6589961648 4290960243
-0.3324410617 -0.1312125474 0.6582303643 4291091329
-0.3324977756 -0.1305034757 0.6583426595 4291354501
-0.3321101964 -0.1296207458 0.6575753093 4291682211
-0.3321662843 -0.1289118975 0.6576862931 4292274348
-0.3196104467 -0.1813902408 0.6342206001 4289181597
-0.3201224804 -0.1809750497 0.6352366805 4286878842
-0.3206345141 -0.1805575788 0.6362527013 4286948674
-0.3207101226 -0.1798930913 0.6364027858 4286751295
-0.3207855225 -0.1792281270 0.6365523934 4286819613
-0.3212972283 -0.1788056344 0.6375677586 4286951199
-0.3218088746 -0.1783808619 0.6385830641 4287147806
-0.3223204911 -0.1779538095 0.6395982504 4287147806
-0.3228320479 -0.1775244772 0.6406133771 4287213850
-0.3237805068 -0.1773321778 0.6424955130 4287279643
-0.3242920935 -0.1768973768 0.6435106397 4287279384
-0.3252407610 -0.1766977906 0.6453931332 4287213591
-0.3257523477 -0.1762575209 0.6464083195 4287279386
-0.3262638748 -0.1758149564 0.6474233270 4287345179
-0.3267753422 -0.1753701121 0.6484382749 4287279895
-0.3272867501 -0.1749229878 0.6494531035 4287411481
-0.3273604512 -0.1742406189 0.6495993733 4287411479
-0.3274339139 -0.1735578030 0.6497451067 4287411479
-0.3270692527 -0.1726434082 0.6490215063 4287936795
-0.3262662292 -0.1715001911 0.6474280357 4288528932
-0.3250244856 -0.1701308787 0.6449639797 4289316651
-0.3233438134 -0.1685382426 0.6416289210 4289382444
-0.3207856119 -0.1664975733 0.6365525723 4289775407
-0.3191026747 -0.1649205238 0.6332129836 4289906993
-0.3178571463 -0.1635760069 0.6307414174 4289972788
-0.3170492947 -0.1624612510 0.6291383505 4290038581
-0.3171180487 -0.1617973149 0.6292747855 4290038840
-0.3171865642 -0.1611329466 0.6294107437 4289973047
-0.3176935911 -0.1606900990 0.6304169297 4289841200
-0.3186394870 -0.1604660004 0.6322938800 4290235958
-0.3200244904 -0.1604579091 0.6350421906 4290235960
-0.3218488693 -0.1606630385 0.6386623979 4290235960
-0.3232345581 -0.1606421024 0.6414121389 4290235960
-0.3241812885 -0.1603978723 0.6432907581 4290367546
-0.3251281083 -0.1601495147 0.6451696157 4290367546
-0.3265145123 -0.1601125300 0.6479207277 4289906995
-0.3270221055 -0.1596404165 0.6489279270 4289117479
-0.3275296092 -0.1591660380 0.6499350071 4289709616
-0.3280370235 -0.1586893946 0.6509419084 4290367546
-0.3285443485 -0.1582104564 0.6519486308 4290499132
-0.3294915259 -0.1579401046 0.6538281441 4290433339
-0.3299987614 -0.1574556828 0.6548347473 4290367546
-0.3300658464 -0.1567599773 0.6549678445 4290433339
-0.3305728137 -0.1562719196 0.6559738517 4290433339
-0.3306394517 -0.1555744410 0.6561060548 4290433087
-0.3311461508 -0.1550827622 0.6571115255 4290433087
-0.3312123120 -0.1543834955 0.6572428346 4290498880
-0.3317187428 -0.1538881958 0.6582477689 4290564673
-0.3317844570 -0.1531871706 0.6583781242 4290498882
-0.3322905898 -0.1526882350 0.6593825221 4290498882
-0.3323558271 -0.1519854516 0.6595119834 4290433089
-0.3328616619 -0.1514828950 0.6605157256 4290433089
-0.3333674073 -0.1509780586 0.6615192890 4290433089
-0.3334319890 -0.1502721608 0.6616474986 4290367296
-0.3334963024 -0.1495658755 0.6617751122 4290367041
-0.3340015709 -0.1490560621 0.6627776623 4290432834
-0.3340654075 -0.1483480185 0.6629043221 4290432834
-0.3341289461 -0.1476395726 0.6630304456 4290432834
-0.3341922164 -0.1469307244 0.6631560326 4290432834
-0.3338136673 -0.1460283101 0.6624048352 4290367041
-0.3338763118 -0.1453195810 0.6625291109 4290301503
-0.3334969282 -0.1444191784 0.6617763042 4290367296
-0.3335589170 -0.1437106133 0.6618993282 4290432834
-0.3336206079 -0.1430016458 0.6620217562 4290498627
-0.3336820304 -0.1422922760 0.6621436477 4290564420
-0.3333011270 -0.1413950026 0.6613878012 4290630213
-0.3333619237 -0.1406857967 0.6615083814 4290630726
-0.3334223926 -0.1399762034 0.6616284251 4290630726
-0.3334825933 -0.1392662376 0.6617478728 4290696521
-0.3335425258 -0.1385558695 0.6618667841 4290696521
-0.3331597149 -0.1376623213 0.6611071825 4290630477
-0.3332189918 -0.1369521469 0.6612247825 4290696270
-0.3328353763 -0.1360606551 0.6604635715 4290827355
-0.3324513137 -0.1351706833 0.6597014666 4291090527
-0.3325095773 -0.1344612688 0.6598170400 4291287403
-0.3321247101 -0.1335733831 0.6590533257 4291287403
-0.3317394257 -0.1326870024 0.6582887769 4290828657
-0.3313536644 -0.1318021715 0.6575233340 4290894450
-0.3314105570 -0.1310941130 0.6576362252 4291091331
-0.3314671516 -0.1303856969 0.6577485204 4291354503
-0.3315234482 -0.1296769083 0.6578602195 4291682213
-0.3311361969 -0.1287953556 0.6570917368 4292274350
-0.3181690872 -0.1809710711 0.6327549815 4288852632
-0.3182447255 -0.1803108901 0.6329054236 4286813049
-0.3187555671 -0.1798959970 0.6339213848 4286948422
-0.3192664087 -0.1794788241 0.6349372268 4286751043
-0.3193415105 -0.1788154244 0.6350866556 4286885152
-0.3198521435 -0.1783946007 0.6361021399 4286950945
-0.3203627467 -0.1779714972 0.6371176243 4286951197
-0.3208733201 -0.1775461286 0.6381329894 4286951197
-0.3213838041 -0.1771184653 0.6391482353 4287148311
-0.3223304451 -0.1769279391 0.6410308480 4287148311
-0.3232772648 -0.1767333150 0.6429138184 4287279384
-0.3237878382 -0.1762969792 0.6439291835 4287213591
-0.3247348368 -0.1760950685 0.6458125114 4287279386
-0.3256819546 -0.1758890450 0.6476961374 4287345179
-0.3261925876 -0.1754440367 0.6487116218 4287214104
-0.3262663782 -0.1747628003 0.6488583684 4287345690
-0.3267767727 -0.1743141413 0.6498734355 4287411479
-0.3264132142 -0.1733989418 0.6491503716 4287345686
-0.3260491788 -0.1724851131 0.6484264135 4288002331
-0.3256846964 -0.1715726554 0.6477015615 4288726054
-0.3240079880 -0.1699734181 0.6443670392 4289381674
-0.3223302364 -0.1683810502 0.6410304308 4289513260
-0.3202140331 -0.1665680110 0.6368218660 4289841200
-0.3185341358 -0.1649903357 0.6334810257 4289972786
-0.3172909021 -0.1636452675 0.6310085058 4290038581
-0.3169222772 -0.1627548784 0.6302754283 4290104374
-0.3169910610 -0.1620897651 0.6304122210 4290104633
-0.3170596063 -0.1614242196 0.6305485368 4289973047
-0.3175658882 -0.1609802991 0.6315554380 4290104374
-0.3185102642 -0.1607552171 0.6334334612 4290367546
-0.3198929429 -0.1607462168 0.6361832619 4290301753
-0.3212759197 -0.1607312709 0.6389336586 4290367546
-0.3226591945 -0.1607103646 0.6416846514 4290433339
-0.3236043155 -0.1604660451 0.6435642242 4290433339
-0.3245494962 -0.1602176130 0.6454439759 4290630464
-0.3254948258 -0.1599650532 0.6473239660 4290564671
-0.3264402449 -0.1597083658 0.6492041349 4290367292
-0.3269468844 -0.1592338085 0.6502117515 4290564671
