VERSION 0.7
FIELDS x y z rgba
SIZE 4 4 4 4
TYPE F F F U
COUNT 1 1 1 1
WIDTH 920
HEIGHT 1
VIEWPOINT 0.0 0.0 0.0 1.0 0.0 0.0 0.0
POINTS 920
DATA ascii
-0.2827980518 -0.1893649250 0.5455411673 4290690501
-0.2824365497 -0.1885174960 0.5448437929 4290624708
-0.2825146616 -0.1879640967 0.5449944735 4290558915
-0.2830327451 -0.1877021641 0.5459939241 4290493122
-0.2835508883 -0.1874380410 0.5469934940 4290493122
-0.2840690911 -0.1871717423 0.5479931235 4290493379
-0.2854684293 -0.1874818951 0.5506925583 4290493379
-0.2846650183 -0.1863441020 0.5491427183 4290559172
-0.2856240273 -0.1863596886 0.5509927273 4290822344
-0.2865833342 -0.1863713562 0.5528432727 4291217104
-0.2871018946 -0.1860932410 0.5538436770 4291414483
-0.2876205146 -0.1858129203 0.5548441410 4291480276
-0.2854916453 -0.1838256866 0.5507373810 4291875034
-0.2824786603 -0.1812801957 0.5449250340 4292007390
-0.2794638276 -0.1787464470 0.5391091704 4292336355
-0.2768887579 -0.1765059382 0.5341416001 4292731113
-0.2747538090 -0.1745561063 0.5300231576 4292928492
-0.2721756399 -0.1723347902 0.5250496268 4293257203
-0.2731315792 -0.1723546386 0.5268937349 4293388789
-0.2723194957 -0.1712585092 0.5253271461 4293322478
-0.2719489336 -0.1704425961 0.5246123075 4292796134
-0.2720202804 -0.1699042767 0.5247499347 4291282895
-0.2720914185 -0.1693655252 0.5248872042 4291085516
-0.2721623778 -0.1688263565 0.5250241160 4292072411
-0.2726758122 -0.1685604006 0.5260145068 4291414481
-0.2736320496 -0.1685650349 0.5278592110 4290493379
-0.2745885551 -0.1685657203 0.5297043920 4291151309
-0.2768743336 -0.1693754792 0.5341138244 4291151311
-0.2756161392 -0.1680150479 0.5316866636 4291019725
-0.2779028714 -0.1688134074 0.5360979438 4290953932
-0.2788605392 -0.1687974483 0.5379453897 4291019725
-0.2793749869 -0.1685100496 0.5389378071 4291282897
-0.2798894942 -0.1682204753 0.5399302840 4291546069
-0.2799603343 -0.1676630080 0.5400669575 4291940827
-0.2791433930 -0.1665754467 0.5384910107 4292467171
-0.2783257961 -0.1654910147 0.5369138122 4292534245
-0.2757315338 -0.1633574814 0.5319092274 4292665831
-0.2744680941 -0.1620206833 0.5294719934 4292862697
-0.2745364904 -0.1614726186 0.5296038985 4293125869
-0.2746046782 -0.1609241664 0.5297355056 4293191662
-0.2751171291 -0.1606348008 0.5307240486 4293060076
-0.2738513649 -0.1593087763 0.5282822847 4292073181
-0.2739187479 -0.1587608755 0.5284122229 4292402146
-0.2748754919 -0.1587262452 0.5302578807 4293981178
-0.2749426961 -0.1581757516 0.5303875208 4292467939
-0.2758997083 -0.1581349671 0.5322336555 4290756551
-0.2768569291 -0.1580902189 0.5340802670 4291480274
-0.2778143883 -0.1580414921 0.5359272957 4291414481
-0.2787720859 -0.1579887867 0.5377747416 4291414481
-0.2801754177 -0.1581835896 0.5404819250 4291151309
-0.2806881368 -0.1578714401 0.5414709449 4291282895
-0.2816464603 -0.1578067988 0.5433197021 4291479763
-0.2821592987 -0.1574893594 0.5443089604 4291677142
-0.2822262645 -0.1569218338 0.5444381237 4291743448
-0.2818470597 -0.1561068892 0.5437065959 4292138206
-0.2801292241 -0.1545550227 0.5403927565 4292599527
-0.2815335393 -0.1547264010 0.5431018472 4292796906
-0.2793680727 -0.1529375166 0.5389244556 4292862956
-0.2789868712 -0.1521308571 0.5381891131 4293191921
-0.2786052823 -0.1513256133 0.5374529362 4293324275
-0.2791163921 -0.1510049999 0.5384389758 4293192689
-0.2787341475 -0.1502007693 0.5377016068 4292534245
-0.2783514857 -0.1493979692 0.5369634032 4293060589
-0.2784153223 -0.1488354802 0.5370864868 4294310143
-0.2789259255 -0.1485105902 0.5380715132 4293981178
-0.2789894044 -0.1479464322 0.5381940007 4292335583
-0.2799471021 -0.1478542536 0.5400414467 4291414481
-0.2804576755 -0.1475227922 0.5410263538 4291874521
-0.2814156115 -0.1474235207 0.5428743362 4291742935
-0.2823737562 -0.1473202258 0.5447226763 4291677655
-0.2833320796 -0.1472129375 0.5465713739 4291611862
-0.2842906117 -0.1471016109 0.5484204292 4291677655
-0.2848014832 -0.1467555314 0.5494059920 4291809241
-0.2848644555 -0.1461774260 0.5495274663 4292072413
-0.2844792008 -0.1453699917 0.5487842560 4292467171
-0.2836454213 -0.1443359703 0.5471758246 4292533732
-0.2841556370 -0.1439865530 0.5481600761 4292862697
-0.2828726470 -0.1427301466 0.5456850529 4292929003
-0.2824856043 -0.1419294029 0.5449384451 4293257968
-0.2825466692 -0.1413544714 0.5450562239 4293653240
-0.2821589112 -0.1405557245 0.5443082452 4292995310
-0.2822194099 -0.1399809718 0.5444249511 4292402659
-0.2827284932 -0.1396274716 0.5454069972 4293521140
-0.2832375169 -0.1392717957 0.5463889241 4294179070
-0.2841954827 -0.1391337067 0.5482369661 4294179070
-0.2851535976 -0.1389915943 0.5500852466 4294244860
-0.2865610421 -0.1390634030 0.5528002977 4294244860
-0.2879687846 -0.1391293555 0.5555159450 4294245114
-0.2893768847 -0.1391894221 0.5582323074 4294113528
-0.2939313650 -0.1407501251 0.5670182705 4293060325
-0.2917445600 -0.1390776336 0.5627996922 4290165433
-0.2963008881 -0.1406146139 0.5715892911 4289968306
-0.2981605530 -0.1408580840 0.5751767159 4290099892
-0.3004705310 -0.1413053572 0.5796328783 4290034350
-0.3018813729 -0.1413218230 0.5823544860 4289902764
-0.3032925427 -0.1413323730 0.5850767493 4289968555
-0.3033537567 -0.1407107115 0.5851948261 4289968555
-0.3034147322 -0.1400886625 0.5853124857 4290034603
-0.3034754395 -0.1394662410 0.5854296088 4290034603
-0.3030855656 -0.1386374533 0.5846775174 4289573282
-0.3022448421 -0.1376050711 0.5830556750 4289639075
-0.3014034927 -0.1365760118 0.5814326406 4289967528
-0.3005615473 -0.1355502903 0.5798084736 4288849047
-0.2997190356 -0.1345279217 0.5781831145 4290230961
-0.2988758981 -0.1335088760 0.5765566826 4289178273
-0.2980321646 -0.1324931979 0.5749290586 4289243813
-0.2976388037 -0.1316803843 0.5741702318 4290230708
-0.2972450256 -0.1308690608 0.5734105706 4290823615
-0.2963996828 -0.1298615932 0.5717798471 4290823615
-0.2955537438 -0.1288574934 0.5701479912 4289639340
-0.2947072387 -0.1278567612 0.5685150027 4290099891
-0.2943115234 -0.1270542741 0.5677516460 4290100145
-0.2939154208 -0.1262533069 0.5669875145 4290231731
-0.2939704657 -0.1256468743 0.5670936704 4290100145
-0.2931219339 -0.1246559471 0.5654568076 4290165938
-0.2927245796 -0.1238595471 0.5646902919 4290231477
-0.2927786410 -0.1232548952 0.5647945404 4290297270
-0.2923805416 -0.1224606261 0.5640265942 4290823363
-0.2924340367 -0.1218562424 0.5641297698 4291349707
-0.2920351923 -0.1210641116 0.5633603930 4291941593
-0.2920880914 -0.1204599962 0.5634624362 4292138972
-0.2916885316 -0.1196700186 0.5626916289 4292073181
-0.2912885547 -0.1188815907 0.5619200468 4291152079
-0.2913405597 -0.1182783693 0.5620203614 4291218383
-0.2909398377 -0.1174921021 0.5612473488 4292205278
-0.2909912765 -0.1168891788 0.5613465905 4292271070
-0.2905898392 -0.1161050871 0.5605721474 4292271070
-0.2910934091 -0.1156823710 0.5615435839 4292205278
-0.2911441028 -0.1150784940 0.5616413951 4292271071
-0.2911945283 -0.1144742966 0.5617387295 4292271073
-0.2912447453 -0.1138697937 0.5618355274 4292271073
-0.2912946939 -0.1132649779 0.5619319081 4292533730
-0.2913443744 -0.1126598492 0.5620277524 4292533730
-0.2918470204 -0.1122286767 0.5629974008 4292271073
-0.2918962836 -0.1116219908 0.5630924106 4290428869
-0.2919453084 -0.1110149994 0.5631870031 4288981939
-0.2924475074 -0.1105791405 0.5641557574 4289574076
-0.2924960852 -0.1099705920 0.5642495155 4290298314
-0.2925444245 -0.1093617454 0.5643427968 4288521903
-0.2925925255 -0.1087525934 0.5644355416 4289245626
-0.2930940688 -0.1083108112 0.5654030442 4291943139
-0.2931417227 -0.1077001169 0.5654950142 4293060335
-0.2936429977 -0.1072549000 0.5664619803 4292862956
-0.2936902344 -0.1066426635 0.5665530562 4293125353
-0.2941911817 -0.1061940193 0.5675194860 4293322732
-0.2951461077 -0.1059061214 0.5693616271 4293256938
-0.2956469357 -0.1054521501 0.5703277588 4293454317
-0.2961476445 -0.1049959958 0.5712936521 4293454832
-0.2971025109 -0.1046977341 0.5731356740 4293454832
-0.2976030409 -0.1042362526 0.5741012096 4293389041
-0.2985578775 -0.1039307788 0.5759432316 4293389041
-0.2995127439 -0.1036212146 0.5777851939 4293389043
-0.3004676104 -0.1033075601 0.5796272755 4293454836
-0.3014225066 -0.1029898226 0.5814692974 4293454836
-0.3023774028 -0.1026679873 0.5833113790 4293520629
-0.3028775454 -0.1021886319 0.5842761993 4293718006
-0.3038323820 -0.1018595695 0.5861181617 4293323248
-0.3043323159 -0.1013748795 0.5870825648 4293520110
-0.3052870929 -0.1010385826 0.5889244080 4291348941
-0.3057868481 -0.1005485654 0.5898884535 4287269773
-0.3062864244 -0.1000563651 0.5908522010 4286611843
-0.3072410524 -0.0997096971 0.5926937461 4286941060
-0.3077404201 -0.0992121622 0.5936571360 4284967270
-0.3077843785 -0.0985666364 0.5937418938 4284834911
-0.3082833886 -0.0980656892 0.5947045088 4286479736
-0.3083268404 -0.0974186584 0.5947883129 4287598217
-0.3083699942 -0.0967713520 0.5948716402 4286742908
-0.3079573512 -0.0959817916 0.5940755606 4284769119
-0.3079999089 -0.0953349024 0.5941576362 4284637533
-0.3084978759 -0.0948278159 0.5951182842 4286545530
-0.3071726859 -0.0937620997 0.5925619006 4287927183
-0.3072142899 -0.0931163281 0.5926421285 4286611323
-0.3072556257 -0.0924703032 0.5927218795 4284505947
-0.3077526093 -0.0919602513 0.5936806202 4284967011
-0.3077934384 -0.0913127437 0.5937593579 4286546043
-0.3087460995 -0.0909336135 0.5955971479 4287203719
-0.3092426062 -0.0904170349 0.5965549350 4285953652
-0.3092827797 -0.0897658765 0.5966324210 4283321932
-0.3093226850 -0.0891144723 0.5967093706 4285229929
-0.3107311428 -0.0888542384 0.5994264483 4284244065
-0.3121396899 -0.0885879919 0.6021436453 4286941578
-0.3135482967 -0.0883157253 0.6048609614 4291612881
-0.3154134154 -0.0881650224 0.6084589362 4292139225
-0.3168222010 -0.0878797472 0.6111766100 4292073432
-0.3177744448 -0.0874627754 0.6130135655 4293389292
-0.3309513032 -0.2327477634 0.6398036480 4291547864
-0.3310467601 -0.2321038097 0.6399881840 4290100418
-0.3311419785 -0.2314593047 0.6401723027 4290953673
-0.3307994604 -0.2305093408 0.6395100951 4291019466
-0.3300187588 -0.2292564809 0.6380008459 4290953930
-0.3287995458 -0.2277032733 0.6356438398 4290822344
-0.3267034888 -0.2255499512 0.6315916777 4290953930
-0.3224156499 -0.2218971699 0.6233023405 4290888137
-0.2913956046 -0.1999222338 0.5633335710 4290822087
-0.2870948315 -0.1963548809 0.5550191998 4290953673
-0.2854220271 -0.1945977062 0.5517852902 4290887880
-0.2841866016 -0.1931449920 0.5493969321 4290887880
-0.2833889425 -0.1919941604 0.5478548408 4290559426
-0.2830294073 -0.1911426485 0.5471597910 4290493633
-0.2826694250 -0.1902923733 0.5464639068 4290690499
-0.2827481031 -0.1897380054 0.5466159582 4290756292
-0.2823873758 -0.1888893992 0.5459186435 4290624706
-0.2829048336 -0.1886278540 0.5469189882 4290690499
-0.2825435102 -0.1877800524 0.5462204814 4290493381
-0.2835003734 -0.1878070384 0.5480703115 4290493381
-0.2840178609 -0.1875398010 0.5490707159 4290493379
-0.2845354080 -0.1872703731 0.5500712991 4290493379
-0.2854929268 -0.1872873306 0.5519223213 4290493379
-0.2864506841 -0.1873003691 0.5537739396 4290822344
-0.2874087691 -0.1873094738 0.5556260943 4291217104
-0.2879268527 -0.1870286763 0.5566276908 4291348690
-0.2875642478 -0.1861754656 0.5559266806 4291480276
-0.2863202393 -0.1847550571 0.5535216928 4291875034
-0.2837534845 -0.1824893057 0.5485596061 4291941597
-0.2798629105 -0.1793860495 0.5410382748 4292204769
-0.2772925794 -0.1771429181 0.5360692143 4292599527
-0.2742796838 -0.1746290475 0.5302445889 4292796906
-0.2725881934 -0.1729665995 0.5269746184 4293125617
-0.2722191811 -0.1721477360 0.5262612104 4293388789
-0.2718497515 -0.1713301986 0.5255470276 4293388271
-0.2719213367 -0.1707912236 0.5256854296 4293059306
-0.2715511918 -0.1699754596 0.5249698162 4291348688
-0.2716222703 -0.1694365293 0.5251072049 4291019723
-0.2716931701 -0.1688971668 0.5252442956 4292532962
-0.2722057700 -0.1686311364 0.5262352824 4291875032
-0.2731604278 -0.1686358005 0.5280808210 4290493381
-0.2741153240 -0.1686365306 0.5299268961 4291151311
-0.2750705183 -0.1686333269 0.5317734480 4291282897
-0.2760259509 -0.1686261743 0.5336205363 4291085518
-0.2769816518 -0.1686150730 0.5354681611 4290953932
-0.2783801854 -0.1688684970 0.5381718278 4291019725
-0.2788938284 -0.1685810238 0.5391647816 4291151311
-0.2794075012 -0.1682913601 0.5401577950 4291414483
-0.2794782817 -0.1677336842 0.5402946472 4291875034
-0.2786628008 -0.1666457057 0.5387181640 4292401378
-0.2778466642 -0.1655608565 0.5371404290 4292599784
-0.2761434317 -0.1639527977 0.5338476300 4292665577
-0.2753258049 -0.1628759652 0.5322669744 4292862699
-0.2749509811 -0.1620636582 0.5315424204 4292994285
-0.2745757699 -0.1612527221 0.5308170319 4293191664
-0.2746438384 -0.1607027650 0.5309485793 4292928492
-0.2747116685 -0.1601523906 0.5310797691 4292138974
-0.2743354142 -0.1593437791 0.5303523540 4292270560
-0.2757348120 -0.1595643461 0.5330576897 4293981178
-0.2763137817 -0.1587123722 0.5341770053 4290624965
-0.2772696614 -0.1586658359 0.5360248685 4291348688
-0.2782257497 -0.1586153358 0.5378732085 4291348688
-0.2796266079 -0.1588133425 0.5405814052 4291414481
-0.2783599198 -0.1574960351 0.5381326675 4291151309
-0.2802057862 -0.1579385549 0.5417011380 4291348688
-0.2811625600 -0.1578739136 0.5435507894 4291545556
-0.2816745639 -0.1575563848 0.5445405841 4291611349
-0.2821865380 -0.1572366506 0.5455303788 4291677655
-0.2818081677 -0.1564204842 0.5447988510 4292072413
-0.2800934315 -0.1548670977 0.5414839387 4292533734
-0.2810501158 -0.1547923684 0.5433333516 4292796906
-0.2793339193 -0.1532471627 0.5400156379 4292797163
-0.2785079181 -0.1521957815 0.5384187698 4293126128
-0.2785727382 -0.1516328305 0.5385440588 4293258482
-0.2781915367 -0.1508277804 0.5378071070 4293192689
-0.2782558203 -0.1502649635 0.5379313827 4292665831
-0.2778738439 -0.1494618356 0.5371929407 4292863210
-0.2779376209 -0.1488991380 0.5373162031 4294375935
-0.2784473896 -0.1485741436 0.5383017659 4294046971
-0.2785108387 -0.1480097622 0.5384243727 4292664548
-0.2790204883 -0.1476812959 0.5394096971 4291414481
-0.2799766660 -0.1475860178 0.5412582159 4291742935
-0.2809330523 -0.1474867165 0.5431070924 4291742935
-0.2818896174 -0.1473834217 0.5449563265 4291677655
-0.2828463316 -0.1472761035 0.5468059182 4291546069
-0.2838032544 -0.1471647620 0.5486558676 4291677655
-0.2843133211 -0.1468185633 0.5496419072 4291809241
-0.2843762338 -0.1462402195 0.5497635603 4292006620
-0.2844389379 -0.1456615031 0.5498847365 4292401378
-0.2831594050 -0.1443980485 0.5474111438 4292533732
-0.2836687863 -0.1440484971 0.5483958721 4292862697
-0.2828355730 -0.1430178732 0.5467850566 4292797417
-0.2824493647 -0.1422158927 0.5460384488 4293126382
-0.2820627391 -0.1414153725 0.5452910066 4293587447
-0.2821235061 -0.1408398449 0.5454085469 4292995310
-0.2821840644 -0.1402639598 0.5455256104 4292336866
-0.2822444141 -0.1396877021 0.5456421971 4293257968
-0.2827526331 -0.1393318921 0.5466247201 4294179070
-0.2837089896 -0.1391937733 0.5484735966 4294179070
-0.2846655250 -0.1390516162 0.5503227711 4294244860
-0.2856222093 -0.1389054209 0.5521723032 4294244860
-0.2874760032 -0.1391894966 0.5557560921 4294245114
-0.2888817489 -0.1392496079 0.5584737062 4294113528
-0.2911851704 -0.1397344768 0.5629267097 4292928739
-0.2934892476 -0.1402097642 0.5673810840 4289902261
-0.2953452170 -0.1404620260 0.5709690452 4289770927
-0.2976506054 -0.1409191042 0.5754258633 4290034099
-0.2995076180 -0.1411549598 0.5790159106 4290034350
-0.3013651669 -0.1413830817 0.5826069713 4289968557
-0.3027739525 -0.1413936615 0.5853304863 4289968810
-0.3032844365 -0.1409806162 0.5863173604 4289968810
-0.3033454418 -0.1403574049 0.5864352584 4290034603
-0.3029567003 -0.1395267993 0.5856837630 4290034603
-0.3025675714 -0.1386976689 0.5849314928 4289441696
-0.3017283082 -0.1376648694 0.5833089948 4289573282
-0.3008884788 -0.1366353780 0.5816854239 4289901735
-0.3000480235 -0.1356092393 0.5800606012 4288914840
-0.2992069721 -0.1345864385 0.5784347057 4290362288
-0.2983653247 -0.1335669905 0.5768076181 4289375393
-0.2975230813 -0.1325508803 0.5751793385 4289244068
-0.2971304357 -0.1317377388 0.5744202733 4290099377
-0.2967373729 -0.1309260875 0.5736604333 4290757822
-0.2958935499 -0.1299182028 0.5720291138 4290757822
-0.2950491011 -0.1289136857 0.5703966022 4289836203
-0.2946546376 -0.1281084269 0.5696339607 4290296754
-0.2942597270 -0.1273046732 0.5688705444 4290230959
-0.2934137285 -0.1263084263 0.5672350526 4290362545
-0.2930179238 -0.1255086511 0.5664698482 4290034350
-0.2930725813 -0.1249025613 0.5665755272 4290165936
-0.2926760316 -0.1241049096 0.5658088923 4290231477
-0.2922790647 -0.1233087778 0.5650414824 4290363063
-0.2923328280 -0.1227035448 0.5651454329 4290757570
-0.2919351459 -0.1219095513 0.5643765926 4291349707
-0.2919883132 -0.1213045865 0.5644794106 4291941593
-0.2915898860 -0.1205127388 0.5637091398 4292073179
-0.2916425169 -0.1199080497 0.5638108850 4292073181
-0.2912433445 -0.1191183552 0.5630391836 4291217872
-0.2908437550 -0.1183302104 0.5622667074 4291218383
-0.2904437780 -0.1175436229 0.5614934564 4292205278
-0.2900433838 -0.1167585850 0.5607194304 4292271071
-0.2900944650 -0.1161560267 0.5608181357 4292271071
-0.2901452780 -0.1155531555 0.5609163642 4292139485
-0.2906478643 -0.1151290238 0.5618879795 4292271071
-0.2906982601 -0.1145245805 0.5619854331 4292270819
-0.2907484174 -0.1139198244 0.5620824099 4292205026
-0.2907983363 -0.1133147627 0.5621789098 4292665316
-0.2908479869 -0.1127093807 0.5622748733 4292467937
-0.2913497984 -0.1122780368 0.5632449985 4292073694
-0.2913990319 -0.1116711050 0.5633401871 4289836732
-0.2919005752 -0.1112363189 0.5643097758 4288060837
-0.2919493914 -0.1106278226 0.5644041300 4289508283
-0.2924506664 -0.1101896018 0.5653731823 4290890451
-0.2924990356 -0.1095795557 0.5654667616 4289048247
-0.2925471663 -0.1089692041 0.5655598044 4289311419
-0.2925950289 -0.1083585620 0.5656523108 4291943139
-0.2930956781 -0.1079144031 0.5666201711 4292665577
-0.2931431234 -0.1073022112 0.5667119026 4292599784
-0.2936434448 -0.1068546250 0.5676791668 4293059560
-0.2945969105 -0.1065687984 0.5695223808 4293059560
-0.2950970829 -0.1061158851 0.5704893470 4292993766
-0.2955971658 -0.1056607887 0.5714561343 4293388524
-0.2960971296 -0.1052034944 0.5724226832 4293323759
-0.2965969741 -0.1047440097 0.5733889937 4293323759
-0.2975502908 -0.1044415534 0.5752319694 4293389041
-0.2985036075 -0.1041350067 0.5770749450 4293454834
-0.2994569540 -0.1038243622 0.5789179802 4293454836
-0.3004103303 -0.1035096347 0.5807610750 4293454836
-0.3013637066 -0.1031908169 0.5826041102 4293389043
-0.3023170829 -0.1028679088 0.5844472647 4293389043
-0.3028164804 -0.1023873985 0.5854126811 4293520627
-0.3037697971 -0.1020572484 0.5872556567 4292994283
-0.3042689860 -0.1015714109 0.5882207155 4293454317
-0.3047680557 -0.1010833755 0.5891855359 4291283148
-0.3057212532 -0.1007428467 0.5910282731 4287072648
-0.3066744208 -0.1003982276 0.5928709507 4286480511
-0.3071731925 -0.0999017209 0.5938352346 4286941060
-0.3081263006 -0.0995498523 0.5956777930 4285164649
-0.3086248636 -0.0990480185 0.5966416001 4285953392
-0.3086686730 -0.0983990729 0.5967262983 4288190354
-0.3091668785 -0.0978938192 0.5976894498 4288519319
-0.3092101812 -0.0972433686 0.5977731943 4287466631
-0.3092532456 -0.0965926424 0.5978564024 4285492841
-0.3088411689 -0.0958005562 0.5970597863 4285756013
-0.3093385100 -0.0952903852 0.5980212688 4287729804
-0.3093807399 -0.0946388543 0.5981028676 4288519320
-0.3089676499 -0.0938488469 0.5973042846 4287006081
-0.3090092242 -0.0931977481 0.5973846912 4284637533
-0.3095057011 -0.0926826820 0.5983445048 4285624941
-0.3104572594 -0.0923007727 0.6001840234 4287796110
-0.3104981780 -0.0916460082 0.6002631783 4287730317
-0.3109941781 -0.0911244079 0.6012220383 4286546043
-0.3114900291 -0.0906006247 0.6021806002 4284703585
-0.3115302324 -0.0899431705 0.6022583842 4286808961
-0.3120256960 -0.0894159973 0.6032161713 4285757817
-0.3129765391 -0.0890162215 0.6050543785 4287994779
-0.3143829703 -0.0887409523 0.6077733040 4291679187
-0.3153337538 -0.0883320123 0.6096113920 4292139738
-0.3167402446 -0.0880456567 0.6123304367 4292073945
-0.3181467652 -0.0877532661 0.6150496006 4293258219
-0.3295032978 -0.2322280556 0.6383750439 4291349717
-0.3291618526 -0.2312788665 0.6377135515 4290560201
-0.3283832669 -0.2300249487 0.6362051368 4291019466
-0.3293511868 -0.2299939990 0.6380803585 4290953673
-0.3290086091 -0.2290465534 0.6374166608 4290953673
-0.3282285333 -0.2277969420 0.6359053254 4290887880
-0.3274477422 -0.2265501916 0.6343926191 4290822087
-0.3249170184 -0.2240998596 0.6294896007 4290887880
-0.3188851476 -0.2192531824 0.6178036332 4290953673
-0.2905344963 -0.1991349608 0.5628774166 4290887880
-0.2862397134 -0.1955751181 0.5545567870 4290822087
-0.2850068510 -0.1941192746 0.5521682501 4290822087
-0.2837730944 -0.1926681101 0.5497779846 4290756294
-0.2829764485 -0.1915180981 0.5482345819 4290756294
-0.2830554545 -0.1909622699 0.5483876467 4290756294
-0.2822577059 -0.1898164898 0.5468420982 4290624708
-0.2827745080 -0.1895553470 0.5478433371 4290558915
-0.2828528583 -0.1889989972 0.5479950905 4290624708
-0.2824923396 -0.1881500334 0.5472966433 4290624708
-0.2830089331 -0.1878849119 0.5482975245 4290558915
-0.2839645147 -0.1879080385 0.5501488447 4290427840
-0.2844813466 -0.1876376718 0.5511501431 4290559426
-0.2863156199 -0.1882312149 0.5547038317 4290493633
-0.2855151594 -0.1870903671 0.5531530380 4290822598
-0.2873502672 -0.1876743138 0.5567083359 4290953930
-0.2883071303 -0.1876786798 0.5585621595 4291217102
-0.2883850634 -0.1871086359 0.5587131977 4291348690
-0.2875833511 -0.1859694272 0.5571599603 4291677655
-0.2850215733 -0.1836992800 0.5521968007 4292007388
-0.2806983292 -0.1803086847 0.5438209772 4292402146
-0.2772526741 -0.1774985492 0.5371454358 4292665318
-0.2746853828 -0.1752636582 0.5321716070 4292928490
-0.2729971111 -0.1735988110 0.5289007425 4293256687
-0.2717481852 -0.1722196490 0.5264810920 4293322480
-0.2718199790 -0.1716800630 0.5266202092 4293257457
-0.2714509666 -0.1708626598 0.5259052515 4292862699
-0.2715222836 -0.1703230739 0.5260434151 4291283667
-0.2711525261 -0.1695074588 0.5253270864 4290888909
-0.2712233663 -0.1689679176 0.5254642963 4292599527
-0.2717351317 -0.1687018126 0.5264558196 4292402148
-0.2726881802 -0.1687065214 0.5283022523 4290559174
-0.2736414969 -0.1687072814 0.5301492214 4290953932
-0.2741536200 -0.1684328765 0.5311413407 4291282897
-0.2755489349 -0.1686969846 0.5338446498 4291151311
-0.2765030563 -0.1686859280 0.5356931090 4291150798
-0.2774574161 -0.1686709076 0.5375421047 4291150798
-0.2784120440 -0.1686519235 0.5393915772 4291150798
-0.2789248824 -0.1683621854 0.5403851271 4291413970
-0.2789956033 -0.1678043008 0.5405221581 4291940314
-0.2786238492 -0.1669809520 0.5398018956 4292269279
-0.2773669362 -0.1656306386 0.5373668075 4292205280
-0.2761091590 -0.1642851979 0.5349299908 4292731624
-0.2757357061 -0.1634694487 0.5342064500 4292665831
-0.2749191225 -0.1623935699 0.5326244235 4293060589
-0.2749875486 -0.1618420482 0.5327569842 4292994796
-0.2746128440 -0.1610303819 0.5320309997 4292929003
-0.2746807337 -0.1604789346 0.5321625471 4292467939
-0.2747484446 -0.1599270701 0.5322937369 4292073181
-0.2748159468 -0.1593748033 0.5324245095 4293718006
-0.2753266096 -0.1590782851 0.5334138870 4292467939
-0.2749503553 -0.1582690477 0.5326849222 4290624965
-0.2759043872 -0.1582243145 0.5345332623 4290953930
-0.2768586874 -0.1581756175 0.5363820791 4291546067
-0.2787007689 -0.1586281210 0.5399509072 4291611860
-0.2796556950 -0.1585696638 0.5418010354 4291085516
-0.2806108594 -0.1585072279 0.5436515212 4291282895
-0.2811221480 -0.1581908762 0.5446420908 4291217104
-0.2816334069 -0.1578723490 0.5456326008 4291414483
-0.2812560499 -0.1570553780 0.5449014902 4291677653
-0.2795449793 -0.1554981619 0.5415865183 4292006618
-0.2809445858 -0.1556719542 0.5442980528 4292401376
-0.2787874937 -0.1538766026 0.5401189923 4292796134
-0.2779633999 -0.1528234035 0.5385223627 4292928492
-0.2784731984 -0.1525042653 0.5395100713 4293125871
-0.2780931294 -0.1516974866 0.5387737155 4293257455
-0.2777126133 -0.1508921236 0.5380365252 4293389041
-0.2773316801 -0.1500881761 0.5372985005 4292600038
-0.2773956060 -0.1495256573 0.5374222994 4292534245
-0.2774593234 -0.1489627361 0.5375457406 4294113275
-0.2779682577 -0.1486376375 0.5385317802 4294179068
-0.2780316472 -0.1480730474 0.5386545658 4292863210
-0.2785404921 -0.1477444619 0.5396404266 4291349971
-0.2794950902 -0.1476491690 0.5414898396 4291809241
-0.2804498672 -0.1475498676 0.5433396101 4291940827
-0.2814048231 -0.1474465430 0.5451897383 4291742935
-0.2823599577 -0.1473392099 0.5470402241 4291611349
-0.2833153009 -0.1472278535 0.5488910675 4291611862
-0.2838245332 -0.1468815356 0.5498776436 4291611862
-0.2838873863 -0.1463029683 0.5499994159 4291810011
-0.2839500308 -0.1457240283 0.5501207709 4292270562
-0.2835658789 -0.1449164897 0.5493765473 4292467941
-0.2827346623 -0.1438830942 0.5477661490 4292731113
-0.2823495865 -0.1430793405 0.5470201373 4292928492
-0.2819640934 -0.1422770470 0.5462732911 4293323250
-0.2820251584 -0.1417007744 0.5463915467 4293520886
-0.2816389203 -0.1409004629 0.5456432700 4293389300
-0.2816994190 -0.1403243542 0.5457605124 4292008417
-0.2822069526 -0.1399697065 0.5467437506 4292929519
-0.2822670937 -0.1393919289 0.5468602777 4294508031
-0.2832218707 -0.1392537802 0.5487101078 4294244860
-0.2841768265 -0.1391115934 0.5505601764 4294508031
-0.2851319015 -0.1389653683 0.5524105430 4294179068
-0.2869825661 -0.1392495781 0.5559960008 4294244601
-0.2883859575 -0.1393097490 0.5587148666 4294376187
-0.2924770415 -0.1406564415 0.5666409135 4293060577
-0.2907457054 -0.1391979754 0.5632866621 4290231478
-0.2948384881 -0.1405227631 0.5712159276 4289508006
-0.2971399724 -0.1409800649 0.5756747723 4289705385
-0.2989938855 -0.1412160546 0.5792664886 4289903277
-0.3003998995 -0.1412334889 0.5819905400 4289903277
-0.3022547066 -0.1414549053 0.5855839849 4290165938
-0.3027643561 -0.1410416961 0.5865713954 4289836973
-0.3028253019 -0.1404182315 0.5866894722 4290296756
-0.3024373055 -0.1395872980 0.5859377384 4290362549
-0.3020488620 -0.1387578398 0.5851852298 4289441697
-0.3012111187 -0.1377246082 0.5835621357 4289704869
-0.3003727496 -0.1366946995 0.5819379687 4289771176
-0.2995337844 -0.1356681436 0.5803125501 4288652695
-0.2986942530 -0.1346449107 0.5786859989 4290428338
-0.2978540957 -0.1336250454 0.5770583153 4289375650
-0.2970133424 -0.1326085180 0.5754294395 4289244068
-0.2966214120 -0.1317950338 0.5746701360 4290165170
-0.2962290943 -0.1309830546 0.5739100575 4290888638
-0.2953867316 -0.1299747527 0.5722780824 4290822845
-0.2945438027 -0.1289698333 0.5706450343 4289836205
-0.2941500545 -0.1281642318 0.5698821545 4290428342
-0.2937558889 -0.1273601651 0.5691184998 4290230959
-0.2933613062 -0.1265576035 0.5683540702 4290230959
-0.2929663062 -0.1257565767 0.5675888062 4290297006
-0.2925708890 -0.1249570623 0.5668227077 4290362799
-0.2921750844 -0.1241590753 0.5660558939 4290165685
-0.2922291160 -0.1235530004 0.5661605597 4290297271
-0.2922829092 -0.1229465827 0.5662648082 4290954951
-0.2923364639 -0.1223398373 0.5663685799 4291415502
-0.2919392586 -0.1215451807 0.5655990243 4291810011
-0.2910910249 -0.1205654368 0.5639556646 4292007390
-0.2911435962 -0.1199605092 0.5640575290 4291876061
-0.2907451689 -0.1191704869 0.5632855892 4291086545
-0.2903463244 -0.1183820143 0.5625128746 4291481557
-0.2899470627 -0.1175950915 0.5617393255 4292205280
-0.2895474136 -0.1168097332 0.5609650612 4292205278
-0.2895984352 -0.1162069291 0.5610638857 4292205278
-0.2896491885 -0.1156038120 0.5611622930 4292205280
-0.2901509702 -0.1151795089 0.5621343851 4292402659
-0.2902013361 -0.1145748198 0.5622319579 4292140001
-0.2902514637 -0.1139698178 0.5623290539 4292074208
-0.2907527983 -0.1135408059 0.5633003712 4292402148
-0.2908024788 -0.1129342392 0.5633966327 4292533734
-0.2908519208 -0.1123273596 0.5634924173 4292336866
-0.2909011245 -0.1117201746 0.5635877252 4289705146
-0.2914018631 -0.1112852171 0.5645578504 4287995042
-0.2914506197 -0.1106764674 0.5646523237 4289508281
-0.2919510901 -0.1102380678 0.5656219125 4291679965
-0.2919994295 -0.1096277684 0.5657155514 4289114038
-0.2924996018 -0.1091859266 0.5666846037 4289574076
-0.2925474942 -0.1085740849 0.5667774081 4292008417
-0.2925951481 -0.1079619378 0.5668697357 4292665831
-0.2930948734 -0.1075154096 0.5678378344 4292665831
-0.2931420803 -0.1069017202 0.5679293275 4293059306
-0.2940939665 -0.1066157818 0.5697734952 4293125099
-0.2945933342 -0.1061626896 0.5707409382 4293388014
-0.2950925827 -0.1057073995 0.5717082620 4293453807
-0.2955917418 -0.1052499190 0.5726752877 4293257453
-0.2965435088 -0.1049504802 0.5745192170 4293323246
-0.2970424891 -0.1044876724 0.5754859447 4293323250
-0.2979942560 -0.1041809991 0.5773298740 4293454836
-0.2989459932 -0.1038702428 0.5791737437 4293454836
-0.3003507853 -0.1037118137 0.5818954110 4293389043
-0.3013026416 -0.1033919156 0.5837395191 4293519859
-0.3018013537 -0.1029134020 0.5847057104 4293519859
-0.3027531803 -0.1025862619 0.5865496993 4293256685
-0.3037049770 -0.1022550315 0.5883937478 4293059306
-0.3042034209 -0.1017680317 0.5893594623 4293256938
-0.3051551580 -0.1014295593 0.5912033319 4291217355
-0.3056534231 -0.1009372249 0.5921686292 4288914852
-0.3066050708 -0.1005915105 0.5940123796 4289046438
-0.3075567186 -0.1002416909 0.5958560705 4289046434
-0.3080546856 -0.0997408777 0.5968207717 4287664781
-0.3085525036 -0.0992378742 0.5977852345 4288059281
-0.3095039725 -0.0988776609 0.5996286273 4290033071
-0.3100015521 -0.0983693227 0.6005926132 4288782492
-0.3100450337 -0.0977157280 0.6006768942 4289177250
-0.3096342385 -0.0969197452 0.5998809934 4287400839
-0.3096770942 -0.0962665603 0.5999640226 4288387734
-0.3097196817 -0.0956130996 0.6000465155 4289506727
-0.3097620010 -0.0949593782 0.6001285315 4289506727
-0.3102582693 -0.0944436640 0.6010900140 4288585626
-0.3103000820 -0.0937884450 0.6011710167 4286809215
-0.3107959926 -0.0932693258 0.6021317840 4288650908
-0.3112917542 -0.0927480161 0.6030922532 4289308838
-0.3117873371 -0.0922245309 0.6040523648 4289111459
-0.3122827709 -0.0916988626 0.6050122380 4288716701
-0.3127780259 -0.0911710188 0.6059717536 4288190868
-0.3128184378 -0.0905094296 0.6060500741 4289769900
-0.3128585815 -0.0898475945 0.6061277986 4288981161
-0.3138080239 -0.0894447640 0.6079672575 4289836470
-0.3147574067 -0.0890378281 0.6098065376 4291876055
-0.3157067299 -0.0886267871 0.6116457582 4292073434
-0.3171109557 -0.0883383825 0.6143662930 4292007641
-0.3185152411 -0.0880439505 0.6170869470 4293652466
-0.3280576468 -0.2317077667 0.6369448304 4291087315
-0.3277166188 -0.2307599485 0.6362826824 4290363592
-0.3278110623 -0.2301192880 0.6364660263 4291019466
-0.3274692297 -0.2291729152 0.6358023882 4290953673
-0.3266907930 -0.2279233932 0.6342909932 4290953673
-0.3254753351 -0.2263732851 0.6319311261 4290887880
-0.3225132525 -0.2236173749 0.6261800528 4290822087
-0.3160569072 -0.2184589952 0.6136445999 4290887880
-0.2899466157 -0.1997860521 0.5629498363 4290953673
-0.2856608033 -0.1962167025 0.5546286106 4290887880
-0.2839938104 -0.1944590360 0.5513920784 4290822087
-0.2831996977 -0.1933043748 0.5498502851 4290822087
-0.2819677889 -0.1918552369 0.5474584103 4290756294
-0.2824840844 -0.1915971339 0.5484608412 4290690501
-0.2825630009 -0.1910411268 0.5486140847 4290756294
-0.2822042406 -0.1901897937 0.5479175448 4290624708
-0.2822826803 -0.1896337122 0.5480698347 4290558915
-0.2819231749 -0.1887840331 0.5473718047 4290624708
-0.2824390233 -0.1885201782 0.5483733416 4290558915
-0.2829549313 -0.1882541180 0.5493749976 4290558915
-0.2834708691 -0.1879858822 0.5503767729 4290559426
-0.2844251096 -0.1880051345 0.5522295237 4290559426
-0.2862564027 -0.1885980964 0.5557850599 4290493633
-0.2854575217 -0.1874559671 0.5542339683 4290756805
-0.2881668210 -0.1886134893 0.5594942570 4290953930
-0.2873675525 -0.1874704212 0.5579423904 4291217102
-0.2883229852 -0.1874717623 0.5597974658 4291282895
-0.2884007692 -0.1869001985 0.5599485040 4291611860
-0.2854047716 -0.1843429357 0.5541315675 4291941595
-0.2815285325 -0.1812319458 0.5466055870 4292336353
-0.2772106528 -0.1778543442 0.5382221341 4292665318
-0.2746479809 -0.1756176949 0.5332465768 4292862697
-0.2725232840 -0.1736712158 0.5291213393 4292994285
-0.2712765634 -0.1722915024 0.5267007351 4292994285
-0.2713483274 -0.1717517227 0.5268400311 4293125871
-0.2709799707 -0.1709340215 0.5261248946 4292994285
-0.2710512280 -0.1703942567 0.5262632370 4291678425
-0.2711223066 -0.1698540598 0.5264012814 4291086288
-0.2711932063 -0.1693134606 0.5265389085 4292796906
-0.2712638974 -0.1687724143 0.5266761780 4292796906
-0.2722153664 -0.1687771678 0.5285235047 4290690760
-0.2727265060 -0.1685057431 0.5295158625 4290822346
-0.2736783922 -0.1685034782 0.5313640237 4291217104
-0.2750713527 -0.1687677354 0.5340685248 4291151311
-0.2760238647 -0.1687567085 0.5359179378 4291150798
-0.2769766152 -0.1687417179 0.5377677679 4291150798
-0.2779296637 -0.1687227786 0.5396181345 4291150798
-0.2788829207 -0.1686998755 0.5414689779 4291282384
-0.2785122991 -0.1678748578 0.5407494307 4291742935
-0.2785827518 -0.1673163623 0.5408862233 4292137693
-0.2773281932 -0.1659646183 0.5384503603 4292139487
-0.2751893401 -0.1640909910 0.5342976451 4292600038
-0.2765837908 -0.1643258333 0.5370050669 4292665831
-0.2748851478 -0.1627236307 0.5337070227 4292994796
-0.2745115459 -0.1619102955 0.5329816937 4292994283
-0.2741375566 -0.1610983312 0.5322555304 4292928490
-0.2746476531 -0.1608056277 0.5332459211 4292467939
-0.2742730379 -0.1599946171 0.5325185657 4291941595
-0.2743404806 -0.1594421417 0.5326495171 4293586420
-0.2744077146 -0.1588892788 0.5327800512 4292402146
-0.2749174535 -0.1585913748 0.5337697864 4290624965
-0.2754272223 -0.1582912803 0.5347595215 4290953930
-0.2759369910 -0.1579889953 0.5357492566 4291480274
-0.2773328125 -0.1581899077 0.5384593606 4291546067
-0.2782859504 -0.1581332535 0.5403099060 4291151309
-0.2792392969 -0.1580726057 0.5421609282 4291217102
-0.2801928818 -0.1580079794 0.5440123677 4291217104
-0.2807032168 -0.1576902419 0.5450031757 4291348690
-0.2812135816 -0.1573702991 0.5459940434 4291611862
-0.2812802494 -0.1568008214 0.5461235642 4291940827
-0.2809029520 -0.1559845358 0.5453910232 4292335583
-0.2796375155 -0.1546785980 0.5429340601 4292730341
-0.2788152099 -0.1536222845 0.5413374901 4292862699
-0.2779922783 -0.1525691748 0.5397397280 4292994285
-0.2771686912 -0.1515192688 0.5381407142 4293191662
-0.2776773870 -0.1511983275 0.5391283035 4293323248
-0.2768528759 -0.1501521468 0.5375275016 4292665831
-0.2769167423 -0.1495894194 0.5376514792 4292468452
-0.2769804001 -0.1490262896 0.5377750993 4294047482
-0.2774885297 -0.1487010866 0.5387616158 4294179068
-0.2775518596 -0.1481362730 0.5388845801 4293126382
-0.2785047591 -0.1480440795 0.5407347083 4291481557
-0.2790128589 -0.1477122754 0.5417212248 4291875034
-0.2799660563 -0.1476129591 0.5435718894 4292006620
-0.2809194028 -0.1475096196 0.5454229712 4291742935
-0.2818729579 -0.1474022716 0.5472743511 4291611349
-0.2828266919 -0.1472908854 0.5491260886 4291677655
-0.2833351195 -0.1469444484 0.5501132011 4291611862
-0.2838435173 -0.1465958059 0.5511003137 4291678425
-0.2834604979 -0.1457865089 0.5503566265 4292073183
-0.2830770910 -0.1449786425 0.5496121645 4292336355
-0.2822473347 -0.1439448297 0.5480012298 4292665320
-0.2818629742 -0.1431407630 0.5472549200 4292796906
-0.2814781964 -0.1423381567 0.5465078950 4293191664
-0.2815392017 -0.1417616606 0.5466263294 4293455093
-0.2811536789 -0.1409610361 0.5458778143 4293257714
-0.2812141478 -0.1403847039 0.5459951758 4292073694
-0.2817208469 -0.1400299221 0.5469789505 4293192175
-0.2822275162 -0.1396729350 0.5479626656 4294573823
-0.2827341259 -0.1393137425 0.5489463210 4294442239
-0.2836874723 -0.1391715109 0.5507973433 4294442239
-0.2850878239 -0.1392434984 0.5535162091 4294244861
-0.2864885032 -0.1393096149 0.5562357306 4294244601
-0.2878895402 -0.1393698305 0.5589558482 4294441980
-0.2919736505 -0.1407171339 0.5668854117 4293521128
-0.2902453244 -0.1392580569 0.5635297894 4290428857
-0.2943311036 -0.1405834556 0.5714625716 4289244832
-0.2961812913 -0.1408282369 0.5750548244 4289508004
-0.2980319560 -0.1410652697 0.5786480308 4289508004
-0.2994355261 -0.1410836726 0.5813731551 4289968555
-0.3012870848 -0.1413061172 0.5849680901 4290099373
-0.3017958403 -0.1408936828 0.5859558582 4290033580
-0.3023045063 -0.1404790282 0.5869434476 4290230448
-0.3019172251 -0.1396477520 0.5861915350 4290559413
-0.3015294969 -0.1388179660 0.5854387283 4289310111
-0.3006932437 -0.1377843022 0.5838150978 4289639076
-0.2998563647 -0.1367539763 0.5821902752 4289968041
-0.2994672060 -0.1359304786 0.5814346671 4288981146
-0.2986292541 -0.1349059045 0.5798076987 4290494131
-0.2973421812 -0.1336830556 0.5773088336 4289309857
-0.2965029478 -0.1326661110 0.5756793618 4289573033
-0.2961117327 -0.1318522990 0.5749198198 4290362549
-0.2957201302 -0.1310399920 0.5741595030 4290822845
-0.2948792875 -0.1300312728 0.5725269318 4290691259
-0.2940378487 -0.1290259212 0.5708932281 4289836205
-0.2936448157 -0.1282200068 0.5701301098 4290362549
-0.2932513654 -0.1274155974 0.5693662167 4290296752
-0.2928575277 -0.1266127080 0.5686015487 4290296752
-0.2920140028 -0.1256180853 0.5669637918 4290362545
-0.2920685709 -0.1250115186 0.5670697093 4290362545
-0.2916734815 -0.1242132038 0.5663026571 4290099891
-0.2921769619 -0.1237973347 0.5672802329 4290297270
-0.2917812169 -0.1230002195 0.5665118694 4290889158
-0.2913850546 -0.1222046390 0.5657426715 4291349709
-0.2909885049 -0.1214105934 0.5649726987 4291875802
-0.2905915082 -0.1206180900 0.5642019510 4292007388
-0.2906440496 -0.1200129166 0.5643039346 4291810522
-0.2902463377 -0.1192225665 0.5635317564 4290955213
-0.2898482084 -0.1184337661 0.5627588034 4291613141
-0.2894496918 -0.1176465228 0.5619850159 4292336864
-0.2890507579 -0.1168608367 0.5612104535 4292336864
-0.2891017497 -0.1162577942 0.5613094568 4292139485
-0.2891524732 -0.1156544313 0.5614079833 4292073692
-0.2896534204 -0.1152299568 0.5623806119 4292139485
-0.2897037566 -0.1146250218 0.5624783039 4292139487
-0.2897538245 -0.1140197664 0.5625755191 4292205280
-0.2902543545 -0.1135905907 0.5635473132 4292467941
-0.2903040051 -0.1129837707 0.5636437535 4292402148
-0.2903534174 -0.1123766452 0.5637396574 4292073694
-0.2904025614 -0.1117692068 0.5638350844 4289310388
-0.2909024656 -0.1113340706 0.5648056865 4287995042
-0.2909511924 -0.1107250750 0.5649002790 4289376695
-0.2914508283 -0.1102864966 0.5658704042 4290890449
-0.2914991379 -0.1096759513 0.5659641623 4287995557
-0.2919985056 -0.1092339233 0.5669336915 4289179316
-0.2920463681 -0.1086218283 0.5670266151 4292008415
-0.2925454378 -0.1081763655 0.5679956079 4292665831
-0.2925928831 -0.1075627208 0.5680877566 4292797417
-0.2935432792 -0.1072788686 0.5699329972 4293125099
-0.2940420210 -0.1068268269 0.5709013343 4293125099
-0.2945406437 -0.1063725948 0.5718694329 4293256428
-0.2950391769 -0.1059161723 0.5728373528 4293453807
-0.2955375910 -0.1054575592 0.5738050342 4293257453
-0.2960358858 -0.1049967483 0.5747725368 4293323246
-0.2965340316 -0.1045337468 0.5757397413 4293257455
-0.2974841893 -0.1042269617 0.5775845051 4293389041
-0.2988865376 -0.1040735245 0.5803073049 4293454836
-0.2998368144 -0.1037575975 0.5821522474 4293323250
-0.3007870615 -0.1034375727 0.5839972496 4293454066
-0.3017373383 -0.1031134501 0.5858423114 4293454066
-0.3026876450 -0.1027852297 0.5876873136 4293190892
-0.3031854033 -0.1023002192 0.5886538029 4292993513
-0.3041356206 -0.1019647568 0.5904986858 4293322732
-0.3050858378 -0.1016251892 0.5923436284 4291875286
-0.3064887822 -0.1014313549 0.5950675011 4290756802
-0.3069862723 -0.1009337604 0.5960333943 4291019974
-0.3074836135 -0.1004339755 0.5969990492 4290822847
-0.3079808056 -0.0999319926 0.5979644060 4289441194
-0.3089308441 -0.0995738283 0.5998089314 4289704106
-0.3094278276 -0.0990665108 0.6007738709 4290954173
-0.3099246621 -0.0985570028 0.6017385125 4289506215
-0.3104213476 -0.0980453044 0.6027028561 4290558903
-0.3100114167 -0.0972470641 0.6019068956 4289177250
-0.3100543618 -0.0965916812 0.6019903421 4290164145
-0.3105503917 -0.0960762873 0.6029533744 4290625209
-0.3105928600 -0.0954194069 0.6030358076 4290033072
-0.3106350303 -0.0947622582 0.6031177044 4290098865
-0.3106769323 -0.0941048414 0.6031990647 4288914591
-0.3116257489 -0.0937200040 0.6050412655 4290493369
-0.3116672039 -0.0930601358 0.6051217914 4290493369
-0.3121621311 -0.0925345048 0.6060826778 4290164404
-0.3126568496 -0.0920066908 0.6070432067 4290361783
-0.3131514192 -0.0914766937 0.6080034375 4290361783
-0.3131919205 -0.0908129066 0.6080821157 4291019713
-0.3136861026 -0.0902795047 0.6090415716 4290231228
-0.3141801059 -0.0897439271 0.6100007296 4290757572
-0.3151280284 -0.0893348977 0.6118411422 4292073434
-0.3160758913 -0.0889217556 0.6136814952 4291876055
-0.3174778819 -0.0886313096 0.6164035201 4292073434
-0.3193341494 -0.0884606615 0.6200075746 4293784052
-0.3261794150 -0.2308790535 0.6346667409 4290889936
-0.3262737095 -0.2302404344 0.6348502040 4290429385
-0.3263678253 -0.2296012640 0.6350333095 4291085259
-0.3255911469 -0.2283509821 0.6335220933 4291019466
-0.3248137534 -0.2271035612 0.6320095062 4290953673
-0.3236001432 -0.2255554348 0.6296480894 4290953673
-0.3206429183 -0.2228010297 0.6238940954 4290887880
-0.3137617707 -0.2173412889 0.6105049849 4290887880
-0.2894402742 -0.1998681575 0.5631811619 4290953673
-0.2851620018 -0.1962973922 0.5548567176 4290887880
-0.2834979892 -0.1945390403 0.5516189337 4290887880
-0.2827053368 -0.1933839470 0.5500766635 4290822087
-0.2819120288 -0.1922318339 0.5485330820 4290822087
-0.2819910944 -0.1916761100 0.5486868620 4290756294
-0.2816333175 -0.1908240616 0.5479907393 4290690501
-0.2817118764 -0.1902682632 0.5481436253 4290624708
-0.2817902565 -0.1897120029 0.5482960939 4290558915
-0.2814314365 -0.1888620108 0.5475979447 4290624708
-0.2819464505 -0.1885980815 0.5486000180 4290690499
-0.2824614942 -0.1883319765 0.5496022105 4290690499
-0.2834139764 -0.1883543283 0.5514554977 4290822085
-0.2839292586 -0.1880829632 0.5524581075 4290558913
-0.2848822176 -0.1880983412 0.5543122888 4290559426
-0.2862731814 -0.1883978546 0.5570187569 4290756805
-0.2881025076 -0.1889789104 0.5605782270 4290953930
-0.2873047888 -0.1878345460 0.5590260625 4291085516
-0.2886968255 -0.1881204993 0.5617346764 4291217102
-0.2861455679 -0.1858394444 0.5567705035 4291480274
-0.2884142399 -0.1866893172 0.5611847639 4291810009
-0.2819150984 -0.1818730086 0.5485390425 4292270560
-0.2740966082 -0.1762364656 0.5333261490 4292533732
-0.2776791751 -0.1779396385 0.5402969122 4292731111
-0.2720488608 -0.1737435311 0.5293416977 4292862699
-0.2716821730 -0.1729220152 0.5286282301 4292862699
-0.2713150680 -0.1721018106 0.5279139280 4292994285
-0.2705084085 -0.1710053235 0.5263443589 4293060078
-0.2705796063 -0.1704653651 0.5264828801 4292138976
-0.2706506252 -0.1699249893 0.5266210437 4291283667
-0.2707214355 -0.1693841815 0.5267588496 4293125871
-0.2712316811 -0.1691170633 0.5277516246 4293323250
-0.2717419565 -0.1688477397 0.5287445188 4290953932
-0.2722522616 -0.1685762554 0.5297374725 4290559174
-0.2732025385 -0.1685740203 0.5315864682 4291217104
-0.2741530836 -0.1685678512 0.5334360003 4291151311
-0.2755440474 -0.1688274294 0.5361424685 4291150798
-0.2764952183 -0.1688124686 0.5379932523 4291150798
-0.2774466574 -0.1687935442 0.5398445129 4291150798
-0.2783983350 -0.1687706709 0.5416962504 4291150798
-0.2780284286 -0.1679453552 0.5409764647 4291479763
-0.2780988216 -0.1673866659 0.5411134362 4292006107
-0.2772873342 -0.1662987769 0.5395345092 4292138974
-0.2764751911 -0.1652140021 0.5379542708 4292533732
-0.2752213478 -0.1638697535 0.5355145931 4292599525
-0.2744078338 -0.1627921313 0.5339316726 4292928490
-0.2744762301 -0.1622393280 0.5340647697 4292862697
-0.2741030455 -0.1614261568 0.5333386660 4292928490
-0.2741709352 -0.1608734280 0.5334707499 4292599525
-0.2737970352 -0.1600621045 0.5327432156 4291875802
-0.2743061185 -0.1597667038 0.5337337852 4293519857
-0.2743734121 -0.1592127383 0.5338647366 4292532962
-0.2748824358 -0.1589138508 0.5348551273 4290624965
-0.2753914893 -0.1586127728 0.5358456373 4290888137
-0.2767848074 -0.1588169038 0.5385567546 4291414481
-0.2777363658 -0.1587624550 0.5404081941 4291480274
-0.2769186497 -0.1576963663 0.5388171673 4291282638
-0.2787551284 -0.1581395566 0.5423905253 4291282638
-0.2797071040 -0.1580749154 0.5442427993 4291282897
-0.2802166343 -0.1577570736 0.5452342033 4291282897
-0.2807261348 -0.1574370265 0.5462256074 4291546069
-0.2807927728 -0.1568673551 0.5463552475 4291875034
-0.2804161906 -0.1560507417 0.5456225276 4292203997
-0.2795960903 -0.1549899131 0.5440267920 4292598755
-0.2783321738 -0.1536875516 0.5415675044 4292796906
-0.2775107026 -0.1526340246 0.5399691463 4292928492
-0.2771320343 -0.1518266201 0.5392323136 4293125869
-0.2767529488 -0.1510206312 0.5384947062 4293191662
-0.2763734460 -0.1502160579 0.5377563238 4292797417
-0.2764372528 -0.1496531218 0.5378804803 4292336866
-0.2769446671 -0.1493290961 0.5388677716 4293981691
-0.2770081460 -0.1487644613 0.5389912724 4294244863
-0.2779594660 -0.1486744434 0.5408423543 4293521140
-0.2775786221 -0.1478706449 0.5401012897 4291678936
-0.2785300314 -0.1477753222 0.5419524908 4291808728
-0.2794816196 -0.1476759911 0.5438040495 4292071900
-0.2804333866 -0.1475726366 0.5456559658 4291808728
-0.2813853323 -0.1474652588 0.5475082397 4291611349
-0.2823374867 -0.1473538727 0.5493608713 4291677655
-0.2828450799 -0.1470073164 0.5503485203 4291611862
-0.2833526433 -0.1466585398 0.5513361692 4291612632
-0.2829703391 -0.1458489299 0.5505923033 4291941597
-0.2821426094 -0.1448123455 0.5489817262 4292270562
-0.2826496363 -0.1444615126 0.5499682426 4292665320
-0.2818209529 -0.1434287280 0.5483558774 4292731113
-0.2809917033 -0.1423992068 0.5467423201 4293060078
-0.2810526192 -0.1418224871 0.5468608737 4293323761
-0.2806678414 -0.1410215497 0.5461121798 4293192175
-0.2807282507 -0.1404449940 0.5462296605 4292205280
-0.2812341154 -0.1400900781 0.5472139716 4293126382
-0.2817399502 -0.1397329718 0.5481982231 4294441982
-0.2822457552 -0.1393736452 0.5491824150 4294507775
-0.2831975222 -0.1392313838 0.5510342717 4294441727
-0.2841494083 -0.1390850842 0.5528864861 4294507519
-0.2859938145 -0.1393695921 0.5564752221 4294376187
-0.2878387272 -0.1396463811 0.5600649714 4294244601
-0.2896841466 -0.1399154365 0.5636557341 4293389027
-0.2915300727 -0.1401767582 0.5672474504 4290099377
-0.2933765352 -0.1404303312 0.5708401799 4287994250
-0.2956700921 -0.1408890039 0.5753029585 4288586387
-0.2975176275 -0.1411261708 0.5788977742 4289375644
-0.2989188433 -0.1411446035 0.5816242099 4290033574
-0.3003203571 -0.1411571056 0.5843512416 4290033321
-0.3008281887 -0.1407454461 0.5853393078 4290164907
-0.3013359308 -0.1403315514 0.5863273144 4290164909
-0.3013964593 -0.1397081614 0.5864450336 4290493874
-0.3010094762 -0.1388780326 0.5856920481 4289375391
-0.3006220460 -0.1380493790 0.5849382281 4289835942
-0.2997867763 -0.1370176971 0.5833129883 4289968041
-0.2989508808 -0.1359893680 0.5816865563 4289178525
-0.2981144190 -0.1349643767 0.5800589919 4290559926
-0.2972773314 -0.1339427233 0.5784302354 4289244066
-0.2959918678 -0.1327236444 0.5759290457 4289835950
-0.2956013978 -0.1319095045 0.5751692653 4290428087
-0.2952105105 -0.1310968697 0.5744087100 4290888638
-0.2943711579 -0.1300877333 0.5727755427 4290625466
-0.2935312092 -0.1290819645 0.5711411834 4289901996
-0.2931389213 -0.1282757223 0.5703778863 4290428340
-0.2927461863 -0.1274709851 0.5696137547 4290231731
-0.2923530638 -0.1266677678 0.5688487887 4290231731
-0.2919595242 -0.1258660853 0.5680830479 4290428338
-0.2915655673 -0.1250659227 0.5673165321 4290428338
-0.2911711931 -0.1242672801 0.5665491819 4290099891
-0.2916738987 -0.1238512546 0.5675272942 4290363063
-0.2912788689 -0.1230538115 0.5667586923 4290889156
-0.2908834219 -0.1222579032 0.5659892559 4291349707
-0.2904875875 -0.1214635298 0.5652190447 4291875802
-0.2900913358 -0.1206707060 0.5644480586 4292007388
