VERSION 0.7
FIELDS x y z rgba
SIZE 4 4 4 4
TYPE F F F U
COUNT 1 1 1 1
WIDTH 920
HEIGHT 1
VIEWPOINT 0.0 0.0 0.0 1.0 0.0 0.0 0.0
POINTS 920
DATA ascii
-0.2669299245 -0.1197130159 0.5658499599 4294965951
-0.2786612809 -0.1482950300 0.5921127200 4294178290
-0.2791369259 -0.1478891522 0.5931233764 4293783532
-0.2791970670 -0.1472618729 0.5932511687 4293388514
-0.2796725333 -0.1468523741 0.5942614675 4292993756
-0.2797322869 -0.1462233514 0.5943884254 4292466899
-0.2802075446 -0.1458102465 0.5953982472 4291677383
-0.2806827426 -0.1453948766 0.5964080095 4291084469
-0.2811579108 -0.1449772418 0.5974176526 4290163367
-0.2812169790 -0.1443437934 0.5975431800 4289701503
-0.2812758386 -0.1437099576 0.5976682305 4289175159
-0.2813344598 -0.1430757046 0.5977928042 4289371479
-0.2813928723 -0.1424410790 0.5979169011 4289108307
-0.2814510167 -0.1418060511 0.5980404615 4289633362
-0.2815089226 -0.1411706209 0.5981634855 4289764948
-0.2811500728 -0.1403269172 0.5974010229 4289634142
-0.2812074423 -0.1396916509 0.5975229144 4290160486
-0.2812645733 -0.1390559971 0.5976442695 4291084973
-0.2813214362 -0.1384199709 0.5977651477 4292795591
-0.2813780904 -0.1377835423 0.5978854895 4291940809
-0.2810175419 -0.1369435638 0.5971193910 4292072395
-0.2806566060 -0.1361050755 0.5963524580 4292269782
-0.2802952826 -0.1352681071 0.5955846906 4292796126
-0.2795163393 -0.1342322975 0.5939295292 4293192165
-0.2787368298 -0.1331999004 0.5922732353 4293521130
-0.2775394022 -0.1319724470 0.5897288918 4294177266
-0.2750889361 -0.1301577985 0.5845220685 4294572024
-0.2734723091 -0.1287472546 0.5810869336 4294376698
-0.2714371979 -0.1271483302 0.5767626166 4294310905
-0.2694010437 -0.1255585253 0.5724361539 4294832573
-0.2681993842 -0.1243652925 0.5698827505 4294108850
-0.2669970095 -0.1231773943 0.5673278570 4294501759
-0.2662118375 -0.1221866757 0.5656595230 4294501759
-0.2658441067 -0.1213902757 0.5648781657 4294173055
-0.2654759884 -0.1205954328 0.5640959740 4294041469
-0.2651074827 -0.1198021546 0.5633129478 4294567839
-0.2651568055 -0.1191984564 0.5634177923 4294964910
-0.2772877812 -0.1479131579 0.5905879736 4294244343
-0.2773478031 -0.1472888589 0.5907158256 4294046452
-0.2774075866 -0.1466641426 0.5908432007 4293783019
-0.2778818905 -0.1462573111 0.5918533802 4293454054
-0.2783561647 -0.1458482146 0.5928635001 4293059296
-0.2788303494 -0.1454368383 0.5938735008 4292335573
-0.2793045044 -0.1450231969 0.5948833823 4291742660
-0.2793635130 -0.1443927288 0.5950090289 4290821558
-0.2794222832 -0.1437618732 0.5951341987 4290031246
-0.2798960805 -0.1433432847 0.5961433649 4289307523
-0.2799544632 -0.1427106857 0.5962677002 4289240421
-0.2800126076 -0.1420776993 0.5963915586 4288911456
-0.2800705135 -0.1414443105 0.5965148807 4289501534
-0.2801282108 -0.1408105344 0.5966377258 4289764706
-0.2801856399 -0.1401763558 0.5967600942 4289633898
-0.2802428603 -0.1395418048 0.5968819261 4289897070
-0.2802998126 -0.1389068514 0.5970032811 4291545530
-0.2803565562 -0.1382715255 0.5971240997 4292795597
-0.2799969912 -0.1374316067 0.5963582993 4291940555
-0.2800531685 -0.1367964447 0.5964779258 4292006348
-0.2796929181 -0.1359585822 0.5957106352 4292203987
-0.2793322206 -0.1351222396 0.5949424505 4292730331
-0.2785547674 -0.1340869665 0.5932865143 4293126372
-0.2777767479 -0.1330551207 0.5916294456 4293521130
-0.2765816152 -0.1318281442 0.5890839696 4294111473
-0.2745525241 -0.1302112937 0.5847622752 4294506231
-0.2725223899 -0.1286035478 0.5804383159 4294376698
-0.2704912126 -0.1270049363 0.5761122108 4294442491
-0.2684589922 -0.1254154444 0.5717838407 4294964167
-0.2672596276 -0.1242226884 0.5692293048 4294305980
-0.2660595477 -0.1230352744 0.5666732788 4294632574
-0.2652758658 -0.1220451146 0.5650041699 4294566781
-0.2644916475 -0.1210584119 0.5633338690 4294304637
-0.2641241252 -0.1202651635 0.5625510812 4293909879
-0.2641735673 -0.1196625233 0.5626564026 4293909895
-0.2638053596 -0.1188714579 0.5618721247 4294962840
-0.2642717361 -0.1184562296 0.5628654957 4294835950
-0.2647380531 -0.1180387586 0.5638586879 4294901743
-0.2759168446 -0.1475308686 0.5890615582 4294440951
-0.2759766281 -0.1469081938 0.5891891718 4294178038
-0.2760361731 -0.1462851167 0.5893163085 4293915118
-0.2760954797 -0.1456616372 0.5894429088 4293717739
-0.2769826055 -0.1454726607 0.5913369060 4293388774
-0.2770416439 -0.1448465139 0.5914629698 4292730844
-0.2775146663 -0.1444355249 0.5924727917 4292138188
-0.2779875994 -0.1440222859 0.5934824944 4291282879
-0.2780461311 -0.1433930546 0.5936074257 4290623389
-0.2781044245 -0.1427634358 0.5937318802 4289702287
-0.2785770297 -0.1423452497 0.5947408676 4289437810
-0.2786349356 -0.1417139024 0.5948644876 4288911466
-0.2786926031 -0.1410821676 0.5949876308 4289239394
-0.2787500620 -0.1404500306 0.5951102376 4289634152
-0.2788072526 -0.1398175061 0.5952323675 4289569137
-0.2788642347 -0.1391845942 0.5953540206 4289766516
-0.2789209783 -0.1385513097 0.5954751372 4291809221
-0.2789774537 -0.1379176229 0.5955957770 4292598737
-0.2786185145 -0.1370792538 0.5948293805 4291875276
-0.2786744535 -0.1364457607 0.5949488282 4291875276
-0.2783147693 -0.1356094629 0.5941809416 4292203989
-0.2783701420 -0.1349761486 0.5942991972 4292664540
-0.2775941789 -0.1339414269 0.5926425457 4292994786
-0.2768176496 -0.1329101175 0.5909847021 4293455337
-0.2756248116 -0.1316836029 0.5884380937 4294045680
-0.2740154564 -0.1302647293 0.5850022435 4294374645
-0.2719893456 -0.1286563426 0.5806766152 4294376185
-0.2699621618 -0.1270570904 0.5763487816 4294441978
-0.2679339647 -0.1254669726 0.5720187426 4294834386
-0.2663208544 -0.1240798682 0.5685748458 4294110663
-0.2651230991 -0.1228929386 0.5660177469 4294698621
-0.2643409073 -0.1219033375 0.5643478036 4294435449
-0.2635581791 -0.1209172010 0.5626767278 4294632826
-0.2631913424 -0.1201246008 0.5618935823 4294303861
-0.2628241181 -0.1193335578 0.5611096025 4293909368
-0.2628731132 -0.1187322587 0.5612142086 4294698884
-0.2629218698 -0.1181306168 0.5613182783 4294703584
-0.2633871734 -0.1177149042 0.5623116493 4294967271
-0.2746080458 -0.1465271115 0.5876607895 4294309626
-0.2746673226 -0.1459056884 0.5877876878 4294112499
-0.2751395106 -0.1455023140 0.5887982249 4293980913
-0.2751984596 -0.1448791474 0.5889242887 4293586923
-0.2756704688 -0.1444721669 0.5899344087 4293060579
-0.2761424184 -0.1440629214 0.5909443498 4292664789
-0.2762008309 -0.1434366852 0.5910694003 4291941066
-0.2762590051 -0.1428100467 0.5911939144 4291281580
-0.2763169706 -0.1421830058 0.5913179517 4290228892
-0.2767884433 -0.1417674869 0.5923268795 4289570176
-0.2772598565 -0.1413497031 0.5933356881 4288912246
-0.2769033909 -0.1405095756 0.5925728679 4289174115
-0.2769604921 -0.1398800313 0.5926950574 4289503080
-0.2770173848 -0.1392500997 0.5928168297 4289438580
-0.2774882019 -0.1388269961 0.5938243270 4289635959
-0.2775447071 -0.1381953508 0.5939452648 4291941066
-0.2776009738 -0.1375633180 0.5940656662 4292401617
-0.2776570022 -0.1369308978 0.5941855907 4291875537
-0.2772983015 -0.1360946745 0.5934180021 4291743951
-0.2769392133 -0.1352599412 0.5926495194 4292137944
-0.2769943476 -0.1346282810 0.5927675366 4292532702
-0.2766345441 -0.1337956488 0.5919975042 4292928739
-0.2758594751 -0.1327648759 0.5903388858 4293323497
-0.2746689618 -0.1315388232 0.5877912045 4293914096
-0.2730627358 -0.1301203519 0.5843538642 4294243061
-0.2710405588 -0.1285122782 0.5800263882 4294441464
-0.2690173090 -0.1269133389 0.5756967068 4294573050
-0.2674082816 -0.1255184412 0.5722533464 4294572762
-0.2653830945 -0.1239368320 0.5679194331 4293783246
-0.2646030188 -0.1229433864 0.5662500858 4294699389
-0.2634069324 -0.1217613518 0.5636904836 4294370424
-0.2626256943 -0.1207757741 0.5620186329 4294764151
-0.2622595429 -0.1199838147 0.5612350702 4294698358
-0.2623087168 -0.1193826199 0.5613402724 4294237557
-0.2619418800 -0.1185928509 0.5605552793 4294434936
-0.2619905174 -0.1179919317 0.5606593490 4294241994
-0.2624548376 -0.1175770164 0.5616530180 4294967002
-0.2732420564 -0.1461456120 0.5861307383 4294440955
-0.2733010948 -0.1455258131 0.5862573981 4294178806
-0.2737722397 -0.1451241821 0.5872680545 4294047220
-0.2738309205 -0.1445026547 0.5873939395 4293784561
-0.2743018568 -0.1440974176 0.5884041190 4293389803
-0.2743601799 -0.1434741616 0.5885292292 4293060062
-0.2744182646 -0.1428505033 0.5886538625 4292336339
-0.2744761407 -0.1422264427 0.5887779593 4291611062
-0.2749466002 -0.1418149322 0.5897871852 4290624167
-0.2754170001 -0.1414011419 0.5907962322 4289768333
-0.2750613391 -0.1405629814 0.5900332928 4288978817
-0.2755314708 -0.1401465386 0.5910417438 4289240423
-0.2751751840 -0.1393094659 0.5902774930 4289372009
-0.2756449878 -0.1388903558 0.5912852883 4289307252
-0.2757014036 -0.1382616907 0.5914063454 4289767803
-0.2761710286 -0.1378389895 0.5924136639 4292007374
-0.2758135498 -0.1370031983 0.5916468501 4292402132
-0.2758692801 -0.1363733858 0.5917663574 4291941330
-0.2759247422 -0.1357431859 0.5918853879 4291546572
-0.2759799957 -0.1351125985 0.5920038819 4291809492
-0.2756211758 -0.1342800260 0.5912341475 4292335836
-0.2756758630 -0.1336496323 0.5913515091 4292797155
-0.2744883001 -0.1324196905 0.5888040662 4293191913
-0.2737140954 -0.1313938349 0.5871433020 4293782510
-0.2721109688 -0.1299757510 0.5837044716 4294111475
-0.2705069780 -0.1285648793 0.5802637935 4294375671
-0.2684877813 -0.1269652992 0.5759323835 4294638843
-0.2664675713 -0.1253748685 0.5715987682 4294507997
-0.2648607790 -0.1239876151 0.5681521297 4293652688
-0.2632531524 -0.1226076111 0.5647035837 4294765182
-0.2628886104 -0.1218112782 0.5639216304 4294436217
-0.2621089518 -0.1208253205 0.5622491837 4294698358
-0.2613287568 -0.1198428273 0.5605756044 4294829944
-0.2613777816 -0.1192423552 0.5606807470 4294632054
-0.2610116303 -0.1184532270 0.5598953366 4294434675
-0.2610601485 -0.1178530380 0.5599993467 4293780651
-0.2611083984 -0.1172525138 0.5601028800 4294965182
-0.2615716457 -0.1168371141 0.5610965490 4294967276
-0.2616195381 -0.1162349731 0.5611993074 4294967276
-0.2724659741 -0.1441257447 0.5858618021 4294047733
-0.2729358673 -0.1437222511 0.5868721604 4293652975
-0.2729939520 -0.1431006342 0.5869970322 4293192163
-0.2730517983 -0.1424786150 0.5871214271 4292468440
-0.2731094062 -0.1418562084 0.5872453451 4292006081
-0.2735788226 -0.1414464414 0.5882546306 4291084979
-0.2736360729 -0.1408223063 0.5883777738 4290163351
-0.2736930847 -0.1401977837 0.5885003805 4289242249
-0.2737498879 -0.1395728737 0.5886224508 4289240432
-0.2738064528 -0.1389475763 0.5887441039 4289306225
-0.2738627791 -0.1383218914 0.5888652205 4288978807
-0.2743313909 -0.1379031986 0.5898728371 4289636737
-0.2747999728 -0.1374822259 0.5908803940 4292007889
-0.2748557627 -0.1368535012 0.5910003781 4292336854
-0.2744985521 -0.1360198557 0.5902322531 4292007121
-0.2745538056 -0.1353913099 0.5903511047 4291480777
-0.2746088207 -0.1347623765 0.5904693604 4291612365
-0.2742505670 -0.1339313835 0.5896990895 4292138709
-0.2743050456 -0.1333026439 0.5898162127 4292600285
-0.2735328972 -0.1322739273 0.5881559253 4292995043
-0.2727601826 -0.1312486231 0.5864943862 4293585131
-0.2719869018 -0.1302267462 0.5848317146 4293979889
-0.2695593536 -0.1284204423 0.5796118975 4294309878
-0.2679575980 -0.1270172000 0.5761678219 4294638843
-0.2655278146 -0.1252310723 0.5709432364 4294639325
-0.2643378675 -0.1240383312 0.5683845282 4293784016
-0.2627334297 -0.1226577908 0.5649346709 4294633594
-0.2619558275 -0.1216689348 0.5632626414 4294502008
-0.2611776590 -0.1206835434 0.5615894198 4294633078
-0.2603989840 -0.1197016239 0.5599150658 4294698871
-0.2600338161 -0.1189125255 0.5591298938 4294960246
-0.2600823939 -0.1183134019 0.5592343807 4294894196
-0.2597165406 -0.1175264940 0.5584477186 4293975949
-0.2597646117 -0.1169276536 0.5585510731 4294633879
-0.2602268159 -0.1165140122 0.5595449209 4294900429
-0.2602744997 -0.1159135476 0.5596474409 4294967253
-0.2711616158 -0.1431297958 0.5844529271 4293719538
-0.2716303170 -0.1427266896 0.5854631066 4293389542
-0.2716879249 -0.1421063244 0.5855872631 4292731612
-0.2717452943 -0.1414855719 0.5857109427 4292466632
-0.2718024552 -0.1408644319 0.5858341455 4291611323
-0.2722706497 -0.1404550523 0.5868433118 4290623904
-0.2723274529 -0.1398321837 0.5869656801 4289571216
-0.2723839879 -0.1392089278 0.5870875716 4289305721
-0.2724403143 -0.1385852844 0.5872089863 4289305721
-0.2724964023 -0.1379612535 0.5873298645 4288846970
-0.2729640007 -0.1375442892 0.5883376598 4289636486
-0.2730197012 -0.1369185448 0.5884577632 4291942098
-0.2730751932 -0.1362924278 0.5885773897 4292402649
-0.2731304467 -0.1356659234 0.5886964798 4291942096
-0.2731854618 -0.1350390315 0.5888150334 4291415752
-0.2732402384 -0.1344117671 0.5889331102 4291480775
-0.2728826106 -0.1335823387 0.5881622434 4292072912
-0.2733491361 -0.1331561059 0.5891678333 4292468953
-0.2725784779 -0.1321279407 0.5875067711 4292863711
-0.2718072534 -0.1311031878 0.5858445168 4293453543
-0.2706229389 -0.1298838705 0.5832918882 4293914094
-0.2694379091 -0.1286698878 0.5807377100 4294244085
-0.2674267888 -0.1270690411 0.5764029622 4294573050
-0.2654146254 -0.1254773438 0.5720660090 4294770139
-0.2638142705 -0.1240889952 0.5686166883 4293914830
-0.2622130811 -0.1227079108 0.5651655197 4294567801
-0.2610240281 -0.1215263754 0.5626026988 4294567801
-0.2602473795 -0.1205415577 0.5609287024 4294699385
-0.2594701946 -0.1195602044 0.5592535734 4294567799
-0.2591057122 -0.1187717617 0.5584679842 4294960500
-0.2591541708 -0.1181733608 0.5585724711 4294960757
-0.2587890029 -0.1173871011 0.5577853918 4294500989
-0.2588369250 -0.1167889908 0.5578886867 4294435196
-0.2588846385 -0.1161905453 0.5579915047 4294635952
-0.2593457401 -0.1157764196 0.5589853525 4294967230
-0.2698016763 -0.1427536905 0.5829171538 4293981429
-0.2698591650 -0.1421363205 0.5830414295 4293389544
-0.2699164450 -0.1415185481 0.5831651688 4292665821
-0.2703838050 -0.1411145180 0.5841748714 4292401871
-0.2704406977 -0.1404950172 0.5842978358 4291678148
-0.2704973817 -0.1398751289 0.5844203234 4290887854
-0.2705538571 -0.1392548680 0.5845422745 4289571994
-0.2706100941 -0.1386342049 0.5846638083 4288848259
-0.2706660926 -0.1380131543 0.5847848058 4288848259
-0.2711326778 -0.1376002133 0.5857928395 4288848009
-0.2715992033 -0.1371849924 0.5868007541 4289045388
-0.2716546655 -0.1365609020 0.5869206786 4292335049
-0.2717099190 -0.1359364390 0.5870400071 4292861393
-0.2713538110 -0.1351068765 0.5862706304 4292597718
-0.2714085281 -0.1344825923 0.5863888264 4291939788
-0.2718743086 -0.1340607554 0.5873951912 4291479755
-0.2719286382 -0.1334347725 0.5875125527 4292006099
-0.2719827294 -0.1328084171 0.5876294374 4292532954
-0.2716250122 -0.1319817156 0.5868566036 4293125091
-0.2708553076 -0.1309575289 0.5851935744 4293454054
-0.2696733177 -0.1297386736 0.5826398134 4293717226
-0.2684905827 -0.1285251677 0.5800845623 4294112497
-0.2668952942 -0.1271208227 0.5766378641 4294375669
-0.2648871839 -0.1255284995 0.5722991824 4294442455
-0.2632900476 -0.1241395995 0.5688485503 4293652939
-0.2616920769 -0.1227579713 0.5653960705 4294698868
-0.2605054379 -0.1215759739 0.5628322959 4294633075
-0.2593181133 -0.1203993559 0.5602670312 4294961017
-0.2589547634 -0.1196090356 0.5594819784 4294829431
-0.2581786215 -0.1186307818 0.5578051209 4294697845
-0.2578144372 -0.1178445593 0.5570182800 4294829431
-0.2578624487 -0.1172475070 0.5571220517 4294566524
-0.2574976087 -0.1164634824 0.5563337207 4294369145
-0.2579578161 -0.1160524040 0.5573281050 4294502544
-0.2580051720 -0.1154543608 0.5574303865 4294965922
-0.2684443295 -0.1423771679 0.5813797116 4293916149
-0.2685016096 -0.1417614520 0.5815037489 4293520876
-0.2685586512 -0.1411453336 0.5816272497 4292862946
-0.2686154544 -0.1405288279 0.5817502737 4292598996
-0.2690815926 -0.1401252002 0.5827598572 4291875273
-0.2691380382 -0.1395069808 0.5828821063 4291084979
-0.2691942453 -0.1388883591 0.5830038190 4289769119
-0.2696600556 -0.1384798139 0.5840126872 4288782725
-0.2697159350 -0.1378594786 0.5841336250 4288716932
-0.2697715461 -0.1372387558 0.5842540860 4288716682
-0.2702369988 -0.1368252784 0.5852621794 4288914061
-0.2707024217 -0.1364095360 0.5862700939 4291940291
-0.2707575262 -0.1357857883 0.5863894224 4292795600
-0.2704020739 -0.1349568665 0.5856196284 4292401109
-0.2704566419 -0.1343332976 0.5857378244 4292006351
-0.2705109715 -0.1337093562 0.5858554840 4291348682
-0.2705650628 -0.1330850273 0.5859726071 4291743440
-0.2706189156 -0.1324603409 0.5860893130 4292335575
-0.2702618241 -0.1316352189 0.5853158832 4292861919
-0.2694935203 -0.1306125373 0.5836519599 4293191395
-0.2687246501 -0.1295932680 0.5819867849 4293586153
-0.2675442696 -0.1283802241 0.5794304013 4293980911
-0.2659521103 -0.1269762814 0.5759822130 4294309876
-0.2643590868 -0.1255795807 0.5725321174 4294376149
-0.2627651989 -0.1241901442 0.5690801740 4293652426
-0.2611704469 -0.1228079721 0.5656263828 4294764404
-0.2599862218 -0.1216255128 0.5630616546 4294698611
-0.2588012815 -0.1204484329 0.5604953766 4294961272
-0.2580271661 -0.1194672734 0.5588188767 4294829686
-0.2576641440 -0.1186791733 0.5580326319 4294698100
-0.2573007345 -0.1178926453 0.5572456121 4294829686
-0.2569369376 -0.1171076968 0.5564576983 4294764153
-0.2565727830 -0.1163243279 0.5556690097 4294303602
-0.2566201389 -0.1157282963 0.5557715893 4294239362
-0.2570792437 -0.1153167412 0.5567659140 4294964884
-0.2575382888 -0.1149029434 0.5577601194 4294901743
-0.2575851381 -0.1143040136 0.5578615069 4294967281
-0.2671466470 -0.1413861662 0.5799643397 4293652462
-0.2672034502 -0.1407717019 0.5800876021 4292994532
-0.2672600150 -0.1401568502 0.5802104473 4292796375
-0.2677251101 -0.1397549808 0.5812200904 4292072652
-0.2677813172 -0.1391384006 0.5813421607 4291348153
-0.2678372860 -0.1385214478 0.5814636946 4290032293
-0.2678930461 -0.1379040927 0.5815846920 4289111440
-0.2683576643 -0.1374959648 0.5825933814 4288716682
-0.2684130371 -0.1368769109 0.5827136040 4288717199
-0.2688774467 -0.1364651769 0.5837218165 4288782992
-0.2693417966 -0.1360511780 0.5847299099 4291282877
-0.2689872682 -0.1352232695 0.5839602351 4292730323
-0.2690418363 -0.1346017420 0.5840786695 4292466900
-0.2690961659 -0.1339798272 0.5841966271 4292203728
-0.2691502571 -0.1333575547 0.5843140483 4291348682
-0.2692041099 -0.1327348948 0.5844309926 4291480268
-0.2688479424 -0.1319107860 0.5836577415 4292072405
-0.2689012587 -0.1312883347 0.5837734938 4292598749
-0.2681343555 -0.1302671582 0.5821086168 4292994016
-0.2673669159 -0.1292493939 0.5804425478 4293388774
-0.2665989399 -0.1282350719 0.5787752271 4293717739
-0.2654201686 -0.1270278543 0.5762161613 4294244083
-0.2638303638 -0.1256306171 0.5727647543 4294571733
-0.2622396946 -0.1242406294 0.5693114996 4293913803
-0.2606481910 -0.1228579134 0.5658563972 4294830197
-0.2594663501 -0.1216749921 0.5632907152 4294764404
-0.2586944401 -0.1206890196 0.5616149306 4294895477
-0.2575113177 -0.1195159107 0.5590463877 4294763891
-0.2571490407 -0.1187275052 0.5582599044 4294698098
-0.2567864060 -0.1179406792 0.5574726462 4294763891
-0.2560124397 -0.1169676781 0.5557923913 4294698868
-0.2556489706 -0.1161849648 0.5550032854 4294238317
-0.2556961775 -0.1155896634 0.5551058054 4294239347
-0.2561543584 -0.1151789129 0.5561004877 4294964612
-0.2562012076 -0.1145820022 0.5562022328 4294967262
-0.2566591501 -0.1141677275 0.5571963787 4294967265
-0.2657943368 -0.1410104632 0.5784232020 4293718257
-0.2658509016 -0.1403976679 0.5785462856 4293126120
-0.2663150430 -0.1399988681 0.5795564055 4292862170
-0.2663712502 -0.1393843293 0.5796786547 4292138447
-0.2664272189 -0.1387694180 0.5798004866 4291348668
-0.2668910623 -0.1383656859 0.5808098912 4290098601
-0.2669466436 -0.1377490610 0.5809308887 4289243545
-0.2670020163 -0.1371320486 0.5810514092 4288651408
-0.2670571804 -0.1365146488 0.5811713934 4288782996
-0.2675205469 -0.1361046731 0.5821797848 4288782996
-0.2675753236 -0.1354855597 0.5822989941 4290559154
-0.2676298916 -0.1348660737 0.5824177265 4292796116
-0.2676841915 -0.1342462152 0.5825359225 4292664792
-0.2677383125 -0.1336259842 0.5826536417 4292138448
-0.2677921653 -0.1330053657 0.5827708840 4291414473
-0.2674368918 -0.1321822554 0.5819977522 4291348680
-0.2674902081 -0.1315618455 0.5821138024 4291875026
-0.2675433159 -0.1309410632 0.5822293162 4292335577
-0.2671870291 -0.1301206499 0.5814539790 4292730844
-0.2664210796 -0.1291034520 0.5797871351 4293125602
-0.2656545937 -0.1280896962 0.5781190991 4293454565
-0.2644781470 -0.1268829554 0.5755589008 4294112495
-0.2633009851 -0.1256815791 0.5729971528 4294570959
-0.2621231377 -0.1244855598 0.5704338551 4293978822
-0.2605349123 -0.1231013462 0.5669776201 4294830197
-0.2593555748 -0.1219170168 0.5644111037 4294698611
-0.2581755519 -0.1207380593 0.5618431568 4294829684
-0.2574046850 -0.1197551861 0.5601656437 4294698098
-0.2566333115 -0.1187757850 0.5584869385 4294632305
-0.2562714219 -0.1179886535 0.5576993823 4294698098
-0.2554990649 -0.1170152798 0.5560185909 4294435950
-0.2551363409 -0.1162322611 0.5552292466 4294435950
-0.2551835179 -0.1156367362 0.5553318858 4294370673
-0.2552304864 -0.1150408834 0.5554340482 4294963581
-0.2552771866 -0.1144447029 0.5555357337 4294966990
-0.2553237081 -0.1138481945 0.5556369424 4294967252
-0.2644446790 -0.1406343579 0.5768803954 4293718259
-0.2645009756 -0.1400232017 0.5770032406 4293126122
-0.2649640739 -0.1396261454 0.5780134797 4292862171
-0.2650200427 -0.1390132904 0.5781355500 4292138448
-0.2650757730 -0.1384000331 0.5782570839 4291348672
-0.2651312649 -0.1377863884 0.5783782005 4290230191
-0.2655938864 -0.1373830736 0.5793874264 4289309085
-0.2656490505 -0.1367677301 0.5795077085 4288585362
-0.2657039464 -0.1361519992 0.5796275139 4288782741
-0.2661662698 -0.1357437521 0.5806359649 4288782741
-0.2662208080 -0.1351263225 0.5807549953 4289835431
-0.2662751377 -0.1345084906 0.5808734894 4292532944
-0.2663292289 -0.1338903010 0.5809915066 4292862170
-0.2663830817 -0.1332717240 0.5811090469 4292270033
-0.2664367259 -0.1326527745 0.5812260509 4291611850
-0.2660820484 -0.1318312585 0.5804522634 4291282885
-0.2661351562 -0.1312125176 0.5805681348 4291611852
-0.2661880255 -0.1305934042 0.5806834698 4292138196
-0.2658323348 -0.1297745854 0.5799075365 4292598745
-0.2654762268 -0.1289572865 0.5791307092 4292993503
-0.2647112310 -0.1279440820 0.5774618983 4293257186
-0.2639456987 -0.1269343346 0.5757918954 4293915116
-0.2627709806 -0.1257324815 0.5732292533 4294635974
-0.2615955174 -0.1245360002 0.5706650019 4294109630
-0.2604193687 -0.1233448833 0.5680992603 4294830197
-0.2588336170 -0.1219664514 0.5646399856 4294764404
-0.2580649853 -0.1209787652 0.5629632473 4294698611
-0.2568867505 -0.1198037863 0.5603929162 4294632818
-0.2557078302 -0.1186341941 0.5578211546 4294632564
-0.2553466260 -0.1178477183 0.5570332408 4294698357
-0.2549850643 -0.1170628145 0.5562444925 4294305395
-0.2542137504 -0.1160925552 0.5545618534 4294436981
-0.2542608082 -0.1154977679 0.5546644926 4294501489
-0.2543076277 -0.1149026453 0.5547666550 4294764661
-0.2543542087 -0.1143072024 0.5548682809 4294834366
-0.2544005811 -0.1137114242 0.5549694300 4294967242
-0.2635036707 -0.1404742748 0.5762237310 4293784052
-0.2635598183 -0.1398638487 0.5763465166 4293126122
-0.2636157572 -0.1392530352 0.5764688253 4292861917
-0.2636714578 -0.1386418194 0.5765906572 4292138194
-0.2637269497 -0.1380302310 0.5767120123 4291414211
-0.2637822330 -0.1374182552 0.5768328905 4290295730
-0.2642437816 -0.1370166838 0.5778422356 4289309087
-0.2642987072 -0.1364030093 0.5779622793 4288651157
-0.2647600770 -0.1359978318 0.5789712071 4288914329
-0.2648146152 -0.1353824437 0.5790904760 4288914329
-0.2648689449 -0.1347666681 0.5792092681 4289440675
-0.2649230361 -0.1341505200 0.5793275833 4291875016
-0.2649768889 -0.1335339844 0.5794453621 4292730584
-0.2650305331 -0.1329170763 0.5795626640 4292598998
-0.2650839388 -0.1322998106 0.5796794295 4291809483
-0.2651371360 -0.1316821575 0.5797957778 4291283139
-0.2651900947 -0.1310641319 0.5799115300 4291348678
-0.2648353577 -0.1302453578 0.5791358948 4291809229
-0.2648877800 -0.1296275556 0.5792505145 4292336086
-0.2645323873 -0.1288108975 0.5784733295 4292796637
-0.2641765773 -0.1279957891 0.5776952505 4293125602
-0.2634126246 -0.1269856393 0.5760246515 4293717739
-0.2622402906 -0.1257833391 0.5734610558 4294700991
-0.2614751756 -0.1247810498 0.5717878938 4294174647
-0.2598935366 -0.1233948022 0.5683292150 4294698357
-0.2587191164 -0.1222085878 0.5657609701 4294698357
-0.2571358383 -0.1208359599 0.5622987151 4294698357
-0.2563681602 -0.1198523268 0.5606200099 4294566771
-0.2551916540 -0.1186822802 0.5580472350 4294632565
-0.2548312545 -0.1178954989 0.5572590828 4294764151
-0.2540619969 -0.1169223264 0.5555768609 4294436728
-0.2532922029 -0.1159526408 0.5538935065 4294568314
-0.2533391118 -0.1153585911 0.5539960861 4294500981
-0.2533857822 -0.1147642061 0.5540981889 4294435188
-0.2534322441 -0.1141694933 0.5541998148 4294439084
-0.2534784973 -0.1135744527 0.5543009043 4294967229
-0.2617532909 -0.1398808807 0.5737896562 4293849590
-0.2622143924 -0.1394886523 0.5748004317 4293191660
-0.2622700632 -0.1388794929 0.5749225020 4292861919
-0.2623255551 -0.1382699460 0.5750440955 4292138196
-0.2623808086 -0.1376600266 0.5751652122 4291414212
-0.2624358237 -0.1370497048 0.5752858520 4290361524
-0.2628963292 -0.1366498917 0.5762953162 4289309089
-0.2629510164 -0.1360378712 0.5764151812 4288782745
-0.2634113133 -0.1356344670 0.5774242282 4288914077
-0.2634656429 -0.1350207329 0.5775433183 4289045663
-0.2635197043 -0.1344066262 0.5776618719 4289177250
-0.2635735869 -0.1337921470 0.5777798891 4290822075
-0.2636272013 -0.1331772804 0.5778974891 4292072654
-0.2636806071 -0.1325620413 0.5780145526 4292533205
-0.2637338042 -0.1319464296 0.5781311393 4292007119
-0.2637867630 -0.1313304603 0.5782472491 4291349189
-0.2638394833 -0.1307141036 0.5783628225 4291086019
-0.2638919950 -0.1300973892 0.5784779191 4291480777
-0.2635375559 -0.1292807907 0.5777009726 4291941844
-0.2635895312 -0.1286642849 0.5778148770 4292336602
-0.2632344067 -0.1278498173 0.5770364404 4292797153
-0.2624719739 -0.1268402487 0.5753651261 4293323497
-0.2617090046 -0.1258341223 0.5736925602 4294633909
-0.2609454691 -0.1248314455 0.5720188618 4294173358
-0.2597742379 -0.1236384511 0.5694513917 4294566772
-0.2586022913 -0.1224508286 0.5668823719 4294632565
-0.2570223510 -0.1210767031 0.5634189844 4294632567
-0.2558489442 -0.1199008077 0.5608468056 4294500981
-0.2546748817 -0.1187303066 0.5582730770 4294566774
-0.2539076805 -0.1177542135 0.5565912724 4294764153
-0.2535475492 -0.1169696748 0.5558018684 4294371451
-0.2527793646 -0.1159996167 0.5541179180 4294437244
-0.2528262138 -0.1154053360 0.5542206168 4294829433
-0.2524649799 -0.1146255508 0.5534287691 4294697847
-0.2525113225 -0.1140315756 0.5535303354 4294175387
-0.2525574267 -0.1134372726 0.5536314249 4294965931
-0.2526032925 -0.1128426418 0.5537319779 4294901747
-0.2526489496 -0.1122476906 0.5538320541 4294836210
-0.2608716190 -0.1391130388 0.5732526183 4293257453
-0.2609270513 -0.1385055482 0.5733744502 4292927714
-0.2609822750 -0.1378976703 0.5734958649 4292138198
-0.2610372901 -0.1372894049 0.5736167431 4291480007
-0.2610920966 -0.1366807520 0.5737371445 4290361526
-0.2611466646 -0.1360717267 0.5738570690 4289243042
-0.2616059780 -0.1356723458 0.5748663545 4288716698
-0.2616601884 -0.1350616068 0.5749855042 4288716699
-0.2621192932 -0.1346586198 0.5759943724 4288914078
-0.2621731460 -0.1340461820 0.5761126876 4288783005
-0.2622267902 -0.1334333718 0.5762305260 4289704107
-0.2622801960 -0.1328201741 0.5763478875 4291151553
-0.2623333633 -0.1322066188 0.5764647722 4292138448
-0.2623863220 -0.1315926760 0.5765811205 4292204498
-0.2624390423 -0.1309783608 0.5766969919 4291480775
-0.2624915540 -0.1303636879 0.5768123865 4290889410
-0.2625438273 -0.1297486424 0.5769272447 4291218375
-0.2625958622 -0.1291332394 0.5770416260 4291678674
-0.2626476884 -0.1285174638 0.5771554708 4292007639
-0.2622932494 -0.1277036369 0.5763766170 4292534496
-0.2619384527 -0.1268913448 0.5755969286 4293126633
-0.2611770630 -0.1258848459 0.5739238262 4294567598
-0.2604151070 -0.1248817816 0.5722495317 4294041254
-0.2592462897 -0.1236883253 0.5696811080 4294500468
-0.2580767870 -0.1225002408 0.5671111345 4294632054
-0.2569065988 -0.1213175431 0.5645396709 4294697847
-0.2553291321 -0.1199492291 0.5610733032 4294566261
-0.2541574538 -0.1187782735 0.5584986210 4294566774
-0.2533918619 -0.1178018078 0.5568162203 4294698360
-0.2530325055 -0.1170169637 0.5560265779 4294305658
-0.2522659302 -0.1160465330 0.5543420315 4294371451
-0.2519057691 -0.1152658239 0.5535506010 4294961536
-0.2519522607 -0.1146719456 0.5536527634 4294961022
-0.2515914142 -0.1138934568 0.5528598428 4294043534
-0.2516373992 -0.1132998914 0.5529608727 4294898843
-0.2516831458 -0.1127059981 0.5530614257 4294705125
-0.2517286837 -0.1121117845 0.5531615019 4294770662
-0.2591278553 -0.1385212392 0.5708140135 4293191915
-0.2595866919 -0.1381311864 0.5718247294 4292731364
-0.2596417069 -0.1375249773 0.5719458461 4292139227
-0.2596964538 -0.1369183809 0.5720665455 4291152332
-0.2597510219 -0.1363113970 0.5721867085 4289968058
-0.2602094114 -0.1359150857 0.5731964111 4289441196
-0.2602635920 -0.1353064030 0.5733157992 4288783266
-0.2603175640 -0.1346973330 0.5734347105 4288717471
-0.2607756257 -0.1342961043 0.5744437575 4288717471
-0.2608292401 -0.1336853355 0.5745618343 4288914850
-0.2608826458 -0.1330741942 0.5746794939 4289243815
-0.2609358132 -0.1324626803 0.5747966170 4290296503
-0.2609887719 -0.1318507791 0.5749132633 4291349191
-0.2610414922 -0.1312385201 0.5750293732 4292335573
-0.2610940039 -0.1306258887 0.5751450062 4292006608
-0.2611462772 -0.1300128847 0.5752601624 4291546311
-0.2616032660 -0.1296001375 0.5762668848 4291480518
-0.2616551816 -0.1289854497 0.5763812065 4291809482
-0.2613017261 -0.1281716824 0.5756026506 4292138447
-0.2613531053 -0.1275572181 0.5757158399 4292467413
-0.2609989643 -0.1267455816 0.5749357343 4292993757
-0.2606444657 -0.1259354949 0.5741547942 4293977769
-0.2598841190 -0.1249320582 0.5724799037 4293648804
-0.2587177157 -0.1237381399 0.5699105263 4294369905
-0.2575506270 -0.1225495934 0.5673396587 4294369905
-0.2563828528 -0.1213664338 0.5647672415 4294370422
-0.2552143931 -0.1201886684 0.5621932745 4294436215
-0.2540452480 -0.1190163046 0.5596178770 4294566772
-0.2528754175 -0.1178493425 0.5570408702 4294632565
-0.2521108687 -0.1168759912 0.5553567410 4294829431
-0.2517518401 -0.1160933971 0.5545659065 4294961017
-0.2513924539 -0.1153123826 0.5537742376 4294961787
-0.2510326803 -0.1145329624 0.5529817343 4294962044
-0.2506725490 -0.1137551293 0.5521883965 4294633857
-0.2507184148 -0.1131623015 0.5522893667 4294897029
-0.2507640123 -0.1125691459 0.5523899198 4294768853
-0.2512159050 -0.1121571511 0.5533853173 4294967262
-0.2582490146 -0.1377564073 0.5702732801 4292665828
-0.2583037615 -0.1371518672 0.5703941584 4292073691
-0.2583582997 -0.1365469396 0.5705146194 4291086796
-0.2584126294 -0.1359416395 0.5706345439 4289968315
-0.2588699460 -0.1355470717 0.5716444254 4289375403
-0.2589238882 -0.1349400580 0.5717635751 4288783266
-0.2593810260 -0.1345419139 0.5727730393 4288783264
-0.2594346404 -0.1339331865 0.5728914142 4288717471
-0.2594880164 -0.1333241016 0.5730093122 4288849057
-0.2599448264 -0.1329210252 0.5740180016 4288914850
-0.2599978447 -0.1323102266 0.5741351247 4289835952
-0.2600506544 -0.1316990703 0.5742517114 4291020226
-0.2601032257 -0.1310875267 0.5743678212 4292072655
-0.2601555884 -0.1304756254 0.5744833946 4292335827
-0.2602077127 -0.1298633516 0.5745984912 4292006861
-0.2602595985 -0.1292507052 0.5747131109 4291414724
-0.2603113055 -0.1286377013 0.5748272538 4291414724
-0.2603627443 -0.1280243248 0.5749408603 4291809482
-0.2604139745 -0.1274105906 0.5750539899 4292335826
-0.2600605190 -0.1265995950 0.5742735267 4292730584
-0.2597067058 -0.1257901639 0.5734921694 4293780130
-0.2589478791 -0.1247872934 0.5718165040 4293516958
-0.2581885159 -0.1237878874 0.5701396465 4294304362
-0.2570238411 -0.1225988865 0.5675678253 4294370155
-0.2562633455 -0.1216073856 0.5658884645 4294501230
-0.2550973892 -0.1204282045 0.5633137226 4294567023
-0.2535257339 -0.1190642267 0.5598431826 4294566510
-0.2527633905 -0.1180860549 0.5581597686 4294566510
-0.2520005405 -0.1171113774 0.5564752221 4294632305
-0.2512371540 -0.1161401942 0.5547894835 4294961270
-0.2508785427 -0.1153588891 0.5539975762 4294961789
-0.2505195439 -0.1145791635 0.5532048345 4294961532
-0.2501601875 -0.1138010398 0.5524112582 4294633596
-0.2502059639 -0.1132079884 0.5525123477 4294699389
-0.2502515316 -0.1126146093 0.5526130199 4294570937
-0.2507025301 -0.1122024655 0.5536089540 4294967240
-0.2569140196 -0.1373812258 0.5687201023 4292600036
-0.2569685280 -0.1367783546 0.5688408017 4292073692
-0.2570228279 -0.1361750960 0.5689609647 4291152590
-0.2570768893 -0.1355714649 0.5690807104 4290034109
-0.2575331628 -0.1351786703 0.5700907111 4289441196
-0.2575868666 -0.1345733255 0.5702096224 4288651680
-0.2580429614 -0.1341769248 0.5712192059 4288783266
-0.2580963075 -0.1335698813 0.5713373423 4288651680
-0.2581494749 -0.1329624504 0.5714550018 4288717471
-0.2582024038 -0.1323546618 0.5715721846 4288717471
-0.2586579919 -0.1319520324 0.5725807548 4289309608
-0.2587105632 -0.1313425303 0.5726971030 4290428089
-0.2587629259 -0.1307326704 0.5728129745 4291414982
-0.2588150501 -0.1301224530 0.5729283690 4292270291
-0.2588669360 -0.1295118481 0.5730432868 4292335826
-0.2589186132 -0.1289008856 0.5731576681 4291677896
-0.2593734562 -0.1284893751 0.5741645098 4291348931
-0.2594247758 -0.1278767437 0.5742781162 4291612103
-0.2590723038 -0.1270658076 0.5734978914 4292204240
-0.2591230869 -0.1264533848 0.5736103058 4292533205
-0.2587699592 -0.1256445944 0.5728285313 4293648026
-0.2584164143 -0.1248373613 0.5720459819 4293450647
-0.2576586604 -0.1238375753 0.5703685284 4294303841
-0.2564964294 -0.1226481199 0.5677957535 4294303841
-0.2557375133 -0.1216562390 0.5661157966 4294434659
-0.2549780905 -0.1206678376 0.5644346476 4294566245
-0.2538139522 -0.1194926426 0.5618576407 4294631786
-0.2526491284 -0.1183228642 0.5592790842 4294631786
-0.2514836192 -0.1171584949 0.5566990972 4294631787
-0.2507218421 -0.1161869392 0.5550127625 4294961009
-0.2503639758 -0.1154053360 0.5542206168 4294961278
-0.2500057817 -0.1146253198 0.5534276366 4294829692
-0.2500517964 -0.1140314117 0.5535295010 4294895739
-0.2496929169 -0.1132536158 0.5527350903 4294764153
-0.2493336648 -0.1124774292 0.5519397855 4294438294
-0.2493788749 -0.1118844673 0.5520399213 4294967209
-0.2555816770 -0.1370056421 0.5671652555 4292600036
-0.2556359768 -0.1364044398 0.5672857165 4292007899
-0.2556900084 -0.1358028501 0.5674057007 4291283663
-0.2557438612 -0.1352008879 0.5675251484 4290230975
-0.2561990619 -0.1348098367 0.5685352683 4289440942
-0.2562525272 -0.1342061758 0.5686540008 4288651426
-0.2567075491 -0.1338115335 0.5696637034 4288717473
-0.2567606866 -0.1332061589 0.5697816014 4288585887
-0.2568135858 -0.1326004267 0.5698990226 4288717473
-0.2568663061 -0.1319943070 0.5700159669 4288849059
-0.2573208511 -0.1315934211 0.5710246563 4289046436
-0.2573731840 -0.1309856176 0.5711408257 4289704366
-0.2578275204 -0.1305811405 0.5721490383 4290954431
-0.2578794956 -0.1299716383 0.5722643733 4292138705
-0.2579312623 -0.1293617785 0.5723792315 4292336339
-0.2579827905 -0.1287515461 0.5724936128 4292007374
-0.2580341101 -0.1281409413 0.5726074576 4291612616
-0.2580851912 -0.1275299788 0.5727208257 4291283651
-0.2581360340 -0.1269186437 0.5728337169 4291612616
-0.2581866980 -0.1263069659 0.5729460716 4292138960
-0.2578342259 -0.1254988164 0.5721639395 4293318799
-0.2574813962 -0.1246922389 0.5713809133 4293187213
-0.2567251623 -0.1236930266 0.5697027445 4294105692
-0.2559683919 -0.1226972863 0.5680233836 4294171485
-0.2552110553 -0.1217050254 0.5663428307 4294236767
-0.2544532120 -0.1207162514 0.5646610856 4294434146
-0.2536948621 -0.1197309569 0.5629781485 4294499943
-0.2529359460 -0.1187491566 0.5612940788 4294631529
-0.2513695657 -0.1173939854 0.5578180552 4294565993
-0.2506094575 -0.1164211035 0.5561313033 4294894958
-0.2502524555 -0.1156382337 0.5553390980 4294829692
-0.2498950809 -0.1148569584 0.5545460582 4294829692
-0.2495373487 -0.1140772775 0.5537521839 4294961531
-0.2491792440 -0.1132991910 0.5529574752 4294829431
-0.2488207668 -0.1125227064 0.5521619916 4294371966
-0.2484619170 -0.1117478162 0.5513656735 4294966159
-0.2542520463 -0.1366296411 0.5656087399 4292534243
-0.2543060780 -0.1360301077 0.5657289028 4292007899
-0.2543599010 -0.1354302019 0.5658486485 4291283663
-0.2544135153 -0.1348299086 0.5659679174 4290296768
-0.2548676431 -0.1344406158 0.5669781566 4289506735
-0.2549208999 -0.1338386238 0.5670965910 4288585633
-0.2553748190 -0.1334457397 0.5681064129 4288717219
-0.2554277182 -0.1328420490 0.5682241321 4288519840
-0.2558814883 -0.1324455738 0.5692335367 4288717219
-0.2559340298 -0.1318401843 0.5693504214 4288980391
-0.2559863627 -0.1312344223 0.5694668889 4288980645
-0.2564397752 -0.1308330446 0.5704755187 4289112231
-0.2564917505 -0.1302255839 0.5705911517 4290230710
-0.2565435171 -0.1296177655 0.5707063079 4291875535
-0.2565950453 -0.1290095747 0.5708209276 4292467670
-0.2566463351 -0.1284010261 0.5709350705 4292270291
-0.2566974163 -0.1277921051 0.5710486770 4291875533
-0.2567482889 -0.1271828264 0.5711618662 4291283396
-0.2567989230 -0.1265731901 0.5712744594 4291415237
-0.2568493485 -0.1259631813 0.5713866353 4291809995
-0.2568995357 -0.1253528148 0.5714982748 4293120642
-0.2565473914 -0.1245468855 0.5707148910 4293186435
-0.2565970421 -0.1239367723 0.5708253980 4293908313
-0.2554396987 -0.1227463931 0.5682507157 4293842520
-0.2546839714 -0.1217537597 0.5665695667 4293974108
-0.2547325790 -0.1211473718 0.5666776896 4294171487
-0.2535734773 -0.1199693605 0.5640991330 4294302562
-0.2528162599 -0.1189862266 0.5624146461 4294499941
-0.2516558468 -0.1178180799 0.5598332286 4294566245
-0.2504947782 -0.1166553497 0.5572503209 4294697831
-0.2501386404 -0.1158712283 0.5564579964 4294632824
-0.2493792474 -0.1149030700 0.5547686815 4294830203
-0.2490222752 -0.1141230911 0.5539745688 4294962043
-0.2486649454 -0.1133447066 0.5531796217 4294895479
-0.2483072430 -0.1125679240 0.5523838997 4294306161
-0.2479491681 -0.1117927432 0.5515873432 4294964348
-0.2479939759 -0.1111999825 0.5516870022 4294377203
-0.2529251277 -0.1362532228 0.5640504956 4292534243
-0.2529789209 -0.1356553733 0.5641704202 4292007899
-0.2534322441 -0.1352704912 0.5651813745 4291349969
-0.2534856796 -0.1346709281 0.5653005838 4290363074
-0.2535389066 -0.1340709925 0.5654193163 4289572528
-0.2539919317 -0.1336811930 0.5664295554 4288651426
-0.2540448010 -0.1330795586 0.5665475130 4288717219
-0.2544976175 -0.1326861680 0.5675573349 4288519840
-0.2545501590 -0.1320828348 0.5676745176 4288651426
-0.2546024919 -0.1314791143 0.5677911639 4288914598
-0.2546545863 -0.1308750361 0.5679073334 4288849059
-0.2551069558 -0.1304754168 0.5689162016 4288717473
-0.2551586926 -0.1298696399 0.5690315366 4289309608
-0.2556108534 -0.1294664294 0.5700399280 4291283398
-0.2556622326 -0.1288589686 0.5701545477 4292401879
-0.2557134032 -0.1282511503 0.5702686310 4292336086
-0.2557643354 -0.1276429594 0.5703822374 4292007119
-0.2558150589 -0.1270344108 0.5704953074 4291612361
-0.2558655441 -0.1264255047 0.5706079602 4291546568
-0.2559158206 -0.1258162260 0.5707200766 4291546568
-0.2555646598 -0.1250103563 0.5699369311 4292988276
-0.2556143999 -0.1244013235 0.5700478554 4293119862
-0.2556639314 -0.1237919405 0.5701583028 4293645143
-0.2553117871 -0.1229888201 0.5693730116 4293513557
-0.2545577586 -0.1219948456 0.5676914454 4293580118
-0.2538032234 -0.1210043505 0.5660087466 4293777497
-0.2534497976 -0.1202078536 0.5652205348 4294039899
-0.2522925138 -0.1190338433 0.5626397133 4294303071
-0.2515363693 -0.1180538237 0.5609534383 4294434657
-0.2503778338 -0.1168896928 0.5583696961 4294566243
-0.2496205568 -0.1159176528 0.5566809177 4294567282
-0.2488627732 -0.1149491221 0.5549910069 4294830454
-0.2485065907 -0.1141688451 0.5541966558 4294961782
-0.2481500357 -0.1133901700 0.5534015298 4294961268
-0.2477931082 -0.1126130894 0.5526055098 4294503024
-0.2474358082 -0.1118376106 0.5518087149 4294634610
-0.2470781505 -0.1110637411 0.5510110855 4294311131
-0.2471226007 -0.1104713976 0.5511102080 4294770658
-0.2516008914 -0.1358764023 0.5624905229 4292403427
-0.2516544461 -0.1352802217 0.5626102686 4291942876
-0.2521066964 -0.1348970979 0.5636213422 4291350485
-0.2521598935 -0.1342992187 0.5637402534 4290429383
-0.2526119649 -0.1339125186 0.5647509694 4289573298
-0.2526648343 -0.1333129257 0.5648691654 4288520610
-0.2527174950 -0.1327129751 0.5649868250 4288585633
-0.2527699172 -0.1321126372 0.5651040673 4288585633
-0.2532215416 -0.1317196786 0.5661137700 4288717219
-0.2532736361 -0.1311176568 0.5662301779 4288717219
-0.2533254921 -0.1305152625 0.5663461685 4288783266
-0.2537767887 -0.1301174015 0.5673550963 4288651680
-0.2538283169 -0.1295133084 0.5674702525 4288914850
-0.2542794049 -0.1291118562 0.5684787631 4290493882
-0.2543305755 -0.1285060793 0.5685931444 4292007121
-0.2543815076 -0.1278999448 0.5687069893 4292401879
-0.2544322312 -0.1272934526 0.5688203573 4292072914
-0.2544827163 -0.1266865879 0.5689332485 4291809742
-0.2549331784 -0.1262775958 0.5699403882 4291677897
-0.2549833059 -0.1256690621 0.5700524449 4291283139
-0.2550332248 -0.1250601560 0.5701640248 4292790121
-0.2546824515 -0.1242555380 0.5693798661 4292921707
-0.2547318339 -0.1236468852 0.5694902539 4293316180
-0.2543804049 -0.1228444204 0.5687045455 4293250387
-0.2540285885 -0.1220435277 0.5679180026 4293186383
-0.2532756329 -0.1210526600 0.5662346482 4293449555
-0.2529229820 -0.1202558577 0.5654462576 4293908566
-0.2521690428 -0.1192710176 0.5637607574 4294171738
-0.2510136366 -0.1181010082 0.5611776114 4294237280
-0.2502585649 -0.1171241254 0.5594896078 4294434659
-0.2495029867 -0.1161507517 0.5578003526 4294370155
-0.2487468868 -0.1151808873 0.5561100245 4294633327
-0.2479902804 -0.1142145395 0.5544185042 4294961521
-0.2476345003 -0.1134355664 0.5536230803 4294962035
-0.2468769252 -0.1124753058 0.5519294143 4294503542
-0.2469218373 -0.1118824258 0.5520298481 4294240370
-0.2465649545 -0.1111082584 0.5512319803 4294047938
-0.2466093451 -0.1105156988 0.5513312221 4294836174
-0.2502793670 -0.1354991645 0.5609288812 4292468966
-0.2503326833 -0.1349046677 0.5610483885 4292074208
-0.2503857911 -0.1343097836 0.5611674190 4291482071
-0.2508368194 -0.1339271069 0.5621782541 4290560969
-0.2512878180 -0.1335421652 0.5631890893 4289704882
-0.2513404489 -0.1329442561 0.5633070469 4288520608
-0.2513928711 -0.1323459744 0.5634245276 4288323231
-0.2518435717 -0.1319561154 0.5644345880 4288520610
-0.2518956363 -0.1313561350 0.5645512938 4288717987
-0.2519474924 -0.1307557970 0.5646675229 4288520608
-0.2519991100 -0.1301550865 0.5647832155 4288717471
-0.2524493635 -0.1297589839 0.5657923222 4288783264
-0.2525006533 -0.1291565895 0.5659072399 4288849057
-0.2529506683 -0.1287568957 0.5669158697 4289638573
-0.2530016005 -0.1281528175 0.5670300126 4291349191
-0.2530523241 -0.1275483668 0.5671436787 4292401879
-0.2535020113 -0.1271437705 0.5681515336 4292335573
-0.2535523772 -0.1265376359 0.5682643652 4292072401
-0.2540018857 -0.1261294633 0.5692718029 4291875276
-0.2540518641 -0.1255216599 0.5693838596 4291480518
-0.2537021041 -0.1247170940 0.5685999393 4292526177
-0.2537515461 -0.1241095290 0.5687108040 4292723556
-0.2538007796 -0.1235016137 0.5688211322 4293118547
-0.2538498044 -0.1228933409 0.5689310431 4293184340
-0.2534987628 -0.1220921502 0.5681442618 4293055049
-0.2531473339 -0.1212925166 0.5673566461 4293384014
-0.2523955405 -0.1203038022 0.5656716824 4293711953
-0.2516432405 -0.1193185821 0.5639855862 4293909332
-0.2508903742 -0.1183368638 0.5622982979 4294039903
-0.2501370311 -0.1173586473 0.5606098771 4294303075
-0.2493831217 -0.1163839400 0.5589202642 4294238056
-0.2486287206 -0.1154127419 0.5572294593 4294567021
-0.2474733442 -0.1142601818 0.5546399951 4294961521
-0.2471183538 -0.1134809107 0.5538443923 4294962549
-0.2467629761 -0.1127032414 0.5530479550 4294700668
-0.2464072406 -0.1119271815 0.5522506237 4294108531
-0.2460511327 -0.1111527234 0.5514525175 4293915825
-0.2456946671 -0.1103798747 0.5506536365 4294967233
-0.2489605546 -0.1351215243 0.5593655705 4292666347
-0.2490136325 -0.1345286965 0.5594847798 4292140003
-0.2490664870 -0.1339354962 0.5596035719 4291548377
-0.2495164573 -0.1335545927 0.5606145859 4290693068
-0.2495689839 -0.1329596937 0.5607326031 4290099901
-0.2500187755 -0.1325751841 0.5617431998 4288915627
-0.2500709593 -0.1319785863 0.5618604422 4288257440
-0.2505205870 -0.1315905005 0.5628706813 4288389026
-0.2505724430 -0.1309922040 0.5629871488 4288585887
-0.2506240606 -0.1303935349 0.5631030798 4288454301
-0.2510733604 -0.1300005317 0.5641126037 4288585883
-0.2515226007 -0.1296052486 0.5651220083 4288849055
-0.2519718111 -0.1292077005 0.5661312342 4288849057
-0.2520228028 -0.1286047250 0.5662458539 4289178022
-0.2520735860 -0.1280013621 0.5663599372 4290756032
-0.2521241307 -0.1273976415 0.5664735436 4292006099
-0.2521744967 -0.1267935634 0.5665866137 4292269523
-0.2522246242 -0.1261891276 0.5666992664 4292532695
-0.2526730597 -0.1257827282 0.5677068233 4292335565
-0.2527228296 -0.1251766086 0.5678186417 4291546049
-0.2527723610 -0.1245701388 0.5679299235 4292199261
-0.2524228990 -0.1237677783 0.5671448112 4292265054
-0.2524719238 -0.1231615543 0.5672549009 4292725579
-0.2525207400 -0.1225549802 0.5673645735 4292988751
-0.2525693178 -0.1219480485 0.5674737096 4293316696
-0.2526176572 -0.1213407740 0.5675823689 4293579868
-0.2518674731 -0.1203516871 0.5658968687 4293974106
-0.2515160143 -0.1195558608 0.5651071668 4294039899
-0.2507648468 -0.1185728088 0.5634194613 4294040419
-0.2500131726 -0.1175932586 0.5617305636 4294040419
-0.2492609620 -0.1166172177 0.5600405335 4294237798
-0.2485082448 -0.1156446859 0.5583493114 4294566763
-0.2473554015 -0.1144907176 0.5557590723 4294829936
-0.2470012605 -0.1137101948 0.5549634099 4294962293
-0.2462469935 -0.1127482355 0.5532687306 4294962295
-0.2458920330 -0.1119718775 0.5524711609 4294830195
-0.2455366999 -0.1111971289 0.5516728163 4294895749
-0.2451810241 -0.1104239821 0.5508736968 4294966939
-0.2476444542 -0.1347434670 0.5578005314 4292797933
-0.2476972938 -0.1341523230 0.5579195023 4292271589
-0.2477499247 -0.1335608065 0.5580380559 4291614170
-0.2481988221 -0.1331816614 0.5590491891 4290824654
-0.2482511103 -0.1325884461 0.5591669679 4290297280
-0.2486998439 -0.1322057098 0.5601776838 4289376178
-0.2487517893 -0.1316107959 0.5602946877 4288586405
-0.2492003441 -0.1312244684 0.5613050461 4288323233
-0.2492519468 -0.1306278706 0.5614212751 4288454301
-0.2497003227 -0.1302379519 0.5624311566 4288454301
-0.2497515678 -0.1296396554 0.5625466108 4288585883
-0.2501997650 -0.1292461455 0.5635561347 4288783262
-0.2506479025 -0.1288503557 0.5645655394 4288783264
-0.2506986558 -0.1282490641 0.5646798611 4288914850
-0.2511465847 -0.1278496981 0.5656888485 4290163895
-0.2511970103 -0.1272467077 0.5658023953 4291413962
-0.2512472272 -0.1266433597 0.5659154654 4292072144
-0.2512972057 -0.1260396540 0.5660279989 4292401109
-0.2513469458 -0.1254355907 0.5661401153 4292269772
-0.2517942786 -0.1250286847 0.5671476722 4291611842
-0.2518436611 -0.1244229525 0.5672589540 4292133470
-0.2514949143 -0.1236212626 0.5664733648 4292199263
-0.2515437901 -0.1230157763 0.5665834546 4292659788
-0.2515924573 -0.1224099323 0.5666930676 4292988753
-0.2516408861 -0.1218037382 0.5668022037 4293316697
-0.2516891062 -0.1211972013 0.5669108033 4293514076
-0.2513387799 -0.1203995049 0.5661216974 4293711704
-0.2509880960 -0.1196033806 0.5653317571 4293843290
-0.2502385378 -0.1186199561 0.5636435151 4293974624
-0.2494884729 -0.1176400334 0.5619540215 4293974624
-0.2491365075 -0.1168505847 0.5611612201 4294172005
-0.2483854741 -0.1158767194 0.5594695807 4294435177
-0.2476339340 -0.1149063781 0.5577768087 4294632814
-0.2464830279 -0.1137554944 0.5551844835 4294962036
-0.2461292893 -0.1129762754 0.5543876886 4294962551
