VERSION 0.7
FIELDS x y z rgba
SIZE 4 4 4 4
TYPE F F F U
COUNT 1 1 1 1
WIDTH 920
HEIGHT 1
VIEWPOINT 0.0 0.0 0.0 1.0 0.0 0.0 0.0
POINTS 920
DATA ascii
-0.2773863971 -0.0806521475 0.5978695750 4292204765
-0.2774199545 -0.0799975544 0.5979419351 4292073179
-0.2774532735 -0.0793427229 0.5980136991 4291941595
-0.2774862945 -0.0786876604 0.5980849266 4291875802
-0.2771011293 -0.0779148415 0.5972547531 4291876315
-0.2771335840 -0.0772602931 0.5973247290 4291744729
-0.2771658003 -0.0766055211 0.5973941088 4291613143
-0.2776158154 -0.0760650784 0.5983640552 4291744729
-0.2772293687 -0.0752952993 0.5975311399 4291942108
-0.2772607803 -0.0746398494 0.5975988507 4291876315
-0.2772918940 -0.0739841759 0.5976659060 4291810522
-0.2769044638 -0.0732176900 0.5968308449 4291876315
-0.2769350111 -0.0725625679 0.5968967080 4291744729
-0.2769652903 -0.0719072372 0.5969619751 4291547350
-0.2769953012 -0.0712516904 0.5970266461 4291744727
-0.2770250440 -0.0705959275 0.5970907211 4292073692
-0.2770545185 -0.0699399561 0.5971542597 4292007899
-0.2775022686 -0.0693884343 0.5981193185 4291876313
-0.2775312364 -0.0687310547 0.5981817842 4291942106
-0.2775599360 -0.0680734739 0.5982436538 4291744727
-0.2775883675 -0.0674156919 0.5983049273 4291876831
-0.2776165605 -0.0667577013 0.5983656645 4291745245
-0.2776444554 -0.0660995170 0.5984258056 4292139487
-0.2776720524 -0.0654411316 0.5984853506 4292205280
-0.2776994109 -0.0647825524 0.5985442996 4292007386
-0.2773075998 -0.0640270635 0.5976997614 4292073179
-0.2773343623 -0.0633690953 0.5977574587 4292335836
-0.2777798474 -0.0628056601 0.5987176299 4292270043
-0.2778061032 -0.0621463209 0.5987742543 4292138972
-0.2778321207 -0.0614867918 0.5988302827 4292599523
-0.2778578401 -0.0608270802 0.5988857150 4292863210
-0.2778832912 -0.0601671822 0.5989405513 4292929003
-0.2774892747 -0.0594173558 0.5980913639 4292929519
-0.2775141597 -0.0587580949 0.5981449485 4293258484
-0.2775387466 -0.0580986626 0.5981979370 4293784312
-0.2775630653 -0.0574390553 0.5982503891 4293981691
-0.2780064046 -0.0568650439 0.5992059708 4294572543
-0.2780302167 -0.0562040955 0.5992572904 4294638335
-0.2776343822 -0.0554592013 0.5984040499 4294704383
-0.2776575983 -0.0547989160 0.5984541178 4294638591
-0.2776805460 -0.0541384630 0.5985035896 4294572285
-0.2777032256 -0.0534778498 0.5985524654 4293519597
-0.2781451344 -0.0528968610 0.5995049477 4292598755
-0.2785868645 -0.0523137115 0.6004570127 4293322478
-0.2786087692 -0.0516506247 0.6005042791 4293848824
-0.2790500224 -0.0510641709 0.6014553308 4294638335
-0.2794910669 -0.0504755639 0.6024059653 4294901247
-0.2799319327 -0.0498848073 0.6033561230 4294703871
-0.2803725302 -0.0492918976 0.6043058634 4294835711
-0.2812326849 -0.0487696342 0.6061598063 4294835711
-0.2727136910 -0.1528049409 0.5892087221 4294704375
-0.2727749050 -0.1521844417 0.5893409252 4294704375
-0.2728358805 -0.1515635252 0.5894727111 4294638582
-0.2728966475 -0.1509421766 0.5896040201 4294638582
-0.2729572058 -0.1503204256 0.5897347927 4294441202
-0.2726081908 -0.1494738311 0.5889807940 4294375409
-0.2726681828 -0.1488521844 0.5891104341 4294309616
-0.2727279663 -0.1482301354 0.5892395973 4294178030
-0.2727875412 -0.1476076841 0.5893682241 4294046444
-0.2728468776 -0.1469848156 0.5894964337 4293980651
-0.2729059756 -0.1463615298 0.5896241665 4293914858
-0.2729648650 -0.1457378566 0.5897513628 4293849065
-0.2730235159 -0.1451137811 0.5898780823 4293717477
-0.2730819285 -0.1444893032 0.5900043249 4293651684
-0.2731401324 -0.1438644081 0.5901300907 4293585891
-0.2731980979 -0.1432391405 0.5902553201 4293520098
-0.2732558548 -0.1426134557 0.5903800726 4293388512
-0.2733133733 -0.1419873834 0.5905043483 4293322719
-0.2733706534 -0.1413609087 0.5906281471 4293256926
-0.2734277248 -0.1407340467 0.5907514095 4293256926
-0.2738951743 -0.1403171718 0.5917613506 4293257180
-0.2739518583 -0.1396885812 0.5918838382 4293191387
-0.2740083039 -0.1390596032 0.5920057893 4293125594
-0.2740645409 -0.1384302378 0.5921272635 4292994008
-0.2745315135 -0.1380070895 0.5931361318 4292928215
-0.2749983966 -0.1375816613 0.5941448808 4292862422
-0.2750540972 -0.1369492412 0.5942652225 4292862422
-0.2751095295 -0.1363164485 0.5943850279 4292796629
-0.2751647532 -0.1356832832 0.5945043564 4292862422
-0.2752197385 -0.1350497156 0.5946231484 4292862422
-0.2752744853 -0.1344157904 0.5947414041 4292862422
-0.2753289938 -0.1337814778 0.5948591828 4292862422
-0.2753832638 -0.1331467777 0.5949764848 4292796629
-0.2754373252 -0.1325117201 0.5950931907 4292796629
-0.2754911184 -0.1318762898 0.5952094793 4292796629
-0.2755446732 -0.1312404722 0.5953251719 4292796629
-0.2755980194 -0.1306042969 0.5954403877 4292928215
-0.2756510973 -0.1299677491 0.5955550671 4292862422
-0.2757039368 -0.1293308288 0.5956692696 4292862420
-0.2757565379 -0.1286935508 0.5957829356 4292796627
-0.2762211859 -0.1282473207 0.5967867970 4292862162
-0.2762733996 -0.1276083738 0.5968995690 4292796369
-0.2763253450 -0.1269690394 0.5970118642 4292730321
-0.2763770819 -0.1263293624 0.5971236229 4292598735
-0.2764285505 -0.1256893277 0.5972348452 4292270025
-0.2764798105 -0.1250489354 0.5973455310 4292006853
-0.2765308022 -0.1244081780 0.5974556804 4291809472
-0.2765815556 -0.1237670705 0.5975653529 4291677886
-0.2762191594 -0.1229418442 0.5967824459 4291545530
-0.2762693465 -0.1223009974 0.5968908668 4291282358
-0.2759062648 -0.1214779466 0.5961064100 4290756014
-0.2759558856 -0.1208373606 0.5962136388 4290295463
-0.2760052681 -0.1201964244 0.5963203311 4290164128
-0.2760544121 -0.1195551530 0.5964264870 4290164128
-0.2761032879 -0.1189135313 0.5965321064 4290229921
-0.2761519551 -0.1182715818 0.5966371894 4290427300
-0.2757868767 -0.1174531952 0.5958484411 4290690475
-0.2758349478 -0.1168115214 0.5959523320 4291085233
-0.2762964070 -0.1163436845 0.5969492793 4291348923
-0.2763440609 -0.1157003865 0.5970522761 4291612095
-0.2763914466 -0.1150567532 0.5971546769 4292006600
-0.2764386237 -0.1144127846 0.5972565413 4292532944
-0.2764855325 -0.1137684956 0.5973579288 4293125083
-0.2765322030 -0.1131238788 0.5974587202 4293454048
-0.2761645615 -0.1123105511 0.5966644287 4293651687
-0.2762106657 -0.1116662472 0.5967640281 4293849066
-0.2762565017 -0.1110216230 0.5968630910 4293980398
-0.2763020992 -0.1103766784 0.5969616175 4294111984
-0.2759331167 -0.1095669046 0.5961644053 4294440690
-0.2759781480 -0.1089222878 0.5962616801 4294572276
-0.2756084800 -0.1081147864 0.5954629779 4294835448
-0.2756529152 -0.1074705124 0.5955590010 4294967034
-0.2756971121 -0.1068259329 0.5956545472 4294901241
-0.2757410705 -0.1061810404 0.5957494974 4294967034
-0.2757847607 -0.1055358425 0.5958439112 4294967034
-0.2758282125 -0.1048903391 0.5959377885 4294835448
-0.2762862444 -0.1044012904 0.5969273448 4294967034
-0.2767441571 -0.1039099917 0.5979167223 4294967034
-0.2767869830 -0.1032616422 0.5980092287 4294901241
-0.2764144838 -0.1024591401 0.5972044468 4294901241
-0.2764567435 -0.1018111557 0.5972957015 4294967034
-0.2764987350 -0.1011628807 0.5973864198 4294967034
-0.2761252224 -0.1003633887 0.5965794325 4294967033
-0.2761666477 -0.0997154936 0.5966688991 4294967033
-0.2762077749 -0.0990673155 0.5967578292 4294967036
-0.2762486935 -0.0984188467 0.5968462229 4294967036
-0.2762893140 -0.0977700874 0.5969340205 4294901500
-0.2763297260 -0.0971210450 0.5970212817 4294835707
-0.2763698399 -0.0964717194 0.5971079469 4294901502
-0.2764097154 -0.0958221108 0.5971940756 4294835709
-0.2764493227 -0.0951722264 0.5972796679 4294704123
-0.2764886618 -0.0945220590 0.5973647237 4294704123
-0.2765277624 -0.0938716158 0.5974491835 4294441210
-0.2769824862 -0.0933610722 0.5984316468 4294178038
-0.2770211399 -0.0927091017 0.5985150933 4294046452
-0.2770594954 -0.0920568630 0.5985980034 4293849073
-0.2770976126 -0.0914043486 0.5986803174 4293520878
-0.2767193317 -0.0906153023 0.5978630781 4293323499
-0.2767568827 -0.0899632350 0.5979442000 4293191913
-0.2767941654 -0.0893109068 0.5980247259 4293126120
-0.2768311799 -0.0886583105 0.5981046557 4293191146
-0.2768679261 -0.0880054533 0.5981841087 4292993767
-0.2769044042 -0.0873523429 0.5982629061 4292862181
-0.2769406438 -0.0866989642 0.5983411670 4292730595
-0.2769765854 -0.0860453397 0.5984188914 4292664802
-0.2770122886 -0.0853914618 0.5984960198 4292599009
-0.2766311169 -0.0846099034 0.5976724625 4292467939
-0.2770829201 -0.0840829462 0.5986486077 4292533732
-0.2771178186 -0.0834283084 0.5987240076 4292402146
-0.2771524787 -0.0827734321 0.5987988710 4292467939
-0.2771868408 -0.0821183100 0.5988731384 4292402146
-0.2772209644 -0.0814629421 0.5989468694 4292336353
-0.2772548199 -0.0808073357 0.5990200043 4292204767
-0.2768714130 -0.0800309628 0.5981916785 4292073181
-0.2769047022 -0.0793758705 0.5982635617 4292073181
-0.2769376934 -0.0787205324 0.5983348489 4292138974
-0.2769704461 -0.0780649707 0.5984055996 4292007388
-0.2765857279 -0.0772925913 0.5975744128 4291941595
-0.2770351171 -0.0767531469 0.5985453129 4291941595
-0.2770670652 -0.0760968924 0.5986143351 4291941595
-0.2770987153 -0.0754404142 0.5986827612 4291941595
-0.2767127752 -0.0746710822 0.5978488922 4291941595
-0.2767438591 -0.0740151405 0.5979160666 4291941595
-0.2767746747 -0.0733589828 0.5979826450 4292007388
-0.2763877213 -0.0725929514 0.5971466303 4291875802
-0.2764179707 -0.0719373524 0.5972119570 4291875802
-0.2764479518 -0.0712815300 0.5972766876 4291941595
-0.2764776647 -0.0706255063 0.5973408818 4292007388
-0.2769247591 -0.0700749606 0.5983068943 4292007388
-0.2769539952 -0.0694175214 0.5983700156 4292007388
-0.2769829333 -0.0687598735 0.5984325409 4292073181
-0.2770116031 -0.0681020170 0.5984945297 4292138974
-0.2770400047 -0.0674439669 0.5985558629 4291876313
-0.2770681381 -0.0667857081 0.5986166596 4291810520
-0.2770960033 -0.0661272481 0.5986768603 4292139487
-0.2771236002 -0.0654685944 0.5987364650 4292468452
-0.2771509290 -0.0648097470 0.5987955332 4292271073
-0.2771779597 -0.0641506985 0.5988539457 4292007901
-0.2776228487 -0.0635872260 0.5998151302 4292139487
-0.2772312462 -0.0628320426 0.5989691019 4292073694
-0.2772575021 -0.0621724240 0.5990257859 4292073694
-0.2772834599 -0.0615126230 0.5990818739 4292139487
-0.2773091495 -0.0608526394 0.5991373658 4292599784
-0.2773345709 -0.0601924732 0.5991923213 4292797163
-0.2773597240 -0.0595321245 0.5992466211 4292533991
-0.2769662142 -0.0587828010 0.5983964205 4292599784
-0.2769907713 -0.0581230931 0.5984495282 4292862956
-0.2770150602 -0.0574632138 0.5985019803 4293191921
-0.2774575651 -0.0568889640 0.5994580388 4293850621
-0.2774813473 -0.0562277436 0.5995094180 4294113791
-0.2775048614 -0.0555663519 0.5995602012 4294639357
-0.2775280774 -0.0549047925 0.5996103883 4294705150
-0.2775510550 -0.0542430691 0.5996599793 4294770427
-0.2775737345 -0.0535811819 0.5997089744 4294901757
-0.2775961161 -0.0529191345 0.5997574329 4293849592
-0.2776182592 -0.0522569269 0.5998052359 4291875802
-0.2780588865 -0.0516723804 0.6007571816 4292270560
-0.2784993052 -0.0510856844 0.6017087102 4294310143
-0.2785206735 -0.0504210107 0.6017549038 4294967295
-0.2789606154 -0.0498310067 0.6027054191 4294572537
-0.2789814770 -0.0491650328 0.6027504802 4294900989
-0.2794209421 -0.0485717282 0.6037000418 4294835196
-0.2716014683 -0.1453587413 0.5882171988 4294704375
-0.2716598809 -0.1447363049 0.5883436799 4294704374
-0.2717180550 -0.1441134810 0.5884696841 4294704374
-0.2717760205 -0.1434902400 0.5885952115 4294704374
-0.2722431421 -0.1430817842 0.5896068811 4294638581
-0.2723007202 -0.1424568146 0.5897316337 4294638581
-0.2723580897 -0.1418314427 0.5898558497 4294572788
-0.2720055580 -0.1409933567 0.5890923738 4294506995
-0.2720623910 -0.1403681487 0.5892154574 4294441202
-0.2721189857 -0.1397425383 0.5893380046 4294309616
-0.2729951441 -0.1395355761 0.5912355781 4294243823
-0.2730514407 -0.1389073133 0.5913574696 4294243823
-0.2731074989 -0.1382786632 0.5914788842 4294178030
-0.2731633484 -0.1376496255 0.5915998220 4294112237
-0.2736291885 -0.1372259408 0.5926087499 4294046444
-0.2736846507 -0.1365951896 0.5927288532 4293980651
-0.2737398744 -0.1359640509 0.5928484201 4293914858
-0.2737948596 -0.1353325248 0.5929675102 4293783272
-0.2738496065 -0.1347006410 0.5930861235 4293717479
-0.2739041448 -0.1340683550 0.5932042003 4293651686
-0.2739584148 -0.1334357113 0.5933217406 4293454307
-0.2740124762 -0.1328026801 0.5934388041 4293322721
-0.2740662694 -0.1321692765 0.5935553312 4293191135
-0.2741198540 -0.1315355003 0.5936713815 4293059549
-0.2741732001 -0.1309013665 0.5937868953 4292993756
-0.2742263079 -0.1302668452 0.5939019322 4292927961
-0.2742791772 -0.1296319664 0.5940164328 4292862168
-0.2743318081 -0.1289967149 0.5941303968 4292730836
-0.2743841708 -0.1283611059 0.5942438245 4292599250
-0.2744363248 -0.1277251244 0.5943567753 4292730323
-0.2748997808 -0.1272793263 0.5953604579 4292796116
-0.2749515176 -0.1266416758 0.5954725146 4292861909
-0.2750030160 -0.1260036677 0.5955840945 4292861909
-0.2750543058 -0.1253652871 0.5956951380 4292861909
-0.2751053274 -0.1247265637 0.5958056450 4292796116
-0.2751561105 -0.1240874827 0.5959156156 4292796114
-0.2747946680 -0.1232632473 0.5951328278 4292861907
-0.2748448849 -0.1226244196 0.5952416062 4292861907
-0.2744827271 -0.1218023524 0.5944572687 4292664528
-0.2745323777 -0.1211637855 0.5945647955 4292335563
-0.2745817900 -0.1205248758 0.5946718454 4292006598
-0.2746309638 -0.1198856235 0.5947783589 4291742909
-0.2742674649 -0.1190669760 0.5939911008 4291545530
-0.2743160725 -0.1184279919 0.5940963626 4291019956
-0.2743644416 -0.1177886724 0.5942011476 4290690991
-0.2744125724 -0.1171490178 0.5943053365 4290493614
-0.2748731673 -0.1166842282 0.5953028798 4290362028
-0.2745080888 -0.1158687025 0.5945122242 4290295982
-0.2749683559 -0.1154013202 0.5955089927 4290295982
-0.2750155628 -0.1147593707 0.5956112146 4290558902
-0.2750625014 -0.1141170859 0.5957129598 4290887867
-0.2751092315 -0.1134744734 0.5958141088 4291217346
-0.2751556933 -0.1128315330 0.5959147215 4291612104
-0.2752019167 -0.1121882722 0.5960148573 4292072401
-0.2748346031 -0.1113772020 0.5952193141 4292532952
-0.2748802602 -0.1107342616 0.5953181982 4292927712
-0.2749256492 -0.1100910008 0.5954165459 4293256677
-0.2745573223 -0.1092828438 0.5946187973 4293519847
-0.2746021450 -0.1086399183 0.5947158933 4293848812
-0.2742331028 -0.1078340337 0.5939166546 4294111986
-0.2742773890 -0.1071914509 0.5940125585 4294243572
-0.2743214071 -0.1065485552 0.5941078663 4294309365
-0.2743651569 -0.1059053540 0.5942026973 4294440951
-0.2744086981 -0.1052618399 0.5942969322 4294638328
-0.2748658955 -0.1047758237 0.5952871442 4294769914
-0.2753230035 -0.1042875573 0.5962770581 4294901500
-0.2753658891 -0.1036411896 0.5963699818 4294901500
-0.2754085362 -0.1029945239 0.5964623094 4294835709
-0.2754509151 -0.1023475602 0.5965541005 4294835709
-0.2754930258 -0.1017002985 0.5966452956 4294901502
-0.2755348980 -0.1010527387 0.5967360139 4294901502
-0.2751621306 -0.1002539024 0.5959286690 4294901500
-0.2752034068 -0.0996067300 0.5960180759 4294901500
-0.2752444744 -0.0989592671 0.5961070061 4294901243
-0.2752852440 -0.0983115211 0.5961953402 4294967036
-0.2753257751 -0.0976634771 0.5962831378 4294967036
-0.2753660679 -0.0970151573 0.5963703394 4294967036
-0.2754060924 -0.0963665470 0.5964570045 4294967036
-0.2754458487 -0.0957176611 0.5965431333 4294967036
-0.2754853666 -0.0950684920 0.5966286659 4294835709
-0.2759395540 -0.0945612416 0.5976123810 4294835709
-0.2759785950 -0.0939105377 0.5976969600 4294901502
-0.2760173976 -0.0932595655 0.5977809429 4294835709
-0.2760559320 -0.0926083103 0.5978643894 4294901502
-0.2760941982 -0.0919567868 0.5979472995 4294901502
-0.2761321962 -0.0913049951 0.5980296135 4294769916
-0.2761699557 -0.0906529352 0.5981113911 4294704123
-0.2762074471 -0.0900006071 0.5981925726 4294572796
-0.2762446702 -0.0893480107 0.5982732177 4294572796
-0.2762816548 -0.0886951536 0.5983532667 4294046969
-0.2759028375 -0.0879096463 0.5975328684 4293915383
-0.2759392262 -0.0872572511 0.5976116657 4293784052
-0.2759753764 -0.0866046026 0.5976899266 4293652466
-0.2760112286 -0.0859516934 0.5977675915 4293389039
-0.2764625847 -0.0854269937 0.5987451077 4292994281
-0.2764979601 -0.0847726017 0.5988217592 4292599525
-0.2765330970 -0.0841179490 0.5988978148 4292270560
-0.2765679657 -0.0834630579 0.5989733338 4292205280
-0.2766025662 -0.0828079134 0.5990483165 4292336866
-0.2766369283 -0.0821525306 0.5991227031 4292336866
-0.2766709924 -0.0814968944 0.5991964936 4292205280
-0.2767048180 -0.0808410272 0.5992696881 4292139487
-0.2763222158 -0.0800643340 0.5984410644 4292073694
-0.2763554454 -0.0794089735 0.5985130668 4291941854
-0.2763884068 -0.0787533745 0.5985844731 4291810268
-0.2768374085 -0.0782151595 0.5995568633 4291941595
-0.2764535546 -0.0774414837 0.5987254977 4291875802
-0.2764857113 -0.0767851919 0.5987951756 4291810009
-0.2765175998 -0.0761286691 0.5988643169 4291810009
-0.2765492499 -0.0754719228 0.5989328027 4291875802
-0.2761640847 -0.0747022778 0.5980986357 4291875802
-0.2761951387 -0.0740460679 0.5981658697 4291941595
-0.2762259245 -0.0733896419 0.5982325673 4292007388
-0.2762564421 -0.0727329999 0.5982986689 4291875802
-0.2762866914 -0.0720761418 0.5983641744 4291810009
-0.2763166726 -0.0714190677 0.5984291434 4291875802
-0.2763463855 -0.0707617775 0.5984934568 4291941595
-0.2767927051 -0.0702100173 0.5994600654 4292007388
-0.2768219113 -0.0695513114 0.5995233655 4292007388
-0.2768508792 -0.0688924044 0.5995860696 4292007388
-0.2768795490 -0.0682332888 0.5996481776 4292073181
-0.2769079804 -0.0675739720 0.5997096896 4291942108
-0.2769361138 -0.0669144541 0.5997706652 4291744729
-0.2769639790 -0.0662547350 0.5998310447 4291942108
-0.2765744328 -0.0654960275 0.5989873409 4292271073
-0.2766017318 -0.0648369044 0.5990464687 4292205026
-0.2766287327 -0.0641775951 0.5991050005 4292007647
-0.2770727873 -0.0636138916 0.6000666022 4292073694
-0.2770992815 -0.0629531965 0.6001240611 4291942108
-0.2767081857 -0.0621985011 0.5992770195 4292073694
-0.2767341137 -0.0615384281 0.5993331671 4292007901
-0.2767597735 -0.0608781725 0.5993887782 4292468198
-0.2767851651 -0.0602177307 0.5994437337 4292599784
-0.2768102884 -0.0595571101 0.5994981527 4292402148
-0.2768351138 -0.0588963106 0.5995519757 4292402148
-0.2764421105 -0.0581474975 0.5987007618 4292599527
-0.2764663696 -0.0574873425 0.5987533331 4292796906
-0.2769080400 -0.0569128580 0.5997098088 4292863724
-0.2769317925 -0.0562513620 0.5997612476 4293324275
-0.2769552469 -0.0555896983 0.5998120904 4294113015
-0.2769784629 -0.0549278632 0.5998623967 4294376187
-0.2770013809 -0.0542658679 0.5999120474 4294572796
-0.2770240605 -0.0536037050 0.5999611020 4294835967
-0.2770464420 -0.0529413819 0.6000095606 4294178555
-0.2774864435 -0.0523577519 0.6009625196 4292796902
-0.2775082886 -0.0516941138 0.6010098457 4293060074
-0.2779478729 -0.0511071719 0.6019618511 4294375934
-0.2779692113 -0.0504422225 0.6020080447 4294901502
-0.2779902816 -0.0497771204 0.6020537019 4294704123
-0.2780110538 -0.0491118692 0.6020987034 4294966782
-0.2719632387 -0.1354073137 0.5904209018 4294704375
-0.2724275887 -0.1349813938 0.5914289951 4294704375
-0.2724820971 -0.1343511492 0.5915473700 4294638582
-0.2725363970 -0.1337205470 0.5916652083 4294572789
-0.2725904584 -0.1330895573 0.5917825699 4294506996
-0.2726442814 -0.1324581951 0.5918993950 4294375410
-0.2726978660 -0.1318264455 0.5920157433 4294309617
-0.2727512121 -0.1311943382 0.5921316147 4294243824
-0.2728043199 -0.1305618584 0.5922468901 4294178031
-0.2728572190 -0.1299290210 0.5923616886 4294046444
-0.2729098499 -0.1292957962 0.5924760103 4293914858
-0.2729622722 -0.1286622137 0.5925897956 4293651686
-0.2730144262 -0.1280282736 0.5927030444 4293520100
-0.2730663717 -0.1273939610 0.5928157568 4293519587
-0.2731180489 -0.1267593056 0.5929279923 4293388001
-0.2731695175 -0.1261242777 0.5930396914 4293256415
-0.2732207179 -0.1254888773 0.5931509137 4293124829
-0.2732717097 -0.1248531416 0.5932615399 4292993243
-0.2733224332 -0.1242170408 0.5933716893 4292861657
-0.2733729482 -0.1235805899 0.5934813023 4292861911
-0.2730120122 -0.1227589101 0.5926977992 4292927704
-0.2730619609 -0.1221227124 0.5928062201 4293059290
-0.2731116712 -0.1214861721 0.5929141045 4293125083
-0.2731611133 -0.1208492815 0.5930214524 4293059290
-0.2732103169 -0.1202120408 0.5931283236 4292927704
-0.2728477716 -0.1193943769 0.5923411846 4292993495
-0.2728964090 -0.1187574193 0.5924468040 4292927702
-0.2729448378 -0.1181201190 0.5925518870 4292730325
-0.2729929984 -0.1174824759 0.5926564932 4292532946
-0.2734527290 -0.1170207411 0.5936545730 4292335567
-0.2735005021 -0.1163814664 0.5937582254 4292138188
-0.2731360197 -0.1155675501 0.5929669738 4291809482
-0.2731831968 -0.1149285734 0.5930694342 4291677896
-0.2732301652 -0.1142892614 0.5931713581 4291217346
-0.2736890316 -0.1138210446 0.5941675305 4291217346
-0.2737355530 -0.1131801158 0.5942685604 4291085506
-0.2737818360 -0.1125388667 0.5943689942 4291085506
-0.2738278508 -0.1118972823 0.5944689512 4291151301
-0.2734611630 -0.1110878289 0.5936728716 4291282887
-0.2735066414 -0.1104465723 0.5937715769 4291414475
-0.2735518515 -0.1098050028 0.5938697457 4291611854
-0.2735968232 -0.1091631129 0.5939673185 4292072662
-0.2732287943 -0.1083572209 0.5931683779 4292533213
-0.2728603780 -0.1075529605 0.5923686028 4292993764
-0.2729044855 -0.1069120616 0.5924643278 4293388522
-0.2729482949 -0.1062708572 0.5925594568 4293651694
-0.2729918957 -0.1056293473 0.5926541090 4293783280
-0.2730352283 -0.1049875244 0.5927481651 4293849073
-0.2739045620 -0.1046611220 0.5946354866 4294046452
-0.2739475369 -0.1040167511 0.5947287083 4294243831
-0.2739902437 -0.1033720821 0.5948214531 4294375417
-0.2740326822 -0.1027271077 0.5949136019 4294507005
-0.2740749121 -0.1020818353 0.5950052738 4294572798
-0.2741168439 -0.1014362648 0.5950963497 4294704383
-0.2741585374 -0.1007904038 0.5951868296 4294835967
-0.2741999924 -0.1001442447 0.5952768326 4294835967
-0.2742411792 -0.0994977951 0.5953662395 4294835967
-0.2742821276 -0.0988510475 0.5954551101 4294835196
-0.2739090323 -0.0980558991 0.5946451426 4294900989
-0.2739494145 -0.0974095613 0.5947328210 4294900989
-0.2739894986 -0.0967629328 0.5948199034 4294966782
-0.2740293741 -0.0961160213 0.5949063897 4294967039
-0.2740689516 -0.0954688340 0.5949923396 4294967039
-0.2745223641 -0.0949646011 0.5959766507 4294901502
-0.2745614946 -0.0943158716 0.5960616469 4294901502
-0.2746003866 -0.0936668664 0.5961460471 4294835709
-0.2750532627 -0.0931578875 0.5971292257 4294835709
-0.2750916779 -0.0925073549 0.5972126722 4294901502
-0.2751298547 -0.0918565542 0.5972955227 4294901502
-0.2751677632 -0.0912054852 0.5973778367 4294835711
-0.2752054036 -0.0905541405 0.5974595547 4294769918
-0.2752428055 -0.0899025351 0.5975407362 4294835711
-0.2752799392 -0.0892506614 0.5976213217 4294769918
-0.2753168046 -0.0885985270 0.5977013707 4294705151
-0.2753534317 -0.0879461318 0.5977808833 4294639359
-0.2749750316 -0.0871620104 0.5969594121 4294639359
-0.2750110626 -0.0865100846 0.5970376134 4294639359
-0.2754616737 -0.0859873965 0.5980159044 4294573567
-0.2754972577 -0.0853339732 0.5980930924 4294244603
-0.2755325437 -0.0846802965 0.5981697440 4293784310
-0.2755675912 -0.0840263739 0.5982457995 4293389552
-0.2756023705 -0.0833721980 0.5983213186 4292731622
-0.2756368816 -0.0827177837 0.5983962417 4292534243
-0.2756711245 -0.0820631161 0.5984706283 4292271073
-0.2757051289 -0.0814082101 0.5985444188 4292139487
-0.2757388353 -0.0807530582 0.5986176133 4292073694
-0.2757723033 -0.0800976679 0.5986902118 4291942108
-0.2758055031 -0.0794420391 0.5987622738 4291876061
-0.2758384347 -0.0787861794 0.5988337994 4291876061
-0.2762865424 -0.0782477483 0.5998066664 4291810268
-0.2759034932 -0.0774737522 0.5989750028 4291744475
-0.2759356201 -0.0768171921 0.5990447998 4291678682
-0.2759674788 -0.0761604086 0.5991139412 4291678682
-0.2755834162 -0.0753896832 0.5982801914 4291678682
-0.2756147087 -0.0747334361 0.5983480811 4291744475
-0.2756457329 -0.0740769655 0.5984154344 4291810268
-0.2756764591 -0.0734202713 0.5984821916 4291810268
-0.2757069468 -0.0727633610 0.5985484123 4291744475
-0.2757371664 -0.0721062273 0.5986139774 4291744475
-0.2757671177 -0.0714488849 0.5986790061 4291744475
-0.2757968009 -0.0707913339 0.5987434387 4291810268
-0.2762422562 -0.0702393427 0.5997104645 4291876061
-0.2762714326 -0.0695803761 0.5997738242 4291876061
-0.2763003707 -0.0689212009 0.5998366475 4291876061
-0.2763290107 -0.0682618171 0.5998988152 4291876061
-0.2763573825 -0.0676022246 0.5999604464 4291941854
-0.2763854861 -0.0669424385 0.6000214815 4291678682
-0.2764133513 -0.0662824437 0.6000819206 4291744475
-0.2760245800 -0.0655234307 0.5992379189 4292073440
-0.2760518491 -0.0648640394 0.5992971063 4292007647
-0.2760788202 -0.0642044470 0.5993556976 4291876061
-0.2765220106 -0.0636405200 0.6003178358 4292007647
-0.2765484750 -0.0629795492 0.6003752947 4291941854
-0.2765747011 -0.0623183995 0.6004322171 4291941597
-0.2761840820 -0.0615642034 0.5995842218 4291744218
-0.2762097120 -0.0609036721 0.5996398330 4292204769
-0.2762350738 -0.0602429621 0.5996949077 4292467941
-0.2762601674 -0.0595820695 0.5997493863 4292336355
-0.2762849629 -0.0589209981 0.5998032689 4292336355
-0.2767262757 -0.0583476201 0.6007612944 4292467941
-0.2763337791 -0.0575983226 0.5999092460 4292533734
-0.2763577998 -0.0569367260 0.5999613404 4292468450
-0.2763815224 -0.0562749542 0.6000128388 4292929001
-0.2764049768 -0.0556130186 0.6000637412 4293520625
-0.2764281332 -0.0549509116 0.6001140475 4293915383
-0.2764510512 -0.0542886406 0.6001637578 4294112762
-0.2764736712 -0.0536262020 0.6002129316 4294573311
-0.2764960229 -0.0529636070 0.6002614498 4294704895
-0.2769351900 -0.0523797348 0.6012148261 4294046969
-0.2769570351 -0.0517158210 0.6012622118 4294441212
-0.2769785821 -0.0510517508 0.6013090611 4294704383
-0.2769998908 -0.0503875241 0.6013552547 4294835711
-0.2774381042 -0.0497980341 0.6023066044 4294835711
-0.2770416439 -0.0490586199 0.6014459133 4294900991
-0.2770620883 -0.0483939461 0.6014903188 4294769405
-0.2711336017 -0.1287647486 0.5900425315 4294704375
-0.2711857259 -0.1281337887 0.5901559591 4294704374
-0.2712375820 -0.1275024712 0.5902688503 4294638581
-0.2712892294 -0.1268707812 0.5903812051 4294572788
-0.2713406086 -0.1262387484 0.5904930830 4294441202
-0.2713917792 -0.1256063432 0.5906043649 4294178030
-0.2714427114 -0.1249735877 0.5907152295 4293914858
-0.2714934051 -0.1243404746 0.5908254981 4293783272
-0.2715438306 -0.1237070039 0.5909352899 4293585893
-0.2715940475 -0.1230731830 0.5910445452 4293388514
-0.2716440260 -0.1224390119 0.5911533237 4293256928
-0.2712833285 -0.1216204986 0.5903683901 4293125342
-0.2713327408 -0.1209865883 0.5904759169 4292993756
-0.2713819146 -0.1203523353 0.5905829072 4292927963
-0.2714308500 -0.1197177395 0.5906894207 4292796377
-0.2714795470 -0.1190827936 0.5907953382 4292993756
-0.2711172104 -0.1182683185 0.5900068283 4293059549
-0.2715761960 -0.1178118959 0.5910056829 4293191135
-0.2716241479 -0.1171759367 0.5911100507 4293256928
-0.2716718614 -0.1165396422 0.5912139416 4293191135
-0.2717193365 -0.1159030125 0.5913172364 4293191135
-0.2717665732 -0.1152660474 0.5914200544 4293125343
-0.2718135715 -0.1146287546 0.5915222764 4293059550
-0.2718603313 -0.1139911339 0.5916240215 4292993757
-0.2719068229 -0.1133531854 0.5917252302 4292862171
-0.2719530761 -0.1127149016 0.5918259025 4292730331
-0.2719990909 -0.1120763049 0.5919260383 4292664538
-0.2720448375 -0.1114373729 0.5920255780 4292467159
-0.2720903754 -0.1107981279 0.5921246409 4292138194
-0.2717239261 -0.1099919081 0.5913272500 4291940815
-0.2717688978 -0.1093529910 0.5914250612 4291809229
-0.2718136013 -0.1087137535 0.5915223360 4291481295
-0.2718580663 -0.1080742031 0.5916190743 4291481295
-0.2714903057 -0.1072715670 0.5908187628 4291481295
-0.2711221576 -0.1064705476 0.5900176167 4291612881
-0.2715778351 -0.1059928462 0.5910093188 4291941846
-0.2716212571 -0.1053530276 0.5911037326 4292270811
-0.2720766366 -0.1048718020 0.5920947790 4292665569
-0.2725318968 -0.1043883190 0.5930855274 4292928741
-0.2725746930 -0.1037456468 0.5931786299 4293126122
-0.2726172209 -0.1031026617 0.5932711959 4293389294
-0.2726594806 -0.1024593860 0.5933631659 4293586673
-0.2727015316 -0.1018158048 0.5934546590 4293652466
-0.2727432847 -0.1011719331 0.5935455561 4293718259
-0.2727848291 -0.1005277634 0.5936359167 4293784052
-0.2728260756 -0.0998833030 0.5937257409 4293915638
-0.2728671134 -0.0992385447 0.5938150287 4293915638
-0.2729078829 -0.0985935032 0.5939037204 4294309624
-0.2725354433 -0.0977999866 0.5930932164 4294441210
-0.2725756466 -0.0971553475 0.5931807160 4294572796
-0.2726155818 -0.0965104178 0.5932676196 4294638589
-0.2726552784 -0.0958652124 0.5933539867 4294704382
-0.2726947069 -0.0952197239 0.5934398174 4294704382
-0.2731471062 -0.0947172418 0.5944243670 4294704382
-0.2731860876 -0.0940702185 0.5945091844 4294704382
-0.2736381590 -0.0935642570 0.5954929590 4294835967
-0.2736766934 -0.0929156989 0.5955768228 4294835967
-0.2737149596 -0.0922668725 0.5956600904 4294835967
-0.2737529576 -0.0916177705 0.5957428217 4294770175
-0.2737907171 -0.0909684002 0.5958249569 4294770175
-0.2738282084 -0.0903187618 0.5959065557 4294835967
-0.2738654613 -0.0896688625 0.5959876180 4294835967
-0.2739024162 -0.0890186951 0.5960680842 4294770175
-0.2739391327 -0.0883682594 0.5961479545 4294704636
-0.2739756107 -0.0877175704 0.5962272882 4294704636
-0.2740117908 -0.0870666206 0.5963060856 4294704636
-0.2740477324 -0.0864154175 0.5963842869 4294704636
-0.2744974196 -0.0858935043 0.5973629355 4294639357
-0.2745329142 -0.0852408037 0.5974401236 4294639357
-0.2745681107 -0.0845878571 0.5975167155 4294441980
-0.2746030688 -0.0839346498 0.5975927711 4294310394
-0.2746377289 -0.0832812041 0.5976682901 4293915638
-0.2746721506 -0.0826275051 0.5977431536 4293191915
-0.2747063339 -0.0819735602 0.5978174806 4292533730
-0.2747402191 -0.0813193768 0.5978912711 4292336351
-0.2747738361 -0.0806649476 0.5979644656 4292139487
-0.2748072147 -0.0800102800 0.5980370641 4291810522
-0.2748403251 -0.0793553814 0.5981091261 4291744729
-0.2752877474 -0.0788189471 0.5990828276 4291876315
-0.2753203809 -0.0781625807 0.5991538167 4291744475
-0.2753527462 -0.0775059909 0.5992242694 4291744475
-0.2753848433 -0.0768491626 0.5992940664 4291744475
-0.2750018835 -0.0760773644 0.5984606743 4291678682
-0.2750333846 -0.0754210725 0.5985292792 4291612889
-0.2750646472 -0.0747645572 0.5985972881 4291612889
-0.2750956118 -0.0741078183 0.5986647010 4291678682
-0.2751263380 -0.0734508559 0.5987315774 4291744475
-0.2751567960 -0.0727936849 0.5987977982 4291678682
-0.2751869559 -0.0721362829 0.5988634825 4291744475
-0.2756319940 -0.0715864897 0.5998319387 4291744475
-0.2756616771 -0.0709276721 0.5998965502 4291744475
-0.2756911218 -0.0702686384 0.5999606252 4291744475
-0.2757202685 -0.0696094036 0.6000240445 4291744475
-0.2757491469 -0.0689499527 0.6000869274 4291744475
-0.2757777572 -0.0682903007 0.6001492143 4291876061
-0.2758061290 -0.0676304474 0.6002109051 4291679452
-0.2754187882 -0.0668695271 0.5993679762 4291416280
-0.2754465342 -0.0662102625 0.5994284153 4291482073
-0.2754740417 -0.0655507967 0.5994882584 4291811038
-0.2759168148 -0.0649890080 0.6004517674 4291876061
-0.2759438157 -0.0643281564 0.6005105376 4291810268
-0.2759705484 -0.0636671111 0.6005687118 4292007647
-0.2755813301 -0.0629109889 0.5997217298 4292007647
-0.2756074667 -0.0622505620 0.5997785926 4291941854
-0.2756333649 -0.0615899451 0.5998349190 4291678682
-0.2756589651 -0.0609291457 0.5998906493 4292073183
-0.2756842971 -0.0602681637 0.5999457836 4292336355
-0.2757093608 -0.0596069992 0.6000003219 4292336355
-0.2757341266 -0.0589456521 0.6000542641 4292336355
-0.2761745751 -0.0583720431 0.6010127068 4292402148
-0.2761988640 -0.0577093475 0.6010655761 4292402148
-0.2758068740 -0.0569605641 0.6002125144 4292402657
-0.2758305669 -0.0562985204 0.6002640724 4292665829
-0.2758539915 -0.0556363091 0.6003150940 4293060335
-0.2758771479 -0.0549739301 0.6003654599 4293389300
-0.2759000063 -0.0543113835 0.6004152298 4293652472
-0.2759226263 -0.0536486767 0.6004644036 4294178815
-0.2759449482 -0.0529858060 0.6005130410 4294770687
-0.2763832510 -0.0524016917 0.6014668345 4294705151
-0.2764050663 -0.0517375022 0.6015143394 4294836222
-0.2764266133 -0.0510731563 0.6015611887 4294638843
-0.2764478624 -0.0504086576 0.6016074419 4294769918
-0.2764688432 -0.0497440025 0.6016531587 4294835711
-0.2760731578 -0.0490052886 0.6007920504 4294769918
-0.2769264281 -0.0484871641 0.6026489139 4294835711
-0.2696689665 -0.1244577616 0.5882771015 4294704375
-0.2698194385 -0.1225652620 0.5886053443 4294572789
-0.2698691189 -0.1219337285 0.5887137055 4294441203
-0.2699185610 -0.1213018447 0.5888215899 4294243824
-0.2695581019 -0.1204865053 0.5880352259 4293980652
-0.2696069777 -0.1198548898 0.5881418586 4293783273
-0.2696556449 -0.1192229316 0.5882480145 4293585894
-0.2701139450 -0.1187708601 0.5892477632 4293519588
-0.2701621950 -0.1181372628 0.5893530250 4293453795
-0.2702101767 -0.1175033227 0.5894577503 4293256929
-0.2702579498 -0.1168690473 0.5895619392 4293125343
-0.2703054547 -0.1162344366 0.5896655917 4293059550
-0.2703527510 -0.1155994907 0.5897687078 4292993757
-0.2703997791 -0.1149642095 0.5898713470 4293059550
-0.2704465687 -0.1143286005 0.5899733901 4293125343
-0.2704931200 -0.1136926636 0.5900749564 4293256929
-0.2705394328 -0.1130563989 0.5901759863 4293256929
-0.2705854774 -0.1124198064 0.5902764201 4293322468
-0.2706313133 -0.1117828935 0.5903763771 4293454054
-0.2706768811 -0.1111456528 0.5904757977 4293454054
-0.2703113854 -0.1103404090 0.5896785259 4293388261
-0.2703563869 -0.1097034961 0.5897766948 4293256675
-0.2704011798 -0.1090662703 0.5898743868 4293190882
-0.2704456747 -0.1084287241 0.5899714828 4293125604
-0.2700788677 -0.1076270491 0.5891712904 4292796639
-0.2701228261 -0.1069898531 0.5892671943 4292467674
-0.2697553337 -0.1061904654 0.5884655118 4292270295
-0.2702100277 -0.1057145223 0.5894573927 4292072916
-0.2706645727 -0.1052363291 0.5904489756 4292007123
-0.2711190283 -0.1047558859 0.5914403200 4292006869
-0.2711618841 -0.1041152105 0.5915338397 4292006869
-0.2712044716 -0.1034742221 0.5916267633 4292204248
-0.2712468207 -0.1028329432 0.5917191505 4292270041
-0.2712889314 -0.1021913588 0.5918110013 4292467420
-0.2713307738 -0.1015494764 0.5919022560 4292599006
-0.2713723779 -0.1009073034 0.5919930339 4292862178
-0.2714137137 -0.1002648249 0.5920832157 4293125350
-0.2714548111 -0.0996220633 0.5921728611 4293388524
-0.2714956701 -0.0989790037 0.5922619700 4293520110
-0.2715362608 -0.0983356610 0.5923505425 4293256938
-0.2711645067 -0.0975437835 0.5915395617 4293388524
-0.2712045312 -0.0969008431 0.5916268826 4293455087
-0.2712442875 -0.0962576196 0.5917136073 4293652466
-0.2712838054 -0.0956141129 0.5917998552 4293718259
-0.2717354298 -0.0951146558 0.5927850008 4293784052
-0.2717745006 -0.0944696069 0.5928702354 4293784052
-0.2718133032 -0.0938242897 0.5929549336 4293849845
-0.2722643912 -0.0933200791 0.5939389467 4294047224
-0.2723027468 -0.0926732272 0.5940226316 4294178810
-0.2723408639 -0.0920261070 0.5941057801 4294244603
-0.2723787129 -0.0913787112 0.5941883326 4294244603
-0.2724162936 -0.0907310471 0.5942703485 4294376189
-0.2724536359 -0.0900831148 0.5943517685 4294507775
-0.2724907100 -0.0894349143 0.5944326520 4294573567
-0.2725275457 -0.0887864530 0.5945129991 4294573567
-0.2725641131 -0.0881377310 0.5945927501 4294573564
-0.2726004124 -0.0874887481 0.5946719646 4294639357
-0.2726364434 -0.0868395045 0.5947505832 4294639357
-0.2730853856 -0.0863205940 0.5957298875 4294639357
-0.2731209695 -0.0856698602 0.5958075523 4294639359
-0.2731562853 -0.0850188658 0.5958845615 4294639359
-0.2731913328 -0.0843676254 0.5959610939 4294573567
-0.2732261419 -0.0837161317 0.5960369706 4294441982
-0.2732606828 -0.0830643922 0.5961123109 4294310141
-0.2732949555 -0.0824124068 0.5961871147 4293520625
-0.2733289599 -0.0817601755 0.5962613225 4292665831
-0.2733627260 -0.0811076984 0.5963349342 4292271073
-0.2733962238 -0.0804549828 0.5964080095 4292139487
-0.2734294534 -0.0798020288 0.5964804888 4291942108
-0.2738761306 -0.0792685822 0.5974549055 4291810522
-0.2743226290 -0.0787329152 0.5984289646 4291678936
-0.2747689784 -0.0781950429 0.5994026661 4291678936
-0.2748013139 -0.0775381848 0.5994731784 4291678936
-0.2744194567 -0.0767653063 0.5986401439 4291678936
-0.2744511962 -0.0761089772 0.5987094045 4291613143
-0.2744826674 -0.0754524246 0.5987780690 4291613143
-0.2745139003 -0.0747956410 0.5988461971 4291613143
-0.2745448351 -0.0741386414 0.5989136696 4291678936
-0.2745755017 -0.0734814107 0.5989806056 4291678936
-0.2746059299 -0.0728239715 0.5990469456 4291678936
-0.2750503123 -0.0722751543 0.6000163555 4291678936
-0.2750802338 -0.0716162845 0.6000816226 4291744729
-0.2751098871 -0.0709571987 0.6001463532 4291744729
-0.2751392722 -0.0702979043 0.6002104282 4291678936
-0.2751683891 -0.0696383938 0.6002739668 4291744729
-0.2751972377 -0.0689786822 0.6003369093 4291810522
-0.2752258480 -0.0683187619 0.6003992558 4291744729
-0.2752541602 -0.0676586330 0.6004610658 4291613659
-0.2748676240 -0.0668973997 0.5996178389 4291482073
-0.2748953402 -0.0662378669 0.5996783376 4291482073
-0.2753374875 -0.0656770468 0.6006428003 4291745245
-0.2753647268 -0.0650161207 0.6007022262 4291679452
-0.2753916681 -0.0643549934 0.6007610559 4291613659
-0.2754183710 -0.0636936799 0.6008192897 4291811038
-0.2750299871 -0.0629372448 0.5999720097 4291811038
-0.2750560939 -0.0622765459 0.6000289917 4292007647
-0.2750819325 -0.0616156608 0.6000853777 4291744475
-0.2751075029 -0.0609545894 0.6001411676 4291941854
-0.2751328051 -0.0602933355 0.6001963615 4292139233
-0.2751578391 -0.0596318990 0.6002509594 4292139233
-0.2755976617 -0.0590592250 0.6012104154 4292205026
-0.2756221890 -0.0583964363 0.6012638807 4292270819
-0.2756464481 -0.0577334687 0.6013168097 4292336612
-0.2752552330 -0.0569843762 0.6004634500 4292205280
-0.2752789259 -0.0563220605 0.6005150676 4292468452
-0.2753023207 -0.0556595773 0.6005660892 4292666094
-0.2753254473 -0.0549969226 0.6006165743 4293126645
-0.2749329805 -0.0542521514 0.5997604132 4293390072
-0.2749555111 -0.0535901710 0.5998095870 4293784830
-0.2753931582 -0.0530079752 0.6007643342 4294507775
-0.2754152119 -0.0523446724 0.6008123755 4294639359
-0.2750215232 -0.0516032577 0.5999535322 4294704636
-0.2750429809 -0.0509406403 0.6000003219 4294638843
-0.2750641406 -0.0502778664 0.6000465155 4294835711
-0.2755005956 -0.0496898890 0.6009986401 4294901503
-0.2755212486 -0.0490258113 0.6010437012 4294835711
-0.2755416334 -0.0483615883 0.6010881662 4294901503
-0.2682452798 -0.1195391640 0.5865925550 4294704375
-0.2682937086 -0.1189088896 0.5866985321 4294704375
-0.2687509954 -0.1184585765 0.5876984596 4294703864
-0.2692081630 -0.1180059984 0.5886982083 4294572278
-0.2692560256 -0.1173727810 0.5888028741 4294374899
-0.2693036497 -0.1167392284 0.5889070034 4294177520
-0.2693510354 -0.1161053330 0.5890106559 4294045934
-0.2689887881 -0.1152956262 0.5882184505 4293914348
-0.2690356076 -0.1146620363 0.5883208513 4293783019
-0.2690822184 -0.1140281111 0.5884227753 4293783019
-0.2695381939 -0.1135664582 0.5894199014 4293519847
-0.2691746652 -0.1127592847 0.5886249542 4293388261
-0.2692205310 -0.1121243834 0.5887252688 4293256675
-0.2692661583 -0.1114891544 0.5888250470 4293190882
-0.2693115473 -0.1108536050 0.5889242291 4293190882
-0.2689466774 -0.1100499779 0.5881264210 4293322468
-0.2689915001 -0.1094147563 0.5882244110 4293454054
-0.2690360844 -0.1087792218 0.5883219242 4293519847
-0.2686702311 -0.1079785228 0.5875218511 4293519849
-0.2687142491 -0.1073433235 0.5876181126 4293388263
-0.2687580287 -0.1067078188 0.5877138376 4293454054
-0.2688015401 -0.1060720012 0.5878090262 4293519847
-0.2688448429 -0.1054358780 0.5879036784 4293454056
-0.2692983747 -0.1049594507 0.5888954997 4293256677
-0.2697518170 -0.1044807658 0.5898870230 4293059298
-0.2697944939 -0.1038417816 0.5899803638 4292861919
-0.2698369026 -0.1032024994 0.5900731087 4292598747
-0.2698790729 -0.1025629118 0.5901653171 4292467161
-0.2699210048 -0.1019230261 0.5902570486 4292401368
-0.2699626684 -0.1012828425 0.5903481245 4292335575
-0.2700040936 -0.1006423682 0.5904387236 4292335575
-0.2700452805 -0.1000015885 0.5905287862 4292335575
-0.2700861990 -0.0993605256 0.5906182528 4292335577
-0.2701268792 -0.0987191722 0.5907071829 4292335577
-0.2701672912 -0.0980775282 0.5907955766 4292599006
-0.2697961926 -0.0972872898 0.5899840593 4292664799
-0.2698360384 -0.0966460556 0.5900712013 4292927971
-0.2698756456 -0.0960045308 0.5901578069 4293059557
-0.2699149847 -0.0953627229 0.5902438760 4293191143
-0.2707771361 -0.0950094238 0.5921291709 4293256936
-0.2708160877 -0.0943651050 0.5922144055 4293322731
-0.2708548009 -0.0937205032 0.5922990441 4293322731
-0.2708932459 -0.0930756330 0.5923831463 4293126122
-0.2709314525 -0.0924304873 0.5924666524 4293191915
-0.2709693909 -0.0917850658 0.5925496221 4293257708
-0.2710070908 -0.0911393762 0.5926320553 4293257708
-0.2710445225 -0.0904934183 0.5927139521 4293389294
-0.2710817158 -0.0898471922 0.5927952528 4293455087
-0.2715306580 -0.0893362686 0.5937770009 4293520880
-0.2711552978 -0.0885539502 0.5929561257 4293586673
-0.2711917162 -0.0879069343 0.5930357575 4293718259
-0.2712278664 -0.0872596577 0.5931148529 4293784052
-0.2712637484 -0.0866121277 0.5931932926 4293783797
-0.2717117071 -0.0860949829 0.5941728950 4293783797
-0.2717471421 -0.0854459554 0.5942503810 4293784310
-0.2717823088 -0.0847966745 0.5943272710 4293718517
-0.2718172073 -0.0841471404 0.5944036245 4293652724
-0.2718518674 -0.0834973603 0.5944793820 4293521138
-0.2718862593 -0.0828473344 0.5945546031 4293192175
-0.2723330259 -0.0823217854 0.5955315828 4292929003
-0.2723669410 -0.0816702843 0.5956057310 4292336612
-0.2724006176 -0.0810185373 0.5956793427 4291810268
-0.2724339962 -0.0803665444 0.5957524180 4291679454
-0.2724671364 -0.0797143131 0.5958248973 4292074212
-0.2729128897 -0.0791816413 0.5967996716 4292008417
-0.2733584940 -0.0786467567 0.5977740288 4291547866
-0.2733909488 -0.0779918432 0.5978450179 4291613143
-0.2734231353 -0.0773366988 0.5979154110 4291547350
-0.2734550536 -0.0766813233 0.5979852080 4291547350
-0.2734867036 -0.0760257170 0.5980544090 4291547350
-0.2735181153 -0.0753698871 0.5981230736 4291613143
-0.2735492289 -0.0747138336 0.5981911421 4291678936
-0.2735801041 -0.0740575567 0.5982586741 4291678936
-0.2736106813 -0.0734010562 0.5983255506 4291678936
-0.2736410201 -0.0727443323 0.5983918905 4291678936
-0.2740844786 -0.0721962899 0.5993616581 4291613143
-0.2741143405 -0.0715381429 0.5994269252 4291678936
-0.2741439044 -0.0708797872 0.5994915962 4291678936
-0.2741732299 -0.0702212155 0.5995556712 4291678936
-0.2742022574 -0.0695624352 0.5996192098 4291744729
-0.2742310464 -0.0689034462 0.5996821523 4291744729
-0.2742595375 -0.0682442486 0.5997444391 4291678936
-0.2742877901 -0.0675848499 0.5998061895 4291613659
-0.2743157744 -0.0669252425 0.5998674035 4291482073
-0.2739296854 -0.0661654919 0.5990231037 4291547864
-0.2747847140 -0.0657043904 0.6008929014 4291679450
-0.2748119235 -0.0650431961 0.6009523869 4291679450
-0.2744249403 -0.0642848387 0.6001061797 4291613657
-0.2744515836 -0.0636242554 0.6001643538 4291745245
-0.2744779289 -0.0629634708 0.6002219915 4291679452
-0.2745040059 -0.0623025037 0.6002790332 4291811038
-0.2745298445 -0.0616413467 0.6003354788 4291613659
-0.2745553851 -0.0609800033 0.6003913879 4291745245
-0.2745806575 -0.0603184775 0.6004466414 4291876831
-0.2746056616 -0.0596567690 0.6005012989 4291942624
-0.2750445902 -0.0590838641 0.6014611721 4292074210
-0.2746548355 -0.0583328158 0.6006088853 4292270819
-0.2742647231 -0.0575835891 0.5997557640 4292468198
-0.2742885947 -0.0569221750 0.5998079777 4292205026
-0.2743121982 -0.0562605858 0.5998595953 4292468198
-0.2743355334 -0.0555988289 0.5999106169 4292731887
-0.2731152773 -0.0546879433 0.5972422361 4293192438
-0.2739669085 -0.0541928262 0.5991045237 4293587451
-0.2748184204 -0.0536935404 0.6009665728 4293850623
-0.2731825411 -0.0527101830 0.5973892808 4294441982
-0.2736189663 -0.0521295927 0.5983436704 4294507775
-0.2732259929 -0.0513908751 0.5974843502 4294704636
-0.2736619711 -0.0508079678 0.5984376669 4294770429
-0.2745124102 -0.0502988845 0.6002973914 4294835967
-0.2741185725 -0.0495607071 0.5994361639 4294835967
-0.2673906684 -0.1181459352 0.5861473680 4294967039
-0.2674385011 -0.1175157055 0.5862522721 4294967039
-0.2678944767 -0.1170635819 0.5872517824 4294967295
-0.2679419219 -0.1164317131 0.5873557329 4294967295
-0.2676740885 -0.1143595129 0.5867686868 4294572537
-0.2677204907 -0.1137272790 0.5868703723 4294440951
-0.2677666545 -0.1130947173 0.5869715810 4294572537
-0.2678125501 -0.1124618351 0.5870721936 4294243572
-0.2678582370 -0.1118286178 0.5871723294 4293915120
-0.2679036558 -0.1111950874 0.5872718692 4293717741
-0.2679488361 -0.1105612293 0.5873709321 4293586155
-0.2675846219 -0.1097592264 0.5865725875 4293651948
-0.2676292658 -0.1091256961 0.5866703987 4293717741
-0.2676736414 -0.1084918529 0.5867676735 4293651948
-0.2673084438 -0.1076927781 0.5859671235 4293585642
-0.2673522830 -0.1070592776 0.5860632062 4293454056
-0.2669863701 -0.1062624902 0.5852611065 4293256677
-0.2678919137 -0.1053179577 0.5872461796 4293256677
-0.2679348290 -0.1046822518 0.5873402357 4293388263
-0.2679775059 -0.1040462404 0.5874337554 4293454058
-0.2684297562 -0.1035680473 0.5884250998 4293519851
-0.2684719861 -0.1029304639 0.5885177255 4293454058
-0.2685139775 -0.1022925749 0.5886097550 4293322472
-0.2685557306 -0.1016543880 0.5887013078 4293256677
-0.2685972154 -0.1010159031 0.5887922645 4293190884
-0.2686384618 -0.1003771275 0.5888826847 4293125091
-0.2686794698 -0.0997380540 0.5889725685 4292993505
-0.2687202096 -0.0990986973 0.5890618563 4292927714
-0.2687607110 -0.0984590426 0.5891506672 4292796128
-0.2688009739 -0.0978190973 0.5892388821 4292467420
-0.2684305310 -0.0970305055 0.5884268284 4292401627
-0.2684701979 -0.0963909701 0.5885138512 4292533213
-0.2685096562 -0.0957511514 0.5886002779 4292599006
-0.2689594626 -0.0952564850 0.5895863175 4292599008
-0.2694091201 -0.0947595760 0.5905720592 4292664801
-0.2694479227 -0.0941169634 0.5906571150 4292730594
-0.2694864869 -0.0934740677 0.5907415748 4292664801
-0.2695247829 -0.0928309038 0.5908255577 4292994536
-0.2695628107 -0.0921874642 0.5909089446 4292994536
-0.2696006000 -0.0915437490 0.5909917355 4292928488
-0.2700491548 -0.0910383388 0.5919750333 4292862695
-0.2696754038 -0.0902555212 0.5911557674 4292862695
-0.2697124183 -0.0896110013 0.5912368894 4292862695
-0.2697491944 -0.0889662206 0.5913174748 4292862695
-0.2697857022 -0.0883211792 0.5913975239 4292928488
-0.2698219717 -0.0876758769 0.5914770365 4292928488
-0.2698579431 -0.0870303139 0.5915558934 4292928488
-0.2703051269 -0.0865161717 0.5925361514 4292797417
-0.2703406513 -0.0858691111 0.5926140547 4292929003
-0.2703759372 -0.0852217972 0.5926914215 4292929003
-0.2704109550 -0.0845742300 0.5927681923 4292929003
-0.2704457343 -0.0839264095 0.5928443670 4292731624
-0.2704802454 -0.0832783431 0.5929200053 4292600038
-0.2705144882 -0.0826300234 0.5929951072 4292468452
-0.2709602714 -0.0821062475 0.5939723253 4292336866
-0.2709940374 -0.0814564526 0.5940463543 4291745245
-0.2710275650 -0.0808064193 0.5941198468 4291218901
-0.2710608244 -0.0801561475 0.5941927433 4291021522
-0.2715058327 -0.0796264634 0.5951682329 4291416280
-0.2715386152 -0.0789747238 0.5952401161 4291679452
-0.2719832361 -0.0784416050 0.5962147713 4291613659
-0.2720155418 -0.0777884051 0.5962855816 4291678682
-0.2724598050 -0.0772518516 0.5972594023 4291612889
-0.2724916339 -0.0765971988 0.5973291993 4291547096
-0.2725231946 -0.0759423226 0.5973984003 4291547096
-0.2721421719 -0.0751733184 0.5965631604 4291547096
-0.2721731663 -0.0745189860 0.5966311097 4291612889
-0.2726163268 -0.0739763379 0.5976025462 4291612889
-0.2726468444 -0.0733205676 0.5976694822 4291547096
-0.2730896175 -0.0727745071 0.5986400843 4291547096
-0.2731196582 -0.0721172988 0.5987058878 4291547096
