VERSION 0.7
FIELDS x y z rgba
SIZE 4 4 4 4
TYPE F F F U
COUNT 1 1 1 1
WIDTH 920
HEIGHT 1
VIEWPOINT 0.0 0.0 0.0 1.0 0.0 0.0 0.0
POINTS 920
DATA ascii
-0.2667381763 -0.1411699802 0.5790775418 4290954949
-0.2667948902 -0.1405564547 0.5792006254 4292007637
-0.2668513656 -0.1399425417 0.5793232322 4292467672
-0.2673163712 -0.1395416111 0.5803327560 4291809742
-0.2669636607 -0.1387135535 0.5795670152 4292204753
-0.2670194805 -0.1380984783 0.5796881914 4292731097
-0.2670750618 -0.1374830157 0.5798088908 4293257186
-0.2667213380 -0.1366575807 0.5790409446 4293586151
-0.2667763829 -0.1360422969 0.5791604519 4294374368
-0.2656034529 -0.1348035038 0.5766140819 4294111196
-0.2640204728 -0.1333632320 0.5731775165 4294699145
-0.2624365985 -0.1319301575 0.5697389245 4294435973
-0.2596233189 -0.1298896521 0.5636314750 4294698358
-0.2576278150 -0.1282698810 0.5592993498 4294698358
-0.2560409606 -0.1268622130 0.5558543205 4294568314
-0.2552727163 -0.1258658171 0.5541864634 4294502521
-0.2549137473 -0.1250739545 0.5534071922 4294567031
-0.2553742230 -0.1246838942 0.5544068217 4294632824
-0.2554246485 -0.1240924075 0.5545163155 4294763899
-0.2554748356 -0.1235005707 0.5546252728 4294566520
-0.2559349835 -0.1231056675 0.5556242466 4294566263
-0.2563950419 -0.1227085218 0.5566230416 4294697849
-0.2568550706 -0.1223091185 0.5576217175 4294438832
-0.2569046319 -0.1217130423 0.5577293038 4294967233
-0.2642866075 -0.1434056908 0.5751420856 4293586931
-0.2643440068 -0.1427976787 0.5752669573 4293257453
-0.2644011676 -0.1421892643 0.5753913522 4292665316
-0.2644581199 -0.1415804476 0.5755153298 4292139227
-0.2653299868 -0.1414056718 0.5774127245 4291218125
-0.2653866708 -0.1407941878 0.5775360465 4290889158
-0.2654431462 -0.1401823312 0.5776589513 4292205018
-0.2654993832 -0.1395700723 0.5777813196 4292401879
-0.2659633160 -0.1391708851 0.5787909627 4291678156
-0.2660191953 -0.1385569125 0.5789125562 4292138705
-0.2660748661 -0.1379425526 0.5790336728 4292665049
-0.2661302984 -0.1373278052 0.5791543126 4292994783
-0.2657772601 -0.1365029961 0.5783860087 4293389541
-0.2654238045 -0.1356797069 0.5776168704 4294635735
-0.2642531097 -0.1344423145 0.5750691891 4294109391
-0.2630816996 -0.1332102269 0.5725198984 4294567551
-0.2610923648 -0.1315716356 0.5681906939 4294501758
-0.2591019571 -0.1299421340 0.5638592243 4294632313
-0.2567017674 -0.1281177253 0.5586358905 4294632313
-0.2555268705 -0.1269135177 0.5560790896 4294567803
-0.2547602057 -0.1259167492 0.5544106960 4294502010
-0.2544020116 -0.1251245737 0.5536311269 4294567285
-0.2544525266 -0.1245341673 0.5537410378 4294567285
-0.2545028031 -0.1239434108 0.5538504720 4294698360
-0.2545528710 -0.1233523041 0.5539594293 4294632567
-0.2550120354 -0.1229582131 0.5549587011 4294763642
-0.2550617456 -0.1223654523 0.5550668240 4294961021
-0.2555207014 -0.1219678149 0.5560656786 4294570418
-0.2559796274 -0.1215679273 0.5570643544 4294967234
-0.2625342309 -0.1427999884 0.5727127790 4293454832
-0.2625912726 -0.1421945542 0.5728372335 4293060074
-0.2630546987 -0.1418079138 0.5738481879 4292402144
-0.2635180652 -0.1414189935 0.5748590231 4291941593
-0.2635746300 -0.1408105046 0.5749824643 4290954698
-0.2640378475 -0.1404179931 0.5759928823 4290888388
-0.2640940547 -0.1398077905 0.5761155486 4292467420
-0.2641500533 -0.1391971856 0.5762376785 4292336086
-0.2642058432 -0.1385862082 0.5763593912 4291612363
-0.2646685839 -0.1381874382 0.5773688555 4292072912
-0.2647239864 -0.1375747323 0.5774897337 4292665049
-0.2647791803 -0.1369616538 0.5776101351 4292995296
-0.2644267380 -0.1361384243 0.5768412352 4293324261
-0.2636663616 -0.1351078898 0.5751824975 4294634695
-0.2629054189 -0.1340807378 0.5735225081 4294042558
-0.2617362142 -0.1328500658 0.5709719658 4294435963
-0.2601585388 -0.1314187199 0.5675303340 4294501756
-0.2577642798 -0.1295844913 0.5623072386 4294566782
-0.2557767332 -0.1279653460 0.5579714775 4294632575
-0.2546041608 -0.1267616153 0.5554135442 4294501756
-0.2538390160 -0.1257654130 0.5537443757 4294370170
-0.2534814775 -0.1249738932 0.5529644489 4294567282
-0.2531235814 -0.1241839156 0.5521836877 4294698868
-0.2531736493 -0.1235948429 0.5522928834 4294632565
-0.2536319196 -0.1232038066 0.5532925725 4294632565
-0.2536816001 -0.1226130873 0.5534009933 4294829694
-0.2541396916 -0.1222185045 0.5544002652 4294961794
-0.2545976937 -0.1218216792 0.5553994179 4294504623
-0.2550556362 -0.1214226037 0.5563983917 4294967231
-0.2619456649 -0.1434623450 0.5728167295 4293652211
-0.2620028555 -0.1428570896 0.5729418397 4293257453
-0.2620598674 -0.1422514468 0.5730664730 4292862697
-0.2621166110 -0.1416454017 0.5731905699 4292204767
-0.2621731758 -0.1410389692 0.5733142495 4291612628
-0.2626354396 -0.1406495273 0.5743250847 4290757319
-0.2626916468 -0.1400413811 0.5744479895 4290691011
-0.2631537020 -0.1396483332 0.5754584670 4292467422
-0.2632095516 -0.1390384585 0.5755805969 4292336088
-0.2632651925 -0.1384281963 0.5757022500 4291546572
-0.2633205950 -0.1378175467 0.5758234262 4291941326
-0.2629693449 -0.1369947791 0.5750552416 4292665049
-0.2630242109 -0.1363843083 0.5751752853 4292995037
-0.2626722455 -0.1355635971 0.5744056106 4293258209
-0.2623198926 -0.1347444057 0.5736351013 4294699435
-0.2615603805 -0.1337187588 0.5719741583 4294173091
-0.2603934109 -0.1324895024 0.5694223642 4294500988
-0.2588188052 -0.1310594976 0.5659790039 4294500988
-0.2568362653 -0.1294315606 0.5616436601 4294500988
-0.2548527122 -0.1278127432 0.5573060513 4294566781
-0.2536824942 -0.1266094893 0.5547469854 4294698621
-0.2529188395 -0.1256138533 0.5530770421 4294567035
-0.2525619864 -0.1248229817 0.5522966981 4294699119
-0.2522047758 -0.1240336597 0.5515155792 4294699119
-0.2522546947 -0.1234453171 0.5516247153 4294697847
-0.2523043752 -0.1228566244 0.5517333746 4294632054
-0.2523538768 -0.1222675815 0.5518416166 4294830207
-0.2528108954 -0.1218747720 0.5528410077 4294962050
-0.2532678545 -0.1214797050 0.5538402796 4294373037
-0.2537247539 -0.1210823879 0.5548394322 4294966973
-0.2606044114 -0.1430752575 0.5712712407 4293389552
-0.2606613636 -0.1424716711 0.5713960528 4292994794
-0.2607181072 -0.1418676823 0.5715204477 4292600038
-0.2607746422 -0.1412633061 0.5716443658 4291876315
-0.2608309388 -0.1406585276 0.5717678070 4291217870
-0.2612921298 -0.1402708441 0.5727787614 4290362561
-0.2613480985 -0.1396643370 0.5729014277 4290362044
-0.2618091106 -0.1392730474 0.5739120245 4292335834
-0.2618647218 -0.1386648417 0.5740339160 4292401368
-0.2615146339 -0.1378425360 0.5732665658 4291677645
-0.2619752586 -0.1374472529 0.5742762685 4291809740
-0.2620302141 -0.1368378848 0.5743966699 4292599256
-0.2616792321 -0.1360172629 0.5736272931 4292994265
-0.2613278627 -0.1351981312 0.5728570819 4293125851
-0.2609760761 -0.1343805194 0.5720859766 4294501515
-0.2602179945 -0.1333563775 0.5704241395 4294238343
-0.2594593167 -0.1323356479 0.5687610507 4294435447
-0.2578878701 -0.1309060156 0.5653162599 4294501240
-0.2559092939 -0.1292784065 0.5609790683 4294501238
-0.2539297044 -0.1276599020 0.5566396117 4294435445
-0.2527618110 -0.1264571398 0.5540794730 4294895228
-0.2519996762 -0.1254620701 0.5524087548 4294829435
-0.2516435087 -0.1246718541 0.5516279936 4294896241
-0.2512869835 -0.1238831803 0.5508464575 4294896241
-0.2513367534 -0.1232955679 0.5509555936 4294697849
-0.2517930865 -0.1229061633 0.5519558787 4294632056
-0.2518424988 -0.1223169118 0.5520642400 4294567549
-0.2518917024 -0.1217273027 0.5521721244 4294830721
-0.2523477077 -0.1213330552 0.5531716943 4294241451
-0.2523965538 -0.1207418069 0.5532787442 4294966716
-0.2592658103 -0.1426877677 0.5697240233 4293257966
-0.2593225241 -0.1420858353 0.5698485970 4292929001
-0.2593790293 -0.1414835006 0.5699727535 4292402657
-0.2594352961 -0.1408807784 0.5700964332 4291613141
-0.2594913542 -0.1402776688 0.5702196360 4290888905
-0.2599515021 -0.1398917288 0.5712307096 4290033596
-0.2600072026 -0.1392868906 0.5713531375 4290033079
-0.2604671419 -0.1388973594 0.5723638535 4292138455
-0.2605225146 -0.1382908076 0.5724855065 4292401366
-0.2605776489 -0.1376838684 0.5726066828 4291743436
-0.2602278888 -0.1368637085 0.5718380809 4291743947
-0.2606872916 -0.1364688575 0.5728476048 4292401877
-0.2607417703 -0.1358607709 0.5729673505 4292994005
-0.2603910863 -0.1350422800 0.5721967220 4292994005
-0.2600399852 -0.1342253089 0.5714251995 4294304113
-0.2592833936 -0.1332017183 0.5697625875 4294238320
-0.2581210136 -0.1319743693 0.5672083497 4294500979
-0.2569579184 -0.1307523251 0.5646525025 4294500979
-0.2549833655 -0.1291250288 0.5603135228 4294501491
-0.2534132004 -0.1277111769 0.5568631887 4294435698
-0.2522477508 -0.1265079528 0.5543020964 4294960251
-0.2510815561 -0.1253100634 0.5517394543 4294960508
-0.2507260740 -0.1245204955 0.5509583354 4294962034
-0.2503702343 -0.1237324774 0.5501763821 4294962291
-0.2504198551 -0.1231456026 0.5502854586 4294894976
-0.2504692674 -0.1225583777 0.5503939986 4294697597
-0.2509244978 -0.1221684888 0.5513943434 4294370683
-0.2509735823 -0.1215796173 0.5515021682 4294568062
-0.2514286041 -0.1211861819 0.5525020957 4294175658
-0.2514773011 -0.1205956712 0.5526091456 4294966973
-0.2574703097 -0.1426764280 0.5671626329 4293390581
-0.2579298913 -0.1422998309 0.5681750774 4292929771
-0.2579863667 -0.1416995674 0.5682994723 4292469220
-0.2580426037 -0.1410989016 0.5684233308 4291942624
-0.2580986321 -0.1404978335 0.5685467720 4291284694
-0.2581544518 -0.1398963928 0.5686697364 4290428607
-0.2586134970 -0.1395121962 0.5696809888 4289704884
-0.2586689889 -0.1389090270 0.5698031783 4289506987
-0.2587242424 -0.1383054852 0.5699248910 4292072914
-0.2591829896 -0.1379163563 0.5709354281 4292730081
-0.2592378855 -0.1373111010 0.5710563660 4291940565
-0.2592925727 -0.1367054433 0.5711768270 4291743687
-0.2593470514 -0.1360994130 0.5712968111 4292533203
-0.2594012916 -0.1354929954 0.5714163184 4293453244
-0.2590512037 -0.1346760988 0.5706450939 4293190072
-0.2587006986 -0.1338607073 0.5698730350 4294238320
-0.2579455078 -0.1328386217 0.5682094693 4294238320
-0.2571897805 -0.1318199635 0.5665447116 4294697071
-0.2560290098 -0.1305983961 0.5639877915 4294762864
-0.2540584505 -0.1289714128 0.5596469045 4294239099
-0.2528961003 -0.1277623922 0.5570864677 4294304892
-0.2517330348 -0.1265587062 0.5545244813 4294240119
-0.2505692840 -0.1253603548 0.5519608855 4294371705
-0.2502145767 -0.1245704889 0.5511795282 4294699387
-0.2498594671 -0.1237821728 0.5503973365 4294765180
-0.2495040148 -0.1229954138 0.5496143103 4294962551
-0.2495532930 -0.1224089265 0.5497228503 4294764915
-0.2500075400 -0.1220198497 0.5507234931 4294696827
-0.2500564754 -0.1214317158 0.5508312583 4294828413
-0.2505105436 -0.1210390925 0.5518314838 4294110109
-0.2501536608 -0.1202544123 0.5510453582 4294967217
-0.2565402091 -0.1425096989 0.5664998889 4293258482
-0.2565966547 -0.1419114769 0.5666244626 4292797931
-0.2566528618 -0.1413128674 0.5667486191 4292337380
-0.2567088604 -0.1407138705 0.5668722391 4291810270
-0.2567646503 -0.1401144713 0.5669954419 4290954961
-0.2572227716 -0.1397333741 0.5680070519 4290033849
-0.2576808333 -0.1393499970 0.5690186024 4289310126
-0.2573334277 -0.1385307610 0.5682514906 4289046436
-0.2577912509 -0.1381447166 0.5692624450 4291678156
-0.2578461468 -0.1375415027 0.5693836212 4292664288
-0.2579008043 -0.1369379014 0.5695043206 4291940565
-0.2579552531 -0.1363339275 0.5696245432 4291612355
-0.2580094934 -0.1357295513 0.5697443485 4292401871
-0.2580634952 -0.1351248175 0.5698636174 4293386920
-0.2581172884 -0.1345196962 0.5699824095 4293123748
-0.2577674687 -0.1337049454 0.5692099333 4294106472
-0.2570137978 -0.1326834261 0.5675455928 4294172265
-0.2558560073 -0.1314579695 0.5649889708 4294631276
-0.2546975017 -0.1302378327 0.5624306798 4294697069
-0.2535382807 -0.1290230155 0.5598708987 4294304629
-0.2519745529 -0.1276090294 0.5564178228 4294370422
-0.2508138120 -0.1264058352 0.5538546443 4294436468
-0.2500563860 -0.1254105717 0.5521820188 4294633847
-0.2492983788 -0.1244187653 0.5505082011 4294896249
-0.2489439845 -0.1236311048 0.5497255921 4294896249
-0.2489934117 -0.1230447516 0.5498347878 4294962548
-0.2490426302 -0.1224580482 0.5499434471 4294830448
-0.2490916252 -0.1218709946 0.5500516295 4294697077
-0.2491404116 -0.1212835982 0.5501593947 4294828663
-0.2491889745 -0.1206958517 0.5502666235 4294175648
-0.2492373288 -0.1201077700 0.5503733754 4294966963
-0.2552098930 -0.1421192586 0.5649477839 4293061105
-0.2552660704 -0.1415227056 0.5650721788 4292731624
-0.2553220391 -0.1409257650 0.5651960373 4292139487
-0.2553777993 -0.1403284222 0.5653194785 4291349719
-0.2554333508 -0.1397306919 0.5654424429 4290428617
-0.2558903694 -0.1393513381 0.5664541721 4289639093
-0.2559455931 -0.1387518942 0.5665763617 4288981163
-0.2560005784 -0.1381520629 0.5666980743 4288717473
-0.2564572990 -0.1377677768 0.5677091479 4291349193
-0.2565119565 -0.1371662319 0.5678300858 4292795874
-0.2565663755 -0.1365643144 0.5679506063 4292006358
-0.2566205859 -0.1359619945 0.5680705905 4291612353
-0.2570768893 -0.1355714649 0.5690807104 4292204490
-0.2567283511 -0.1347562224 0.5683091879 4293516942
-0.2567819059 -0.1341527849 0.5684277415 4293253770
-0.2564327121 -0.1333396286 0.5676546693 4294105696
-0.2560831010 -0.1325279921 0.5668807626 4294237282
-0.2553303540 -0.1315104514 0.5652144551 4294499174
-0.2541742921 -0.1302898526 0.5626553297 4294630760
-0.2530174851 -0.1290745735 0.5600945354 4294369905
-0.2510540187 -0.1274554580 0.5557481050 4294369905
-0.2502987087 -0.1264563799 0.5540761352 4294567023
-0.2491397113 -0.1252580583 0.5515105128 4294830195
-0.2483832389 -0.1242668182 0.5498359203 4294962040
-0.2484328300 -0.1236805990 0.5499456525 4294962040
-0.2480788082 -0.1228941977 0.5491620302 4294962289
-0.2477244288 -0.1221093535 0.5483775139 4294896239
-0.2477732152 -0.1215239912 0.5484855175 4294632305
-0.2478217781 -0.1209382862 0.5485930443 4294698098
-0.2482738197 -0.1205482483 0.5495936871 4294241956
-0.2483220398 -0.1199609041 0.5497004390 4294967222
-0.2538261116 -0.1423228830 0.5632694960 4293390070
-0.2538822591 -0.1417283863 0.5633940697 4292995312
-0.2539381981 -0.1411335021 0.5635181665 4292534245
-0.2539938986 -0.1405382305 0.5636418462 4291876315
-0.2540494204 -0.1399425566 0.5637649894 4291020754
-0.2545055151 -0.1395662874 0.5647771358 4290033859
-0.2545606792 -0.1389688998 0.5648995638 4289244335
-0.2546156347 -0.1383711249 0.5650215149 4288652198
-0.2546703815 -0.1377729625 0.5651429892 4288585887
-0.2551260591 -0.1373904347 0.5661541820 4291020228
-0.2551804781 -0.1367905587 0.5662748814 4292796128
-0.2552346587 -0.1361902952 0.5663951635 4292072405
-0.2552886307 -0.1355896592 0.5665149093 4291612604
-0.2557438612 -0.1352008879 0.5675251484 4292007362
-0.2557974756 -0.1345985383 0.5676441193 4293384566
-0.2554492354 -0.1337854713 0.5668713450 4293318773
-0.2555023432 -0.1331833154 0.5669891834 4294039388
-0.2551534176 -0.1323723197 0.5662149191 4294039388
-0.2544021904 -0.1313553452 0.5645478368 4294301795
-0.2532484531 -0.1301352233 0.5619875789 4294433381
-0.2524960637 -0.1291260421 0.5603179336 4294238058
-0.2505367100 -0.1275063008 0.5559698939 4294369644
-0.2493807524 -0.1263031363 0.5534046888 4294566764
-0.2486264110 -0.1253080815 0.5517307520 4294895729
-0.2478715330 -0.1243164614 0.5500555634 4294961784
-0.2475185841 -0.1235291660 0.5492723584 4294961527
-0.2471652627 -0.1227434278 0.5484882593 4294962291
-0.2472141981 -0.1221581995 0.5485968590 4294830705
-0.2468602210 -0.1213746220 0.5478113294 4294567534
-0.2469086349 -0.1207896471 0.5479187965 4294633327
-0.2469568551 -0.1202043369 0.5480257869 4294439080
-0.2470048368 -0.1196186841 0.5481322408 4294967224
-0.2525014281 -0.1419299245 0.5617142916 4293258484
-0.2529569268 -0.1415607333 0.5627275705 4292863726
-0.2530127168 -0.1409665793 0.5628516674 4292336866
-0.2530682683 -0.1403720230 0.5629752874 4291613143
-0.2531236112 -0.1397770941 0.5630983710 4290757323
-0.2531787455 -0.1391817629 0.5632210374 4289704635
-0.2536337376 -0.1388049722 0.5642331839 4288980393
-0.2536885440 -0.1382079273 0.5643551350 4288585635
-0.2537431121 -0.1376104951 0.5644765496 4288454301
-0.2541978061 -0.1372287869 0.5654880404 4290428091
-0.2542520463 -0.1366296411 0.5656087399 4292598747
-0.2539055943 -0.1358158886 0.5648379922 4292203989
-0.2543599010 -0.1354302019 0.5658486485 4291678646
-0.2544135153 -0.1348299086 0.5659679174 4291547060
-0.2544668913 -0.1342292279 0.5660866499 4293186659
-0.2545200586 -0.1336281896 0.5662049651 4293252452
-0.2541721165 -0.1328172684 0.5654308796 4293842009
-0.2542247772 -0.1322164237 0.5655480623 4293842009
-0.2534750700 -0.1312000155 0.5638802648 4293907806
-0.2527248263 -0.1301870197 0.5622112751 4294105185
-0.2515728176 -0.1289717704 0.5596484542 4294040677
-0.2500187457 -0.1275570989 0.5561913252 4294238056
-0.2488652468 -0.1263534725 0.5536252260 4294565994
-0.2481124997 -0.1253580302 0.5519506931 4294960752
-0.2473592162 -0.1243660450 0.5502749085 4294961784
-0.2470070422 -0.1235784516 0.5494914651 4294961784
-0.2466544956 -0.1227924153 0.5487071872 4294831476
-0.2458997667 -0.1218089089 0.5470282435 4294699890
-0.2459482700 -0.1212250218 0.5471361279 4294502511
-0.2459965497 -0.1206407920 0.5472435355 4294634097
-0.2460446209 -0.1200562268 0.5473504663 4294636463
-0.2460924834 -0.1194713116 0.5474569201 4294967229
-0.2515221834 -0.1423529088 0.5609217882 4293456115
-0.2515781224 -0.1417612135 0.5610465407 4292995312
-0.2516338527 -0.1411691159 0.5611708164 4292600554
-0.2520882487 -0.1407994032 0.5621841550 4292139485
-0.2521436512 -0.1402055919 0.5623077154 4291349969
-0.2521988451 -0.1396113783 0.5624307990 4290428358
-0.2522538304 -0.1390167773 0.5625534058 4289244084
-0.2523086071 -0.1384217888 0.5626755357 4288717221
-0.2523631454 -0.1378264129 0.5627972484 4288388256
-0.2528168857 -0.1374477893 0.5638090968 4288388254
-0.2528711259 -0.1368506998 0.5639300346 4289704114
-0.2529251277 -0.1362532228 0.5640504956 4292335573
-0.2529789209 -0.1356553733 0.5641704202 4292598745
-0.2530325055 -0.1350571364 0.5642899275 4291941810
-0.2534856796 -0.1346709281 0.5653005838 4291415466
-0.2535389066 -0.1340709925 0.5654193163 4292791639
-0.2535919249 -0.1334706694 0.5655375123 4292989018
-0.2532446682 -0.1326604038 0.5647630692 4293578837
-0.2528970242 -0.1318516582 0.5639877915 4293578837
-0.2525489926 -0.1310444474 0.5632116795 4293710934
-0.2518002391 -0.1300320178 0.5615419149 4293908313
-0.2506505847 -0.1288172603 0.5589780211 4293975135
-0.2495002002 -0.1276078224 0.5564125180 4294172514
-0.2487496734 -0.1266076118 0.5547387600 4294500200
-0.2475979775 -0.1254079193 0.5521703362 4294894958
-0.2468462884 -0.1244155616 0.5504940152 4294962036
-0.2460940778 -0.1234266534 0.5488165021 4294962036
-0.2457422167 -0.1226412803 0.5480318069 4294766196
-0.2453899831 -0.1218574643 0.5472462773 4294634610
-0.2450373769 -0.1210752055 0.5464599729 4294568817
-0.2450855225 -0.1204917207 0.5465673208 4294700403
-0.2451334447 -0.1199078858 0.5466741920 4294767797
-0.2451811731 -0.1193237156 0.5467806458 4294967234
-0.2502022982 -0.1419575214 0.5593637824 4293258482
-0.2502579987 -0.1413674951 0.5594882965 4292797933
-0.2503134906 -0.1407770663 0.5596123338 4292403175
-0.2507668138 -0.1404091120 0.5606257915 4291876313
-0.2508219481 -0.1398169696 0.5607491136 4291021004
-0.2508769035 -0.1392244250 0.5608719587 4290099391
-0.2513299286 -0.1388515383 0.5618847609 4288915117
-0.2513845563 -0.1382572800 0.5620068908 4288519843
-0.2514389455 -0.1376626343 0.5621284842 4288388257
-0.2514931560 -0.1370676160 0.5622496605 4288321950
-0.2519457638 -0.1366884708 0.5632615685 4288914087
-0.2519996166 -0.1360917389 0.5633819699 4291940556
-0.2516544461 -0.1352802217 0.5626102686 4292795865
-0.2517077923 -0.1346836537 0.5627295375 4292204463
-0.2521598935 -0.1342992187 0.5637402534 4291414947
-0.2522128820 -0.1337009668 0.5638587475 4292462674
-0.2522656918 -0.1331023276 0.5639767647 4292725846
-0.2523182333 -0.1325033158 0.5640943050 4293447253
-0.2519712746 -0.1316952109 0.5633186102 4293513046
-0.2516239285 -0.1308886409 0.5625420213 4293514578
-0.2512761950 -0.1300836056 0.5617646575 4293777750
-0.2501289546 -0.1288683712 0.5591998100 4293975388
-0.2489810139 -0.1276584864 0.5566334128 4294041181
-0.2482320964 -0.1266579032 0.5549591184 4294434407
-0.2470828295 -0.1254577488 0.5523897409 4294829165
-0.2463327497 -0.1244650111 0.5507128239 4294962035
-0.2455821484 -0.1234757379 0.5490347743 4294962292
-0.2448309958 -0.1224899217 0.5473554730 4294766196
-0.2444794625 -0.1217067614 0.5465695262 4294634610
-0.2441275418 -0.1209251732 0.5457828045 4294633843
-0.2441755533 -0.1203424260 0.5458900928 4294831222
-0.2438229769 -0.1195630133 0.5451018810 4294899383
-0.2438704669 -0.1189805344 0.5452080369 4294967234
-0.2488851398 -0.1415617019 0.5578041673 4293258484
-0.2493376136 -0.1411981881 0.5588182211 4292732142
-0.2489958107 -0.1403845847 0.5580521822 4292337384
-0.2494480610 -0.1400184035 0.5590657592 4291744727
-0.2495029569 -0.1394279152 0.5591887832 4290823625
-0.2495576590 -0.1388370544 0.5593113899 4289902012
-0.2500096262 -0.1384659261 0.5603243709 4288717738
-0.2500639856 -0.1378733516 0.5604462028 4288387746
-0.2501181364 -0.1372803748 0.5605675578 4288387746
-0.2501721084 -0.1366870254 0.5606884956 4288124572
-0.2506236434 -0.1363096535 0.5617005229 4288256158
-0.2506772578 -0.1357145905 0.5618206859 4291414212
-0.2503326833 -0.1349046677 0.5610483885 4292730072
-0.2507838607 -0.1345233172 0.5620595813 4292073131
-0.2508368194 -0.1339271069 0.5621782541 4291217822
-0.2508895993 -0.1333305240 0.5622965097 4292331092
-0.2509421408 -0.1327335685 0.5624142885 4292594264
-0.2509944737 -0.1321362406 0.5625315905 4293315926
-0.2510465980 -0.1315385401 0.5626484156 4293513305
-0.2506999373 -0.1307326108 0.5618714690 4293514576
-0.2503528893 -0.1299282312 0.5610936284 4293843541
-0.2496067286 -0.1289194375 0.5594213605 4293975386
-0.2484612167 -0.1277090758 0.5568540096 4293975386
-0.2477138937 -0.1267081201 0.5551791191 4294499943
-0.2469660491 -0.1257106066 0.5535030365 4294894701
-0.2458186001 -0.1245144010 0.5509313941 4294962035
-0.2446704656 -0.1233235747 0.5483581424 4294962292
-0.2443200648 -0.1225385666 0.5475728512 4294766196
-0.2435699999 -0.1215558425 0.5458917618 4294634610
-0.2432187796 -0.1207749173 0.5451046228 4294633845
-0.2432666421 -0.1201929152 0.5452119112 4294831224
-0.2429147512 -0.1194141656 0.5444232821 4294965176
-0.2425625026 -0.1186369881 0.5436337590 4294967235
-0.2475706935 -0.1411654651 0.5562428236 4293520627
-0.2480220795 -0.1408036947 0.5572569966 4292731887
-0.2480771542 -0.1402156800 0.5573807359 4292139750
-0.2481320202 -0.1396272629 0.5575039983 4291416280
-0.2481866926 -0.1390384585 0.5576268435 4290560971
-0.2482411414 -0.1384492666 0.5577491522 4289769658
-0.2482953817 -0.1378596723 0.5578710437 4288848556
-0.2487461418 -0.1374889910 0.5588838458 4288388254
-0.2488000691 -0.1368976980 0.5590049624 4288256668
-0.2488537729 -0.1363060176 0.5591256022 4288126361
-0.2493042499 -0.1359304041 0.5601377487 4287928982
-0.2493576109 -0.1353370249 0.5602576733 4290164655
-0.2494107783 -0.1347432584 0.5603771210 4292533203
-0.2494637221 -0.1341491193 0.5604960918 4292531376
-0.2495164573 -0.1335545927 0.5606145859 4291610274
-0.2495689839 -0.1329596937 0.5607326031 4292265295
-0.2496213019 -0.1323644221 0.5608501434 4292660053
-0.2496733963 -0.1317687631 0.5609672070 4292857685
-0.2497252822 -0.1311727464 0.5610837936 4293055064
-0.2497769594 -0.1305763572 0.5611998439 4293383762
-0.2494305968 -0.1297726184 0.5604216456 4293712727
-0.2486859709 -0.1287643909 0.5587486029 4294303075
-0.2479407936 -0.1277596056 0.5570743680 4294171489
-0.2471950799 -0.1267582774 0.5553988814 4294368864
-0.2464488298 -0.1257603765 0.5537222028 4294763622
-0.2453038394 -0.1245637313 0.5511496067 4294830697
-0.2441581339 -0.1233724430 0.5485754609 4294962797
-0.2434101254 -0.1223868430 0.5468948483 4294962814
-0.2430600524 -0.1216040552 0.5461083055 4294830457
-0.2427096069 -0.1208228394 0.5453209281 4294567534
-0.2419601679 -0.1198457405 0.5436370969 4294962292
-0.2424062937 -0.1194615811 0.5446394086 4294311611
-0.2420548201 -0.1186841130 0.5438497663 4294836163
-0.2466542423 -0.1409947425 0.5555701256 4293389039
-0.2467092723 -0.1404087842 0.5556941032 4292666349
-0.2467640936 -0.1398224384 0.5558175445 4292074212
-0.2472142577 -0.1394588351 0.5568315387 4291350485
-0.2472687662 -0.1388707608 0.5569542646 4290495176
-0.2473230511 -0.1382822990 0.5570765734 4289638324
-0.2473771423 -0.1376934499 0.5571984053 4288519843
-0.2474310249 -0.1371042281 0.5573197603 4288125336
-0.2474846989 -0.1365146041 0.5574406385 4288191129
-0.2475381643 -0.1359246075 0.5575610995 4288192156
-0.2479875535 -0.1355507672 0.5585733056 4288060570
-0.2480406910 -0.1349590570 0.5586929917 4289835433
-0.2480936199 -0.1343669742 0.5588122010 4292072395
-0.2481463253 -0.1337745041 0.5589309335 4292596652
-0.2485953122 -0.1333944201 0.5599422455 4291609757
-0.2486476749 -0.1328002512 0.5600602031 4292396883
-0.2486998439 -0.1322057098 0.5601776838 4292791641
-0.2487517893 -0.1316107959 0.5602946877 4292989272
-0.2488035262 -0.1310155094 0.5604112148 4293186651
-0.2488550544 -0.1304198653 0.5605272651 4293515095
-0.2489063591 -0.1298238337 0.5606428385 4293712474
-0.2485603839 -0.1290213466 0.5598635674 4294171489
-0.2474197596 -0.1278100759 0.5572944283 4294171489
-0.2466756552 -0.1268083602 0.5556183457 4294368864
-0.2463283241 -0.1260133386 0.5548360348 4294697829
-0.2451858371 -0.1248152852 0.5522626638 4294830698
-0.2436452061 -0.1234212518 0.5487924814 4294962798
-0.2432963550 -0.1226356626 0.5480067134 4294962560
-0.2425495088 -0.1216522083 0.5463244915 4294830203
-0.2421998382 -0.1208706945 0.5455369353 4294567536
-0.2418497950 -0.1200907528 0.5447484851 4294962551
-0.2414993793 -0.1193123758 0.5439592004 4294311615
-0.2411486059 -0.1185355783 0.5431690812 4294836167
-0.2453444004 -0.1405977458 0.5540058017 4293257966
-0.2453991920 -0.1400134563 0.5541294813 4292600556
-0.2458483875 -0.1396529377 0.5551437736 4292008419
-0.2459028363 -0.1390669346 0.5552667379 4291349969
-0.2459570915 -0.1384805441 0.5553892851 4290560453
-0.2460111380 -0.1378937662 0.5555112958 4289572528
-0.2460649908 -0.1373065859 0.5556328893 4288322461
-0.2461186200 -0.1367190331 0.5557540059 4287928725
-0.2461720556 -0.1361311078 0.5558746457 4287928725
-0.2466205060 -0.1357603520 0.5568872690 4288257949
-0.2466735989 -0.1351706982 0.5570071936 4288126363
-0.2467264980 -0.1345806867 0.5571266413 4289243296
-0.2467791736 -0.1339902729 0.5572456121 4291282879
-0.2472272068 -0.1336132735 0.5582572818 4292465316
-0.2472795546 -0.1330211759 0.5583754778 4291741593
-0.2473316938 -0.1324286908 0.5584931970 4292660057
-0.2481752485 -0.1322577149 0.5603980422 4292923229
-0.2482271194 -0.1316625923 0.5605151653 4293120604
-0.2482787967 -0.1310670972 0.5606318116 4293186397
-0.2483302504 -0.1304712296 0.5607480407 4293580379
-0.2479853481 -0.1296678483 0.5599691868 4293711965
-0.2480362952 -0.1290721893 0.5600842237 4293843038
-0.2472944111 -0.1280657053 0.5584090352 4294172003
-0.2469483763 -0.1272669435 0.5576276779 4294303326
-0.2462055087 -0.1262664050 0.5559502244 4294632291
-0.2450655550 -0.1250669360 0.5533761382 4294764651
-0.2439249158 -0.1238728389 0.5508004427 4294962287
-0.2427835912 -0.1226841211 0.5482232571 4294962303
-0.2420383543 -0.1217002869 0.5465404391 4294698617
-0.2412925959 -0.1207199395 0.5448564887 4294436466
-0.2409432530 -0.1199406609 0.5440676212 4294962810
-0.2405935377 -0.1191629544 0.5432779789 4294442178
-0.2402434647 -0.1183868200 0.5424874425 4294967242
-0.2440373003 -0.1402003020 0.5524397492 4293127150
-0.2440918386 -0.1396176964 0.5525631905 4292535276
-0.2445399463 -0.1392589509 0.5535776019 4291877346
-0.2445941567 -0.1386746168 0.5537003279 4291349969
-0.2446481586 -0.1380899101 0.5538225770 4290560453
-0.2447019666 -0.1375048012 0.5539444089 4289572782
-0.2447555661 -0.1369193196 0.5540657043 4288322715
-0.2448089570 -0.1363334358 0.5541865826 4287928725
-0.2448621392 -0.1357471794 0.5543069839 4287928725
-0.2453095168 -0.1353781968 0.5553197265 4288126365
-0.2457568496 -0.1350069344 0.5563323498 4288192158
-0.2458095849 -0.1344176531 0.5564517379 4288848538
-0.2462567538 -0.1340427995 0.5574640036 4290361777
-0.2463091612 -0.1334518045 0.5575826764 4292201884
-0.2467561662 -0.1330733597 0.5585945845 4291938712
-0.2468082309 -0.1324806660 0.5587124228 4292922978
-0.2468600869 -0.1318875998 0.5588297844 4292988771
-0.2473067790 -0.1315042377 0.5598410368 4293251422
-0.2473583072 -0.1309094727 0.5599576831 4293185629
-0.2474096119 -0.1303143501 0.5600737929 4293448795
-0.2474606931 -0.1297188550 0.5601894259 4293580381
-0.2471161932 -0.1289167106 0.5594095588 4293711706
-0.2467713058 -0.1281161159 0.5586288571 4294040671
-0.2464260459 -0.1273170561 0.5578472614 4294040922
-0.2456847876 -0.1263161451 0.5561692119 4294304094
-0.2449429929 -0.1253186762 0.5544899702 4294698860
-0.2438048869 -0.1241231784 0.5519136190 4294962289
-0.2422702163 -0.1227325127 0.5484395027 4294896764
-0.2415265888 -0.1217483133 0.5467561483 4294502006
-0.2407824397 -0.1207675934 0.5450715423 4294370675
-0.2400377840 -0.1197903529 0.5433858037 4294962812
-0.2396887690 -0.1190133169 0.5425957441 4294507722
-0.2393393815 -0.1182378531 0.5418048501 4294967249
-0.2430711389 -0.1406101435 0.5516395569 4293456115
-0.2431257069 -0.1400286704 0.5517634153 4293061357
-0.2431800812 -0.1394467950 0.5518867970 4292600301
-0.2432342470 -0.1388645321 0.5520097017 4292008164
-0.2432882190 -0.1382818818 0.5521321893 4291415762
-0.2433419675 -0.1376988441 0.5522542000 4290560453
-0.2433955371 -0.1371154189 0.5523757339 4289572528
-0.2438421845 -0.1367521882 0.5533894300 4288388254
-0.2438954115 -0.1361670494 0.5535101891 4287994264
-0.2439484447 -0.1355815381 0.5536305904 4287862678
-0.2443948239 -0.1352133751 0.5546435714 4287994779
-0.2448411584 -0.1348429322 0.5556565523 4288257951
-0.2448937297 -0.1342543960 0.5557758808 4288716952
-0.2449461073 -0.1336654574 0.5558947325 4289572261
-0.2449982762 -0.1330761611 0.5560131073 4291543956
-0.2454442084 -0.1326994747 0.5570251346 4291938714
-0.2458900809 -0.1323205233 0.5580370426 4292922473
-0.2459417880 -0.1317282021 0.5581544042 4292922473
-0.2463875115 -0.1313456595 0.5591658950 4293120090
-0.2464388758 -0.1307516396 0.5592824817 4293054297
-0.2464900166 -0.1301572472 0.5593985915 4293383002
-0.2465409636 -0.1295624822 0.5595141649 4293514588
-0.2465916872 -0.1289673448 0.5596293211 4293580120
-0.2462475747 -0.1281664670 0.5588483810 4293843292
-0.2459030896 -0.1273671091 0.5580665469 4293975129
-0.2455582321 -0.1265693009 0.5572839379 4294172508
-0.2444232702 -0.1253679842 0.5547081828 4294633067
-0.2432876080 -0.1241720319 0.5521308184 4294962546
-0.2421512604 -0.1229814589 0.5495519638 4294962042
-0.2410142273 -0.1217962652 0.5469714999 4294501491
-0.2402717024 -0.1208151802 0.5452863574 4294305395
-0.2395286411 -0.1198375747 0.5436000228 4294897532
-0.2391804159 -0.1190602481 0.5428097248 4294507989
-0.2388318032 -0.1182845011 0.5420185924 4294901723
-0.2413770854 -0.1399830282 0.5491792560 4293455861
-0.2422151864 -0.1398567706 0.5510860682 4293126896
-0.2422693968 -0.1392756402 0.5512094498 4292600556
-0.2423233986 -0.1386941224 0.5513322949 4292008419
-0.2423772067 -0.1381122023 0.5514547229 4291481555
-0.2424308062 -0.1375299096 0.5515766740 4290560453
-0.2424842119 -0.1369472295 0.5516981483 4289572531
-0.2429298609 -0.1365848184 0.5527120829 4288519843
-0.2429829389 -0.1360004246 0.5528328419 4287994266
-0.2430358082 -0.1354156435 0.5529531837 4287928473
-0.2434811890 -0.1350483000 0.5539664626 4287863191
-0.2435337305 -0.1344618201 0.5540860295 4288126363
-0.2435860783 -0.1338749528 0.5542051196 4288585366
-0.2436382025 -0.1332877129 0.5543237329 4288980124
-0.2440831810 -0.1329141259 0.5553361177 4290754700
-0.2441349924 -0.1323251873 0.5554540157 4291544216
-0.2445797920 -0.1319480091 0.5564660430 4292725104
-0.2446312606 -0.1313573718 0.5565831065 4292856690
-0.2450759113 -0.1309766024 0.5575947762 4292988502
-0.2451270372 -0.1303842664 0.5577111244 4292791123
-0.2455714941 -0.1299999058 0.5587223768 4293119826
-0.2456222922 -0.1294058859 0.5588378906 4293382998
-0.2456728667 -0.1288114935 0.5589529872 4293448791
-0.2453294545 -0.1280112565 0.5581716299 4293646170
-0.2449856550 -0.1272125691 0.5573894382 4293843803
-0.2446414977 -0.1264154315 0.5566064119 4293975389
-0.2439029217 -0.1254172176 0.5549260378 4294567276
-0.2427697182 -0.1242208183 0.5523477793 4294962291
-0.2416358292 -0.1230297983 0.5497679710 4294896501
-0.2405012548 -0.1218441650 0.5471865535 4294435950
-0.2397603393 -0.1208627075 0.5455008745 4294305140
-0.2390189171 -0.1198847368 0.5438139439 4294963327
-0.2382769585 -0.1189102530 0.5421258807 4294639070
-0.2379290611 -0.1181351766 0.5413343310 4294901730
-0.2409146428 -0.1394582391 0.5495157242 4293257968
-0.2409685999 -0.1388787925 0.5496388078 4292600554
-0.2410223633 -0.1382989436 0.5497614145 4292074210
-0.2410759181 -0.1377187222 0.5498836040 4291481555
-0.2411292791 -0.1371380985 0.5500052571 4290626246
-0.2415739596 -0.1367787868 0.5510196090 4289573049
-0.2416269928 -0.1361964643 0.5511405468 4288586154
-0.2416798323 -0.1356137544 0.5512610674 4288125854
-0.2417324632 -0.1350306571 0.5513811111 4288060061
-0.2421767563 -0.1346650869 0.5523945689 4287928725
-0.2422290593 -0.1340802908 0.5525138378 4288126104
-0.2422811687 -0.1334951222 0.5526326895 4288585364
-0.2427251786 -0.1331246346 0.5536454916 4288848536
-0.2427769601 -0.1325377524 0.5537635684 4290097290
-0.2432208061 -0.1321636736 0.5547760129 4290755220
-0.2432722598 -0.1315750927 0.5548933148 4292199029
-0.2437159419 -0.1311974227 0.5559053421 4292659580
-0.2437670529 -0.1306071430 0.5560219288 4292726100
-0.2442105711 -0.1302258819 0.5570335984 4292462928
-0.2442613393 -0.1296339184 0.5571494102 4292988494
-0.2447046787 -0.1292490512 0.5581606627 4293251666
-0.2447551191 -0.1286554039 0.5582756400 4293448791
-0.2444123924 -0.1278558373 0.5574939251 4293580377
-0.2444623113 -0.1272624135 0.5576077700 4293711965
-0.2437258214 -0.1262613237 0.5559278727 4293711965
-0.2433819771 -0.1254663914 0.5551435947 4294369385
-0.2426444888 -0.1244712770 0.5534614325 4294961522
-0.2415131330 -0.1232788563 0.5508808494 4294699119
-0.2403811067 -0.1220918149 0.5482987165 4294370154
-0.2392483950 -0.1209101677 0.5457150936 4294436728
-0.2385085821 -0.1199318320 0.5440275669 4294964100
-0.2377682477 -0.1189569831 0.5423389077 4294705126
-0.2374211252 -0.1181816161 0.5415471792 4294836200
-0.2396168560 -0.1390592754 0.5479436517 4293389041
-0.2396705747 -0.1384815127 0.5480664968 4292732140
-0.2397240847 -0.1379033476 0.5481888652 4292205796
-0.2397773862 -0.1373248100 0.5483107567 4291547348
-0.2402210981 -0.1369685829 0.5493254066 4290692039
-0.2402740866 -0.1363883317 0.5494466424 4289704381
-0.2403268814 -0.1358076930 0.5495673418 4288651693
-0.2407703400 -0.1354465485 0.5505813956 4288125854
-0.2404318601 -0.1346452534 0.5498073697 4288125854
-0.2408750802 -0.1342814565 0.5508209467 4287928722
-0.2409271449 -0.1336983591 0.5509399772 4288126101
-0.2409790009 -0.1331148744 0.5510585904 4288716950
-0.2418132275 -0.1329613030 0.5529662371 4288914329
-0.2418648452 -0.1323751658 0.5530842543 4289768585
-0.2419162542 -0.1317886561 0.5532018542 4290031757
-0.2423589975 -0.1314140856 0.5542142987 4291804022
-0.2424100786 -0.1308258772 0.5543310642 4292593538
-0.2428526431 -0.1304477006 0.5553431511 4292660306
-0.2429033965 -0.1298578084 0.5554591417 4292397134
-0.2433457971 -0.1294760406 0.5564708114 4292922700
-0.2433962077 -0.1288844496 0.5565860868 4293120079
-0.2434464097 -0.1282925010 0.5567008853 4293317207
-0.2434963882 -0.1277001798 0.5568152070 4293448793
-0.2435461730 -0.1271075010 0.5569290519 4293514333
-0.2432034761 -0.1263107210 0.5561453700 4293514333
-0.2428604066 -0.1255155057 0.5553608537 4294172006
-0.2421245426 -0.1245200112 0.5536781549 4294764143
-0.2413881570 -0.1235279962 0.5519942045 4294698860
-0.2398660779 -0.1221396551 0.5485135913 4294435688
-0.2391284853 -0.1211565062 0.5468268991 4294568314
-0.2383903712 -0.1201768517 0.5451390147 4294965128
-0.2376517355 -0.1192006767 0.5434499383 4294836203
-0.2369125932 -0.1182280034 0.5417596698 4294836203
-0.2387112528 -0.1388864666 0.5472627282 4293061870
-0.2387647927 -0.1383094341 0.5473855138 4292666599
-0.2388181388 -0.1377320141 0.5475078225 4292206048
-0.2388712913 -0.1371542215 0.5476296544 4291613143
-0.2389242500 -0.1365760267 0.5477510095 4290823627
-0.2389769852 -0.1359974593 0.5478719473 4289836219
-0.2394194752 -0.1356394142 0.5488863587 4288717738
-0.2394719124 -0.1350591332 0.5490065813 4288388254
-0.2395241410 -0.1344784647 0.5491263270 4288256668
-0.2399663478 -0.1341155022 0.5501401424 4288519573
-0.2400182635 -0.1335331351 0.5502591729 4288716952
-0.2400699705 -0.1329503953 0.5503776670 4288914064
-0.2405119091 -0.1325825006 0.5513908863 4288914064
-0.2409538180 -0.1322123408 0.5524039865 4289045647
-0.2410050780 -0.1316265762 0.5525214672 4289440405
-0.2410561293 -0.1310404390 0.5526385307 4290884985
-0.2414977401 -0.1306653619 0.5536509752 4291871880
-0.2415484637 -0.1300775409 0.5537672639 4293119315
-0.2419899106 -0.1296988577 0.5547792912 4292987729
-0.2420403063 -0.1291093379 0.5548948050 4292987732
-0.2424815744 -0.1287270784 0.5559064746 4293185111
-0.2425316274 -0.1281358600 0.5560212135 4293382998
-0.2425814718 -0.1275442839 0.5561354756 4293448791
-0.2426310927 -0.1269523501 0.5562492609 4293316945
-0.2422890961 -0.1261562407 0.5554652214 4293514324
-0.2419467270 -0.1253616810 0.5546802878 4293909093
-0.2416039854 -0.1245686859 0.5538945198 4294369644
-0.2408692241 -0.1235762984 0.5522100329 4294697579
-0.2397421896 -0.1223874092 0.5496262312 4294565993
-0.2390062958 -0.1214029416 0.5479391813 4294699395
-0.2382698804 -0.1204219609 0.5462508798 4294966165
-0.2374181449 -0.1384867430 0.5456876755 4293127663
-0.2374714464 -0.1379113942 0.5458101630 4292798185
-0.2375245541 -0.1373356730 0.5459322333 4292403427
-0.2379662842 -0.1369833797 0.5469475389 4291810522
-0.2380190790 -0.1364059299 0.5470688343 4291086799
-0.2380716652 -0.1358281076 0.5471897125 4290165182
-0.2381240577 -0.1352498978 0.5473101735 4289112494
-0.2381762415 -0.1346713006 0.5474300981 4288520094
-0.2382282317 -0.1340923309 0.5475496054 4288322715
-0.2386693656 -0.1337311417 0.5485634804 4288781973
-0.2391104549 -0.1333676726 0.5495773554 4288913559
-0.2391620129 -0.1327856779 0.5496958494 4288979342
-0.2396029532 -0.1324186176 0.5507093072 4288979342
-0.2396541834 -0.1318349242 0.5508270264 4289176974
-0.2397052050 -0.1312508583 0.5509443283 4289440146
-0.2401458621 -0.1308788657 0.5519571304 4290424687
-0.2405864894 -0.1305046231 0.5529698730 4291477375
-0.2406370640 -0.1299175322 0.5530861020 4293054037
-0.2406874150 -0.1293300837 0.5532018542 4293119830
-0.2411277443 -0.1289509088 0.5542139411 4292988242
-0.2415680289 -0.1285694689 0.5552258492 4293054035
-0.2416179329 -0.1279790103 0.5553405881 4293251666
-0.2416676283 -0.1273881793 0.5554547906 4293251666
-0.2417171001 -0.1267969757 0.5555685163 4293251666
-0.2417663783 -0.1262054294 0.5556817651 4293449045
-0.2414247841 -0.1254105717 0.5548965931 4293711712
-0.2410828173 -0.1246172860 0.5541106462 4294172263
-0.2403496802 -0.1236245334 0.5524255633 4294500968
-0.2396160066 -0.1226352602 0.5507392883 4294435175
-0.2388818115 -0.1216494665 0.5490518212 4294699923
-0.2381471097 -0.1206671596 0.5473631024 4294967207
-0.2361278236 -0.1380866021 0.5441109538 4293193456
-0.2361808717 -0.1375129372 0.5442332029 4292863978
-0.2362337261 -0.1369388998 0.5443549752 4292469220
-0.2366743684 -0.1365883797 0.5453704000 4291942108
-0.2367269099 -0.1360126287 0.5454914570 4291349971
-0.2367792577 -0.1354364902 0.5456120968 4290494147
-0.2368314117 -0.1348599643 0.5457322598 4289441459
-0.2368833572 -0.1342830658 0.5458519459 4288848546
-0.2373235226 -0.1339249760 0.5468662381 4288519581
-0.2373751402 -0.1333463639 0.5469851494 4288848020
-0.2374265790 -0.1327673942 0.5471037030 4289045399
-0.2378664762 -0.1324043721 0.5481173396 4289045390
-0.2383063287 -0.1320390999 0.5491309166 4289045390
-0.2383573204 -0.1314570904 0.5492483974 4289111433
-0.2384081036 -0.1308747232 0.5493654609 4289374605
-0.2388476878 -0.1305045187 0.5503783822 4290095724
-0.2392872274 -0.1301320493 0.5513911843 4290819447
-0.2393375635 -0.1295466572 0.5515071750 4292593494
-0.2393876910 -0.1289608926 0.5516226888 4292988252
-0.2398269475 -0.1285835057 0.5526348948 4292988755
-0.2402661592 -0.1282038540 0.5536469817 4293120341
-0.2403158247 -0.1276150793 0.5537614226 4293251665
-0.2403652817 -0.1270259619 0.5538753867 4293251665
-0.2408041954 -0.1266413778 0.5548867583 4293185619
-0.2408533096 -0.1260505766 0.5549999475 4293317205
-0.2405124158 -0.1252563894 0.5542144179 4293579866
-0.2401711494 -0.1244637668 0.5534280539 4294040417
-0.2398295254 -0.1236727014 0.5526407957 4294172003
-0.2390974760 -0.1226830631 0.5509539843 4294303589
-0.2383649051 -0.1216969043 0.5492659211 4294569646
-0.2380220294 -0.1209124476 0.5484758019 4294967234
-0.2348402739 -0.1376860291 0.5425325632 4293325042
-0.2348930836 -0.1371140629 0.5426545739 4292930030
-0.2353327423 -0.1367666423 0.5436702967 4292469479
-0.2353852391 -0.1361929625 0.5437915921 4292139487
-0.2354375422 -0.1356188953 0.5439124107 4291613143
-0.2354896367 -0.1350444555 0.5440327525 4290757319
-0.2355415374 -0.1344696283 0.5441526771 4289704631
-0.2359807342 -0.1341146380 0.5451672673 4289177509
-0.2360323220 -0.1335380971 0.5452864766 4288716958
-0.2364713699 -0.1331795156 0.5463007689 4288848019
-0.2365226299 -0.1326012760 0.5464192033 4288979605
-0.2365737110 -0.1320226789 0.5465371609 4289111181
-0.2370124906 -0.1316591650 0.5475508571 4289045388
-0.2370632440 -0.1310788691 0.5476680994 4289176454
-0.2371137887 -0.1304981858 0.5477848649 4289439626
-0.2375522852 -0.1301297694 0.5487979054 4290160492
-0.2376025170 -0.1295474023 0.5489139557 4290489457
-0.2380408496 -0.1291753799 0.5499265790 4291738453
-0.2384791523 -0.1288010925 0.5509392023 4292330590
-0.2389174104 -0.1284245402 0.5519516468 4292726353
-0.2393556088 -0.1280457079 0.5529639721 4293121111
-0.2394051403 -0.1274576932 0.5530784130 4293317459
-0.2394544482 -0.1268693060 0.5531923175 4293317459
-0.2395035475 -0.1262805611 0.5533057451 4293119828
-0.2395524532 -0.1256914437 0.5534186959 4293383000
-0.2396011353 -0.1251019835 0.5535312295 4293645913
-0.2392605692 -0.1243100241 0.5527444482 4293909085
-0.2393087596 -0.1237208024 0.5528557301 4293909083
-0.2385783345 -0.1227307916 0.5511683226 4294369634
-0.2378474027 -0.1217442676 0.5494797230 4294636489
-0.2375053018 -0.1209595278 0.5486893654 4294967256
-0.2339942008 -0.1369407326 0.5419685841 4293193202
-0.2340466380 -0.1363691241 0.5420900583 4292732651
-0.2340988964 -0.1357971281 0.5422110558 4292468452
-0.2341509461 -0.1352247596 0.5423316360 4291942108
-0.2345892787 -0.1348741949 0.5433468819 4291217355
-0.2346410155 -0.1343001127 0.5434666872 4290296253
-0.2346925586 -0.1337256581 0.5435860753 4289506728
-0.2351306379 -0.1333701760 0.5446007252 4288914591
-0.2351818681 -0.1327940077 0.5447193980 4288782226
-0.2352329046 -0.1322174668 0.5448375940 4288913812
-0.2352837324 -0.1316405535 0.5449553728 4289176972
-0.2357214242 -0.1312788427 0.5459691286 4289111179
-0.2361590862 -0.1309148371 0.5469828248 4289176709
-0.2362094820 -0.1303349137 0.5470995307 4289439881
-0.2362596691 -0.1297546178 0.5472157598 4290225774
-0.2366970479 -0.1293856949 0.5482288003 4290291567
-0.2367469221 -0.1288037151 0.5483443141 4291146324
-0.2371841371 -0.1284312010 0.5493569970 4291606875
-0.2372336835 -0.1278475374 0.5494717360 4292396881
-0.2376707345 -0.1274714321 0.5504840016 4292923225
-0.2381077409 -0.1270930618 0.5514962077 4293185619
-0.2381568104 -0.1265063882 0.5516098738 4293382998
-0.2385936528 -0.1261244267 0.5526216626 4293251414
-0.2386423945 -0.1255360693 0.5527345538 4293514586
-0.2386909425 -0.1249473467 0.5528469682 4293974361
-0.2387392670 -0.1243582666 0.5529589057 4294040154
-0.2383991182 -0.1235675886 0.5521711111 4293778009
-0.2380585968 -0.1227784604 0.5513824224 4294830697
-0.2377177179 -0.1219909042 0.5505928397 4294835424
-0.2373764813 -0.1212049201 0.5498024821 4294967269
-0.2327633351 -0.1359711736 0.5405081511 4292995312
-0.2332007885 -0.1356250495 0.5415239930 4292599784
-0.2332526892 -0.1350534260 0.5416445136 4292139233
-0.2333043814 -0.1344814152 0.5417645574 4291546320
-0.2333558798 -0.1339090317 0.5418841243 4290756804
-0.2334071845 -0.1333362609 0.5420032740 4290098352
-0.2338441610 -0.1329825670 0.5430179834 4289374629
-0.2338951528 -0.1324080974 0.5431364179 4288913810
-0.2343319952 -0.1320507973 0.5441508293 4288848017
-0.2343826741 -0.1314746439 0.5442684889 4289177226
-0.2344331443 -0.1308981031 0.5443856716 4289243019
-0.2344834208 -0.1303211898 0.5445024371 4289242498
-0.2349198908 -0.1299576610 0.5455159545 4289505670
-0.2349698395 -0.1293790638 0.5456319451 4290226028
-0.2354061455 -0.1290119290 0.5466451049 4290291821
-0.2358424067 -0.1286425292 0.5476581454 4290752084
-0.2358919084 -0.1280609220 0.5477731228 4291081049
-0.2363280058 -0.1276879311 0.5487858057 4291804748
-0.2363771945 -0.1271046400 0.5489000082 4292331092
-0.2368131280 -0.1267280579 0.5499123335 4292921685
-0.2368619740 -0.1261430830 0.5500257611 4293316443
-0.2372977287 -0.1257629097 0.5510376096 4293251927
-0.2373462468 -0.1251762509 0.5511503220 4293449306
-0.2377818376 -0.1247924864 0.5521618128 4293711704
-0.2378300130 -0.1242041588 0.5522736907 4293711704
-0.2374905646 -0.1234141439 0.5514854193 4293975389
-0.2375382632 -0.1228260621 0.5515961647 4294964083
-0.2371981591 -0.1220382228 0.5508064032 4294967281
-0.2372453511 -0.1214503944 0.5509160161 4294967281
-0.2314828187 -0.1355728060 0.5389245749 4293192691
-0.2319191843 -0.1352284700 0.5399405360 4292797417
-0.2319708318 -0.1346585304 0.5400607586 4292271073
-0.2320222855 -0.1340882182 0.5401805043 4291809492
-0.2320735455 -0.1335175335 0.5402998328 4291217355
-0.2325095534 -0.1331669390 0.5413149595 4290624695
-0.2325605005 -0.1325945407 0.5414335728 4289835179
-0.2326112539 -0.1320217848 0.5415517092 4289177236
-0.2330469936 -0.1316662580 0.5425661802 4288914064
-0.2330974340 -0.1310918033 0.5426836610 4289177224
-0.2331476808 -0.1305169612 0.5428006053 4289243017
-0.2331977189 -0.1299417615 0.5429170728 4289374338
-0.2336330861 -0.1295800060 0.5439307094 4289571717
-0.2336828113 -0.1290031075 0.5440464616 4290160743
-0.2341180295 -0.1286377609 0.5450596809 4290226536
-0.2341674268 -0.1280591786 0.5451747179 4290620757
-0.2346024811 -0.1276902556 0.5461875796 4290883929
-0.2350374907 -0.1273190379 0.5472003818 4291409739
-0.2354724705 -0.1269455552 0.5482130647 4291804497
-0.2355213016 -0.1263626516 0.5483267307 4292658264
-0.2359561026 -0.1259855777 0.5493389964 4292855643
-0.2360046059 -0.1254010051 0.5494519472 4292857686
-0.2364392281 -0.1250203401 0.5504637957 4293186651
-0.2368738204 -0.1246373951 0.5514755845 4293580128
-0.2369218618 -0.1240498200 0.5515874028 4293711714
-0.2369696796 -0.1234618872 0.5516987443 4294567282
-0.2366306484 -0.1226731539 0.5509094596 4294965895
-0.2305887938 -0.1353993118 0.5382349491 4293390070
-0.2306403965 -0.1348314583 0.5383553505 4292994796
-0.2306917906 -0.1342632324 0.5384753346 4292468452
-0.2311269343 -0.1339170635 0.5394909978 4292072662
-0.2311780304 -0.1333471239 0.5396102667 4291546318
-0.2312289327 -0.1327768117 0.5397291183 4291085500
-0.2312796265 -0.1322061121 0.5398474336 4290164398
-0.2317144126 -0.1318537146 0.5408623219 4289309336
-0.2317648083 -0.1312813163 0.5409799218 4288914578
-0.2318149954 -0.1307085603 0.5410971045 4289046150
-0.2318650037 -0.1301354170 0.5412138104 4289177736
-0.2322994024 -0.1297767758 0.5422278047 4289374337
-0.2323490828 -0.1292019486 0.5423437357 4289571716
-0.2323985696 -0.1286267638 0.5424592495 4290095204
-0.2328327149 -0.1282632053 0.5434725881 4290160997
-0.2328818738 -0.1276863217 0.5435873866 4290489684
