VERSION 0.7
FIELDS x y z rgba
SIZE 4 4 4 4
TYPE F F F U
COUNT 1 1 1 1
WIDTH 920
HEIGHT 1
VIEWPOINT 0.0 0.0 0.0 1.0 0.0 0.0 0.0
POINTS 920
DATA ascii
-0.3561868072 -0.1247707531 0.4981849194 4286325024
-0.3562496603 -0.1242391542 0.4982728362 4286259231
-0.3563122749 -0.1237072721 0.4983603954 4286520604
-0.3563746214 -0.1231751069 0.4984476268 4286454811
-0.3564367294 -0.1226426661 0.4985344708 4286650907
-0.3559281826 -0.1219145730 0.4978232086 4286716700
-0.3559897244 -0.1213824376 0.4979092479 4286716441
-0.3549097776 -0.1204626784 0.4963988066 4286716441
-0.3549706042 -0.1199316904 0.4964838922 4286782232
-0.3556019962 -0.1195923984 0.4973669648 4286782232
-0.3556624055 -0.1190600172 0.4974514842 4286716439
-0.3545806110 -0.1181468591 0.4959384203 4286716439
-0.3552114367 -0.1178050414 0.4968207181 4286781974
-0.3546998203 -0.1170841679 0.4961051643 4286716181
-0.3553303480 -0.1167401001 0.4969870150 4286650388
-0.3553894162 -0.1162072346 0.4970696568 4286584595
-0.3554482460 -0.1156740934 0.4971519411 4286649618
-0.3555068374 -0.1151406989 0.4972338676 4286715411
-0.3549934924 -0.1144227758 0.4965158999 4286780947
-0.3550514877 -0.1138897166 0.4965969920 4286846740
-0.3551092148 -0.1133563891 0.4966777265 4286846740
-0.3551667035 -0.1128228009 0.4967581332 4286780947
-0.3552239239 -0.1122889519 0.4968381524 4287043349
-0.3552808762 -0.1117548496 0.4969178438 4287372314
-0.3553375900 -0.1112204939 0.4969971776 4287503900
-0.3553940654 -0.1106858775 0.4970761538 4287503900
-0.3548778892 -0.1099736318 0.4963541925 4287634973
-0.3549337387 -0.1094393730 0.4964323342 4287700766
-0.3549893498 -0.1089048609 0.4965101182 4287175962
-0.3550447226 -0.1083700955 0.4965875149 4287175962
-0.3550998271 -0.1078350842 0.4966645837 4287504928
-0.3557274938 -0.1074728891 0.4975425005 4287899686
-0.3552092314 -0.1067643166 0.4968176484 4287637291
-0.3552635610 -0.1062285602 0.4968936443 4288163635
-0.3553176522 -0.1056925654 0.4969692528 4287772480
-0.3553714752 -0.1051563174 0.4970445335 4289351512
-0.3554250300 -0.1046198308 0.4971194565 4293698738
-0.3560516834 -0.1042509824 0.4979959130 4294949576
-0.3555313647 -0.1035461351 0.4972681701 4294623187
-0.3561576605 -0.1031750664 0.4981441796 4294294222
-0.3567838967 -0.1028020307 0.4990200400 4293439172
-0.3556889296 -0.1019337922 0.4974885881 4292254898
-0.3557409346 -0.1013958678 0.4975613058 4290937748
-0.3569404185 -0.1011830568 0.4992389679 4289424509
-0.3558441699 -0.1003193185 0.4977056980 4288631922
-0.3570434451 -0.1001025662 0.4993830621 4287908199
-0.3565204740 -0.0994018987 0.4986515939 4288100953
-0.3559970558 -0.0987027436 0.4979195297 4287443023
-0.3560475111 -0.0981634259 0.4979900718 4287443789
-0.3572463691 -0.0979387984 0.4996668994 4288101719
-0.3572964370 -0.0973972827 0.4997369349 4288303720
-0.3561972380 -0.0965441093 0.4981995225 4289948545
-0.3573957980 -0.0963135734 0.4998759031 4291400357
-0.3574450910 -0.0957713798 0.4999448359 4293637319
-0.3580688536 -0.0953820646 0.5008172989 4294955485
-0.3569680452 -0.0945340917 0.4992775917 4294956770
-0.3575913608 -0.0941434577 0.5001494288 4294751677
-0.3576395810 -0.0936003774 0.5002168417 4289619823
-0.3582625985 -0.0932066888 0.5010882616 4288362044
-0.3583103418 -0.0926622972 0.5011550784 4289085767
-0.3583578467 -0.0921176821 0.5012214780 4289346104
-0.3584050834 -0.0915728584 0.5012875199 4289214518
-0.3584520519 -0.0910278186 0.5013532639 4288752941
-0.3608005047 -0.0910635144 0.5046378970 4288884527
-0.3602717221 -0.0903701857 0.5038983226 4287713358
-0.3591669202 -0.0895349085 0.5023530722 4288239702
-0.3591223657 -0.1410864294 0.5030723214 4285024333
-0.3575628400 -0.1393606961 0.5008876324 4285020732
-0.3581991494 -0.1390511841 0.5017789602 4285675574
-0.3577016592 -0.1383013278 0.5010821223 4285609781
-0.3577707112 -0.1377711743 0.5011788011 4285739564
-0.3578395247 -0.1372407228 0.5012752414 4285673771
-0.3573409021 -0.1364933103 0.5005767345 4285607210
-0.3574091196 -0.1359630972 0.5006722808 4285607210
-0.3569096923 -0.1352175921 0.4999726713 4285803819
-0.3569773436 -0.1346876025 0.5000674129 4285738026
-0.3570447266 -0.1341573298 0.5001618266 4285999401
-0.3565441370 -0.1334142983 0.4994606078 4285933608
-0.3560431004 -0.1326726526 0.4987587333 4285867813
-0.3561095595 -0.1321431696 0.4988518357 4285867813
-0.3556077182 -0.1314034611 0.4981488585 4285605409
-0.3556736112 -0.1308742315 0.4982411265 4285605409
-0.3551709652 -0.1301364750 0.4975370169 4285605409
-0.3552362621 -0.1296074986 0.4976284802 4285539616
-0.3553013206 -0.1290782243 0.4977195859 4285735968
-0.3553661108 -0.1285486668 0.4978103638 4285735968
-0.3554306626 -0.1280188113 0.4979008138 4286063392
-0.3554949760 -0.1274886727 0.4979909062 4286063392
-0.3555590510 -0.1269582510 0.4980806708 4286129185
-0.3556228876 -0.1264275461 0.4981700778 4285997599
-0.3556864858 -0.1258965433 0.4982591569 4285866013
-0.3551806211 -0.1251646876 0.4975505173 4285800220
-0.3552436233 -0.1246339679 0.4976387620 4285996059
-0.3553063571 -0.1241029724 0.4977266788 4285930266
-0.3553688526 -0.1235716939 0.4978142381 4286060823
-0.3554311097 -0.1230401397 0.4979014397 4286060823
-0.3554931283 -0.1225083023 0.4979883134 4286388505
-0.3549850881 -0.1217807159 0.4972766340 4286454298
-0.3550465107 -0.1212491840 0.4973626733 4286454811
-0.3545376658 -0.1205236018 0.4966498613 4286454811
-0.3540284038 -0.1197994575 0.4959364533 4286520602
-0.3540888727 -0.1192688048 0.4960211813 4286520602
-0.3535788357 -0.1185466796 0.4953066707 4286520602
-0.3536387086 -0.1180163473 0.4953905642 4286454809
-0.3542688191 -0.1176752299 0.4962732494 4286454550
-0.3537577391 -0.1169548631 0.4955572784 4286388757
-0.3538168669 -0.1164237261 0.4956401289 4286322710
-0.3538757563 -0.1158923209 0.4957226217 4286256917
-0.3539343774 -0.1153606474 0.4958047569 4286322196
-0.3539927900 -0.1148287132 0.4958865643 4286256403
-0.3540509045 -0.1142965183 0.4959679842 4286321681
-0.3541088104 -0.1137640551 0.4960490763 4286321681
-0.3541664481 -0.1132313386 0.4961298108 4286453010
-0.3542238176 -0.1126983538 0.4962102175 4286387217
-0.3537095189 -0.1119842082 0.4954897761 4286453010
-0.3543378115 -0.1116316244 0.4963698983 4286716182
-0.3543944359 -0.1110978723 0.4964492321 4286912791
-0.3533074260 -0.1102072075 0.4949264824 4286912791
-0.3539351523 -0.1098521352 0.4958058298 4286978326
-0.3545627892 -0.1094950885 0.4966850579 4286912533
-0.3540464342 -0.1087845787 0.4959617257 4286715152
-0.3546737432 -0.1084253043 0.4968405068 4286715152
-0.3547288477 -0.1078900397 0.4969176948 4286650389
-0.3542114496 -0.1071813703 0.4961929023 4286979354
-0.3542659581 -0.1066464707 0.4962692559 4286717470
-0.3543201983 -0.1061113179 0.4963452220 4287375400
-0.3543742001 -0.1055759266 0.4964208603 4286852657
-0.3544279039 -0.1050402969 0.4964961112 4287313208
-0.3544813991 -0.1045044139 0.4965710044 4292713123
-0.3551073670 -0.1041362584 0.4974479079 4294952655
-0.3551603854 -0.1035990268 0.4975222051 4294957285
-0.3546402454 -0.1028953269 0.4967935681 4294957799
-0.3552657068 -0.1025238484 0.4976697266 4294959852
-0.3547448814 -0.1018214151 0.4969401062 4294893802
-0.3547967970 -0.1012840942 0.4970128536 4294302946
-0.3559949696 -0.1010720581 0.4986913204 4293776602
-0.3560465276 -0.1005325392 0.4987635314 4293508305
-0.3549509943 -0.0996707454 0.4972288609 4292850375
-0.3555753827 -0.0992926434 0.4981035292 4292517559
-0.3550525010 -0.0985940173 0.4973710477 4291004320
-0.3556765020 -0.0982137173 0.4982452095 4290471298
-0.3557266891 -0.0976739079 0.4983154833 4288892266
-0.3552027643 -0.0969772041 0.4975815713 4287642195
-0.3564001620 -0.0967494026 0.4992589355 4286984265
-0.3564496338 -0.0962080434 0.4993282259 4287708500
-0.3564988375 -0.0956664607 0.4993971288 4288498016
-0.3553994894 -0.0948182866 0.4978571236 4291130499
-0.3560222089 -0.0944303051 0.4987294674 4294025391
-0.3566448689 -0.0940403640 0.4996016920 4294948795
-0.3566929996 -0.0934978873 0.4996691346 4291131773
-0.3573153317 -0.0931048840 0.5005409122 4288624186
-0.3579375744 -0.0927099064 0.5014125705 4288887358
-0.3574104607 -0.0920170918 0.5006741881 4289149240
-0.3574576080 -0.0914728791 0.5007402301 4289149240
-0.3586540222 -0.0912208185 0.5024161935 4289080102
-0.3587007821 -0.0906744227 0.5024817586 4288685344
-0.3575974703 -0.0898389369 0.5009361506 4287639855
-0.3593685031 -0.0897245482 0.5034170747 4287113511
-0.3592377901 -0.1419116855 0.5040181279 4284957511
-0.3587426245 -0.1411568522 0.5033234358 4284825925
-0.3588129580 -0.1406251937 0.5034220815 4285414974
-0.3577509224 -0.1396512836 0.5019320846 4285283388
-0.3583867252 -0.1393408030 0.5028241277 4285675315
-0.3573236763 -0.1383704692 0.5013326406 4285412143
-0.3579591215 -0.1380585283 0.5022241473 4285476646
-0.3580280542 -0.1375270039 0.5023208857 4285542439
-0.3569635153 -0.1365616322 0.5008273125 4285541158
-0.3570317328 -0.1360311657 0.5009230375 4285541158
-0.3559660614 -0.1350702494 0.4994278550 4285737254
-0.3566005230 -0.1347551048 0.5003180504 4285671461
-0.3561008871 -0.1340111792 0.4996170104 4285802020
-0.3556008041 -0.1332686543 0.4989153743 4285736227
-0.3556675017 -0.1327392161 0.4990089536 4285736227
-0.3551665843 -0.1319986284 0.4983061850 4285670434
-0.3552327156 -0.1314694434 0.4983989596 4285474082
-0.3552985787 -0.1309399605 0.4984913766 4285474082
-0.3547965288 -0.1302018613 0.4977869987 4285277732
-0.3548618257 -0.1296726316 0.4978785813 4285211939
-0.3549268842 -0.1291431338 0.4979698360 4285473571
-0.3549916744 -0.1286133230 0.4980607629 4285407778
-0.3550562263 -0.1280832291 0.4981513321 4285603869
-0.3551205397 -0.1275528520 0.4982415736 4285538076
-0.3551846147 -0.1270221770 0.4983314574 4285471766
-0.3552484512 -0.1264912337 0.4984210134 4285340180
-0.3547435403 -0.1257584542 0.4977126122 4285340180
-0.3548067510 -0.1252277792 0.4978013337 4285340180
-0.3548697531 -0.1246968135 0.4978896976 4285602069
-0.3549324870 -0.1241655722 0.4979777336 4285536276
-0.3549950123 -0.1236340553 0.4980654418 4285732885
-0.3544882536 -0.1229049712 0.4973544478 4285864471
-0.3545501530 -0.1223737374 0.4974413216 4286061080
-0.3546118140 -0.1218422353 0.4975278080 4286061080
-0.3541039228 -0.1211157292 0.4968152344 4286061850
-0.3535956144 -0.1203906611 0.4961020350 4286127643
-0.3536563218 -0.1198600307 0.4961872399 4285996570
-0.3531472087 -0.1191369817 0.4954729378 4285996570
-0.3532073200 -0.1186066642 0.4955573082 4286062363
-0.3532672226 -0.1180760786 0.4956413209 4285930777
-0.3533268571 -0.1175452247 0.4957249761 4286258713
-0.3528162539 -0.1168253720 0.4950086176 4286192920
-0.3528752923 -0.1162948385 0.4950914383 4286126873
-0.3529340923 -0.1157640442 0.4951739311 4286061080
-0.3529926240 -0.1152329743 0.4952560663 4286060823
-0.3524805605 -0.1145163476 0.4945376217 4285995030
-0.3525384963 -0.1139856204 0.4946189225 4286125331
-0.3525961936 -0.1134546250 0.4946998656 4286125331
-0.3526536524 -0.1129233763 0.4947804809 4286190608
-0.3527108431 -0.1123918593 0.4948607087 4286124815
-0.3521969616 -0.1116790920 0.4941397309 4286190610
-0.3522535563 -0.1111479253 0.4942191541 4286322196
-0.3534519374 -0.1109750643 0.4959004521 4286387476
-0.3523660004 -0.1100848317 0.4943768978 4286519062
-0.3536199927 -0.1093741059 0.4961362779 4286650389
-0.3536755145 -0.1088399515 0.4962141514 4286321421
-0.3531593084 -0.1081305742 0.4954899251 4286650386
-0.3537857831 -0.1077708825 0.4963688850 4286716951
-0.3538405299 -0.1072359756 0.4964456856 4286848537
-0.3539492786 -0.1061654165 0.4965982437 4286783515
-0.3534849882 -0.1049240902 0.4959468544 4286388507
-0.3535383642 -0.1043888256 0.4960217476 4288101445
-0.3535915017 -0.1038533077 0.4960963130 4292509576
-0.3536443710 -0.1033175588 0.4961704612 4293303726
-0.3536969721 -0.1027815640 0.4962442815 4294290621
-0.3543217480 -0.1024107784 0.4971208572 4294492882
-0.3538014293 -0.1017088667 0.4963908195 4294953947
-0.3544258475 -0.1013358682 0.4972668886 4294957027
-0.3550501764 -0.1009608954 0.4981428385 4294958055
-0.3539561629 -0.1000980437 0.4966078997 4294830068
-0.3540072143 -0.0995606333 0.4966795444 4294830068
-0.3546309173 -0.0991832241 0.4975546300 4294894321
-0.3546815217 -0.0986444876 0.4976256490 4294762735
-0.3541588187 -0.0979470238 0.4968922436 4294823650
-0.3547819853 -0.0975663140 0.4977665544 4293507790
-0.3548318148 -0.0970268846 0.4978364706 4293104556
-0.3548813760 -0.0964872316 0.4979060292 4290867594
-0.3549306989 -0.0959473550 0.4979752004 4289418341
-0.3538327813 -0.0950989872 0.4964348376 4287444551
-0.3538814187 -0.0945603997 0.4965030551 4287114808
-0.3545033932 -0.0941739827 0.4973756969 4288167496
-0.3551252782 -0.0937855989 0.4982482195 4291188574
-0.3551732600 -0.0932446048 0.4983155429 4290333265
-0.3557948470 -0.0928531587 0.4991876483 4289410102
-0.3569902778 -0.0926086381 0.5008648634 4289344309
-0.3564636707 -0.0919163525 0.5001260042 4289083962
-0.3570848405 -0.0915198773 0.5009975433 4289083962
-0.3577058911 -0.0911214426 0.5018689036 4289474345
-0.3577525914 -0.0905756503 0.5019344091 4289079587
-0.3577990234 -0.0900296494 0.5019995570 4288554533
-0.3578451872 -0.0894834325 0.5020642877 4287962396
-0.3584655225 -0.0890797600 0.5029346347 4284226854
-0.3579366803 -0.0883903727 0.5021926761 4283371545
-0.3589275479 -0.1414500326 0.5043688416 4284694847
-0.3584326208 -0.1406953782 0.5036733747 4285217595
-0.3579372466 -0.1399420947 0.5029772520 4285086009
-0.3574414253 -0.1391901672 0.5022805333 4285739827
-0.3575108349 -0.1386590153 0.5023780465 4285674034
-0.3570141792 -0.1379089952 0.5016801357 4285738535
-0.3576489091 -0.1375957727 0.5025720596 4285541156
-0.3565855622 -0.1366299540 0.5010778308 4285606438
-0.3566537797 -0.1360992491 0.5011736751 4285540645
-0.3567217588 -0.1355682462 0.5012692213 4285540645
-0.3562231660 -0.1348225921 0.5005686283 4285474852
-0.3557241261 -0.1340783238 0.4998673499 4285409059
-0.3552246094 -0.1333354414 0.4991654456 4285343266
-0.3552913070 -0.1328057647 0.4992591739 4285474082
-0.3542242646 -0.1318538636 0.4977597296 4285474082
-0.3542902470 -0.1313252896 0.4978524745 4285539875
-0.3543560207 -0.1307964027 0.4979448915 4285474082
-0.3544215560 -0.1302672476 0.4980369508 4285408289
-0.3544868231 -0.1297377795 0.4981286824 4285342496
-0.3545518816 -0.1292080283 0.4982200861 4285342496
-0.3546166718 -0.1286779791 0.4983111322 4285342496
-0.3546812236 -0.1281476468 0.4984018505 4285276703
-0.3541779518 -0.1274128258 0.4976946414 4285145117
-0.3548096120 -0.1270861030 0.4985822439 4285537046
-0.3543056250 -0.1263524145 0.4978740513 4285471253
-0.3543691039 -0.1258217841 0.4979632795 4285471253
-0.3538643420 -0.1250900775 0.4972539544 4285405460
-0.3539272249 -0.1245597228 0.4973423183 4285405460
-0.3539898694 -0.1240290850 0.4974303544 4285471253
-0.3540522754 -0.1234981716 0.4975180328 4285667862
-0.3541144133 -0.1229669750 0.4976053536 4285602069
-0.3536078334 -0.1222389787 0.4968934953 4285799189
-0.3536693752 -0.1217080727 0.4969799817 4285864982
-0.3531619906 -0.1209820807 0.4962670207 4285996055
-0.3532229662 -0.1204514802 0.4963526726 4286061848
-0.3532836735 -0.1199206114 0.4964379966 4286127641
-0.3527751565 -0.1191972122 0.4957234263 4286127641
-0.3528352976 -0.1186666489 0.4958079159 4286258713
-0.3523259759 -0.1179452762 0.4950922430 4286258713
-0.3523855209 -0.1174150258 0.4951758981 4286323995
-0.3524447978 -0.1168845147 0.4952591956 4286258202
-0.3525038362 -0.1163537353 0.4953421652 4286192409
-0.3519930542 -0.1156355739 0.4946244061 4286060823
-0.3520514965 -0.1151051149 0.4947065413 4285995030
-0.3521097004 -0.1145743951 0.4947883189 4285929237
-0.3521676362 -0.1140434146 0.4948697388 4285995030
-0.3522253335 -0.1135121733 0.4949508011 4285995030
-0.3522827625 -0.1129806712 0.4950315356 4286060053
-0.3523399830 -0.1124489084 0.4951118827 4286060053
-0.3523969054 -0.1119168922 0.4951919019 4286060053
-0.3518832922 -0.1112043783 0.4944701493 4286125846
-0.3525100350 -0.1108520776 0.4953508675 4286191639
-0.3525662124 -0.1103192866 0.4954298139 4286257432
-0.3520515561 -0.1096085981 0.4947066307 4286257432
-0.3526778221 -0.1092529446 0.4955866635 4286323225
-0.3527332544 -0.1087193936 0.4956645370 4286192142
-0.3522175848 -0.1080105379 0.4949398935 4286323728
-0.3528433442 -0.1076515466 0.4958192408 4286586389
-0.3534690440 -0.1072905734 0.4966984689 4286652182
-0.3523812890 -0.1064102352 0.4951699674 4286913561
-0.3535777628 -0.1062195078 0.4968512654 4286979354
-0.3536317348 -0.1056836024 0.4969271123 4287043868
-0.3525426984 -0.1048077196 0.4953967929 4286714903
-0.3525960147 -0.1042730585 0.4954716861 4286450710
-0.3526490331 -0.1037381515 0.4955462217 4287437605
-0.3527018130 -0.1032030135 0.4956203699 4287770170
-0.3533260822 -0.1028340235 0.4964975715 4288757065
-0.3533784151 -0.1022975370 0.4965711534 4288698467
-0.3528586328 -0.1015961468 0.4958407283 4289882741
-0.3529103696 -0.1010600552 0.4959134459 4290152848
-0.3535339236 -0.1006866470 0.4967896640 4291797673
-0.3530130982 -0.0999871567 0.4960577786 4293048514
-0.3536362946 -0.0996115431 0.4969335198 4294035409
-0.3536870778 -0.0990736410 0.4970048964 4294628829
-0.3537878990 -0.0979971513 0.4971465468 4294959851
-0.3538379073 -0.0974585563 0.4972168207 4294960108
-0.3533150256 -0.0967629105 0.4964820445 4294957539
-0.3539863825 -0.0958414227 0.4974254370 4293698478
-0.3534624577 -0.0951477215 0.4966892302 4290277242
-0.3535110950 -0.0946088731 0.4967575669 4288887109
-0.3547055125 -0.0943747312 0.4984359741 4287505456
-0.3547537625 -0.0938336998 0.4985037744 4288160556
-0.3553749323 -0.0934431553 0.4993766546 4288818486
-0.3559959829 -0.0930506513 0.5002493858 4289542206
-0.3560436070 -0.0925072059 0.5003162622 4289410620
-0.3560909331 -0.0919635445 0.5003827810 4289082170
-0.3561380208 -0.0914196670 0.5004489422 4289279549
-0.3561848402 -0.0908755809 0.5005147457 4289213492
-0.3568050265 -0.0904767364 0.5013862252 4289016113
-0.3568513691 -0.0899313390 0.5014513731 4288292142
-0.3568974435 -0.0893857330 0.5015161037 4288160556
-0.3569432497 -0.0888399109 0.5015804768 4287112743
-0.3598584831 -0.0890036449 0.5056769848 4285731090
-0.3596044183 -0.1425006390 0.5061098933 4285022270
-0.3591106832 -0.1417434365 0.5054149628 4284956477
-0.3575569689 -0.1400119215 0.5032282472 4285085237
-0.3576267064 -0.1394799948 0.5033264160 4285738800
-0.3571311235 -0.1387282610 0.5026289225 4285607214
-0.3560698926 -0.1377592236 0.5011353493 4285737508
-0.3567038774 -0.1374467164 0.5020276308 4285671715
-0.3562070429 -0.1366982609 0.5013283491 4285605670
-0.3562752604 -0.1361673176 0.5014243722 4285539877
-0.3563432395 -0.1356360763 0.5015200377 4285539877
-0.3558452427 -0.1348900795 0.5008191466 4285474084
-0.3559126258 -0.1343590766 0.5009140372 4285474084
-0.3542819321 -0.1331894845 0.4986189604 4285474084
-0.3543485105 -0.1326604038 0.4987126887 4285473571
-0.3538486958 -0.1319199651 0.4980092645 4285539364
-0.3544809818 -0.1316013634 0.4988991022 4285539618
-0.3539804816 -0.1308620274 0.4981946945 4285605411
-0.3540459871 -0.1303326190 0.4982869029 4285605411
-0.3541112840 -0.1298029125 0.4983787835 4285539618
-0.3541763127 -0.1292729229 0.4984703064 4285538848
-0.3536743224 -0.1285366416 0.4977638125 4285473055
-0.3537387550 -0.1280069053 0.4978545010 4285407262
-0.3538029790 -0.1274769008 0.4979448617 4285341469
-0.3538669348 -0.1269465834 0.4980348945 4285602586
-0.3533634543 -0.1262134016 0.4973262846 4285602586
-0.3539941311 -0.1258851141 0.4982139170 4285471000
-0.3534899652 -0.1251530647 0.4975043237 4285405207
-0.3535528481 -0.1246224642 0.4975928366 4285536278
-0.3530478776 -0.1238923967 0.4968821406 4285536278
-0.3536778688 -0.1235604212 0.4977688193 4285536278
-0.3531722128 -0.1228315011 0.4970571399 4285536278
-0.3532340229 -0.1223006323 0.4971441329 4285667864
-0.3527275622 -0.1215737164 0.4964313507 4285733657
-0.3527887762 -0.1210431457 0.4965175092 4285864730
-0.3528497517 -0.1205122992 0.4966033101 4285930523
-0.3523421586 -0.1197879761 0.4958889484 4285930777
-0.3524025381 -0.1192574352 0.4959739149 4285996570
-0.3518941700 -0.1185351312 0.4952584207 4285996570
-0.3519539535 -0.1180049106 0.4953425527 4285996570
-0.3514448106 -0.1172846332 0.4946259856 4286192666
-0.3520727754 -0.1169436499 0.4955097735 4286061080
-0.3515629470 -0.1162245572 0.4947922230 4285995287
-0.3510526717 -0.1155069098 0.4940740764 4285929494
-0.3511109948 -0.1149770617 0.4941561818 4285995030
-0.3511691093 -0.1144469604 0.4942379594 4285995030
-0.3512269557 -0.1139165834 0.4943193793 4285995030
-0.3512845635 -0.1133859530 0.4944004416 4285995030
-0.3513419032 -0.1128550619 0.4944811463 4286125846
-0.3513990045 -0.1123239100 0.4945614934 4286060053
-0.3514558375 -0.1117924973 0.4946415126 4286060053
-0.3503730297 -0.1109001786 0.4931175411 4286060053
-0.3515687883 -0.1107289046 0.4948004782 4286191126
-0.3516248763 -0.1101967245 0.4948793948 4286191126
-0.3505407572 -0.1093088090 0.4933536053 4286256919
-0.3517363071 -0.1091316044 0.4950362146 4286322712
-0.3517916203 -0.1085986644 0.4951141179 4285994776
-0.3501359522 -0.1075400338 0.4927838743 4286192155
-0.3513312042 -0.1073577479 0.4944660664 4286454558
-0.3519560993 -0.1069983393 0.4953455925 4286454558
-0.3514398932 -0.1062918529 0.4946190715 4286454558
-0.3520644903 -0.1059302241 0.4954981208 4286520351
-0.3521182835 -0.1053957939 0.4955738485 4286651679
-0.3521718383 -0.1048611179 0.4956492186 4286520093
-0.3522251248 -0.1043262035 0.4957242310 4286913311
-0.3522781730 -0.1037910432 0.4957988560 4287308069
-0.3523309529 -0.1032556444 0.4958731532 4287373860
-0.3523834646 -0.1027200073 0.4959470630 4287110688
-0.3524357378 -0.1021841243 0.4960206151 4286585884
-0.3524877429 -0.1016480103 0.4960938096 4286256919
-0.3525394797 -0.1011116505 0.4961666465 4285864984
-0.3525909781 -0.1005750671 0.4962391257 4286457121
-0.3526422083 -0.1000382379 0.4963112175 4288034110
-0.3526931703 -0.0995011851 0.4963829517 4289678935
-0.3527438939 -0.0989638939 0.4964543283 4290537843
-0.3527943492 -0.0984263718 0.4965253174 4291656324
-0.3528445363 -0.0978886187 0.4965959787 4292122786
-0.3528944552 -0.0973506421 0.4966662228 4294096576
-0.3529441357 -0.0968124345 0.4967361391 4294955224
-0.3524214327 -0.0961179659 0.4960004687 4294956509
-0.3530426919 -0.0957353413 0.4968748391 4294952140
-0.3530915678 -0.0951964557 0.4969436526 4294557125
-0.3531401753 -0.0946573466 0.4970120788 4292839568
-0.3537609577 -0.0942705572 0.4978857636 4288431437
-0.3538091481 -0.0937301368 0.4979535639 4288622132
-0.3538570404 -0.0931894854 0.4980209768 4289016890
-0.3539046943 -0.0926486254 0.4980880320 4289474868
-0.3539520800 -0.0921075419 0.4981547296 4289672247
-0.3545719981 -0.0917144045 0.4990272224 4289214267
-0.3546189368 -0.0911720172 0.4990932643 4289082681
-0.3558115065 -0.0909222364 0.5007717013 4288950833
-0.3558580577 -0.0903776661 0.5008372068 4289214005
-0.3559043407 -0.0898328796 0.5009023547 4288818485
-0.3559503257 -0.0892878771 0.5009670854 4288292141
-0.3559960723 -0.0887426734 0.5010314584 4287571498
-0.3583348989 -0.0887653530 0.5043231249 4286847775
-0.3592920601 -0.1420370489 0.5064619184 4285217591
-0.3587985635 -0.1412800252 0.5057662725 4285543476
-0.3577403426 -0.1403030455 0.5042746067 4285346097
-0.3578101993 -0.1397700459 0.5043730736 4285868844
-0.3573153019 -0.1390171200 0.5036755204 4285737258
-0.3562553823 -0.1380467862 0.5021814108 4285867811
-0.3568888903 -0.1377333105 0.5030744076 4285867811
-0.3563927412 -0.1369836628 0.5023750663 4285671465
-0.3558961451 -0.1362354010 0.5016750097 4285671465
-0.3559641242 -0.1357039064 0.5017708540 4285605159
-0.3554667234 -0.1349575669 0.5010697246 4285473573
-0.3555341065 -0.1344263107 0.5011646748 4285473571
-0.3544705808 -0.1334690303 0.4996655285 4285473571
-0.3551027179 -0.1331508905 0.5005565882 4285473571
-0.3534725904 -0.1319860667 0.4982587695 4285473571
-0.3535386026 -0.1314570010 0.4983518124 4285604643
-0.3536043465 -0.1309276372 0.4984444976 4285604643
-0.3536698818 -0.1303979903 0.4985368550 4285604641
-0.3537351489 -0.1298680454 0.4986288548 4285473055
-0.3543662727 -0.1295447499 0.4995184839 4285406749
-0.3532987833 -0.1286011785 0.4980137646 4285340956
-0.3533632159 -0.1280712187 0.4981046021 4285275163
-0.3534274399 -0.1275409460 0.4981951118 4285275163
-0.3529248834 -0.1268068552 0.4974867105 4285602586
-0.3535551131 -0.1264795661 0.4983750582 4285536793
-0.3536185622 -0.1259484440 0.4984645247 4285536793
-0.3531149924 -0.1252160370 0.4977546930 4285471000
-0.3531778753 -0.1246851981 0.4978433251 4285471000
-0.3532405198 -0.1241540760 0.4979316294 4285405207
-0.3527358174 -0.1234242395 0.4972201884 4285339414
-0.3527978659 -0.1228934005 0.4973076284 4285339414
-0.3522923589 -0.1221655607 0.4965950847 4285471255
-0.3523538113 -0.1216350272 0.4966816902 4285471255
-0.3524150252 -0.1211042106 0.4967679977 4285537048
-0.3524759710 -0.1205731183 0.4968539178 4285602841
-0.3519690037 -0.1198484451 0.4961392581 4285602841
-0.3514615595 -0.1191252172 0.4954240024 4285602841
-0.3520894945 -0.1187866032 0.4963091016 4285602841
-0.3515813649 -0.1180645451 0.4955928922 4285602841
-0.3516409099 -0.1175338030 0.4956767857 4285864471
-0.3511320055 -0.1168137714 0.4949594438 4285798678
-0.3511909544 -0.1162833497 0.4950425327 4285732885
-0.3501129150 -0.1153780594 0.4935229123 4285732885
-0.3507396281 -0.1150352657 0.4944063127 4285863701
-0.3502291441 -0.1143193245 0.4936867654 4285929494
-0.3502869010 -0.1137895659 0.4937681854 4285995028
-0.3509131372 -0.1134434044 0.4946509302 4285995028
-0.3509705067 -0.1129122600 0.4947317839 4285995028
-0.3498897254 -0.1120165735 0.4932083189 4285995028
-0.3499464095 -0.1114866361 0.4932881892 4286060051
-0.3494336903 -0.1107760221 0.4925654829 4286060051
-0.3494897783 -0.1102464348 0.4926445186 4286125331
-0.3501148820 -0.1098952815 0.4935256839 4286125331
-0.3496011496 -0.1091864929 0.4928015172 4286191124
-0.3502259254 -0.1088331118 0.4936822355 4286256917
-0.3502810895 -0.1083016470 0.4937599897 4286452756
-0.3497663438 -0.1075946987 0.4930343628 4286584342
-0.3498208821 -0.1070635989 0.4931112826 4286650137
-0.3504450321 -0.1067057550 0.4939910471 4286715930
-0.3516390026 -0.1065185741 0.4956741035 4286650907
-0.3511230350 -0.1058123633 0.4949468076 4286716700
-0.3511767685 -0.1052785441 0.4950225353 4286520606
-0.3518004119 -0.1049145237 0.4959016144 4286586399
-0.3512834311 -0.1042101756 0.4951728880 4286585886
-0.3513363898 -0.1036756262 0.4952475131 4286783265
-0.3508186340 -0.1029734015 0.4945177138 4286979615
-0.3508709967 -0.1024392396 0.4945915043 4286913822
-0.3520642817 -0.1022362411 0.4962736070 4287110170
-0.3521162868 -0.1016998664 0.4963469207 4287110170
-0.3521680534 -0.1011632532 0.4964198470 4287307291
-0.3522195220 -0.1006264016 0.4964924157 4287636256
-0.3522707522 -0.1000893191 0.4965646267 4287111710
-0.3517507017 -0.0993906558 0.4958315790 4286585366
-0.3518013358 -0.0988539755 0.4959029257 4286322714
-0.3518517017 -0.0983170643 0.4959739149 4286783265
-0.3519017994 -0.0977799296 0.4960445464 4287376691
-0.3519516587 -0.0972425565 0.4961148202 4288824137
-0.3520012498 -0.0967049599 0.4961847365 4290799986
-0.3520505726 -0.0961671397 0.4962542653 4293234327
-0.3520996273 -0.0956290886 0.4963234067 4294944432
-0.3521484435 -0.0950908214 0.4963921905 4294946231
-0.3533404768 -0.0948593095 0.4980725050 4294020503
-0.3533889055 -0.0943188444 0.4981407821 4289480786
-0.3528651595 -0.0936264098 0.4974025190 4288162095
-0.3534849882 -0.0932372436 0.4982762039 4288556853
-0.3535326123 -0.0926961154 0.4983433783 4288884528
-0.3535799980 -0.0921547711 0.4984101653 4289081907
-0.3541993201 -0.0917614475 0.4992831647 4289279288
-0.3542462587 -0.0912187919 0.4993492961 4289279288
-0.3542928994 -0.0906759202 0.4994150698 4289279798
-0.3543393016 -0.0901328325 0.4994804561 4288819247
-0.3549579382 -0.0897342712 0.5003525019 4289147450
-0.3561490476 -0.0894775912 0.5020315051 4288950071
-0.3556221724 -0.0887882560 0.5012888312 4288293165
-0.3568131328 -0.0885267630 0.5029675961 4289411646
-0.3598210514 -0.1441625059 0.5080029368 4285547587
-0.3598926365 -0.1436266452 0.5081040263 4285218622
-0.3616539538 -0.1437622607 0.5105906725 4285545271
-0.3600350916 -0.1425539702 0.5083051324 4285347892
-0.3589788675 -0.1415726691 0.5068139434 4285542448
-0.3573583066 -0.1403729916 0.5045259595 4285410862
-0.3579919040 -0.1400603056 0.5054205060 4285934124
-0.3563699722 -0.1388667375 0.5031306744 4285868331
-0.3564391136 -0.1383345574 0.5032282472 4285933604
-0.3565080166 -0.1378020644 0.5033255816 4285867811
-0.3560124934 -0.1370520741 0.5026259422 4285802536
-0.3560808003 -0.1365198195 0.5027223825 4285802536
-0.3561488688 -0.1359872520 0.5028185248 4285670950
-0.3556521833 -0.1352397054 0.5021172762 4285473571
-0.3557196856 -0.1347073764 0.5022125244 4285407778
-0.3546574414 -0.1337487847 0.5007128716 4285341985
-0.3541593850 -0.1330054104 0.5000097156 4285473055
-0.3542258441 -0.1324747205 0.5001034737 4285473055
-0.3537269831 -0.1317332834 0.4993992150 4285275674
-0.3532276750 -0.1309932470 0.4986942708 4285209881
-0.3532931805 -0.1304633617 0.4987867773 4285209624
-0.3533584476 -0.1299331784 0.4988789260 4285078038
-0.3534234762 -0.1294026971 0.4989707172 4285012244
-0.3534882665 -0.1288719177 0.4990621805 4284946451
-0.3535528183 -0.1283408552 0.4991533160 4284946451
-0.3530513346 -0.1276050061 0.4984453022 4284946451
-0.3525494039 -0.1268705726 0.4977366626 4285273876
-0.3531789780 -0.1265431345 0.4986255467 4285208083
-0.3532424569 -0.1260117590 0.4987151623 4285208596
-0.3521732986 -0.1250779331 0.4972056746 4285208596
-0.3522360623 -0.1245476976 0.4972943068 4285208596
-0.3522985876 -0.1240171790 0.4973825812 4285142803
-0.3517943919 -0.1232878491 0.4966707230 4285142803
-0.3518563211 -0.1227576211 0.4967581928 4285208596
-0.3519180119 -0.1222271174 0.4968452752 4285274387
-0.3519794643 -0.1216963306 0.4969320297 4285340180
-0.3520406783 -0.1211652681 0.4970184565 4285340180
-0.3515346348 -0.1204396710 0.4963040352 4285405973
-0.3515952528 -0.1199089140 0.4963895977 4285275157
-0.3510884345 -0.1191853359 0.4956740439 4285275157
-0.3511484563 -0.1186548918 0.4957588017 4285209364
-0.3512082398 -0.1181241721 0.4958431721 4285143571
-0.3512677550 -0.1175931841 0.4959272146 4285536276
-0.3513270319 -0.1170619205 0.4960108995 4285536276
-0.3508183956 -0.1163421348 0.4952928126 4285601812
-0.3503093123 -0.1156238019 0.4945740700 4285601812
-0.3497998118 -0.1149069294 0.4938547313 4285601810
-0.3498578072 -0.1143771783 0.4939366281 4285601810
-0.3499155343 -0.1138471663 0.4940181375 4285732883
-0.3499730527 -0.1133169010 0.4940993190 4285798676
-0.3505985141 -0.1129694581 0.4949823916 4285929748
-0.3489506543 -0.1118911058 0.4926558733 4285929748
-0.3495756388 -0.1115431488 0.4935382605 4285929233
-0.3484950364 -0.1106516868 0.4920126200 4285929233
-0.3485510051 -0.1101227105 0.4920916557 4286060305
-0.3486067355 -0.1095934808 0.4921703339 4286126098
-0.3492309749 -0.1092419103 0.4930516481 4286191891
-0.3487174213 -0.1085342616 0.4923265874 4286257684
-0.3487723768 -0.1080042720 0.4924041927 4286519054
-0.3488270938 -0.1074740291 0.4924814701 4286519054
-0.3488815725 -0.1069435477 0.4925583601 4286650386
-0.3495050073 -0.1065864041 0.4934385419 4286716179
-0.3501283526 -0.1062272862 0.4943186045 4286847767
-0.3513210416 -0.1060380489 0.4960024655 4286847767
-0.3508053720 -0.1053321138 0.4952744246 4286782234
-0.3508588374 -0.1047977954 0.4953498840 4286848027
-0.3503423631 -0.1040939763 0.4946207404 4286716702
-0.3503952324 -0.1035600379 0.4946953654 4286914081
-0.3504478335 -0.1030258611 0.4947696328 4286848805
-0.3510701060 -0.1026580930 0.4956481755 4286848805
-0.3511222601 -0.1021225676 0.4957218170 4286980391
-0.3517442644 -0.1017517224 0.4966000021 4286980391
-0.3517960310 -0.1012148485 0.4966730475 4286849316
-0.3518474996 -0.1006777436 0.4967457354 4286915109
-0.3507580459 -0.0998157933 0.4952076375 4287112993
-0.3513792753 -0.0994413942 0.4960846901 4286784028
-0.3514299095 -0.0989044532 0.4961561561 4287374369
-0.3514802754 -0.0983672887 0.4962272644 4287637541
-0.3515303731 -0.0978298858 0.4962980151 4287570721
-0.3515802324 -0.0972922593 0.4963683784 4286978584
-0.3516297936 -0.0967544019 0.4964383841 4286912539
-0.3516791463 -0.0962163135 0.4965080023 4287636262
-0.3522991836 -0.0958333313 0.4973834157 4288952124
-0.3523480594 -0.0952939168 0.4974524081 4289807433
-0.3523966670 -0.0947542861 0.4975210726 4289412163
-0.3530162573 -0.0943671316 0.4983958006 4288030510
-0.3524931371 -0.0936743543 0.4976572394 4288423727
-0.3525409400 -0.0931340531 0.4977247417 4288752692
-0.3537314236 -0.0928936824 0.4994055033 4288751663
-0.3532073498 -0.0922020003 0.4986655712 4289014835
-0.3532544672 -0.0916601717 0.4987320900 4289540663
-0.3544446826 -0.0914130062 0.5004124641 4291053902
-0.3544914126 -0.0908689871 0.5004784465 4291253588
-0.3545378745 -0.0903247595 0.5005440116 4289345591
-0.3545840681 -0.0897803158 0.5006092787 4289147450
-0.3552019894 -0.0893795863 0.5014816523 4289608001
-0.3552477062 -0.0888338462 0.5015462041 4288686899
-0.3552931845 -0.0882878900 0.5016103983 4288950071
-0.3559105992 -0.0878830180 0.5024820566 4288307813
-0.3571001291 -0.0876165852 0.5041614771 4289492087
-0.3606322408 -0.1441478431 0.5099478364 4285414713
-0.3618292511 -0.1440578252 0.5116404295 4285412141
-0.3585237861 -0.1421785355 0.5069664121 4285214762
-0.3580315113 -0.1414207965 0.5062702894 4285409833
-0.3581017852 -0.1408859491 0.5063697100 4285409833
-0.3576086760 -0.1401301175 0.5056723952 4285736745
-0.3565518260 -0.1391558051 0.5041779876 4285736745
-0.3566210866 -0.1386225522 0.5042759180 4285736225
-0.3561266065 -0.1378708333 0.5035766959 4285736225
-0.3561952710 -0.1373377889 0.5036737919 4285539618
-0.3551362753 -0.1363715231 0.5021762848 4285473825
-0.3557680547 -0.1360551715 0.5030696392 4285473055
-0.3552719355 -0.1353072822 0.5023681521 4285275676
-0.3553394377 -0.1347747147 0.5024635792 4285078295
-0.3548425436 -0.1340287626 0.5017609596 4285078295
-0.3543451726 -0.1332841963 0.5010576844 4285143831
-0.3538473845 -0.1325410157 0.5003537536 4285078038
-0.3533491194 -0.1317992359 0.4996492267 4284880658
-0.3534149826 -0.1312685609 0.4997423589 4284814865
-0.3534806073 -0.1307375729 0.4998351336 4284814606
-0.3535459638 -0.1302063018 0.4999275804 4284748813
-0.3536110818 -0.1296747178 0.5000196695 4284748813
-0.3531109989 -0.1289365590 0.4993125200 4284748813
-0.3531755507 -0.1284052581 0.4994037747 4284748813
-0.3532398343 -0.1278736591 0.4994947016 4284683020
-0.3527385890 -0.1271380186 0.4987859130 4284879629
-0.3522369266 -0.1264037937 0.4980765283 4284813836
-0.3528657854 -0.1260750890 0.4989657402 4284748043
-0.3523634076 -0.1253419966 0.4982553720 4284813836
-0.3524262607 -0.1248106658 0.4983442724 4284813836
-0.3519231081 -0.1240795627 0.4976327717 4284813836
-0.3519853950 -0.1235485151 0.4977208674 4284945422
-0.3514814377 -0.1228194162 0.4970082343 4285077008
-0.3515431285 -0.1222886667 0.4970954657 4285142801
-0.3516045809 -0.1217576340 0.4971823692 4285142801
-0.3510994911 -0.1210311130 0.4964681566 4285077776
-0.3511603475 -0.1205003858 0.4965541959 4285077776
-0.3512209356 -0.1199693829 0.4966399074 4285143569
-0.3512813151 -0.1194381043 0.4967252612 4285143569
-0.3507747352 -0.1187147647 0.4960089624 4285077776
-0.3508345187 -0.1181837991 0.4960934818 4285077776
-0.3508940339 -0.1176525578 0.4961776435 4285273874
-0.3509533107 -0.1171210557 0.4962614477 4285339667
-0.3510123491 -0.1165892780 0.4963449240 4285339667
-0.3499367833 -0.1156822518 0.4948240519 4285405460
-0.3499951363 -0.1151516587 0.4949065447 4285536530
-0.3500532210 -0.1146208048 0.4949887097 4285536530
-0.3501110673 -0.1140896827 0.4950704873 4285601810
-0.3501686454 -0.1135582998 0.4951519072 4285601810
-0.3502259851 -0.1130266562 0.4952329993 4285667090
-0.3502830863 -0.1124947518 0.4953137338 4285667090
-0.3503399193 -0.1119625866 0.4953941107 4285798162
-0.3498286009 -0.1112495661 0.4946710765 4285798162
-0.3481808603 -0.1101785377 0.4923411012 4285929233
-0.3488046825 -0.1098279282 0.4932231903 4285929233
-0.3482920527 -0.1091193184 0.4924983382 4285995026
-0.3483472764 -0.1085893288 0.4925764203 4285995026
-0.3484022319 -0.1080590934 0.4926541448 4286060823
-0.3484569490 -0.1075286046 0.4927315116 4285995030
-0.3490799665 -0.1071724147 0.4936124682 4286060821
-0.3491342664 -0.1066405550 0.4936892390 4286258200
-0.3497570157 -0.1062812731 0.4945698380 4286520856
-0.3498108983 -0.1057480574 0.4946460128 4286520856
-0.3504334092 -0.1053856760 0.4955262840 4286848025
-0.3504868448 -0.1048511043 0.4956018627 4286848025
-0.3499709964 -0.1041469425 0.4948724210 4286978586
-0.3500238657 -0.1036127508 0.4949471653 4287175965
-0.3495072126 -0.1029107124 0.4942166507 4287175711
-0.3501287997 -0.1025436446 0.4950955808 4287175711
-0.3501808941 -0.1020087302 0.4951692224 4287176994
-0.3502327204 -0.1014735773 0.4952425063 4287242787
-0.3502843082 -0.1009381935 0.4953154325 4287046435
-0.3503356278 -0.1004025638 0.4953880012 4287112228
-0.3503866792 -0.0998667106 0.4954602122 4287241758
-0.3510072827 -0.0994921327 0.4963377714 4287439137
-0.3510579169 -0.0989549309 0.4964093566 4287767587
-0.3511082828 -0.0984175056 0.4964805841 4287636001
-0.3511583805 -0.0978798419 0.4965514243 4287636256
-0.3512082398 -0.0973419547 0.4966219068 4287965221
-0.3512578011 -0.0968038365 0.4966920316 4287767842
-0.3513071239 -0.0962654874 0.4967617691 4287570463
-0.3519265652 -0.0958823189 0.4976376891 4287044377
-0.3519754410 -0.0953426510 0.4977068007 4287044377
-0.3520240784 -0.0948027521 0.4977755547 4287241758
-0.3526430428 -0.0944154114 0.4986507893 4287570723
-0.3526912034 -0.0938741937 0.4987189174 4287701026
-0.3527390957 -0.0933327600 0.4987866580 4287964198
-0.3527867496 -0.0927911028 0.4988540113 4288358186
-0.3528341353 -0.0922492221 0.4989210069 4288029221
-0.3528812230 -0.0917071328 0.4989876151 4289144879
-0.3540702462 -0.0914598480 0.5006689429 4292434529
-0.3535458148 -0.0907689333 0.4999273419 4294016382
-0.3535921872 -0.0902253091 0.4999929368 4291582041
-0.3542096317 -0.0898263603 0.5008659959 4288950842
-0.3542555571 -0.0892814398 0.5009309649 4289477186
-0.3537297547 -0.0885931849 0.5001874566 4289213756
-0.3543466032 -0.0881909579 0.5010597110 4288884791
-0.3555349410 -0.0879281312 0.5027400255 4288302931
-0.3572949469 -0.0878020599 0.5052287579 4290210928
-0.3641062975 -0.1463383287 0.5156701207 4285676342
-0.3619308472 -0.1448944807 0.5125891566 4284952619
-0.3603163958 -0.1436811686 0.5103026628 4284884509
-0.3598254919 -0.1429191977 0.5096074343 4284752923
-0.3582094610 -0.1417136490 0.5073186755 4284882974
-0.3565925062 -0.1405128390 0.5050286651 4284817181
-0.3572248816 -0.1401999146 0.5059242845 4285078813
-0.3567319214 -0.1394450963 0.5052260756 4285013020
-0.3562384844 -0.1386916488 0.5045272708 4284947992
-0.3563074768 -0.1381578296 0.5046250224 4284882199
-0.3563762605 -0.1376237124 0.5047223568 4285143830
-0.3553185761 -0.1366561502 0.5032244325 4285012244
-0.3559498489 -0.1363388300 0.5041185021 4284946451
-0.3554544449 -0.1355897486 0.5034168959 4284814865
-0.3555220366 -0.1350560933 0.5035126209 4284683279
-0.3550258577 -0.1343089342 0.5028098822 4284683279
-0.3539655805 -0.1333508343 0.5013082027 4284748559
-0.3540320992 -0.1328188032 0.5014024377 4284748559
-0.3535345495 -0.1320758313 0.5006977916 4284683020
-0.3530365527 -0.1313342601 0.4999924898 4284617227
-0.3531021774 -0.1308030337 0.5000854135 4284617227
-0.3537316918 -0.1304796189 0.5009769797 4284617227
-0.3537969291 -0.1299469620 0.5010693669 4284748041
-0.3521687984 -0.1287947893 0.4987635016 4284813834
-0.3522332311 -0.1282640994 0.4988547564 4284813834
-0.3517328203 -0.1275283992 0.4981460869 4284879627
-0.3517966866 -0.1269979775 0.4982365072 4284813838
-0.3518602848 -0.1264672577 0.4983265698 4284813838
-0.3513587415 -0.1257341057 0.4976162910 4284748045
-0.3514217734 -0.1252036691 0.4977055192 4284748045
-0.3514845371 -0.1246729493 0.4977944195 4284813838
-0.3515470624 -0.1241419464 0.4978829622 4284813838
-0.3516093194 -0.1236106530 0.4979711771 4284945422
-0.3511059880 -0.1228812039 0.4972582757 4285011215
-0.3511676490 -0.1223502085 0.4973456562 4285011215
-0.3517946899 -0.1220150962 0.4982336760 4285011215
-0.3512903154 -0.1212873757 0.4975193441 4285077008
-0.3513512611 -0.1207555458 0.4976056516 4285142801
-0.3514119685 -0.1202234402 0.4976916313 4285208594
-0.3503404558 -0.1193055809 0.4961740971 4285208594
-0.3509665430 -0.1189665198 0.4970608056 4285208594
-0.3498940766 -0.1180524006 0.4955419004 4285208594
-0.3499534726 -0.1175217703 0.4956260622 4285208594
-0.3505790234 -0.1171801761 0.4965119958 4285208594
-0.3500715792 -0.1164597049 0.4957933128 4285273874
-0.3495637178 -0.1157406867 0.4950740337 4285339667
-0.3496220410 -0.1152098477 0.4951566458 4285405460
-0.3496801257 -0.1146787405 0.4952389300 4285405460
-0.3497379720 -0.1141473725 0.4953208268 4285470483
-0.3497955501 -0.1136157438 0.4954023957 4285404690
-0.3504199088 -0.1132671311 0.4962866604 4285470226
-0.3499099910 -0.1125516891 0.4955644608 4285470226
-0.3482652009 -0.1114746109 0.4932349920 4285535504
-0.3477542102 -0.1107638404 0.4925113022 4285535504
-0.3483775556 -0.1104141921 0.4933941364 4285535504
-0.3484333754 -0.1098835915 0.4934731722 4285535504
-0.3484889269 -0.1093527451 0.4935518503 4285666576
-0.3485442400 -0.1088216379 0.4936302006 4285666576
-0.3480315506 -0.1081139147 0.4929040670 4285862676
-0.3480862379 -0.1075831726 0.4929815531 4285862676
-0.3487086296 -0.1072268188 0.4938630462 4285863701
-0.3487629294 -0.1066947058 0.4939399362 4286061080
-0.3488169909 -0.1061623544 0.4940164685 4286062102
-0.3494389653 -0.1058017910 0.4948973656 4286127895
-0.3494925797 -0.1052680761 0.4949733019 4286586135
-0.3501143157 -0.1049044132 0.4958538413 4286651928
-0.3495990634 -0.1041999087 0.4951241016 4286846997
-0.3496519029 -0.1036654636 0.4951989651 4287110169
-0.3502731323 -0.1032984629 0.4960787892 4287372315
-0.3491881490 -0.1024290174 0.4945421517 4287372315
-0.3492401540 -0.1018947214 0.4946157932 4287438622
-0.3498607874 -0.1015252620 0.4954947531 4287504415
-0.3499123454 -0.1009896174 0.4955677986 4287242272
-0.3499636650 -0.1004537344 0.4956404865 4287308065
-0.3500147164 -0.0999176204 0.4957127869 4287111452
-0.3500655293 -0.0993812680 0.4957847297 4287045659
-0.3501160443 -0.0988446847 0.4958563149 4287176733
-0.3501663506 -0.0983078703 0.4959275126 4287176733
-0.3502163589 -0.0977708176 0.4959983528 4287372831
-0.3508356512 -0.0973916501 0.4968754351 4287438624
-0.3514548540 -0.0970105007 0.4977523983 4287634722
-0.3509345651 -0.0963146612 0.4970155060 4287568929
-0.3509836197 -0.0957758278 0.4970850050 4287437856
-0.3510324061 -0.0952367708 0.4971541166 4287832614
-0.3516508937 -0.0948512182 0.4980300069 4287044379
-0.3522692621 -0.0944636911 0.4989057779 4287439137
-0.3523174226 -0.0939222127 0.4989739954 4287571490
-0.3523653150 -0.0933805108 0.4990418553 4287045146
-0.3524129689 -0.0928385854 0.4991092980 4287834144
-0.3524603248 -0.0922964439 0.4991764128 4289873727
-0.3525074422 -0.0917540863 0.4992431104 4290329407
-0.3531247675 -0.0913591012 0.5001174212 4290921544
-0.3531714082 -0.0908154324 0.5001834631 4294147968
-0.3532177806 -0.0902715474 0.5002491474 4293490038
-0.3538345993 -0.0898724049 0.5011227727 4289083198
-0.3533097804 -0.0891831368 0.5003794432 4289280577
-0.3539262116 -0.0887818113 0.5012524724 4289279294
-0.3539716005 -0.0882362053 0.5013167262 4289213501
-0.3563006818 -0.0882561207 0.5046153665 4288233279
-0.3563458323 -0.0877065733 0.5046793222 4290404448
-0.3637140989 -0.1464110017 0.5159262419 4285148969
-0.3604899347 -0.1439768374 0.5113527775 4284554516
-0.3588764966 -0.1427668333 0.5090641379 4284488723
-0.3583856225 -0.1420067251 0.5083678365 4284487955
-0.3567705750 -0.1408044994 0.5060769320 4284422162
-0.3574024737 -0.1404905915 0.5069732666 4284552980
-0.3563481569 -0.1395145357 0.5054776669 4284552980
-0.3564174771 -0.1389799565 0.5055760741 4284487440
-0.3559243083 -0.1382266879 0.5048764944 4284421647
-0.3554306924 -0.1374748051 0.5041762590 4284683792
-0.3554990888 -0.1369409859 0.5042732954 4284552206
-0.3555672467 -0.1364068538 0.5043699741 4284617486
-0.3550724685 -0.1356574297 0.5036681294 4284617486
-0.3551400602 -0.1351235211 0.5037640333 4284617486
-0.3546444476 -0.1343760192 0.5030609965 4284551693
-0.3541484177 -0.1336299181 0.5023573637 4284617486
-0.3536519110 -0.1328852028 0.5016531348 4284617486
-0.3537182212 -0.1323526353 0.5017471313 4284617484
-0.3532209098 -0.1316098720 0.5010417104 4284617484
-0.3527231812 -0.1308684945 0.5003356934 4284683020
-0.3522249758 -0.1301285326 0.4996289909 4284748813
-0.3528536558 -0.1298046857 0.5005207658 4284748813
-0.3523547649 -0.1290658265 0.4998131096 4284748813
-0.3524192870 -0.1285340339 0.4999046326 4284748813
-0.3524835706 -0.1280019432 0.4999958277 4284814606
-0.3519835472 -0.1272656173 0.4992865324 4284749072
-0.3509188890 -0.1263276190 0.4977763295 4284749072
-0.3515464067 -0.1259994656 0.4986664653 4284749072
-0.3510451317 -0.1252665371 0.4979554117 4284749072
-0.3511078954 -0.1247355714 0.4980444610 4284749072
-0.3511704206 -0.1242043152 0.4981331229 4284814865
-0.3512327075 -0.1236727834 0.4982214570 4284880145
-0.3512947261 -0.1231409684 0.4983094633 4284880145
-0.3507916331 -0.1224117503 0.4975958169 4284814352
-0.3508530855 -0.1218802258 0.4976829588 4284880145
-0.3503491879 -0.1211530194 0.4969682097 4285077008
-0.3504100442 -0.1206218004 0.4970545173 4285142801
-0.3504706323 -0.1200902984 0.4971404672 4285142801
-0.3494002521 -0.1191728562 0.4956221282 4285142801
-0.3494601548 -0.1186425239 0.4957071245 4285142801
-0.3495198190 -0.1181119233 0.4957917631 4285142801
-0.3495792449 -0.1175810471 0.4958760440 4285142290
-0.3502041698 -0.1172393039 0.4967625141 4285208083
-0.3496973515 -0.1165184900 0.4960435629 4285273876
-0.3491900563 -0.1157991216 0.4953239858 4285339669
-0.3492484093 -0.1152680367 0.4954067469 4285405460
-0.3493064642 -0.1147366837 0.4954891205 4285339667
-0.3493643105 -0.1142050624 0.4955711663 4285404690
-0.3499882221 -0.1138574183 0.4964561760 4285338897
-0.3500456512 -0.1133244112 0.4965376258 4285338897
-0.3489698172 -0.1124261245 0.4950115681 4285338897
-0.3478933275 -0.1115310267 0.4934846163 4285338640
-0.3490830362 -0.1113622561 0.4951721728 4285272847
-0.3480057120 -0.1104701012 0.4936439991 4285207054
-0.3480615020 -0.1099392548 0.4937231541 4285207054
-0.3481170535 -0.1094081551 0.4938019514 4285272334
-0.3481723666 -0.1088767946 0.4938803911 4285272334
-0.3476602733 -0.1081687286 0.4931539893 4285795852
-0.3482822180 -0.1078133285 0.4940362275 4285861645
-0.3477694392 -0.1071064919 0.4933088422 4285666063
-0.3489584625 -0.1069227159 0.4949954748 4285863442
-0.3484450877 -0.1062162519 0.4942672551 4285798676
-0.3496340513 -0.1060276404 0.4959537983 4285930262
-0.3496877551 -0.1054928005 0.4960299730 4286323477
-0.3497412205 -0.1049577147 0.4961057901 4286520856
-0.3492265642 -0.1042528674 0.4953757524 4286913561
-0.3498473465 -0.1038868129 0.4962563515 4286979354
-0.3493320048 -0.1031832248 0.4955253601 4287044377
-0.3493843377 -0.1026480347 0.4955995977 4286978584
-0.3494364321 -0.1021126062 0.4956734776 4287044379
-0.3494882584 -0.1015769467 0.4957470000 4287241758
-0.3495398462 -0.1010410413 0.4958201349 4287242272
-0.3495911360 -0.1005049050 0.4958929420 4287308065
-0.3496421874 -0.0999685228 0.4959653616 4287044376
-0.3496930003 -0.0994319171 0.4960373938 4287110169
-0.3497435451 -0.0988950729 0.4961090982 4286979354
-0.3497938216 -0.0983579978 0.4961804152 4287045147
-0.3498438299 -0.0978206918 0.4962513447 4287044895
-0.3498935997 -0.0972831547 0.4963219464 4286979102
-0.3505120873 -0.0969026983 0.4971992970 4287241504
-0.3505614102 -0.0963638350 0.4972692430 4287241504
-0.3511796296 -0.0959803015 0.4981462061 4287570723
-0.3506592512 -0.0952854156 0.4974080622 4287175965
-0.3512771428 -0.0948996842 0.4982844889 4286781975
-0.3518948853 -0.0945119709 0.4991607666 4287176733
-0.3519430459 -0.0939702243 0.4992291033 4287569693
-0.3519909382 -0.0934282616 0.4992970228 4287372314
