VERSION 0.7
FIELDS x y z rgba
SIZE 4 4 4 4
TYPE F F F U
COUNT 1 1 1 1
WIDTH 920
HEIGHT 1
VIEWPOINT 0.0 0.0 0.0 1.0 0.0 0.0 0.0
POINTS 920
DATA ascii
-0.2642828226 -0.1157634184 0.5589225292 4284821560
-0.2643307149 -0.1151632890 0.5590238571 4284953146
-0.2643783987 -0.1145628318 0.5591247082 4285216318
-0.2644258440 -0.1139620468 0.5592250228 4285676869
-0.2648935318 -0.1135411710 0.5602141023 4286005834
-0.2657816410 -0.1132973209 0.5620923638 4286466898
-0.2658286095 -0.1126927063 0.5621916652 4287059035
-0.2662960291 -0.1122651249 0.5631802082 4287257443
-0.2667633593 -0.1118353158 0.5641685724 4287389029
-0.2672306001 -0.1114032641 0.5651566982 4287258983
-0.2668559253 -0.1106200218 0.5643643737 4287587948
-0.2677438259 -0.1103589460 0.5662420988 4287654771
-0.2677896619 -0.1097486019 0.5663390756 4287852150
-0.2682563961 -0.1093095392 0.5673261285 4287853438
-0.2687230110 -0.1088682413 0.5683130026 4287985024
-0.2691895664 -0.1084247157 0.5692996383 4288052106
-0.2696559727 -0.1079789549 0.5702860355 4288249485
-0.2705437243 -0.1076987237 0.5721635222 4288117899
-0.2710100114 -0.1072475389 0.5731496811 4287920520
-0.2718977630 -0.1069599465 0.5750271082 4288116872
-0.2710990608 -0.1060087383 0.5733379722 4288248458
-0.2724082768 -0.1058805808 0.5761067867 4287854727
-0.2732959092 -0.1055834070 0.5779839754 4288249485
-0.2737617195 -0.1051200926 0.5789691806 4288250255
-0.2750712037 -0.1049765646 0.5817385316 4288052876
-0.2772247791 -0.1051470265 0.5862930417 4287857039
-0.2781126797 -0.1048302948 0.5881708264 4287988625
-0.2839911282 -0.1010402665 0.6006029248 4294048248
-0.2744796574 -0.1871006042 0.5818541646 4294967295
-0.2745535076 -0.1865042895 0.5820107460 4287006350
-0.2746271789 -0.1859074980 0.5821669102 4286545542
-0.2747006416 -0.1853102297 0.5823226571 4286019198
-0.2747738957 -0.1847124845 0.5824779868 4285558645
-0.2748469710 -0.1841142625 0.5826328993 4285361266
-0.2745095193 -0.1832416505 0.5819175243 4285229167
-0.2745820880 -0.1826433688 0.5820713639 4285097581
-0.2746544480 -0.1820446104 0.5822247863 4284966250
-0.2751372755 -0.1817166060 0.5832482576 4284966250
-0.2752093673 -0.1811160147 0.5834010839 4284900457
-0.2752812207 -0.1805149466 0.5835534334 4284768871
-0.2749419212 -0.1796448678 0.5828341842 4285096037
-0.2750132978 -0.1790437698 0.5829854608 4284964451
-0.2750844657 -0.1784421802 0.5831362605 4284767072
-0.2751554251 -0.1778401434 0.5832867026 4284701279
-0.2748147547 -0.1769727021 0.5825645924 4284767842
-0.2744736969 -0.1761066020 0.5818415880 4284044119
-0.2737206221 -0.1749787182 0.5802451968 4282595901
-0.2733786404 -0.1741162091 0.5795202255 4281806385
-0.2730362117 -0.1732550412 0.5787943602 4282332470
-0.2722814679 -0.1721348166 0.5771943927 4282727228
-0.2715261281 -0.1710177511 0.5755931735 4283252289
-0.2707701325 -0.1699038595 0.5739905834 4283515461
-0.2696013153 -0.1685354412 0.5715128779 4283974985
-0.2684316337 -0.1671720296 0.5690333843 4284106571
-0.2676736116 -0.1660694927 0.5674264431 4284040006
-0.2673274875 -0.1652251184 0.5666927695 4283579455
-0.2665683329 -0.1641280651 0.5650834441 4283710271
-0.2658085823 -0.1630342156 0.5634728670 4283512892
-0.2650481761 -0.1619435549 0.5618609786 4283380279
-0.2647001445 -0.1611074656 0.5611231923 4283117107
-0.2643516958 -0.1602727622 0.5603845119 4283050801
-0.2640028596 -0.1594394445 0.5596449971 4282919215
-0.2636536062 -0.1586075425 0.5589046478 4282787116
-0.2633039355 -0.1577770412 0.5581634641 4282655530
-0.2637808025 -0.1574414968 0.5591742992 4282786089
-0.2634305358 -0.1566119790 0.5584318042 4282720296
-0.2630798519 -0.1557838619 0.5576884151 4282719013
-0.2631425560 -0.1552011967 0.5578212738 4282719013
-0.2627911568 -0.1543750167 0.5570764542 4282915365
-0.2624394000 -0.1535502374 0.5563307405 4282915365
-0.2620872259 -0.1527269036 0.5555841923 4282981158
-0.2617346644 -0.1519049704 0.5548367500 4283112744
-0.2617959082 -0.1513239294 0.5549666286 4283048491
-0.2614426315 -0.1505039483 0.5542177558 4283377456
-0.2610889673 -0.1496853977 0.5534679890 4283574834
-0.2611494064 -0.1491049677 0.5535961390 4283640627
-0.2607950270 -0.1482883841 0.5528449416 4283771956
-0.2608549595 -0.1477080733 0.5529719591 4283837749
-0.2613295019 -0.1473612785 0.5539779067 4283903542
-0.2609742284 -0.1465462595 0.5532248020 4283903542
-0.2610335350 -0.1459647566 0.5533505082 4283837236
-0.2610926330 -0.1453828514 0.5534757972 4283771443
-0.2611515224 -0.1448005587 0.5536006689 4283771443
-0.2607949376 -0.1439885795 0.5528447032 4283705650
-0.2608533204 -0.1434064358 0.5529685020 4283836720
-0.2609114945 -0.1428238899 0.5530918241 4283770927
-0.2605538964 -0.1420144588 0.5523337722 4283770927
-0.2606115341 -0.1414320618 0.5524559617 4283705134
-0.2606689930 -0.1408492774 0.5525777340 4283574062
-0.2607262135 -0.1402661204 0.5526990891 4283574062
-0.2603673041 -0.1394597888 0.5519382358 4283442989
-0.2604240477 -0.1388767958 0.5520584583 4283377196
-0.2604805231 -0.1382934153 0.5521782637 4283377196
-0.2605368197 -0.1377096623 0.5522975922 4283311403
-0.2605929077 -0.1371255219 0.5524164438 4283310890
-0.2606487572 -0.1365410089 0.5525348783 4283376683
-0.2607043982 -0.1359561235 0.5526528358 4283376167
-0.2603432834 -0.1351546198 0.5518873334 4283376167
-0.2603984177 -0.1345699281 0.5520041585 4283113765
-0.2604533136 -0.1339848489 0.5521205664 4283047972
-0.2605080307 -0.1333994120 0.5522364974 4283179558
-0.2605625093 -0.1328136027 0.5523520112 4283245351
-0.2606167495 -0.1322274357 0.5524670482 4283507753
-0.2606708109 -0.1316408962 0.5525816083 4283705132
-0.2607246339 -0.1310539991 0.5526956916 4284032810
-0.2607782185 -0.1304667294 0.5528092980 4284164396
-0.2608316243 -0.1298791021 0.5529224873 4284098348
-0.2608847916 -0.1292911172 0.5530351996 4284098348
-0.2605202496 -0.1284968406 0.5522624254 4284098348
-0.2605728805 -0.1279090792 0.5523740053 4284098348
-0.2606253028 -0.1273209602 0.5524851084 4284098348
-0.2606775165 -0.1267324984 0.5525957942 4284164141
-0.2607294917 -0.1261436641 0.5527060032 4284164141
-0.2611991763 -0.1257556975 0.5537016392 4284295727
-0.2612507939 -0.1251652390 0.5538110733 4284427315
-0.2613021731 -0.1245744154 0.5539200306 4284427315
-0.2613533735 -0.1239832491 0.5540285110 4284427315
-0.2614043057 -0.1233917326 0.5541365147 4284558901
-0.2618733644 -0.1229963526 0.5551308393 4284624692
-0.2619239390 -0.1224031970 0.5552380681 4284558899
-0.2619743049 -0.1218097061 0.5553448200 4284689972
-0.2620244324 -0.1212158725 0.5554510951 4284755765
-0.2624929845 -0.1208143830 0.5564443469 4284886836
-0.2625427544 -0.1202189177 0.5565498471 4285084215
-0.2625922859 -0.1196231097 0.5566548109 4285282364
-0.2626415789 -0.1190269738 0.5567593575 4285348157
-0.2631096244 -0.1186193824 0.5577515364 4285282622
-0.2631585598 -0.1180216223 0.5578552485 4285480001
-0.2632072568 -0.1174235344 0.5579584837 4285546309
-0.2636749148 -0.1170111373 0.5589498281 4285677895
-0.2637232244 -0.1164114326 0.5590522885 4286006860
-0.2637713253 -0.1158113927 0.5591542125 4286204239
-0.2638191581 -0.1152110323 0.5592556596 4286533204
-0.2638667822 -0.1146103442 0.5593565702 4286993755
-0.2647533417 -0.1143718362 0.5612359047 4286994269
-0.2648006380 -0.1137685925 0.5613362193 4287257441
-0.2652674317 -0.1133443639 0.5623257160 4286866284
-0.2657341659 -0.1129179001 0.5633150935 4287392628
-0.2657808959 -0.1123117730 0.5634142160 4287918204
-0.2662473619 -0.1118817925 0.5644030571 4288049790
-0.2667137384 -0.1114495844 0.5653917193 4287721341
-0.2671800256 -0.1110151336 0.5663801432 4287523962
-0.2676462233 -0.1105784550 0.5673683882 4287458680
-0.2685325742 -0.1103121713 0.5692473054 4287392887
-0.2681580186 -0.1095267162 0.5684533119 4287195510
-0.2682034671 -0.1089135855 0.5685496926 4287129717
-0.2686691284 -0.1084698886 0.5695368052 4287129719
-0.2691347003 -0.1080239564 0.5705237389 4287392891
-0.2696001828 -0.1075757965 0.5715104342 4287590528
-0.2700655460 -0.1071254015 0.5724969506 4287261563
-0.2713722587 -0.1070045680 0.5752670169 4287064184
-0.2718375325 -0.1065477803 0.5762533545 4287458942
-0.2727235854 -0.1062527224 0.5781316161 4287263621
-0.2740306258 -0.1061165109 0.5809023380 4287329414
-0.2744957805 -0.1056501269 0.5818883777 4287396490
-0.2758029997 -0.1055036560 0.5846594572 4287462283
-0.2758469284 -0.1048707590 0.5847526193 4287661200
-0.2775754333 -0.1048741266 0.5884167552 4290029748
-0.2830210626 -0.1009322107 0.5999606252 4294179835
-0.2731973529 -0.1860210299 0.5805026889 4286480007
-0.2732707262 -0.1854258329 0.5806585550 4286150784
-0.2733438909 -0.1848301440 0.5808140039 4285690233
-0.2734168470 -0.1842339933 0.5809690952 4285229680
-0.2734896243 -0.1836373508 0.5811237097 4285163887
-0.2735621929 -0.1830402464 0.5812779069 4285163374
-0.2736345530 -0.1824426502 0.5814316869 4285097581
-0.2737067342 -0.1818445921 0.5815850496 4285032043
-0.2737787068 -0.1812460572 0.5817379951 4284966250
-0.2738505006 -0.1806470603 0.5818905234 4284900457
-0.2739220560 -0.1800475866 0.5820425749 4284834664
-0.2739934325 -0.1794476360 0.5821942687 4284965221
-0.2740646005 -0.1788472235 0.5823454857 4284767842
-0.2741355896 -0.1782463491 0.5824962854 4284702049
-0.2742063403 -0.1776449978 0.5826466680 4284702049
-0.2742769122 -0.1770431846 0.5827966332 4284833635
-0.2735258937 -0.1759126484 0.5812007785 4284636256
-0.2740066350 -0.1755749434 0.5822222829 4283583566
-0.2728437483 -0.1741856635 0.5797513723 4282465085
-0.2725020945 -0.1733241826 0.5790253282 4282003762
-0.2717488706 -0.1722035408 0.5774248838 4282003762
-0.2709950507 -0.1710860729 0.5758231282 4282199601
-0.2702405751 -0.1699717641 0.5742200017 4282331187
-0.2694855332 -0.1688606441 0.5726156235 4283053883
-0.2687298357 -0.1677526981 0.5710098743 4283514434
-0.2679735422 -0.1666479409 0.5694028735 4283711041
-0.2672166228 -0.1655463725 0.5677945614 4283711041
-0.2664591074 -0.1644479930 0.5661849380 4283841857
-0.2657009661 -0.1633528322 0.5645740628 4283710271
-0.2649422288 -0.1622608602 0.5629618168 4283512379
-0.2641828954 -0.1611721069 0.5613483191 4283249207
-0.2638351917 -0.1603371054 0.5606095195 4283182900
-0.2634870708 -0.1595034897 0.5598698258 4282985521
-0.2635509968 -0.1589199752 0.5600056648 4282853422
-0.2632021606 -0.1580882668 0.5592644215 4282656043
-0.2632655799 -0.1575048119 0.5593991876 4282852395
-0.2629160583 -0.1566749960 0.5586565137 4282720809
-0.2625661194 -0.1558465958 0.5579129457 4282785319
-0.2626287341 -0.1552637219 0.5580459833 4282653733
-0.2622781098 -0.1544372290 0.5573009253 4282719013
-0.2623401880 -0.1538544446 0.5574328899 4282784806
-0.2611624002 -0.1525471359 0.5549302697 4282916392
-0.2616371214 -0.1522067338 0.5559389591 4283113771
-0.2612849772 -0.1513850242 0.5551907420 4282983467
-0.2609324455 -0.1505647451 0.5544416308 4283180846
-0.2609931231 -0.1499835849 0.5545705557 4283443248
-0.2606398761 -0.1491652578 0.5538199544 4283574834
-0.2607000470 -0.1485842168 0.5539478660 4283772213
-0.2607600093 -0.1480027884 0.5540752411 4283903799
-0.2608197927 -0.1474209428 0.5542021990 4284100921
-0.2608793378 -0.1468386948 0.5543287396 4284166714
-0.2605244815 -0.1460239142 0.5535747409 4284100408
-0.2605835199 -0.1454418004 0.5537002087 4284034615
-0.2606423497 -0.1448592991 0.5538251996 4284165685
-0.2607009709 -0.1442763954 0.5539497733 4284099892
-0.2607593536 -0.1436931044 0.5540738702 4284099379
-0.2604029179 -0.1428819001 0.5533164740 4284099379
-0.2604607940 -0.1422987580 0.5534394383 4284230965
-0.2601036429 -0.1414895654 0.5526805520 4284230965
-0.2601610124 -0.1409065723 0.5528025031 4284165685
-0.2602182031 -0.1403231919 0.5529239774 4284165685
-0.2602751553 -0.1397394389 0.5530449748 4284165685
-0.2603318989 -0.1391552836 0.5531655550 4284099892
-0.2599731386 -0.1383497566 0.5524032116 4284034099
-0.2600293458 -0.1377657950 0.5525227189 4284034099
-0.2600853741 -0.1371814460 0.5526416898 4284099379
-0.2601411641 -0.1365967095 0.5527602434 4284165172
-0.2601967454 -0.1360116154 0.5528783798 4284099377
-0.2602521181 -0.1354261339 0.5529960394 4284033584
-0.2603072524 -0.1348402947 0.5531132221 4283836718
-0.2603622079 -0.1342540681 0.5532299280 4283770925
-0.2600009143 -0.1334539503 0.5524622798 4283901998
-0.2600553334 -0.1328679323 0.5525779128 4284033584
-0.2601095438 -0.1322815418 0.5526930690 4284165170
-0.2601635158 -0.1316947788 0.5528077483 4284296756
-0.2602172792 -0.1311076581 0.5529220104 4284361775
-0.2602708340 -0.1305201799 0.5530357957 4284493361
-0.2603241503 -0.1299323291 0.5531491041 4284493106
-0.2603772581 -0.1293441206 0.5532619357 4284427313
-0.2604301572 -0.1287555546 0.5533743501 4284493106
-0.2600660324 -0.1279615760 0.5526006818 4284558899
-0.2601183951 -0.1273732334 0.5527119040 4284624947
-0.2605874836 -0.1269877255 0.5537086725 4284624947
-0.2606394887 -0.1263977289 0.5538191795 4284558899
-0.2606912851 -0.1258073896 0.5539292097 4284690485
-0.2607428432 -0.1252166927 0.5540387630 4284756278
-0.2607941926 -0.1246256530 0.5541478395 4284690485
-0.2608453035 -0.1240342632 0.5542564392 4284690998
-0.2608962059 -0.1234425232 0.5543646216 4284822584
-0.2613643706 -0.1230470017 0.5553594232 4284954170
-0.2614149153 -0.1224536225 0.5554667711 4284954170
-0.2614652216 -0.1218599007 0.5555737019 4284954686
-0.2615152895 -0.1212658435 0.5556800961 4285086272
-0.2619829774 -0.1208642051 0.5566738248 4285152065
-0.2620326877 -0.1202685162 0.5567794442 4285283651
-0.2625001371 -0.1198633537 0.5577727556 4285546823
-0.2625494897 -0.1192660332 0.5578776002 4285744202
-0.2630167305 -0.1188573390 0.5588704348 4285876303
-0.2626474500 -0.1180703938 0.5580857396 4286139475
-0.2631143928 -0.1176591292 0.5590779185 4286271577
-0.2631628811 -0.1170595214 0.5591809750 4286403163
-0.2632111609 -0.1164595857 0.5592834949 4286600542
-0.2636777163 -0.1160435155 0.5602748990 4286732128
-0.2641442120 -0.1156252101 0.5612661242 4286930020
-0.2641919255 -0.1150223762 0.5613675117 4287324778
-0.2642394006 -0.1144192219 0.5614684224 4287522157
-0.2647055089 -0.1139961109 0.5624588132 4287719536
-0.2647525966 -0.1133913472 0.5625588298 4287720823
-0.2652184367 -0.1129647270 0.5635486841 4287523444
-0.2656841874 -0.1125358641 0.5645383596 4287194481
-0.2657307386 -0.1119282246 0.5646372437 4287062895
-0.2661962509 -0.1114958525 0.5656263828 4287062897
-0.2662423849 -0.1108866110 0.5657244325 4287128690
-0.2667076290 -0.1104507297 0.5667130351 4286998131
-0.2671728134 -0.1100126058 0.5677014589 4286866545
-0.2680573761 -0.1097439900 0.5695809722 4286603373
-0.2685224116 -0.1093004420 0.5705691576 4286932338
-0.2685677111 -0.1086848304 0.5706654191 4287129719
-0.2698718905 -0.1085754856 0.5734366179 4287261305
-0.2690773606 -0.1076205745 0.5717483759 4286998391
-0.2703815699 -0.1075038686 0.5745195746 4286472047
-0.2708460987 -0.1070491374 0.5755066276 4286341231
-0.2708905339 -0.1064271703 0.5756010413 4287196540
-0.2713547945 -0.1059689373 0.5765874982 4287000962
-0.2726591825 -0.1058346108 0.5793591142 4287461513
-0.2735435367 -0.1055320874 0.5812382698 4287330954
-0.2744279206 -0.1052253917 0.5831174254 4287659919
-0.2753123045 -0.1049145237 0.5849966407 4289174952
-0.2815887034 -0.1013231874 0.5983330011 4294311164
-0.2719168365 -0.1849436313 0.5791485906 4294967295
-0.2719897032 -0.1843495369 0.5793037415 4285427061
-0.2720623612 -0.1837549657 0.5794585347 4285098094
-0.2721348405 -0.1831599325 0.5796128511 4285098094
-0.2722071111 -0.1825644076 0.5797668099 4285163374
-0.2718703449 -0.1816951782 0.5790495276 4285163374
-0.2723510563 -0.1813719422 0.5800733566 4285032043
-0.2724227309 -0.1807750016 0.5802260637 4284966250
-0.2724941969 -0.1801775843 0.5803782940 4284900457
-0.2725654840 -0.1795797050 0.5805301070 4284900457
-0.2726365626 -0.1789813638 0.5806815028 4284899685
-0.2727074325 -0.1783825457 0.5808324218 4284636513
-0.2727780938 -0.1777832657 0.5809829831 4284702306
-0.2728485763 -0.1771835089 0.5811330676 4284702306
-0.2729188502 -0.1765833050 0.5812827349 4284570720
-0.2729889154 -0.1759826243 0.5814319849 4284833892
-0.2722387910 -0.1748548150 0.5798343420 4284373595
-0.2723082602 -0.1742550284 0.5799822211 4282991942
-0.2715570927 -0.1731317192 0.5783823729 4282990657
-0.2712156177 -0.1722721905 0.5776550770 4282398520
-0.2696425021 -0.1706348807 0.5743045211 4282002992
-0.2705314457 -0.1705572307 0.5761978626 4281739820
-0.2689568698 -0.1689280570 0.5728442073 4282395953
-0.2682027221 -0.1678197086 0.5712379813 4282856504
-0.2674479783 -0.1667145342 0.5696304440 4282987831
-0.2666926086 -0.1656125635 0.5680215955 4283316796
-0.2659366131 -0.1645137817 0.5664114356 4283710271
-0.2655911446 -0.1636715680 0.5656756759 4283578685
-0.2648340464 -0.1625782847 0.5640631318 4283578172
-0.2640763521 -0.1614882201 0.5624493361 4283512379
-0.2637294829 -0.1606519967 0.5617105365 4283380279
-0.2633821964 -0.1598171741 0.5609708428 4283248693
-0.2630344927 -0.1589837372 0.5602303147 4283051314
-0.2626864314 -0.1581517160 0.5594889522 4282788142
-0.2623379230 -0.1573211104 0.5587466955 4282787629
-0.2624009550 -0.1567379534 0.5588809848 4282721836
-0.2620517612 -0.1559092402 0.5581372380 4282589737
-0.2621143162 -0.1553261727 0.5582704544 4282392358
-0.2617644072 -0.1544993669 0.5575252175 4282457637
-0.2618264258 -0.1539163888 0.5576573014 4282523430
-0.2610634267 -0.1528500468 0.5560321808 4282655016
-0.2615373433 -0.1525086164 0.5570415854 4282720809
-0.2607734501 -0.1514460593 0.5554145575 4282983981
-0.2604216337 -0.1506254673 0.5546652675 4283049774
-0.2604822516 -0.1500441134 0.5547943711 4283180847
-0.2605426610 -0.1494623423 0.5549229980 4283378226
-0.2601898611 -0.1486442387 0.5541715622 4283772213
-0.2602497339 -0.1480625868 0.5542991161 4283903799
-0.2603094280 -0.1474805325 0.5544262528 4284100921
-0.2603689134 -0.1468980908 0.5545529723 4284166714
-0.2604281902 -0.1463152468 0.5546792150 4284297785
-0.2600737810 -0.1455006748 0.5539243221 4284166199
-0.2601325214 -0.1449179649 0.5540494919 4284297271
-0.2601910830 -0.1443348527 0.5541741848 4284363064
-0.2602494359 -0.1437513530 0.5542984605 4284362549
-0.2598937154 -0.1429398358 0.5535408258 4284428342
-0.2599515319 -0.1423564851 0.5536640286 4284691000
-0.2600091696 -0.1417727470 0.5537866950 4284691000
-0.2596524358 -0.1409637928 0.5530269742 4284559160
-0.2597095370 -0.1403802037 0.5531485677 4284559160
-0.2597664297 -0.1397962272 0.5532697439 4284559930
-0.2598231137 -0.1392118782 0.5533904433 4284625723
-0.2594650984 -0.1384060383 0.5526279211 4284756539
-0.2595212460 -0.1378218532 0.5527475476 4284822332
-0.2595772147 -0.1372372955 0.5528666973 4284888125
-0.2596329451 -0.1366523504 0.5529854298 4284822332
-0.2596884668 -0.1360670328 0.5531036854 4284756793
-0.2597437501 -0.1354813427 0.5532214642 4284691000
-0.2597988546 -0.1348952800 0.5533387661 4284625207
-0.2598537207 -0.1343088448 0.5534556508 4284559414
-0.2599083781 -0.1337220371 0.5535720587 4284625207
-0.2595475614 -0.1329221874 0.5528035760 4284691000
-0.2596016824 -0.1323355734 0.5529188514 4284691000
-0.2596555948 -0.1317486018 0.5530337095 4284756793
-0.2597092986 -0.1311612725 0.5531480908 4284756278
-0.2597627938 -0.1305735707 0.5532619953 4284756278
-0.2598160505 -0.1299854964 0.5533754230 4284690998
-0.2598690987 -0.1293970793 0.5534884334 4284756791
-0.2599219382 -0.1288082898 0.5536009669 4284822584
-0.2599745393 -0.1282191426 0.5537130237 4284888377
-0.2600269318 -0.1276296377 0.5538246036 4284888377
-0.2600791156 -0.1270397902 0.5539357066 4284954170
-0.2601310611 -0.1264495850 0.5540463328 4284822584
-0.2601827681 -0.1258590072 0.5541564822 4285019963
-0.2602342665 -0.1252681017 0.5542662144 4285085758
-0.2602855563 -0.1246768311 0.5543754101 4285019965
-0.2603366077 -0.1240852177 0.5544841886 4285085758
-0.2608040869 -0.1236908436 0.5554798245 4285217344
-0.2608547807 -0.1230975911 0.5555877686 4285217858
-0.2609052360 -0.1225039884 0.5556952357 4285349444
-0.2609554827 -0.1219100505 0.5558022857 4285219402
-0.2614224553 -0.1215095520 0.5567968488 4285285195
-0.2614723146 -0.1209139749 0.5569030643 4285548367
-0.2619390786 -0.1205099523 0.5578972101 4285811539
-0.2619885802 -0.1199127436 0.5580025911 4286074456
-0.2620378435 -0.1193151996 0.5581075549 4286403421
-0.2625042200 -0.1189063638 0.5591008663 4286667108
-0.2625531256 -0.1183071882 0.5592050552 4286798694
-0.2626017928 -0.1177076846 0.5593087077 4286799208
-0.2626502216 -0.1171078533 0.5594118237 4286667622
-0.2626984119 -0.1165076867 0.5595145226 4286601829
-0.2631641328 -0.1160914600 0.5605064034 4286601829
-0.2636297345 -0.1156729981 0.5614981055 4286601831
-0.2636774182 -0.1150699332 0.5615996122 4286733417
-0.2641427815 -0.1146479473 0.5625908375 4286733932
-0.2641900480 -0.1140432805 0.5626915097 4286602346
-0.2646552026 -0.1136177778 0.5636821985 4286601829
-0.2647020817 -0.1130115017 0.5637820363 4286536036
-0.2651669681 -0.1125824749 0.5647722483 4286536038
-0.2656317651 -0.1121512204 0.5657622218 4286799210
-0.2656781077 -0.1115420610 0.5658608675 4286865518
-0.2661426663 -0.1111072898 0.5668503046 4286799725
-0.2661885917 -0.1104965433 0.5669481158 4286734446
-0.2666528821 -0.1100582555 0.5679370165 4286734446
-0.2671170831 -0.1096177325 0.5689256787 4286800752
-0.2675811648 -0.1091749668 0.5699141622 4286866545
-0.2680451870 -0.1087299734 0.5709024072 4286801011
-0.2685090899 -0.1082827374 0.5718904734 4286866804
-0.2689728737 -0.1078332737 0.5728783011 4286866805
-0.2694365978 -0.1073815674 0.5738659501 4286406254
-0.2703192830 -0.1070936620 0.5757459998 4286407024
-0.2707828283 -0.1066365242 0.5767332911 4287196540
-0.2716655433 -0.1063412502 0.5786133409 4287265163
-0.2725482583 -0.1060418114 0.5804933906 4287725714
-0.2730116248 -0.1055760309 0.5814803243 4287792788
-0.2738943100 -0.1052692235 0.5833603740 4289042855
-0.2802013755 -0.1010624915 0.5967935920 4294441979
-0.2706381083 -0.1838684082 0.5777918696 4285361011
-0.2707104683 -0.1832754314 0.5779463053 4285098094
-0.2707826197 -0.1826819777 0.5781003833 4285163887
-0.2708545923 -0.1820880473 0.5782540441 4285294960
-0.2705183327 -0.1812203079 0.5775361657 4285229167
-0.2709979415 -0.1808987707 0.5785600543 4285032043
-0.2710693181 -0.1803034246 0.5787124634 4284900457
-0.2711404860 -0.1797076166 0.5788643956 4284834664
-0.2712114751 -0.1791113317 0.5790159702 4284834664
-0.2712822556 -0.1785145700 0.5791670680 4284768099
-0.2713528275 -0.1779173613 0.5793177485 4284570720
-0.2714232206 -0.1773196757 0.5794680119 4284505697
-0.2714934051 -0.1767215282 0.5796178579 4284505697
-0.2715633810 -0.1761229187 0.5797672272 4284308318
-0.2716331482 -0.1755238473 0.5799162388 4284571490
-0.2712935507 -0.1746608615 0.5791911483 4284768353
-0.2713628113 -0.1740617752 0.5793390274 4283781458
-0.2710224688 -0.1732005924 0.5786124468 4283451210
-0.2706817389 -0.1723407656 0.5778849721 4282727487
-0.2691117525 -0.1707028300 0.5745332241 4282397750
-0.2695893049 -0.1703662574 0.5755527020 4281937199
-0.2684275806 -0.1689953953 0.5730725527 4282264367
-0.2680849135 -0.1681437343 0.5723409653 4282395953
-0.2673317790 -0.1670372486 0.5707331300 4282264108
-0.2665780485 -0.1659339666 0.5691239238 4282527280
-0.2658237219 -0.1648338735 0.5675134659 4283183416
-0.2650687695 -0.1637369692 0.5659016967 4283183416
-0.2643131912 -0.1626432836 0.5642886758 4283249207
-0.2639675736 -0.1618044525 0.5635507703 4283315000
-0.2632108927 -0.1607162952 0.5619353056 4283446072
-0.2628643513 -0.1598811597 0.5611954927 4283380279
-0.2629282176 -0.1592963338 0.5613318086 4283248693
-0.2621700466 -0.1582151055 0.5597131848 4283117107
-0.2626443505 -0.1578783244 0.5607257485 4283051314
-0.2618852556 -0.1568008363 0.5591052175 4282985521
-0.2615368068 -0.1559718102 0.5583612323 4282853422
-0.2615992725 -0.1553885341 0.5584946275 4282656043
-0.2612501085 -0.1545614451 0.5577491522 4282524457
-0.2613120675 -0.1539782435 0.5578814745 4282458664
-0.2609621882 -0.1531530768 0.5571345091 4282524457
-0.2606119215 -0.1523293257 0.5563867092 4282524457
-0.2602612674 -0.1515070051 0.5556380749 4282787629
-0.2599102259 -0.1506861299 0.5548886061 4282787629
-0.2599707544 -0.1501045674 0.5550178885 4282918702
-0.2600310743 -0.1495225877 0.5551466942 4283116081
-0.2600912154 -0.1489402205 0.5552750230 4283444532
-0.2597388625 -0.1481223255 0.5545227528 4283576118
-0.2597984672 -0.1475400627 0.5546500683 4283707190
-0.2598578930 -0.1469574124 0.5547769070 4283707190
-0.2599170804 -0.1463743448 0.5549032688 4284035126
-0.2599760890 -0.1457909048 0.5550292134 4283969333
-0.2596220970 -0.1449765563 0.5542735457 4284100406
-0.2596805990 -0.1443932354 0.5543984175 4284166199
-0.2597388625 -0.1438095272 0.5545228124 4284362551
-0.2593838871 -0.1429977268 0.5537649989 4284428344
-0.2594416440 -0.1424141526 0.5538882613 4284559928
-0.2594992220 -0.1418302059 0.5540111661 4284559928
-0.2595565319 -0.1412458569 0.5541335940 4284888125
-0.2592002749 -0.1404371411 0.5533729792 4284888125
-0.2592571080 -0.1398529559 0.5534942746 4284953918
-0.2593137026 -0.1392683983 0.5536151528 4284953918
-0.2593701184 -0.1386834383 0.5537355542 4285019711
-0.2590125501 -0.1378778517 0.5529721379 4285085504
-0.2590684295 -0.1372930855 0.5530914664 4285019711
-0.2591241002 -0.1367079318 0.5532103181 4284888125
-0.2591795623 -0.1361223906 0.5533286929 4284888125
-0.2592347860 -0.1355364919 0.5534466505 4284888125
-0.2592898309 -0.1349502057 0.5535641313 4284822586
-0.2597589195 -0.1345781982 0.5545656085 4284822586
-0.2593992352 -0.1337765306 0.5537976623 4284822586
-0.2594535947 -0.1331891418 0.5539137721 4284822586
-0.2595077753 -0.1326013803 0.5540294051 4284756793
-0.2595617175 -0.1320132464 0.5541445613 4284756793
-0.2596154213 -0.1314247549 0.5542593002 4284953659
-0.2596689463 -0.1308358908 0.5543735027 4284953659
-0.2597222328 -0.1302466691 0.5544872880 4284888379
-0.2597753108 -0.1296570897 0.5546005964 4284954172
-0.2598281503 -0.1290671378 0.5547134280 4285019965
-0.2594656348 -0.1282715946 0.5539395213 4285085758
-0.2595179677 -0.1276818812 0.5540512204 4285019965
-0.2599853873 -0.1272951514 0.5550491214 4285019965
-0.2600373626 -0.1267037690 0.5551601052 4284888125
-0.2600891292 -0.1261120439 0.5552705526 4285085504
-0.2601406574 -0.1255199611 0.5553805828 4285086274
-0.2601919472 -0.1249275208 0.5554901361 4285020481
-0.2602430284 -0.1243347377 0.5555991530 4285086274
-0.2602939010 -0.1237416044 0.5557077527 4285217860
-0.2607604265 -0.1233448461 0.5567037463 4285481032
-0.2608109117 -0.1227500737 0.5568115115 4285678411
-0.2608611882 -0.1221549585 0.5569188595 4285613905
-0.2609112263 -0.1215594932 0.5570256710 4285745491
-0.2613772452 -0.1211566180 0.5580205917 4286008663
-0.2614269257 -0.1205595210 0.5581266880 4286271835
-0.2618927360 -0.1201531067 0.5591211319 4286535522
-0.2619420290 -0.1195543855 0.5592263937 4286732901
-0.2619910836 -0.1189553216 0.5593311191 4286667624
-0.2624565363 -0.1185440943 0.5603247881 4286667624
-0.2625052035 -0.1179434061 0.5604287386 4286470245
-0.2629704177 -0.1175286472 0.5614219308 4286404452
-0.2630187273 -0.1169263348 0.5615250468 4286141793
-0.2630667984 -0.1163237020 0.5616276860 4286207586
-0.2631146312 -0.1157207340 0.5617298484 4286273381
-0.2635793090 -0.1152998731 0.5627218485 4286207588
-0.2636267543 -0.1146952957 0.5628231764 4286208104
-0.2640911937 -0.1142709181 0.5638146996 4286010725
-0.2641382515 -0.1136647314 0.5639151931 4286141280
-0.2646024525 -0.1132368296 0.5649061799 4286075487
-0.2646490932 -0.1126290411 0.5650057793 4286141280
-0.2651130557 -0.1121976152 0.5659962893 4286338659
-0.2651593089 -0.1115882248 0.5660950541 4286207588
-0.2656230032 -0.1111532897 0.5670849681 4286141795
-0.2660865784 -0.1107161120 0.5680747032 4286273895
-0.2661322951 -0.1101038530 0.5681722760 4286537067
-0.2665956318 -0.1096631587 0.5691614747 4286406253
-0.2674767971 -0.1093911529 0.5710426569 4286406253
-0.2679399848 -0.1089450270 0.5720316172 4286275437
-0.2684031129 -0.1084966585 0.5730202794 4286472816
-0.2688660920 -0.1080460548 0.5740087628 4286604403
-0.2693290114 -0.1075932160 0.5749970078 4286472817
-0.2706283629 -0.1074703485 0.5777710676 4286802039
-0.2715095580 -0.1071762368 0.5796523094 4287723141
-0.2715539336 -0.1065496132 0.5797470808 4287792277
-0.2724350095 -0.1062491015 0.5816281438 4288450207
-0.2728976011 -0.1057821736 0.5826156735 4289043114
-0.2787744403 -0.1014475152 0.5951623321 4294245114
-0.2697680593 -0.1830714941 0.5773032308 4294967295
-0.2694330215 -0.1822035164 0.5765862465 4285294960
-0.2695046663 -0.1816111803 0.5767396092 4285229167
-0.2695761621 -0.1810183674 0.5768925548 4285163374
-0.2696474195 -0.1804250926 0.5770450830 4285032043
-0.2697184980 -0.1798313409 0.5771971941 4284900457
-0.2697893679 -0.1792371273 0.5773488879 4284834664
-0.2698600590 -0.1786424369 0.5775001645 4284834664
-0.2699305415 -0.1780472845 0.5776509643 4284965480
-0.2700008452 -0.1774516702 0.5778014064 4284768101
-0.2700709105 -0.1768555790 0.5779513717 4284571490
-0.2701407969 -0.1762590408 0.5781009197 4284571490
-0.2702105045 -0.1756620258 0.5782500505 4284308318
-0.2702799737 -0.1750645638 0.5783987641 4284439904
-0.2699408829 -0.1742030829 0.5776730776 4284899939
-0.2700098455 -0.1736055911 0.5778207183 4284505181
-0.2700786293 -0.1730076522 0.5779678822 4283583566
-0.2697385252 -0.1721484214 0.5772400498 4282728257
-0.2689891756 -0.1710306257 0.5756364465 4282529336
-0.2686481476 -0.1701750159 0.5749066472 4282200371
-0.2678976953 -0.1690626591 0.5733006597 4282265137
-0.2675557137 -0.1682107002 0.5725688338 4282265137
-0.2668041289 -0.1671037972 0.5709604621 4282132268
-0.2660519481 -0.1660000980 0.5693507791 4282198061
-0.2657085657 -0.1651540697 0.5686159730 4282853681
-0.2649552524 -0.1640558690 0.5670038462 4282787888
-0.2642013431 -0.1629608721 0.5653904676 4282787888
-0.2638565302 -0.1621208191 0.5646526217 4282919474
-0.2631015182 -0.1610313356 0.5630368590 4283116853
-0.2627557814 -0.1601949930 0.5622970462 4283182646
-0.2624096870 -0.1593600512 0.5615563393 4283248693
-0.2616530359 -0.1582784206 0.5599371791 4283248693
-0.2621264458 -0.1579415351 0.5609502792 4283380279
-0.2617792487 -0.1571098864 0.5602071881 4283314486
-0.2614316046 -0.1562796533 0.5594633222 4283182900
-0.2610836029 -0.1554508358 0.5587185025 4282985521
-0.2607351840 -0.1546234339 0.5579729080 4282853935
-0.2603863478 -0.1537974626 0.5572264194 4282853935
-0.2604479194 -0.1532145739 0.5573582053 4282788142
-0.2600983977 -0.1523905247 0.5566102266 4282722349
-0.2601594925 -0.1518077254 0.5567409396 4282722865
-0.2598092556 -0.1509856135 0.5559914708 4282591279
-0.2594586313 -0.1501649469 0.5552411079 4282722349
-0.2595188916 -0.1495827585 0.5553700924 4282919728
-0.2595789731 -0.1490001827 0.5554986000 4283248180
-0.2596388161 -0.1484172046 0.5556266904 4283379766
-0.2592868805 -0.1475995183 0.5548735857 4283576118
-0.2589345574 -0.1467832923 0.5541196465 4283576118
-0.2589936256 -0.1462009549 0.5542459488 4283772983
-0.2590524554 -0.1456182301 0.5543718934 4283772983
-0.2591110766 -0.1450350881 0.5544973016 4283903540
-0.2591694891 -0.1444515586 0.5546223521 4283903540
-0.2592276931 -0.1438676417 0.5547468662 4284034613
-0.2588734627 -0.1430555284 0.5539888740 4284100406
-0.2589311600 -0.1424717605 0.5541123152 4284166199
-0.2589886487 -0.1418875903 0.5542353392 4284166199
-0.2590458989 -0.1413030326 0.5543578863 4284494650
-0.2586903870 -0.1404940188 0.5535970926 4284494650
-0.2587471604 -0.1399096251 0.5537185073 4284428857
-0.2588036954 -0.1393248439 0.5538395643 4284363064
-0.2588600218 -0.1387396753 0.5539600849 4284428857
-0.2589161396 -0.1381541342 0.5540801883 4284560443
-0.2585590184 -0.1373488009 0.5533159375 4284560443
-0.2586146295 -0.1367634386 0.5534349680 4284494650
-0.2590832412 -0.1363952309 0.5544377565 4284692029
-0.2587251961 -0.1355915666 0.5536715388 4284692029
-0.2587801516 -0.1350050867 0.5537891984 4284692029
-0.2592483759 -0.1346329302 0.5547911525 4284692029
-0.2593030035 -0.1340447664 0.5549080372 4284626236
-0.2589437664 -0.1332433671 0.5541392565 4284626236
-0.2589978576 -0.1326553822 0.5542550683 4284692029
-0.2590517402 -0.1320670396 0.5543703437 4284692029
-0.2591054142 -0.1314783245 0.5544852018 4284954172
-0.2591588497 -0.1308892369 0.5545995831 4284954172
-0.2592120767 -0.1302998066 0.5547134876 4285019965
-0.2592650950 -0.1297099888 0.5548269153 4285085758
-0.2593178749 -0.1291198283 0.5549399257 4285085758
-0.2593704462 -0.1285293102 0.5550523996 4285085758
-0.2594228089 -0.1279384196 0.5551644564 4285019711
-0.2594749331 -0.1273471713 0.5552760363 4284953918
-0.2595268488 -0.1267555803 0.5553870797 4284757309
-0.2595785558 -0.1261636317 0.5554977059 4284823102
-0.2596300244 -0.1255713254 0.5556078553 4284954688
-0.2596812546 -0.1249786690 0.5557175279 4284888895
-0.2597322762 -0.1243856624 0.5558267236 4284954688
-0.2601980865 -0.1239900589 0.5568234921 4285283653
-0.2602487206 -0.1233954057 0.5569319129 4285612618
-0.2607143223 -0.1229962632 0.5579282641 4285744204
-0.2607645988 -0.1223999709 0.5580359101 4285614160
-0.2608146667 -0.1218033358 0.5581430197 4285745746
-0.2608645260 -0.1212063506 0.5582497120 4285877079
-0.2613295913 -0.1208010837 0.5592449903 4285942872
-0.2613790631 -0.1202024743 0.5593508482 4286008924
-0.2614282966 -0.1196035221 0.5594562292 4286140510
-0.2618930042 -0.1191934273 0.5604506731 4286074717
-0.2623576522 -0.1187810898 0.5614449978 4286008924
-0.2624063790 -0.1181792244 0.5615492463 4285878108
-0.2624548376 -0.1175770164 0.5616530180 4286009694
-0.2625030875 -0.1169744805 0.5617562532 4285812828
-0.2625511289 -0.1163716167 0.5618590117 4285878621
-0.2630150616 -0.1159518883 0.5628519058 4285878623
-0.2630626857 -0.1153474003 0.5629538298 4285812830
-0.2635264099 -0.1149241477 0.5639461875 4285944162
-0.2635736465 -0.1143180504 0.5640472770 4285944162
-0.2636206746 -0.1137116328 0.5641478896 4286074717
-0.2640839815 -0.1132835746 0.5651393533 4286008924
-0.2641305923 -0.1126755476 0.5652391315 4285943901
-0.2645936608 -0.1122439653 0.5662300587 4286207073
-0.2646398842 -0.1116343364 0.5663290024 4286076002
-0.2651026845 -0.1111992374 0.5673193932 4285812830
-0.2655654252 -0.1107618958 0.5683096051 4285813857
-0.2660280466 -0.1103223115 0.5692996383 4286077029
-0.2664905787 -0.1098804921 0.5702894330 4286077288
-0.2669529915 -0.1094364375 0.5712790489 4286406253
-0.2674153447 -0.1089901403 0.5722684264 4286539122
-0.2682948411 -0.1087106690 0.5741505623 4286670708
-0.2687570453 -0.1082589254 0.5751397014 4286342258
-0.2696365416 -0.1079720929 0.5770218372 4286473844
-0.2700985968 -0.1075149029 0.5780106187 4287329666
-0.2713956237 -0.1073859036 0.5807862878 4288579733
-0.2718576193 -0.1069223061 0.5817748904 4288450977
-0.2731548250 -0.1067830324 0.5845509768 4289174700
-0.2680860162 -0.1817245185 0.5750705004 4285098093
-0.2681573629 -0.1811337769 0.5752235651 4285163374
-0.2682285309 -0.1805425733 0.5753762722 4285097581
-0.2682995200 -0.1799508929 0.5755285025 4285097836
-0.2687768936 -0.1796304882 0.5765525699 4284966250
-0.2684408724 -0.1787661165 0.5758317113 4284966250
-0.2685112357 -0.1781730354 0.5759826899 4284966250
-0.2689883709 -0.1778485477 0.5770062208 4284966250
-0.2690584660 -0.1772536188 0.5771565437 4284768871
-0.2691283822 -0.1766582429 0.5773065090 4284637283
-0.2691980600 -0.1760624051 0.5774559975 4284571490
-0.2692675591 -0.1754660904 0.5776050687 4284439904
-0.2689293921 -0.1746047735 0.5768796802 4284374111
-0.2689983845 -0.1740084440 0.5770276785 4284505697
-0.2690671682 -0.1734116673 0.5771752596 4284571490
-0.2691357732 -0.1728144288 0.5773223639 4284570461
-0.2687962651 -0.1719557941 0.5765941143 4283517773
-0.2684563696 -0.1710985154 0.5758649707 4282793021
-0.2681160569 -0.1702426076 0.5751349926 4282135091
-0.2677753270 -0.1693880558 0.5744041204 4282199344
-0.2674342096 -0.1685348749 0.5736723542 4282265137
-0.2666842639 -0.1674266607 0.5720636249 4282264367
-0.2659337223 -0.1663216501 0.5704536438 4282264367
-0.2651825547 -0.1652198285 0.5688423514 4282524716
-0.2644307911 -0.1641212255 0.5672297478 4282524716
-0.2640872300 -0.1632785648 0.5664927363 4282328107
-0.2629254460 -0.1619336307 0.5640006065 4282393900
-0.2638078928 -0.1618483663 0.5658935308 4282591279
-0.2626450062 -0.1605089456 0.5633990169 4282657072
-0.2622997165 -0.1596727818 0.5626583695 4282657072
-0.2619540393 -0.1588380188 0.5619168878 4282722865
-0.2616079450 -0.1580046713 0.5611745119 4282920242
-0.2612614632 -0.1571727246 0.5604312420 4282920242
-0.2613241971 -0.1565876156 0.5605657697 4282920242
-0.2609770000 -0.1557575911 0.5598210096 4282854449
-0.2610392272 -0.1551725566 0.5599544644 4282854449
-0.2602814436 -0.1541017592 0.5583289266 4282854449
-0.2599330544 -0.1532759815 0.5575816631 4282788656
-0.2599943578 -0.1526924819 0.5577131510 4282722863
-0.2596452534 -0.1518686414 0.5569643378 4282657072
-0.2597060502 -0.1512852162 0.5570947528 4282525486
-0.2593562901 -0.1504633278 0.5563443899 4282591279
-0.2594165802 -0.1498800218 0.5564737320 4282854451
-0.2594766617 -0.1492963135 0.5566025972 4283314486
-0.2591258585 -0.1484768838 0.5558501482 4283446072
-0.2591854334 -0.1478932947 0.5559779406 4283511352
-0.2588339746 -0.1470758468 0.5552240014 4283379766
-0.2588930130 -0.1464923620 0.5553506613 4283641910
-0.2589518726 -0.1459085047 0.5554769635 4283707703
-0.2585994005 -0.1450935602 0.5547208190 4283707190
-0.2586577535 -0.1445098221 0.5548459888 4283641397
-0.2587158978 -0.1439256817 0.5549706817 4283903799
-0.2583624125 -0.1431132704 0.5542124510 4283903799
-0.2584200501 -0.1425292939 0.5543360710 4283838260
-0.2580658495 -0.1417188793 0.5535763502 4283904053
-0.2581229806 -0.1411350518 0.5536988378 4283837747
-0.2581798732 -0.1405508220 0.5538209081 4283969333
-0.2582365870 -0.1399662197 0.5539425611 4283903540
-0.2578811049 -0.1391589344 0.5531800389 4283903540
-0.2579372823 -0.1385744959 0.5533004999 4284035126
-0.2579932511 -0.1379896700 0.5534206033 4284100919
-0.2580490112 -0.1374044716 0.5535401702 4284100919
-0.2581045330 -0.1368188858 0.5536593199 4284232505
-0.2581598759 -0.1362329274 0.5537779927 4284232505
-0.2582149804 -0.1356465966 0.5538962483 4284298298
-0.2582698762 -0.1350598782 0.5540139675 4284364091
-0.2583245635 -0.1344728023 0.5541312695 4284364091
-0.2583790421 -0.1338853389 0.5542481542 4284364091
-0.2584332824 -0.1332975179 0.5543645024 4284429884
-0.2584873140 -0.1327093244 0.5544804335 4284429884
-0.2585411370 -0.1321207583 0.5545958877 4284429884
-0.2585947514 -0.1315318346 0.5547108650 4284691514
-0.2586481273 -0.1309425384 0.5548253655 4284625721
-0.2587012947 -0.1303528696 0.5549394488 4284691514
-0.2583408952 -0.1295555532 0.5541663170 4284823100
-0.2588069737 -0.1291724592 0.5551661253 4284823100
-0.2588594854 -0.1285817176 0.5552787781 4284823100
-0.2589117885 -0.1279906183 0.5553909540 4284757820
-0.2589638531 -0.1273991466 0.5555026531 4284692027
-0.2590157092 -0.1268073320 0.5556138754 4284692029
-0.2590673566 -0.1262151599 0.5557246208 4284757822
-0.2591187656 -0.1256226301 0.5558348894 4284823613
-0.2591699362 -0.1250297576 0.5559446812 4284823613
-0.2592208982 -0.1244365275 0.5560539961 4284955199
-0.2596858144 -0.1240407825 0.5570513010 4285284164
-0.2597364187 -0.1234459057 0.5571598411 4285481545
-0.2597867846 -0.1228506863 0.5572679043 4285481545
-0.2602513731 -0.1224500984 0.5582644343 4285219402
-0.2603013813 -0.1218532398 0.5583717227 4285350988
-0.2603511512 -0.1212560311 0.5584785342 4285417039
-0.2608153522 -0.1208506152 0.5594742894 4285482832
-0.2608647645 -0.1202517822 0.5595802665 4285482834
-0.2609139681 -0.1196525991 0.5596857667 4285614420
-0.2613777816 -0.1192423552 0.5606807470 4285746006
-0.2618415654 -0.1188298687 0.5616756082 4285811799
-0.2618902028 -0.1182277724 0.5617799759 4285549141
-0.2619386315 -0.1176253408 0.5618838072 4285746520
-0.2624020278 -0.1172080263 0.5628778338 4285747035
-0.2624500692 -0.1166039705 0.5629808903 4285747035
-0.2624978721 -0.1159995869 0.5630834103 4285550172
-0.2625454664 -0.1153948754 0.5631855130 4285352793
-0.2630082965 -0.1149714589 0.5641783476 4285418072
-0.2630554736 -0.1143651381 0.5642795563 4285483865
-0.2635180950 -0.1139381975 0.5652719140 4285483350
-0.2635648847 -0.1133302599 0.5653722882 4285351764
-0.2636114359 -0.1127220020 0.5654721260 4284891726
-0.2640736401 -0.1122902557 0.5664635897 4284431175
-0.2645357549 -0.1118562743 0.5674548745 4283773761
-0.2645817399 -0.1112451330 0.5675535202 4283773761
-0.2650435865 -0.1108076274 0.5685442686 4284695635
-0.2655053437 -0.1103678793 0.5695347786 4285748323
-0.2663832307 -0.1100979224 0.5714179277 4285946985
-0.2668448687 -0.1096527278 0.5724081397 4286144364
-0.2673063874 -0.1092052981 0.5733981729 4286276977
-0.2677678466 -0.1087556258 0.5743880272 4286474356
-0.2690621912 -0.1086400673 0.5771645308 4286606456
-0.2695235610 -0.1081839800 0.5781542063 4287132800
-0.2699848115 -0.1077256575 0.5791436434 4288186004
-0.2704459727 -0.1072650924 0.5801329017 4289304485
-0.2713238001 -0.1069665998 0.5820159316 4288846505
-0.2717848122 -0.1065005884 0.5830048323 4288846505
-0.2768060267 -0.1018709093 0.5937758088 4294376188
-0.2671469748 -0.1815204620 0.5744247437 4285295218
-0.2672181427 -0.1809304208 0.5745778084 4285229167
-0.2672891319 -0.1803399175 0.5747303963 4285163374
-0.2673599124 -0.1797489375 0.5748826265 4285163629
-0.2674304843 -0.1791574806 0.5750343800 4285097836
-0.2670949399 -0.1782945991 0.5743129253 4285162859
-0.2671650350 -0.1777031273 0.5744636059 4285162859
-0.2676410675 -0.1773803383 0.5754871368 4284834664
-0.2677108645 -0.1767870188 0.5756372213 4284768871
-0.2677804530 -0.1761932373 0.5757868886 4284768869
-0.2678498626 -0.1755990088 0.5759361386 4284637283
-0.2679190636 -0.1750043035 0.5760849714 4284506210
-0.2679880857 -0.1744091362 0.5762333274 4284374624
-0.2680568695 -0.1738135219 0.5763812661 4284439904
-0.2681254745 -0.1732174456 0.5765287876 4284571490
-0.2681939006 -0.1726209074 0.5766758919 4284965732
-0.2682620883 -0.1720239073 0.5768225193 4284242009
-0.2679229081 -0.1711663306 0.5760931969 4283582537
-0.2675833404 -0.1703101099 0.5753630400 4282661435
-0.2672433555 -0.1694552600 0.5746319890 4282199601
-0.2669029534 -0.1686017662 0.5739000440 4282002222
-0.2657469511 -0.1672366560 0.5714144111 4282067758
-0.2654055357 -0.1663877368 0.5706803203 4282001965
-0.2650637329 -0.1655401886 0.5699453354 4282328620
-0.2643136084 -0.1644402593 0.5683323741 4282197034
-0.2635628879 -0.1633435488 0.5667181611 4282131241
-0.2628115416 -0.1622500420 0.5651026368 4282197034
-0.2632842064 -0.1619128287 0.5661189556 4282262827
-0.2625319660 -0.1608230323 0.5645014644 4282262827
-0.2621875107 -0.1599856466 0.5637608767 4282197034
-0.2618426681 -0.1591496617 0.5630193353 4282131241
-0.2614974380 -0.1583150923 0.5622770190 4282262825
-0.2611517906 -0.1574819237 0.5615338087 4282197032
-0.2612145245 -0.1568957120 0.5616686940 4282132009
-0.2608681619 -0.1560644507 0.5609239340 4282263595
-0.2609303892 -0.1554783136 0.5610577464 4282263595
-0.2605833411 -0.1546489596 0.5603115559 4282329388
-0.2598267198 -0.1535791904 0.5586846471 4282460204
-0.2602973282 -0.1532354951 0.5596964955 4282460204
-0.2595398128 -0.1521694958 0.5580676794 4282656556
-0.2596006393 -0.1515849531 0.5581984520 4282590763
-0.2592516840 -0.1507618278 0.5574481487 4282656556
-0.2593120039 -0.1501774043 0.5575778484 4282985521
-0.2589623332 -0.1493562311 0.5568259954 4283313973
-0.2590221465 -0.1487719119 0.5569546223 4283511352
-0.2586718202 -0.1479527056 0.5562012792 4283445559
-0.2583210766 -0.1471349597 0.5554471612 4283248180
-0.2583800554 -0.1465512663 0.5555739999 4283445301
-0.2584388554 -0.1459672004 0.5557004213 4283511094
-0.2584974468 -0.1453827173 0.5558263659 4283576117
-0.2581453919 -0.1445680112 0.5550693870 4283576117
-0.2582034767 -0.1439836621 0.5551942587 4283707190
-0.2578507364 -0.1431709528 0.5544357896 4283707190
-0.2579082847 -0.1425867528 0.5545595884 4283707190
-0.2579656541 -0.1420021653 0.5546829104 4283707190
-0.2576119304 -0.1411920041 0.5539222956 4283970616
-0.2576687634 -0.1406075805 0.5540444851 4283970616
-0.2577253878 -0.1400227547 0.5541662574 4284167225
-0.2577818036 -0.1394375563 0.5542875528 4284167225
-0.2574267685 -0.1386305094 0.5535241961 4284167225
-0.2574826777 -0.1380454749 0.5536444187 4284101432
-0.2575383484 -0.1374600679 0.5537641644 4283970616
-0.2575938404 -0.1368742734 0.5538834333 4284036409
-0.2576490939 -0.1362880915 0.5540022254 4284101432
-0.2577041388 -0.1357015520 0.5541206002 4284167225
-0.2577589750 -0.1351146251 0.5542384982 4284233018
-0.2578136027 -0.1345273256 0.5543559790 4284298811
-0.2578680217 -0.1339396536 0.5544729829 4284298811
-0.2579222023 -0.1333516091 0.5545894504 4284364604
-0.2579761744 -0.1327632070 0.5547055602 4284430397
-0.2580299377 -0.1321744174 0.5548211336 4284364604
-0.2580834627 -0.1315852702 0.5549362302 4284429884
-0.2581368089 -0.1309957653 0.5550509095 4284364091
-0.2581899166 -0.1304058731 0.5551651120 4284429882
-0.2582427859 -0.1298156381 0.5552788377 4284495675
-0.2582954466 -0.1292250305 0.5553920865 4284429884
-0.2583478987 -0.1286340654 0.5555048585 4284495677
-0.2584001422 -0.1280427426 0.5556171536 4284561470
-0.2584521472 -0.1274510622 0.5557289720 4284561470
-0.2585039437 -0.1268590242 0.5558403730 4284561470
-0.2585555017 -0.1262666285 0.5559512377 4284758849
-0.2586068511 -0.1256738901 0.5560616255 4284890435
-0.2586579919 -0.1250807792 0.5561715961 4284824642
-0.2587088943 -0.1244873330 0.5562810302 4284890435
-0.2591729462 -0.1240914464 0.5572788119 4285087814
-0.2592234910 -0.1234963462 0.5573875308 4285219402
-0.2592737973 -0.1229009032 0.5574957132 4285087816
-0.2593238950 -0.1223051101 0.5576034188 4285153354
-0.2597874403 -0.1219030917 0.5586001277 4285219147
-0.2598371506 -0.1213056594 0.5587070584 4285351246
-0.2603004873 -0.1209000945 0.5597033501 4285417039
-0.2607637644 -0.1204922870 0.5606994629 4285482832
-0.2608129680 -0.1198919266 0.5608052611 4285548625
-0.2608619332 -0.1192912310 0.5609105825 4285680211
-0.2609106898 -0.1186901927 0.5610153675 4285680211
-0.2613734305 -0.1182762608 0.5620103478 4285746520
-0.2614217997 -0.1176736057 0.5621143579 4285549141
-0.2618843019 -0.1172561347 0.5631088614 4285286484
-0.2619322836 -0.1166518554 0.5632120371 4285023312
-0.2619800568 -0.1160472408 0.5633147359 4284629324
-0.2620275617 -0.1154422909 0.5634168983 4284366152
-0.2624895275 -0.1150187254 0.5644102693 4284365382
-0.2625366747 -0.1144121662 0.5645115972 4284365382
-0.2629984021 -0.1139850691 0.5655044317 4284299076
-0.2630451322 -0.1133769006 0.5656049252 4283772732
-0.2635066211 -0.1129462719 0.5665972233 4283115315
-0.2635529637 -0.1123365015 0.5666968822 4283378487
-0.2640142143 -0.1119023487 0.5676886439 4284037446
-0.2644753456 -0.1114659607 0.5686801672 4285090134
-0.2649363875 -0.1110273302 0.5696715117 4286143851
-0.2653973401 -0.1105864495 0.5706626773 4286933367
-0.2658582032 -0.1101433337 0.5716536045 4285750120
-0.2663189769 -0.1096979752 0.5726443529 4285881706
-0.2671951652 -0.1094205528 0.5745283961 4285949295
-0.2676557899 -0.1089697480 0.5755188465 4286475639
-0.2685320079 -0.1086849421 0.5774029493 4287068034
-0.2689925134 -0.1082286835 0.5783931017 4287791757
-0.2694528997 -0.1077701896 0.5793830752 4288450203
-0.2703290880 -0.1074747965 0.5812669992 4288976547
-0.2707893252 -0.1070108488 0.5822566748 4288386467
-0.2716655135 -0.1067080647 0.5841405988 4288583846
-0.2749688923 -0.1020933911 0.5912436247 4294244860
-0.2658752203 -0.1804521084 0.5730587840 4294967295
-0.2659459114 -0.1798631996 0.5732111335 4285229167
-0.2660163939 -0.1792738140 0.5733630657 4285229422
-0.2660866678 -0.1786839664 0.5735145211 4285163629
-0.2657516599 -0.1778225750 0.5727924705 4285162859
-0.2662266493 -0.1775028706 0.5738162398 4285162859
-0.2662963569 -0.1769116223 0.5739665031 4285032043
-0.2663658559 -0.1763199121 0.5741162896 4284966250
-0.2664351761 -0.1757277399 0.5742656589 4284966761
-0.2665042877 -0.1751351058 0.5744146109 4284703589
-0.2665731907 -0.1745420098 0.5745631456 4284440417
-0.2670477331 -0.1742132157 0.5755860209 4284374624
-0.2667104006 -0.1733544469 0.5748589039 4284243038
-0.2667787373 -0.1727599651 0.5750061870 4284243038
