VERSION 0.7
FIELDS x y z rgba
SIZE 4 4 4 4
TYPE F F F U
COUNT 1 1 1 1
WIDTH 920
HEIGHT 1
VIEWPOINT 0.0 0.0 0.0 1.0 0.0 0.0 0.0
POINTS 920
DATA ascii
-0.2850781381 -0.1094893441 0.5372769833 4285539368
-0.2851268053 -0.1089109853 0.5373686552 4285670954
-0.2851752341 -0.1083323210 0.5374599695 4285473832
-0.2852234244 -0.1077533662 0.5375507474 4285473832
-0.2857329547 -0.1073475480 0.5385110974 4285473832
-0.2857807279 -0.1067670658 0.5386011004 4285473832
-0.2862900198 -0.1063578501 0.5395609736 4285605159
-0.2863374054 -0.1057758555 0.5396502018 4285605159
-0.2863845229 -0.1051935703 0.5397390127 4285539366
-0.2864314020 -0.1046110019 0.5398274064 4285473573
-0.2874021530 -0.1043637246 0.5416569114 4285538850
-0.2874486744 -0.1037787050 0.5417446494 4285538850
-0.2879571915 -0.1033593118 0.5427029729 4285473055
-0.2880032957 -0.1027727798 0.5427898765 4285407262
-0.2885115147 -0.1023499966 0.5437477231 4285340956
-0.2885572016 -0.1017619669 0.5438338518 4285275163
-0.2890651524 -0.1013358012 0.5447911620 4285275163
-0.2895730138 -0.1009074673 0.5457482338 4285275163
-0.2900807261 -0.1004769653 0.5467051864 4285405720
-0.2905883789 -0.1000443026 0.5476619005 4285339927
-0.2910958827 -0.0996094793 0.5486183763 4285406238
-0.2920661569 -0.0993299112 0.5504470468 4285537824
-0.2930364609 -0.0990462825 0.5522757173 4286000176
-0.2935437858 -0.0986030847 0.5532318354 4286394934
-0.2945140600 -0.0983122885 0.5550605059 4286200125
-0.2954843640 -0.0980174467 0.5568891764 4286397504
-0.2964546680 -0.0977185443 0.5587179065 4286267460
-0.2974250019 -0.0974155813 0.5605466962 4286596425
-0.2988587022 -0.0972593427 0.5632486939 4286336339
-0.3002925217 -0.0970971584 0.5659509897 4287981164
-0.3017265201 -0.0969290063 0.5686535835 4288645777
-0.3031606376 -0.0967548937 0.5713564157 4291869634
-0.3046792448 -0.1779998839 0.5754230022 4291084497
-0.3024977744 -0.1760906726 0.5713030100 4286674816
-0.3034762144 -0.1760234237 0.5731508732 4284766819
-0.3017445803 -0.1743858606 0.5698804855 4284765795
-0.3009154797 -0.1732752621 0.5683146715 4283647314
-0.3005376756 -0.1724270582 0.5676010847 4289568688
-0.3006850183 -0.1712497026 0.5678794384 4289766324
-0.3012106717 -0.1709170043 0.5688721538 4289239980
-0.3012839258 -0.1703263670 0.5690104961 4288582563
-0.3013569415 -0.1697352827 0.5691484213 4288056219
-0.3014297485 -0.1691437811 0.5692859292 4287069324
-0.3015023470 -0.1685518473 0.5694230199 4285227120
-0.3006691039 -0.1674551070 0.5678493381 4284173658
-0.2975705862 -0.1651049852 0.5619974136 4284239451
-0.2999067008 -0.1657718420 0.5664094687 4284501080
-0.2954466045 -0.1626865864 0.5579860210 4284303701
-0.2932503521 -0.1608618796 0.5538381338 4284895578
-0.2919595242 -0.1595411450 0.5514002442 4284961371
-0.2906678319 -0.1582253724 0.5489608049 4284764251
-0.2898288667 -0.1571605057 0.5473762751 4284698458
-0.2885355949 -0.1558537632 0.5449337959 4284566873
-0.2876952291 -0.1547961533 0.5433466434 4284501080
-0.2873081267 -0.1539849788 0.5426155925 4284632412
-0.2869206071 -0.1531752050 0.5418837070 4284632412
-0.2865326405 -0.1523668319 0.5411509871 4284368468
-0.2861442864 -0.1515598744 0.5404174924 4283973710
-0.2857554853 -0.1507543176 0.5396831632 4283972682
-0.2853662670 -0.1499501616 0.5389481187 4284301647
-0.2854311168 -0.1493853033 0.5390706062 4284234823
-0.2854957581 -0.1488200575 0.5391926765 4284234823
-0.2846507728 -0.1477822810 0.5375968218 4284168001
-0.2842599750 -0.1469828933 0.5368587375 4284168001
-0.2843236625 -0.1464191973 0.5369790196 4284166710
-0.2839321196 -0.1456217617 0.5362395644 4284100917
-0.2835401595 -0.1448257565 0.5354992747 4283969846
-0.2831477821 -0.1440311819 0.5347582102 4283838260
-0.2832102776 -0.1434687078 0.5348762870 4283837749
-0.2828171849 -0.1426761001 0.5341338515 4283837749
-0.2828791738 -0.1421137750 0.5342509151 4283903027
-0.2829409242 -0.1415510923 0.5343675613 4283968820
-0.2830024958 -0.1409880370 0.5344838500 4284099377
-0.2826080024 -0.1401984841 0.5337387919 4284165170
-0.2826690078 -0.1396356076 0.5338540077 4284362035
-0.2827298045 -0.1390723586 0.5339688659 4284296242
-0.2823342681 -0.1382853538 0.5332218409 4284230195
-0.2823945284 -0.1377222836 0.5333356261 4284230195
-0.2824545503 -0.1371588707 0.5334490538 4284164402
-0.2825143933 -0.1365950853 0.5335620046 4284032816
-0.2821174860 -0.1358111948 0.5328124166 4284163628
-0.2821767628 -0.1352476180 0.5329243541 4284163628
-0.2822358012 -0.1346836835 0.5330358744 4284294700
-0.2822946310 -0.1341193914 0.5331469774 4284294700
-0.2823532522 -0.1335547566 0.5332577229 4284294700
-0.2819546759 -0.1327745616 0.5325049162 4284294700
-0.2820127308 -0.1322101355 0.5326145887 4284294700
-0.2816134095 -0.1314319968 0.5318604112 4284294700
-0.2816709578 -0.1308677942 0.5319690704 4284294700
-0.2817282677 -0.1303032339 0.5320773125 4284294700
-0.2817853391 -0.1297383457 0.5321850777 4284294187
-0.2818422019 -0.1291731149 0.5322924852 4284294187
-0.2814411819 -0.1283987463 0.5315351486 4284359979
-0.2814975083 -0.1278337538 0.5316414833 4284294186
-0.2815535963 -0.1272684038 0.5317474008 4284294186
-0.2816094458 -0.1267027259 0.5318529010 4284359979
-0.2816650867 -0.1261367202 0.5319579840 4284294699
-0.2812623978 -0.1253661960 0.5311974883 4284294699
-0.2813175023 -0.1248004362 0.5313015580 4284360490
-0.2813723683 -0.1242343411 0.5314051509 4284360490
-0.2814269960 -0.1236679181 0.5315083265 4284622635
-0.2814813852 -0.1231011674 0.5316110849 4284688428
-0.2815355659 -0.1225340888 0.5317133665 4284819501
-0.2811308801 -0.1217680424 0.5309491158 4284819501
-0.2811845243 -0.1212012321 0.5310503840 4284950828
-0.2812379301 -0.1206341013 0.5311512351 4284950828
-0.2812910974 -0.1200666502 0.5312516689 4285212973
-0.2818029821 -0.1196938157 0.5322184563 4285212973
-0.2818557620 -0.1191247925 0.5323181152 4285409582
-0.2819083333 -0.1185554564 0.5324174166 4285541168
-0.2819606662 -0.1179857999 0.5325162411 4285541166
-0.2824720740 -0.1176070496 0.5334820747 4285409580
-0.2825240195 -0.1170358360 0.5335801840 4285212203
-0.2825757265 -0.1164643019 0.5336778164 4285212203
-0.2826271951 -0.1158924550 0.5337750316 4285277996
-0.2826784253 -0.1153202951 0.5338718295 4285277996
-0.2827294469 -0.1147478297 0.5339681506 4285212203
-0.2827802002 -0.1141750515 0.5340640545 4285146410
-0.2828307450 -0.1136019677 0.5341594815 4285211688
-0.2828810513 -0.1130285710 0.5342544913 4285211688
-0.2833911479 -0.1126377285 0.5352178812 4285145638
-0.2834410667 -0.1120627970 0.5353121161 4285145638
-0.2834907174 -0.1114875600 0.5354059339 4285211431
-0.2835401595 -0.1109120175 0.5354992747 4285211431
-0.2835893631 -0.1103361771 0.5355921984 4285342247
-0.2845591903 -0.1101164073 0.5374239087 4285342247
-0.2846080661 -0.1095381007 0.5375161767 4285473833
-0.2846567035 -0.1089594886 0.5376080275 4285539626
-0.2847051024 -0.1083805934 0.5376994014 4285277223
-0.2852140069 -0.1079758331 0.5386605263 4285343016
-0.2852619886 -0.1073954031 0.5387511849 4285343016
-0.2853097320 -0.1068146899 0.5388413072 4285408809
-0.2858182192 -0.1064053029 0.5398016572 4285605418
-0.2863266170 -0.1059937477 0.5407618880 4285605418
-0.2859126329 -0.1052405387 0.5399799943 4285539625
-0.2864207029 -0.1048265249 0.5409395099 4285473832
-0.2864673734 -0.1042424887 0.5410276651 4285474086
-0.2869751751 -0.1038250849 0.5419867039 4285474086
-0.2874828577 -0.1034055129 0.5429455638 4285474086
-0.2875289619 -0.1028187424 0.5430325866 4285408293
-0.2880363762 -0.1023957804 0.5439909697 4285473573
-0.2880820334 -0.1018075049 0.5440771580 4285473573
-0.2885891795 -0.1013811529 0.5450350046 4285407780
-0.2890962362 -0.1009526476 0.5459926128 4285341987
-0.2896031737 -0.1005219668 0.5469500422 4285669662
-0.2901100218 -0.1000891253 0.5479072332 4285538076
-0.2910787761 -0.0998125523 0.5497368574 4285735975
-0.2920475602 -0.0995319262 0.5515665412 4286064940
-0.2925541997 -0.0990907028 0.5525233746 4286330682
-0.2935229540 -0.0988029093 0.5543529987 4286199096
-0.2944917381 -0.0985110551 0.5561826825 4285872700
-0.2954605520 -0.0982151404 0.5580124259 4286201665
-0.2964293957 -0.0979151651 0.5598421693 4286005317
-0.2978607416 -0.0977629423 0.5625454187 4286729040
-0.2992922664 -0.0976047516 0.5652490258 4287061091
-0.3007239103 -0.0974406078 0.5679528713 4289495432
-0.3026184142 -0.0974194556 0.5715308785 4290027432
-0.3040504158 -0.0972424224 0.5742353797 4291869636
-0.3042459488 -0.1774806082 0.5758125186 4290623425
-0.3029691279 -0.1760986894 0.5733959675 4285952122
-0.3021423817 -0.1749828011 0.5718312860 4284833130
-0.3013149500 -0.1738700122 0.5702652931 4284964716
-0.3004868627 -0.1727603078 0.5686981082 4290424255
-0.3006343246 -0.1715807468 0.5689771771 4289766325
-0.3007077575 -0.1709903181 0.5691161156 4289503153
-0.3012325764 -0.1706553102 0.5701093674 4288714664
-0.3013056517 -0.1700631231 0.5702477098 4288451492
-0.3013785183 -0.1694705039 0.5703856349 4287793562
-0.3014511466 -0.1688774675 0.5705230832 4286082944
-0.3006194532 -0.1677794009 0.5689490438 4285029228
-0.2997871041 -0.1666844636 0.5673737526 4284766056
-0.2980495691 -0.1650916338 0.5640853047 4284633182
-0.2954061627 -0.1630062461 0.5590824485 4284106838
-0.2936662436 -0.1614286304 0.5557894707 4284632152
-0.2914726436 -0.1596098989 0.5516378880 4284763738
-0.2901831865 -0.1582936049 0.5491974354 4284632666
-0.2893456817 -0.1572283059 0.5476124287 4284632666
-0.2885075212 -0.1561661810 0.5460261106 4284566619
-0.2876687348 -0.1551072448 0.5444386601 4284500826
-0.2872824371 -0.1542948633 0.5437075496 4284566619
-0.2864424884 -0.1532414109 0.5421178341 4284566619
-0.2860552371 -0.1524327099 0.5413849354 4284368468
-0.2861210108 -0.1518661082 0.5415094495 4283973710
-0.2857330143 -0.1510593295 0.5407751203 4283775816
-0.2853446007 -0.1502539665 0.5400400162 4284104781
-0.2849557698 -0.1494500041 0.5393040776 4284037444
-0.2850203514 -0.1488845497 0.5394263268 4284037444
-0.2846307755 -0.1480825245 0.5386890173 4283839806
-0.2842407823 -0.1472819149 0.5379509330 4283839806
-0.2838503718 -0.1464827359 0.5372120142 4284101432
-0.2834595442 -0.1456849873 0.5364723206 4284035639
-0.2835226357 -0.1451212317 0.5365917683 4283707190
-0.2831310630 -0.1443254352 0.5358507037 4283575604
-0.2827390730 -0.1435310692 0.5351088047 4283640627
-0.2828013301 -0.1429679990 0.5352266431 4283640627
-0.2824085951 -0.1421756148 0.5344833732 4283837234
-0.2824703157 -0.1416127086 0.5346001983 4283837234
-0.2825318277 -0.1410494298 0.5347166061 4284033586
-0.2825931013 -0.1404857934 0.5348325968 4284033586
-0.2821990252 -0.1396964639 0.5340867043 4284099379
-0.2822597623 -0.1391330063 0.5342016816 4284165172
-0.2823202908 -0.1385691762 0.5343162417 4284164402
-0.2819251418 -0.1377823949 0.5335683823 4284164402
-0.2819851339 -0.1372187585 0.5336819291 4284229938
-0.2820449173 -0.1366547495 0.5337950587 4284032559
-0.2821044624 -0.1360903978 0.5339077711 4284032555
-0.2821637690 -0.1355256736 0.5340200067 4284032555
-0.2817669511 -0.1347425878 0.5332689881 4284032555
-0.2818257511 -0.1341780722 0.5333802700 4283966762
-0.2818843126 -0.1336131990 0.5334910750 4283966762
-0.2819426358 -0.1330479980 0.5336015224 4283966762
-0.2815444469 -0.1322680563 0.5328478813 4283966762
-0.2816022635 -0.1317030489 0.5329573154 4283900969
-0.2816598415 -0.1311377138 0.5330662727 4284163628
-0.2812606096 -0.1303603947 0.5323106647 4284163628
-0.2813176215 -0.1297952682 0.5324186087 4284097835
-0.2813744545 -0.1292298138 0.5325261354 4284097835
-0.2814310193 -0.1286640018 0.5326332450 4284097835
-0.2810304165 -0.1278899014 0.5318750739 4284097835
-0.2810864747 -0.1273243427 0.5319811106 4284097835
-0.2811422944 -0.1267584413 0.5320867300 4284163628
-0.2811978757 -0.1261921972 0.5321919322 4284360490
-0.2812532485 -0.1256256253 0.5322967172 4284294697
-0.2808509469 -0.1248553693 0.5315353870 4284426026
-0.2809057832 -0.1242890432 0.5316391587 4284426026
-0.2809603810 -0.1237223968 0.5317424536 4284491819
-0.2810147405 -0.1231554151 0.5318453312 4284557612
-0.2810688615 -0.1225881055 0.5319477916 4284754221
-0.2811227739 -0.1220204681 0.5320498347 4284754221
-0.2807185054 -0.1212547049 0.5312846899 4284885548
-0.2807718515 -0.1206873432 0.5313856602 4284885548
-0.2808249891 -0.1201196611 0.5314862132 4285147437
-0.2813360691 -0.1197466850 0.5324535370 4285147437
-0.2813888192 -0.1191774309 0.5325533748 4285212973
-0.2814413309 -0.1186078563 0.5326527357 4285212973
-0.2814936340 -0.1180379689 0.5327516794 4285278766
-0.2820042372 -0.1176590770 0.5337180495 4285212973
-0.2820561230 -0.1170876250 0.5338162780 4285081387
-0.2821078002 -0.1165158600 0.5339140892 4285015594
-0.2821592391 -0.1159437746 0.5340114236 4285081387
-0.2822104394 -0.1153713837 0.5341083407 4285081387
-0.2822614014 -0.1147986799 0.5342047811 4285081387
-0.2823121548 -0.1142256707 0.5343008041 4285081387
-0.2823626399 -0.1136523485 0.5343963504 4285146410
-0.2824128866 -0.1130787134 0.5344914794 4285080617
-0.2829222083 -0.1126877144 0.5354554057 4285145895
-0.2829720676 -0.1121125445 0.5355498195 4285080102
-0.2830217183 -0.1115370691 0.5356436968 4285145895
-0.2830711007 -0.1109612957 0.5357372165 4285145895
-0.2831202447 -0.1103852168 0.5358301997 4285211431
-0.2840885520 -0.1101653576 0.5376628041 4285277224
-0.2841373682 -0.1095868126 0.5377552509 4285277224
-0.2841859758 -0.1090079620 0.5378471613 4285211431
-0.2842343152 -0.1084288210 0.5379387140 4285277223
-0.2847424448 -0.1080238968 0.5389003754 4285277223
-0.2847903669 -0.1074432284 0.5389910936 4285343017
-0.2848380804 -0.1068622693 0.5390813947 4285408810
-0.2853457630 -0.1064527184 0.5400422215 4285474603
-0.2853930593 -0.1058702320 0.5401317477 4285474603
-0.2859005034 -0.1054572836 0.5410920978 4285408809
-0.2859473825 -0.1048732847 0.5411808491 4285343016
-0.2864545584 -0.1044569388 0.5421407223 4285539625
-0.2865010202 -0.1038714275 0.5422286391 4285539625
-0.2870079279 -0.1034516841 0.5431879759 4285474602
-0.2870539725 -0.1028646603 0.5432751179 4285540395
-0.2875606120 -0.1024415269 0.5442339778 4285540395
-0.2880671322 -0.1020162255 0.5451926589 4285606188
-0.2881125808 -0.1014264822 0.5452786684 4285737004
-0.2886188328 -0.1009977907 0.5462367535 4285737004
-0.2895860970 -0.1007273272 0.5480673909 4285867813
-0.2900922000 -0.1002933607 0.5490252972 4285802020
-0.2905982137 -0.0998572335 0.5499829054 4285671981
-0.2915654182 -0.0995764956 0.5518134832 4286000946
-0.2925326824 -0.0992916971 0.5536441207 4286135102
-0.2930384874 -0.0988471732 0.5546013713 4286003516
-0.2940057218 -0.0985551998 0.5564319491 4285742143
-0.2954345942 -0.0984129384 0.5591362119 4286465866
-0.2964019179 -0.0981118977 0.5609669685 4286730323
-0.2978310287 -0.0979586691 0.5636717081 4287783011
-0.2992602885 -0.0977994725 0.5663766861 4288311930
-0.3006896973 -0.0976343155 0.5690819621 4290285720
-0.3025811613 -0.0976122171 0.5726617575 4290356656
-0.3044729233 -0.0975822508 0.5762420893 4292001481
-0.3020113111 -0.1759117395 0.5727872252 4288848556
-0.3016360998 -0.1750575751 0.5720756054 4285426296
-0.3003598154 -0.1736839414 0.5696550608 4285163124
-0.3005814850 -0.1719119400 0.5700754523 4289504182
-0.3006549478 -0.1713204086 0.5702148080 4289241010
-0.3011790514 -0.1709844023 0.5712088346 4288714925
-0.3012521863 -0.1703911126 0.5713475347 4288320167
-0.3008740246 -0.1695432067 0.5706303120 4287794847
-0.3009465933 -0.1689499468 0.5707679391 4287005331
-0.2996650636 -0.1675990373 0.5683374405 4286214530
-0.2974798381 -0.1657499969 0.5641929507 4285556600
-0.2961963415 -0.1644107103 0.5617586970 4285160557
-0.2958152294 -0.1635758132 0.5610359311 4284371041
-0.2936267555 -0.1617469192 0.5568853021 4284434773
-0.2918888330 -0.1601745039 0.5535892248 4284632152
-0.2906017900 -0.1588558704 0.5511482358 4284566873
-0.2893139124 -0.1575421989 0.5487056971 4284632666
-0.2884773314 -0.1564787626 0.5471190214 4284566619
-0.2876400948 -0.1554185003 0.5455311537 4284500826
-0.2868022323 -0.1543614268 0.5439420938 4284500826
-0.2864162326 -0.1535501182 0.5432100296 4284435033
-0.2860297859 -0.1527402103 0.5424770713 4284302934
-0.2856429219 -0.1519317180 0.5417433381 4283842383
-0.2852556407 -0.1511246264 0.5410088301 4283644230
-0.2848679125 -0.1503189355 0.5402735472 4284038988
-0.2849327922 -0.1497527361 0.5403965712 4283840580
-0.2845443487 -0.1489489824 0.5396597981 4283774787
-0.2841554582 -0.1481466442 0.5389223099 4283576634
-0.2837661803 -0.1473457217 0.5381839871 4283708220
-0.2833764553 -0.1465462297 0.5374448895 4283969592
-0.2829863429 -0.1457481533 0.5367049575 4283969592
-0.2830494046 -0.1451841742 0.5368245244 4283707190
-0.2826585174 -0.1443880647 0.5360832214 4283575604
-0.2822672427 -0.1435933858 0.5353411436 4283771956
-0.2823294401 -0.1430301070 0.5354591012 4283771956
-0.2823914289 -0.1424664408 0.5355767012 4283968306
-0.2819991112 -0.1416742653 0.5348325968 4283902513
-0.2820605636 -0.1411107779 0.5349491239 4283967793
-0.2821218073 -0.1405469179 0.5350652933 4283902000
-0.2817284167 -0.1397572756 0.5343192220 4283967793
-0.2817890942 -0.1391935945 0.5344343185 4284033586
-0.2818495929 -0.1386295408 0.5345489979 4284098609
-0.2819098532 -0.1380651295 0.5346633196 4284032816
-0.2815150917 -0.1372785866 0.5339146256 4284163630
-0.2815748155 -0.1367143691 0.5340279341 4284097837
-0.2816343307 -0.1361497939 0.5341407657 4283966764
-0.2816936076 -0.1355848461 0.5342531800 4283966764
-0.2812974751 -0.1348014325 0.5335019231 4283900971
-0.2818115056 -0.1344539076 0.5344767570 4283900971
-0.2814147472 -0.1336716115 0.5337243080 4283835178
-0.2810175717 -0.1328907907 0.5329710841 4283835178
-0.2815311253 -0.1325403899 0.5339450240 4283835176
-0.2811333239 -0.1317607015 0.5331905484 4283835176
-0.2811908424 -0.1311951280 0.5332996845 4284097835
-0.2812481523 -0.1306292117 0.5334083438 4284163628
-0.2808493078 -0.1298521459 0.5326519608 4284163628
-0.2809060812 -0.1292864680 0.5327596068 4284097835
-0.2809626162 -0.1287204325 0.5328668356 4284097835
-0.2810189426 -0.1281540543 0.5329736471 4284097835
-0.2810750306 -0.1275873482 0.5330799818 4284097835
-0.2811308801 -0.1270202994 0.5331859589 4284097835
-0.2811865211 -0.1264529079 0.5332914591 4284294699
-0.2807853818 -0.1256808341 0.5325306654 4284294699
-0.2808404565 -0.1251136959 0.5326351523 4284426026
-0.2808953226 -0.1245462224 0.5327392220 4284426026
-0.2809499502 -0.1239784211 0.5328428149 4284556842
-0.2805474401 -0.1232096180 0.5320793986 4284622635
-0.2806015313 -0.1226420850 0.5321820378 4284688428
-0.2806554139 -0.1220742166 0.5322841406 4284622635
-0.2807090282 -0.1215060279 0.5323858857 4284819501
-0.2807624340 -0.1209375113 0.5324871540 4284819501
-0.2808156013 -0.1203686744 0.5325880051 4284950830
-0.2808685601 -0.1197995096 0.5326883793 4285016623
-0.2809212506 -0.1192300245 0.5327883959 4285147439
-0.2814313471 -0.1188534796 0.5337557793 4285081646
-0.2814836800 -0.1182824299 0.5338550210 4285081646
-0.2815357745 -0.1177110597 0.5339538455 4285081646
-0.2815876305 -0.1171393767 0.5340521932 4284950058
-0.2820972204 -0.1167569160 0.5350186825 4284950058
-0.2821486890 -0.1161836684 0.5351163149 4285015851
-0.2821999490 -0.1156101078 0.5352135301 4285015851
-0.2822509408 -0.1150362417 0.5353102684 4285015851
-0.2823017240 -0.1144620553 0.5354065299 4284950058
-0.2823522687 -0.1138875708 0.5355023742 4284949801
-0.2824025750 -0.1133127734 0.5355978012 4284818215
-0.2824526429 -0.1127376631 0.5356927514 4285014822
-0.2825024724 -0.1121622548 0.5357872844 4285014822
-0.2830107510 -0.1117676869 0.5367512703 4285080615
-0.2835189402 -0.1113709509 0.5377150774 4285080615
-0.2835682333 -0.1107927635 0.5378085375 4285080615
-0.2836172581 -0.1102142707 0.5379015207 4285146408
-0.2841250598 -0.1098128930 0.5388646126 4285211688
-0.2841736972 -0.1092328653 0.5389568806 4285080102
-0.2842220664 -0.1086525470 0.5390486121 4285211430
-0.2842702270 -0.1080719307 0.5391399860 4285277223
-0.2843181491 -0.1074910164 0.5392308235 4285277481
-0.2848252058 -0.1070825309 0.5401924849 4285343274
-0.2848727107 -0.1065000966 0.5402826071 4285343274
-0.2853794992 -0.1060882062 0.5412437916 4285343274
-0.2849669755 -0.1053343564 0.5404613614 4285343016
-0.2854734361 -0.1049200073 0.5414219499 4285343016
-0.2859798074 -0.1045034900 0.5423822999 4285474602
-0.2864860892 -0.1040847972 0.5433425307 4285540395
-0.2865323424 -0.1034978181 0.5434302092 4285606189
-0.2865783572 -0.1029105484 0.5435174704 4285671982
-0.2870841920 -0.1024872437 0.5444768667 4285737775
-0.2875899076 -0.1020617634 0.5454360247 4285803568
-0.2880955637 -0.1016341224 0.5463949442 4286000176
-0.2881407738 -0.1010429040 0.5464807749 4286000176
-0.2891064882 -0.1007723361 0.5483123064 4286066221
-0.2896118164 -0.1003381908 0.5492706299 4286132014
-0.2901169956 -0.0999018773 0.5502288342 4285804338
-0.2910826802 -0.0996210277 0.5520602465 4286067510
-0.2920483649 -0.0993361101 0.5538917780 4285938495
-0.2930140793 -0.0990471393 0.5557233095 4286070081
-0.2935190201 -0.0985993147 0.5566810369 4285875014
-0.2949455678 -0.0984570011 0.5593865514 4286796116
-0.2959113419 -0.0981558412 0.5612182021 4287520867
-0.2973381281 -0.0980025530 0.5639242530 4288310383
-0.2987650633 -0.0978433043 0.5666304827 4288773765
-0.3006532490 -0.0978281274 0.5702115893 4289826453
-0.3020805418 -0.0976559892 0.5729185343 4289896620
-0.3039692044 -0.0976260155 0.5765005350 4292067789
-0.3029269576 -0.1761778444 0.5757365823 4287269271
-0.3016533256 -0.1748001277 0.5733159781 4285821825
-0.3005264699 -0.1722433120 0.5711743236 4289767613
-0.3005999923 -0.1716506630 0.5713140368 4289043890
-0.3006732762 -0.1710575968 0.5714533329 4288386730
-0.3007463515 -0.1704640836 0.5715922117 4288189351
-0.3012695312 -0.1701244414 0.5725865364 4287729313
-0.3008918464 -0.1692757756 0.5718687177 4287071383
-0.3005137146 -0.1684284508 0.5711500645 4286609803
-0.2996844947 -0.1673308611 0.5695740581 4286412424
-0.2979530990 -0.1657349467 0.5662834048 4285885051
-0.2957697511 -0.1638959050 0.5621337891 4284437605
-0.2935851216 -0.1620653719 0.5579817295 4284500566
-0.2923013568 -0.1607394665 0.5555418134 4284632152
-0.2905655801 -0.1591713578 0.5522428155 4284566873
-0.2892799973 -0.1578562558 0.5497995019 4284566873
-0.2884449661 -0.1567914933 0.5482124686 4284500826
-0.2876093388 -0.1557299048 0.5466242433 4284369240
-0.2872246504 -0.1549150944 0.5458931327 4284435033
-0.2863878310 -0.1538589895 0.5443027020 4284369240
-0.2860021889 -0.1530478746 0.5435697436 4284237141
-0.2856161296 -0.1522381604 0.5428360105 4283776590
-0.2852296531 -0.1514298469 0.5421015024 4283578437
-0.2848427594 -0.1506229341 0.5413661599 4284038988
-0.2844554484 -0.1498174518 0.5406300426 4283774787
-0.2840676904 -0.1490133703 0.5398930907 4283708994
-0.2836795449 -0.1482107043 0.5391553640 4283445050
-0.2832909524 -0.1474094689 0.5384168625 4283576636
-0.2833545804 -0.1468442380 0.5385378003 4283772213
-0.2825125158 -0.1458112746 0.5369373560 4283706420
-0.2825755179 -0.1452470869 0.5370571017 4283509811
-0.2821853757 -0.1444506496 0.5363156199 4283444018
-0.2817947865 -0.1436556578 0.5355733037 4283640368
-0.2818569541 -0.1430921555 0.5356914401 4283706161
-0.2819188833 -0.1425282657 0.5358091593 4283902511
-0.2819806039 -0.1419640183 0.5359264612 4283902511
-0.2815886736 -0.1411720812 0.5351815224 4283836207
-0.2816498578 -0.1406079978 0.5352978110 4283770414
-0.2817108333 -0.1400435567 0.5354136825 4283836207
-0.2813178301 -0.1392541379 0.5346667767 4283836207
-0.2813782692 -0.1386898607 0.5347816348 4283967277
-0.2814384699 -0.1381252408 0.5348960757 4283901484
-0.2814984620 -0.1375602484 0.5350100994 4284163114
-0.2811041176 -0.1367739290 0.5342605710 4284163114
-0.2811635733 -0.1362091303 0.5343735814 4283966251
-0.2812227905 -0.1356439739 0.5344861746 4283966251
-0.2812817991 -0.1350784600 0.5345982909 4283966251
-0.2813405991 -0.1345125884 0.5347100496 4283900458
-0.2809445560 -0.1337299794 0.5339573622 4283900458
-0.2805481255 -0.1329488456 0.5332038403 4283834665
-0.2810608447 -0.1325983107 0.5341783166 4283834665
-0.2806637585 -0.1318182945 0.5334236622 4283834665
-0.2807212472 -0.1312525123 0.5335329175 4284032042
-0.2807784975 -0.1306863576 0.5336417556 4284163628
-0.2808355391 -0.1301198751 0.5337501168 4284294700
-0.2804371119 -0.1293430775 0.5329928994 4284228907
-0.2804935873 -0.1287768185 0.5331002474 4284228907
-0.2805498540 -0.1282102168 0.5332071781 4284228907
-0.2806059122 -0.1276432872 0.5333136916 4284163114
-0.2806617320 -0.1270760000 0.5334197879 4284163114
-0.2807173133 -0.1265083849 0.5335254669 4284294699
-0.2807726860 -0.1259404421 0.5336306691 4284294699
-0.2803719342 -0.1251686215 0.5328690410 4284425772
-0.2804267704 -0.1246009320 0.5329732299 4284425772
-0.2804813385 -0.1240328997 0.5330769420 4284491051
-0.2805356979 -0.1234645396 0.5331802964 4284556844
-0.2801336050 -0.1226960197 0.5324160457 4284556844
-0.2801874280 -0.1221279278 0.5325183272 4284491051
-0.2802410126 -0.1215595007 0.5326201916 4284622635
-0.2802943587 -0.1209907606 0.5327215791 4284688428
-0.2803474963 -0.1204216853 0.5328225493 4284885037
-0.2804003954 -0.1198522970 0.5329231024 4284950830
-0.2804530561 -0.1192825809 0.5330232382 4285016623
-0.2809623480 -0.1189058870 0.5339911580 4284950830
-0.2810146511 -0.1183345988 0.5340905190 4284885037
-0.2810666859 -0.1177629977 0.5341894627 4284950830
-0.2811185122 -0.1171910837 0.5342879891 4285015851
-0.2816272974 -0.1168084741 0.5352549553 4285015851
-0.2816787362 -0.1162349954 0.5353527069 4284885035
-0.2817299366 -0.1156611964 0.5354500413 4284885035
-0.2817809284 -0.1150870919 0.5355468988 4284884265
-0.2818316519 -0.1145126745 0.5356433392 4284818472
-0.2818821371 -0.1139379516 0.5357393026 4284884008
-0.2819324136 -0.1133629158 0.5358348489 4284752422
-0.2819824517 -0.1127875745 0.5359299183 4284818213
-0.2824900746 -0.1123940945 0.5368946791 4284818213
-0.2825396955 -0.1118172035 0.5369890332 4284949799
-0.2830471098 -0.1114203110 0.5379533768 4285015592
-0.2830963433 -0.1108418778 0.5380469561 4284949799
-0.2836034894 -0.1104415730 0.5390108824 4285015592
-0.2836523354 -0.1098616049 0.5391036868 4285212201
-0.2837009430 -0.1092813388 0.5391960144 4285080615
-0.2837492824 -0.1087007821 0.5392879248 4285211430
-0.2837974131 -0.1081199199 0.5393793583 4285277223
-0.2838452756 -0.1075387672 0.5394703746 4285211688
-0.2843515277 -0.1071301177 0.5404325724 4285277481
-0.2843990028 -0.1065474376 0.5405227542 4285277481
-0.2849049866 -0.1061353758 0.5414844751 4285277481
-0.2844931781 -0.1053812131 0.5407018065 4285343016
-0.2849988639 -0.1049666926 0.5416628718 4285343016
-0.2855044305 -0.1045500040 0.5426237583 4285540395
-0.2860099077 -0.1041311473 0.5435844064 4285606188
-0.2860561311 -0.1035439149 0.5436722636 4285671982
-0.2865613401 -0.1031216606 0.5446324944 4285737775
-0.2870664299 -0.1026972383 0.5455924869 4285803568
-0.2871120572 -0.1021072716 0.5456791520 4285869361
-0.2876169086 -0.1016794518 0.5466386676 4286065969
-0.2881216109 -0.1012494639 0.5475978851 4286065969
-0.2886262536 -0.1008173078 0.5485569835 4285738285
-0.2891307473 -0.1003829762 0.5495158434 4286067250
-0.2900948822 -0.1001051292 0.5513482690 4285739574
-0.2910590768 -0.0998232216 0.5531807542 4286002746
-0.2915633917 -0.0993804932 0.5541392565 4285939011
-0.2925275266 -0.0990914106 0.5559716821 4286333769
-0.2934917212 -0.0987982526 0.5578041673 4286270030
-0.2944559157 -0.0985010341 0.5596367121 4287322718
-0.2958802879 -0.0983527079 0.5623438358 4287850861
-0.2973048091 -0.0981984138 0.5650512576 4288311412
-0.2987294495 -0.0980381593 0.5677589774 4288971660
-0.3006146252 -0.0980220363 0.5713418722 4289695383
-0.3025000691 -0.0979980454 0.5749253035 4290028721
-0.3039252758 -0.0978179649 0.5776340365 4292463062
-0.3042110801 -0.1772989482 0.5794003010 4290428105
-0.3024913073 -0.1756565273 0.5761247873 4286941076
-0.3012935519 -0.1736858189 0.5738435388 4289638591
-0.3000201583 -0.1723168641 0.5714182258 4288716721
-0.3000936210 -0.1717240065 0.5715581179 4287992998
-0.3001668453 -0.1711307168 0.5716975927 4287992487
-0.3006893098 -0.1707922816 0.5726926923 4287729315
-0.3007622063 -0.1701972336 0.5728315711 4287597216
-0.3008348942 -0.1696017534 0.5729699731 4287202458
-0.3000077903 -0.1685006022 0.5713946819 4286872724
-0.2991800308 -0.1674025804 0.5698181391 4286609552
-0.2974516153 -0.1658060104 0.5665261745 4285951622
-0.2934715748 -0.1629664153 0.5589457750 4284898934
-0.2921906710 -0.1616368145 0.5565062165 4284568165
-0.2904585898 -0.1600639969 0.5532072783 4284239200
-0.2882750332 -0.1582506597 0.5490484834 4284107614
-0.2878923416 -0.1574313492 0.5483195782 4284041821
-0.2893117666 -0.1575953364 0.5510230660 4284107099
-0.2871256471 -0.1557969004 0.5468593836 4284172892
-0.2867416739 -0.1549817622 0.5461280346 4284435033
-0.2854553759 -0.1536824554 0.5436781645 4284303447
-0.2859724760 -0.1533556879 0.5446630120 4284302675
-0.2851360440 -0.1523037553 0.5430699587 4283578952
-0.2847502828 -0.1514951289 0.5423352122 4283512644
-0.2843640745 -0.1506879032 0.5415996909 4283710023
-0.2844289541 -0.1501203924 0.5417231917 4283512129
-0.2840420008 -0.1493150890 0.5409862399 4283183164
-0.2836546600 -0.1485112160 0.5402485132 4283248441
-0.2828150988 -0.1474731714 0.5386494994 4283248441
-0.2828786969 -0.1469077170 0.5387706161 4283575856
-0.2824900746 -0.1461081058 0.5380304456 4283510063
-0.2821010649 -0.1453099251 0.5372895002 4283772206
-0.2821637988 -0.1447451413 0.5374090075 4283772206
-0.2817740142 -0.1439489275 0.5366666317 4283836716
-0.2813838422 -0.1431541443 0.5359235406 4283836716
-0.2814457417 -0.1425900608 0.5360413790 4283901998
-0.2815074027 -0.1420255899 0.5361588597 4283836205
-0.2815688550 -0.1414607465 0.5362759233 4284033070
-0.2811773121 -0.1406690180 0.5355301499 4283901484
-0.2812382281 -0.1401043534 0.5356462002 4283966764
-0.2812989354 -0.1395393312 0.5357617736 4283966764
-0.2809063196 -0.1387501359 0.5350140333 4283835691
-0.2809664905 -0.1381852925 0.5351286530 4283835691
-0.2810264230 -0.1376200765 0.5352427959 4283704619
-0.2810861468 -0.1370545030 0.5353565216 4283638826
-0.2806921899 -0.1362684369 0.5346062183 4283901482
-0.2807513773 -0.1357030571 0.5347189307 4283835689
-0.2808103561 -0.1351373196 0.5348312259 4283835176
-0.2808690965 -0.1345712245 0.5349431038 4283835176
-0.2804737687 -0.1337882876 0.5341901779 4283769383
-0.2805319726 -0.1332224160 0.5343010426 4283703590
-0.2801359296 -0.1324415207 0.5335467458 4283835176
-0.2801935971 -0.1318758577 0.5336565375 4283900969
-0.2802510262 -0.1313098371 0.5337659717 4284097835
-0.2803082466 -0.1307434738 0.5338749290 4284163628
-0.2803652287 -0.1301767528 0.5339834690 4284163628
-0.2804220021 -0.1296097040 0.5340915918 4284097835
-0.2804785371 -0.1290422976 0.5341992974 4284097835
-0.2805348635 -0.1284745634 0.5343065262 4284097835
-0.2801361978 -0.1276991665 0.5335472226 4284228907
-0.2801919580 -0.1271316707 0.5336534381 4284228907
-0.2802475095 -0.1265638322 0.5337592363 4284228907
-0.2803028226 -0.1259956509 0.5338646173 4284360493
-0.2799027860 -0.1252235174 0.5331026912 4284491565
-0.2799575627 -0.1246555969 0.5332070589 4284425772
-0.2800121307 -0.1240873411 0.5333109498 4284425772
-0.2800664306 -0.1235187501 0.5334143639 4284425772
-0.2801205218 -0.1229498312 0.5335174203 4284556844
-0.2801744044 -0.1223805770 0.5336199999 4284688430
-0.2802280188 -0.1218110025 0.5337221622 4284622637
-0.2802814245 -0.1212411001 0.5338238478 4284688430
-0.2803345919 -0.1206708699 0.5339251161 4284885294
-0.2803875506 -0.1201003194 0.5340259671 4284885294
-0.2804402709 -0.1195294484 0.5341263413 4285016623
-0.2804927230 -0.1189582497 0.5342262983 4284950830
-0.2810011506 -0.1185792312 0.5351946354 4284950830
-0.2810532451 -0.1180064678 0.5352938771 4284950830
-0.2811051309 -0.1174333915 0.5353926420 4284950058
-0.2811567485 -0.1168599874 0.5354909897 4284884265
-0.2812081575 -0.1162862778 0.5355889201 4285015594
-0.2817158997 -0.1159000918 0.5365559459 4285015594
-0.2817669213 -0.1153248176 0.5366531610 4284884008
-0.2818177044 -0.1147492379 0.5367498398 4284884008
-0.2818682492 -0.1141733378 0.5368461013 4284818472
-0.2819185555 -0.1135971323 0.5369419456 4284752679
-0.2819686234 -0.1130206212 0.5370372534 4284884008
-0.2820184529 -0.1124438047 0.5371322036 4284818215
-0.2825252116 -0.1120479926 0.5380973220 4284884008
-0.2830318809 -0.1116499975 0.5390623808 4284884008
-0.2830811441 -0.1110703945 0.5391561985 4285014824
-0.2831301987 -0.1104904935 0.5392495990 4285080617
-0.2836364806 -0.1100878492 0.5402138829 4285081387
-0.2836851180 -0.1095064059 0.5403065085 4285081387
-0.2837334871 -0.1089246646 0.5403986573 4285277481
-0.2837816477 -0.1083426252 0.5404903889 4285211688
-0.2838295698 -0.1077602953 0.5405816436 4285211430
-0.2838772237 -0.1071776673 0.5406724215 4285211430
-0.2839246690 -0.1065947413 0.5407627225 4285211430
-0.2844298482 -0.1061825156 0.5417249799 4285211430
-0.2844768763 -0.1055980772 0.5418145061 4285343274
-0.2849818170 -0.1051824465 0.5427762270 4285540653
-0.2850284278 -0.1045964882 0.5428649783 4285475375
-0.2855331004 -0.1041774526 0.5438261628 4285409582
-0.2860376835 -0.1037562564 0.5447871685 4285476145
-0.2860836983 -0.1031675488 0.5448748469 4285607731
-0.2865879834 -0.1027429476 0.5458353162 4285738547
-0.2870922089 -0.1023161784 0.5467956662 4285738547
-0.2871375978 -0.1017247438 0.5468821526 4285870133
-0.2876415253 -0.1012945771 0.5478419065 4285870133
-0.2881453633 -0.1008622423 0.5488014817 4285739315
-0.2891079485 -0.1005873978 0.5506348610 4285936694
-0.2900705934 -0.1003084928 0.5524682999 4285740857
-0.2905742526 -0.0998677537 0.5534275174 4286069822
-0.2915368676 -0.0995816663 0.5552609563 4286465868
-0.2924995422 -0.0992915183 0.5570944548 4286794833
-0.2934622169 -0.0989972949 0.5589279532 4287059548
-0.2944248915 -0.0986990109 0.5607615113 4287783271
-0.2958469987 -0.0985496789 0.5634700656 4287916660
-0.2972692549 -0.0983943865 0.5661788583 4288508797
-0.2986916602 -0.0982331112 0.5688880086 4288710291
-0.3005737960 -0.0982160494 0.5724726915 4289565600
-0.3024562001 -0.0981911048 0.5760579109 4289438124
-0.3043388724 -0.0981582850 0.5796436667 4291938258
-0.3019799888 -0.1757313311 0.5763701797 4288849073
-0.3007843792 -0.1737598777 0.5740882158 4289704384
-0.3004099429 -0.1729065031 0.5733735561 4288914100
-0.3000350595 -0.1720544696 0.5726580024 4288058791
-0.3001083434 -0.1714600772 0.5727978945 4287992487
-0.3001814187 -0.1708652377 0.5729373097 4287795108
-0.3007030785 -0.1705244929 0.5739330053 4287597216
-0.3003268838 -0.1696742773 0.5732149482 4287136665
-0.2986031771 -0.1680672169 0.5699250698 4286872724
-0.3000223339 -0.1682297438 0.5726336837 4286675345
-0.2969494760 -0.1658769995 0.5667687654 4286214794
-0.2952229679 -0.1642865092 0.5634734631 4285491071
-0.2934953868 -0.1627027392 0.5601761341 4285226608
-0.2917667031 -0.1611257046 0.5568767190 4284700264
-0.2904866636 -0.1598027796 0.5544335842 4284239713
-0.2878564298 -0.1577453911 0.5494133830 4283910748
-0.2888237536 -0.1576630026 0.5512596965 4283647318
-0.2870913446 -0.1561085135 0.5479531884 4283778904
-0.2867082059 -0.1552921683 0.5472218394 4284369242
-0.2849740088 -0.1537485421 0.5439119339 4284303449
-0.2859405875 -0.1536636502 0.5457567573 4284105809
-0.2846553326 -0.1523693204 0.5433037281 4283513672
-0.2842702866 -0.1515603662 0.5425687432 4283447365
-0.2843354046 -0.1509921104 0.5426930785 4283644744
-0.2839496136 -0.1501850933 0.5419567227 4283512642
-0.2835633755 -0.1493794769 0.5412195325 4283183677
-0.2831767201 -0.1485752761 0.5404815674 4283380027
-0.2827896774 -0.1477725059 0.5397428274 4283380027
-0.2824021876 -0.1469711512 0.5390032530 4283576369
-0.2820142806 -0.1461712271 0.5382628441 4283510576
-0.2816259563 -0.1453727335 0.5375217199 4283640879
-0.2816886306 -0.1448077261 0.5376413465 4283575086
-0.2812995911 -0.1440111995 0.5368987918 4283574316
-0.2813617587 -0.1434463561 0.5370174050 4283574316
-0.2814236879 -0.1428811252 0.5371356606 4283836207
-0.2814854085 -0.1423155367 0.5372534394 4283770414
-0.2810949683 -0.1415220499 0.5365082622 4283967023
-0.2807041407 -0.1407300085 0.5357623100 4283901230
-0.2807650268 -0.1401651204 0.5358784795 4283967277
-0.2808256745 -0.1395998746 0.5359942317 4283901484
-0.2808860838 -0.1390342563 0.5361095667 4283769898
-0.2804938853 -0.1382452995 0.5353609920 4283769898
-0.2805537879 -0.1376798600 0.5354753137 4283704621
-0.2806134522 -0.1371140778 0.5355892181 4283638828
-0.2806729078 -0.1365479231 0.5357027054 4283835691
-0.2802793682 -0.1357620806 0.5349515080 4283769898
-0.2803382576 -0.1351961195 0.5350639820 4283704105
-0.2803969681 -0.1346298158 0.5351759791 4283769898
-0.2800023556 -0.1338465661 0.5344228745 4283769898
-0.2796073258 -0.1330647916 0.5336688757 4283704105
-0.2801184356 -0.1327140033 0.5346444249 4283900971
-0.2797228098 -0.1319333613 0.5338892341 4283900971
-0.2797801793 -0.1313671172 0.5339987874 4283966764
-0.2798373699 -0.1308005303 0.5341079235 4283966764
-0.2798942924 -0.1302336007 0.5342165828 4284032557
-0.2799510360 -0.1296663135 0.5343248844 4283966764
-0.2800075114 -0.1290986836 0.5344327092 4284032555
-0.2800638080 -0.1285307258 0.5345401168 4284032555
-0.2801198363 -0.1279624104 0.5346470475 4284163628
-0.2797215581 -0.1271872818 0.5338869095 4284097835
-0.2797770798 -0.1266192198 0.5339928269 4284294700
-0.2798323333 -0.1260508150 0.5340983272 4284360493
-0.2794330418 -0.1252783686 0.5333362222 4284294699
-0.2794877589 -0.1247102171 0.5334406495 4284360492
-0.2795422673 -0.1241417304 0.5335447192 4284491565
-0.2795965374 -0.1235729158 0.5336483121 4284557358
-0.2796505988 -0.1230037659 0.5337514281 4284557358
-0.2797044218 -0.1224342883 0.5338541865 4284557358
-0.2797580063 -0.1218644828 0.5339564681 4284622637
-0.2798113525 -0.1212943494 0.5340583324 4284688430
-0.2798644900 -0.1207238883 0.5341597199 4284688430
-0.2799173892 -0.1201531067 0.5342606902 4284754223
-0.2799700797 -0.1195820048 0.5343612432 4284819501
-0.2804778218 -0.1192040890 0.5353303552 4284819501
-0.2805301249 -0.1186314151 0.5354301333 4284819501
-0.2805821896 -0.1180584133 0.5355294943 4284819501
-0.2806340158 -0.1174850985 0.5356284380 4284819244
-0.2806856036 -0.1169114709 0.5357269049 4284819244
-0.2807369530 -0.1163375229 0.5358248949 4284884267
-0.2812438905 -0.1159511879 0.5367925167 4284818474
-0.2812948823 -0.1153756753 0.5368897915 4284818474
-0.2813456059 -0.1147998571 0.5369866490 4284818474
-0.2813961208 -0.1142237261 0.5370830297 4284818474
-0.2814463675 -0.1136472821 0.5371789336 4284818474
-0.2814964056 -0.1130705327 0.5372744203 4284818472
-0.2815462053 -0.1124934778 0.5373694897 4284752679
-0.2825085521 -0.1122788936 0.5392062664 4284818215
-0.2825580239 -0.1116993576 0.5393006802 4284884008
-0.2826072574 -0.1111195162 0.5393946767 4284884008
-0.2826562524 -0.1105393693 0.5394881964 4284949801
-0.2831617296 -0.1101365611 0.5404529572 4285015594
-0.2832103372 -0.1095548794 0.5405457020 4285015594
-0.2832586765 -0.1089728996 0.5406379700 4285211688
-0.2833068073 -0.1083906218 0.5407298207 4285145895
-0.2833546698 -0.1078080460 0.5408211946 4285211688
-0.2834022939 -0.1072251722 0.5409120917 4285211688
-0.2834496796 -0.1066420153 0.5410025716 4285145895
-0.2839540839 -0.1062296182 0.5419652462 4285145895
-0.2840010524 -0.1056449339 0.5420549512 4285212201
-0.2845051885 -0.1052291393 0.5430171490 4285475373
-0.2850092351 -0.1048111618 0.5439791679 4285344559
-0.2850556374 -0.1042237282 0.5440677404 4285410352
-0.2855594158 -0.1038023531 0.5450292826 4285607731
-0.2860631049 -0.1033788100 0.5459905863 4285739317
-0.2865666747 -0.1029530913 0.5469517112 4285739317
-0.2870701551 -0.1025252044 0.5479127169 4285673524
-0.2871156037 -0.1019325703 0.5479994416 4285739317
-0.2876187861 -0.1015012786 0.5489598513 4285805110
-0.2881218791 -0.1010678187 0.5499200821 4285871160
-0.2886248529 -0.1006321907 0.5508800745 4286134332
-0.2900441289 -0.1005119607 0.5535889864 4286201667
-0.2905470431 -0.1000700891 0.5545488000 4286662218
-0.2915081680 -0.0997829437 0.5563832521 4286992727
-0.2924693227 -0.0994917303 0.5582177639 4287321692
-0.2929720283 -0.0990414470 0.5591772199 4287585638
-0.2943917215 -0.0988970846 0.5618869066 4288243568
-0.2953529358 -0.0985936597 0.5637215376 4287917175
-0.2972315252 -0.0985904485 0.5673071146 4288575105
-0.2986516654 -0.0984281749 0.5700176358 4288710291
-0.3000719547 -0.0982599184 0.5727283955 4289631393
-0.3024101257 -0.0983842686 0.5771911740 4289635503
-0.3042897880 -0.0983504951 0.5807787180 4292069844
-0.3016170859 -0.1746110618 0.5769004226 4289507005
-0.3003484309 -0.1732383370 0.5744739175 4288782514
-0.2999743521 -0.1723850965 0.5737584233 4288058791
-0.3000476956 -0.1717895865 0.5738986731 4287926694
-0.2996728718 -0.1709381342 0.5731817484 4287729315
-0.3001936972 -0.1705972701 0.5741779208 4287400095
-0.2998181880 -0.1697467268 0.5734597445 4287005337
-0.2994422913 -0.1688975394 0.5727407336 4286741908
-0.2981691658 -0.1675458103 0.5703056455 4286610322
-0.2959982157 -0.1656968892 0.5661533475 4286281357
-0.2942745984 -0.1641066372 0.5628565550 4285820806
-0.2925498784 -0.1625231206 0.5595576763 4285950592
-0.2912729084 -0.1611947119 0.5571151972 4285358455
-0.2899950743 -0.1598712504 0.5546711087 4284832109
-0.2882673740 -0.1583061814 0.5513665676 4284239972
-0.2865386009 -0.1567478776 0.5480599999 4283778649
-0.2861564457 -0.1559307128 0.5473290682 4283778649
-0.2871218920 -0.1558466107 0.5491756201 4284172633
-0.2853909135 -0.1543005556 0.5458647609 4284041047
-0.2850075066 -0.1534875780 0.5451314449 4283908176
-0.2846236527 -0.1526760012 0.5443972945 4283381832
-0.2837896645 -0.1516255438 0.5428020954 4283381573
-0.2838547230 -0.1510570794 0.5429265499 4283513159
-0.2834696472 -0.1502497345 0.5421900153 4283381058
-0.2830841243 -0.1494438052 0.5414525867 4283183679
-0.2826981843 -0.1486392915 0.5407144427 4283248957
-0.2823118269 -0.1478361934 0.5399754643 4283183164
-0.2819250524 -0.1470345259 0.5392356515 4283379506
-0.2815378606 -0.1462342888 0.5384951234 4283379506
-0.2811502516 -0.1454354674 0.5377537012 4283510065
-0.2812128961 -0.1448702514 0.5378735065 4283378479
-0.2812753022 -0.1443046629 0.5379928946 4283508782
-0.2808866501 -0.1435083449 0.5372495055 4283508782
-0.2809485197 -0.1429429054 0.5373678803 4283705134
-0.2805591226 -0.1421485692 0.5366231203 4283639341
-0.2806204855 -0.1415832937 0.5367404222 4283770414
-0.2802303731 -0.1407909393 0.5359942913 4283704621
-0.2802911699 -0.1402258277 0.5361105800 4283835437
-0.2803517878 -0.1396603584 0.5362265110 4283769644
-0.2804121673 -0.1390945315 0.5363419652 4283573035
-0.2804723382 -0.1385283321 0.5364570618 4283573035
-0.2800805271 -0.1377395988 0.5357076526 4283507755
-0.2801401615 -0.1371735930 0.5358217359 4283441962
-0.2801995575 -0.1366072148 0.5359353423 4283638828
-0.2802587450 -0.1360404789 0.5360485315 4283573035
-0.2798655629 -0.1352548897 0.5352965593 4283703851
-0.2799242139 -0.1346883476 0.5354086757 4283769644
-0.2795303166 -0.1339047849 0.5346553326 4283769644
-0.2795884311 -0.1333384514 0.5347664356 4283769644
-0.2796463370 -0.1327717751 0.5348771811 4283901230
-0.2792513967 -0.1319908202 0.5341218114 4283835437
-0.2793087363 -0.1314243525 0.5342314839 4283901230
-0.2793658674 -0.1308575422 0.5343407393 4283901230
-0.2794227600 -0.1302903891 0.5344495773 4283901230
-0.2794794440 -0.1297228783 0.5345579386 4283901230
-0.2795358896 -0.1291550249 0.5346659422 4283967277
-0.2795920968 -0.1285868436 0.5347734690 4284033070
-0.2796481252 -0.1280183047 0.5348805785 4284033070
-0.2797038853 -0.1274494231 0.5349872708 4284033070
-0.2797594368 -0.1268802136 0.5350935459 4284360493
-0.2793612480 -0.1261059344 0.5343319178 4284294700
-0.2794162631 -0.1255369633 0.5344371200 4284294700
-0.2794710398 -0.1249676645 0.5345419049 4284360493
-0.2795255780 -0.1243980229 0.5346462131 4284492079
-0.2795799077 -0.1238280535 0.5347501040 4284557872
-0.2796339989 -0.1232577488 0.5348535776 4284623151
-0.2796878517 -0.1226871163 0.5349566340 4284557358
-0.2797414958 -0.1221161559 0.5350592136 4284491565
-0.2797949016 -0.1215448678 0.5351613164 4284491565
-0.2798480690 -0.1209732518 0.5352630615 4284622637
-0.2799009979 -0.1204013079 0.5353643298 4284688430
-0.2799537182 -0.1198290437 0.5354651213 4284688430
-0.2800062001 -0.1192564592 0.5355654955 4284688430
-0.2805131078 -0.1188762113 0.5365350246 4284688428
-0.2805652022 -0.1183020547 0.5366346836 4284688428
-0.2806170583 -0.1177275777 0.5367339253 4284687915
-0.2806687057 -0.1171527803 0.5368326902 4284687915
-0.2807201147 -0.1165776625 0.5369309783 4284753451
-0.2807712555 -0.1160022393 0.5370288491 4284687658
-0.2808221877 -0.1154264957 0.5371262431 4284753451
-0.2808728814 -0.1148504391 0.5372232199 4284753451
-0.2809233665 -0.1142740697 0.5373197198 4284687658
-0.2809735835 -0.1136973947 0.5374158025 4284687658
-0.2819344997 -0.1134870872 0.5392537713 4284818474
-0.2819844186 -0.1129079238 0.5393491983 4284752681
-0.2820340991 -0.1123284549 0.5394442677 4284752681
-0.2820835412 -0.1117486730 0.5395388007 4284752681
-0.2825885117 -0.1113481894 0.5405046940 4284883754
-0.2826375663 -0.1107668653 0.5405984521 4284949547
-0.2826863527 -0.1101852432 0.5406917930 4284950060
-0.2827349007 -0.1096033230 0.5407847166 4284950060
-0.2827832401 -0.1090210974 0.5408771038 4285146408
-0.2828313112 -0.1084385812 0.5409690738 4285146408
-0.2828791440 -0.1078557596 0.5410605669 4285146408
-0.2833830714 -0.1074456722 0.5420244336 4285212201
-0.2834304869 -0.1068613231 0.5421151519 4285015594
-0.2834776938 -0.1062766835 0.5422053933 4285015594
-0.2835246325 -0.1056917533 0.5422951579 4285212973
-0.2840279639 -0.1052757874 0.5432578921 4285410352
-0.2845312059 -0.1048576459 0.5442204475 4285541938
-0.2850343287 -0.1044373289 0.5451827645 4285541938
-0.2850805223 -0.1038484201 0.5452710986 4285739574
-0.2855834067 -0.1034246981 0.5462329388 4285936953
-0.2860861719 -0.1029988080 0.5471946001 4285871160
-0.2865888476 -0.1025707424 0.5481560826 4285739574
-0.2870914042 -0.1021405086 0.5491173267 4285608758
-0.2875938714 -0.1017080918 0.5500783920 4285740344
-0.2880962193 -0.1012735069 0.5510392189 4285806396
-0.2890558541 -0.1009965539 0.5528746843 4286201154
-0.2900154889 -0.1007155329 0.5547102094 4286531149
-0.2905176580 -0.1002725363 0.5556706786 4287123286
-0.2914772928 -0.0999843255 0.5575061440 4287388000
-0.2919793129 -0.0995360315 0.5584663749 4287651172
-0.2929389179 -0.0992406309 0.5603017807 4287784046
-0.2938985229 -0.0989411548 0.5621372461 4288310390
-0.2953160405 -0.0987907648 0.5648484826 4288180347
-0.2967336774 -0.0986344069 0.5675600171 4288706691
-0.2981514633 -0.0984720662 0.5702718496 4288776084
-0.3000274599 -0.0984540656 0.5738599896 4289697186
-0.3019037247 -0.0984281749 0.5774487257 4289636271
-0.3037802577 -0.0983943939 0.5810379386 4292070612
-0.3019978106 -0.1752036661 0.5788583755 4289375419
-0.3011784554 -0.1740869135 0.5772878528 4288519342
-0.3003584445 -0.1729732752 0.5757161379 4287992998
-0.2999848723 -0.1721192598 0.5750000477 4287729572
-0.2996108234 -0.1712665856 0.5742831230 4287466400
-0.2996836603 -0.1706700027 0.5744227171 4287202716
-0.2993088663 -0.1698191315 0.5737043023 4286939544
-0.2975911498 -0.1682107598 0.5704118013 4286741908
-0.2990055978 -0.1683734953 0.5731230378 4286610322
-0.2954955697 -0.1657676548 0.5663951635 4286347150
-0.2937749326 -0.1641767621 0.5630970597 4285952392
-0.2916052639 -0.1623432189 0.5589383245 4286148487
-0.2903304100 -0.1610151678 0.5564947128 4285753729
-0.2895028293 -0.1599396616 0.5549084544 4285490041
-0.2877781391 -0.1583739519 0.5516026020 4284897904
-0.2869490683 -0.1573065966 0.5500134826 4284305508
-0.2865678370 -0.1564873159 0.5492827892 4284108129
-0.2857376337 -0.1554254293 0.5476914644 4284238685
-0.2844581008 -0.1541236490 0.5452389121 4284041306
-0.2854216397 -0.1540378481 0.5470857620 4283974482
-0.2841409445 -0.1527415514 0.5446310043 4283513931
-0.2837574184 -0.1519310623 0.5438958406 4283513159
-0.2833734453 -0.1511219889 0.5431598425 4283578952
-0.2829890549 -0.1503143311 0.5424230695 4283578437
-0.2826042473 -0.1495080739 0.5416855216 4283512644
-0.2822190225 -0.1487032473 0.5409470797 4283512129
