VERSION 0.7
FIELDS x y z rgba
SIZE 4 4 4 4
TYPE F F F U
COUNT 1 1 1 1
WIDTH 920
HEIGHT 1
VIEWPOINT 0.0 0.0 0.0 1.0 0.0 0.0 0.0
POINTS 920
DATA ascii
-0.3439036906 -0.1143702790 0.5551744699 4287788638
-0.3434399664 -0.1136000529 0.5544258356 4287722845
-0.3434946835 -0.1130020395 0.5545141697 4287591259
-0.3430301547 -0.1122339517 0.5537642837 4287525466
-0.3430842161 -0.1116362736 0.5538515449 4288115809
-0.3431380391 -0.1110383198 0.5539384484 4287852637
-0.3426723778 -0.1102730036 0.5531867146 4287524186
-0.3422062695 -0.1095092148 0.5524342656 4287392600
-0.3422591090 -0.1089122295 0.5525195599 4287064918
-0.3417922258 -0.1081506088 0.5517657995 4286933332
-0.3413248956 -0.1073905304 0.5510114431 4286802003
-0.3408571482 -0.1066319868 0.5502563119 4286802003
-0.3403889835 -0.1058749929 0.5495005250 4286867798
-0.3399203718 -0.1051195413 0.5487440228 4287130970
-0.3394513428 -0.1043656394 0.5479868650 4287327836
-0.3389818668 -0.1036132947 0.5472289920 4287591008
-0.3385119736 -0.1028624997 0.5464704633 4288117352
-0.3375216126 -0.1019561663 0.5448716283 4288643696
-0.3370507956 -0.1012093946 0.5441116095 4289235835
-0.3370997608 -0.1006194651 0.5441906452 4289959558
-0.3366281688 -0.0998749211 0.5434293747 4291275416
-0.3361561596 -0.0991319343 0.5426673889 4291735967
-0.3356837332 -0.0983905196 0.5419047475 4291804331
-0.3352108896 -0.0976506770 0.5411413908 4292133296
-0.3342170417 -0.0967616960 0.5395369530 4292723125
-0.3337432742 -0.0960259140 0.5387721658 4292854711
-0.3337898254 -0.0954406112 0.5388473272 4292920762
-0.3333153129 -0.0947070867 0.5380812883 4292789176
-0.3323194981 -0.0938280821 0.5364736915 4293902009
-0.3318440616 -0.0930986404 0.5357062221 4292651942
-0.3313682377 -0.0923707858 0.5349380374 4291331971
-0.3303709030 -0.0915002078 0.5333280563 4289160802
-0.3304153085 -0.0909198672 0.5333997607 4288103235
-0.3304594755 -0.0903392956 0.5334710479 4286918961
-0.3299820721 -0.0896169171 0.5327003598 4286395184
-0.3295042515 -0.0888961330 0.5319289565 4286724149
-0.3295474350 -0.0883167014 0.5319986939 4286921532
-0.3295903802 -0.0877370462 0.5320680141 4288368978
-0.3296330571 -0.0871571600 0.5321369171 4288504161
-0.3307187259 -0.0868510231 0.5338895321 4290083193
-0.3307609558 -0.0862688571 0.5339577198 4289500825
-0.3258119524 -0.1606522202 0.5269131064 4287452763
-0.3253774345 -0.1598533243 0.5262104273 4287254094
-0.3244331777 -0.1588064581 0.5246833563 4287056715
-0.3234882355 -0.1577626467 0.5231551528 4287121478
-0.3225426078 -0.1567219049 0.5216258168 4286726720
-0.3221059442 -0.1559309661 0.5209196806 4286791486
-0.3211590648 -0.1548954993 0.5193883181 4286659900
-0.3207213879 -0.1541081220 0.5186805129 4286132530
-0.3202832639 -0.1533220857 0.5179719925 4285606186
-0.3198446929 -0.1525374353 0.5172626972 4286720817
-0.3194056749 -0.1517541260 0.5165526867 4286918196
-0.3194765449 -0.1512137502 0.5166673064 4286326572
-0.3190367520 -0.1504323184 0.5159560442 4286392365
-0.3191070855 -0.1498920918 0.5160698295 4286062373
-0.3191771805 -0.1493514925 0.5161831975 4286522924
-0.3192470372 -0.1488105506 0.5162961483 4286263600
-0.3188057840 -0.1480320245 0.5155825615 4286921530
-0.3188751042 -0.1474912316 0.5156946778 4287452751
-0.3194553256 -0.1471855938 0.5166330338 4288768611
-0.3195243180 -0.1466432363 0.5167446136 4289232244
-0.3201044202 -0.1463342905 0.5176827312 4290153346
-0.3201730549 -0.1457903683 0.5177937746 4290747279
-0.3202414811 -0.1452460885 0.5179044008 4291207830
-0.3208213449 -0.1449326128 0.5188421607 4291865760
-0.3214012086 -0.1446170509 0.5197799206 4292260518
-0.3219810426 -0.1442994028 0.5207176805 4292261545
-0.3225608766 -0.1439796686 0.5216553807 4292261545
-0.3231406808 -0.1436578333 0.5225930810 4291999400
-0.3232082725 -0.1431071162 0.5227023959 4291999400
-0.3237879276 -0.1427819729 0.5236398578 4291802273
-0.3243675828 -0.1424547434 0.5245772600 4291802273
-0.3249472082 -0.1421254277 0.5255146623 4291539614
-0.3255268335 -0.1417940110 0.5264520049 4291276442
-0.3261064291 -0.1414604932 0.5273893476 4290948247
-0.3266859651 -0.1411248893 0.5283266306 4290619282
-0.3272655010 -0.1407871991 0.5292638540 4290093449
-0.3278450072 -0.1404474080 0.5302010775 4289764484
-0.3284244835 -0.1401055157 0.5311382413 4289896069
-0.3290039301 -0.1397615373 0.5320752859 4289698690
-0.3300967216 -0.1396326125 0.5338425636 4289435518
-0.3301627040 -0.1390672773 0.5339493155 4289238139
-0.3307420611 -0.1387169957 0.5348862410 4289106553
-0.3313213587 -0.1383646280 0.5358231068 4289172346
-0.3319005966 -0.1380101591 0.5367599130 4289172087
-0.3324798346 -0.1376535743 0.5376966000 4289040501
-0.3330589831 -0.1372949183 0.5386332870 4289368185
-0.3331240416 -0.1367231458 0.5387384892 4289433978
-0.3337030411 -0.1363611668 0.5396748185 4289499258
-0.3342819512 -0.1359970719 0.5406110883 4289367672
-0.3348608613 -0.1356308907 0.5415472984 4289300852
-0.3349252045 -0.1350551397 0.5416513681 4289169266
-0.3355039060 -0.1346856356 0.5425872207 4289169266
-0.3355678618 -0.1341083497 0.5426906943 4289300852
-0.3361463249 -0.1337355226 0.5436261892 4289169523
-0.3367247581 -0.1333605945 0.5445616245 4289169523
-0.3367881477 -0.1327805519 0.5446642041 4289038707
-0.3373663425 -0.1324023157 0.5455992818 4289038707
-0.3379445076 -0.1320219636 0.5465342999 4289038707
-0.3380073309 -0.1314391643 0.5466358662 4289104500
-0.3380699158 -0.1308560371 0.5467370749 4289301109
-0.3381322324 -0.1302725822 0.5468378663 4289301109
-0.3387098312 -0.1298864931 0.5477719903 4289169524
-0.3398030102 -0.1296951175 0.5495399237 4289037938
-0.3408962786 -0.1294998676 0.5513079762 4288906352
-0.3414738774 -0.1291057020 0.5522421002 4288840559
-0.3420513868 -0.1287094206 0.5531760454 4288708973
-0.3426288068 -0.1283110529 0.5541098714 4288577387
-0.3437222838 -0.1281029135 0.5558782816 4288643180
-0.3437834382 -0.1275079846 0.5559772253 4288577387
-0.3438443542 -0.1269127429 0.5560756922 4288379495
-0.3439050317 -0.1263171732 0.5561738014 4288445288
-0.3351854980 -0.1225121990 0.5420723557 4288511081
-0.3429924250 -0.1247493625 0.5546979308 4288379495
-0.3430520892 -0.1241546497 0.5547944307 4288247909
-0.3384609222 -0.1218848750 0.5473694205 4288313702
-0.3411033750 -0.1222235560 0.5516428947 4288445288
-0.3406449854 -0.1214472204 0.5509015918 4288511081
-0.3407031596 -0.1208557636 0.5509956479 4288249189
-0.3407610953 -0.1202640086 0.5510893464 4288117603
-0.3403015435 -0.1194903553 0.5503461957 4287986530
-0.3398415744 -0.1187181994 0.5496022701 4287723358
-0.3398985267 -0.1181273386 0.5496943593 4287525981
-0.3399552107 -0.1175361872 0.5497860312 4287460188
-0.3394941092 -0.1167667359 0.5490403175 4287525726
-0.3400677741 -0.1163529903 0.5499680638 4287723105
-0.3401236534 -0.1157609597 0.5500584841 4287328349
-0.3396614790 -0.1149933338 0.5493110418 4287262556
-0.3397167325 -0.1144016236 0.5494003892 4287196765
-0.3397717476 -0.1138096228 0.5494893193 4287196765
-0.3393084407 -0.1130447462 0.5487400889 4287131229
-0.3393628001 -0.1124530733 0.5488280058 4287197022
-0.3394169211 -0.1118611172 0.5489155054 4287328097
-0.3389524817 -0.1110990047 0.5481644273 4287393890
-0.3390059769 -0.1105073914 0.5482509136 4287656805
-0.3385407627 -0.1097474322 0.5474985242 4287788391
-0.3380751014 -0.1089890003 0.5467454791 4287854954
-0.3381276131 -0.1083983630 0.5468304157 4288249712
-0.3381798565 -0.1078074574 0.5469149351 4288383095
-0.3377130926 -0.1070518270 0.5461600423 4288777853
-0.3372458816 -0.1062977463 0.5454044342 4289107844
-0.3367782533 -0.1055452079 0.5446481705 4289371016
-0.3363101780 -0.1047942117 0.5438911915 4290160019
-0.3358416855 -0.1040447727 0.5431335568 4290883742
-0.3353727758 -0.1032968834 0.5423752069 4291803817
-0.3349034488 -0.1025505513 0.5416161418 4292330161
-0.3344336748 -0.1018057764 0.5408564806 4292986808
-0.3334441185 -0.1009053811 0.5392560959 4293447359
-0.3329734206 -0.1001646444 0.5384948850 4294038983
-0.3330218494 -0.0995808169 0.5385732055 4294499534
-0.3320308030 -0.0986878574 0.5369704366 4294760141
-0.3315588534 -0.0979518220 0.5362071991 4294431176
-0.3321260214 -0.0975225866 0.5371244550 4293905343
-0.3311335444 -0.0966361687 0.5355194211 4293115827
-0.3306604326 -0.0959039479 0.5347542763 4292061597
-0.3301869035 -0.0951733068 0.5339884162 4291206288
-0.3297129571 -0.0944442526 0.5332219601 4291271052
-0.3297587037 -0.0938648283 0.5332959890 4291336845
-0.3292840123 -0.0931380242 0.5325282812 4291589235
-0.3288089037 -0.0924128145 0.5317599177 4289023308
-0.3283333778 -0.0916891992 0.5309908390 4287637805
-0.3283778429 -0.0911115706 0.5310627818 4287243047
-0.3284220397 -0.0905337110 0.5311342478 4287439404
-0.3284659684 -0.0899556130 0.5312052965 4287899955
-0.3285096586 -0.0893772840 0.5312759280 4288758092
-0.3285530508 -0.0887987241 0.5313460827 4289942366
-0.3285961747 -0.0882199407 0.5314158201 4288767073
-0.3291598260 -0.0877798200 0.5323274136 4289359210
-0.3292024732 -0.0871996656 0.5323964357 4289230966
-0.3302867711 -0.0868933946 0.5341499448 4290612619
-0.3269032836 -0.1614803970 0.5296294093 4287583836
-0.3259612620 -0.1604283154 0.5281032324 4287516753
-0.3229840398 -0.1583815962 0.5232796669 4287582546
-0.3240751922 -0.1583333015 0.5250474811 4287648594
-0.3221863508 -0.1562505364 0.5219872594 4286990921
-0.3212409019 -0.1552137733 0.5204555392 4286793542
-0.3202947676 -0.1541800648 0.5189226866 4286331965
-0.3198572993 -0.1533937156 0.5182139277 4285805621
-0.3194193840 -0.1526087075 0.5175044537 4286656309
-0.3189810216 -0.1518250853 0.5167942047 4286590516
-0.3185422122 -0.1510428041 0.5160832405 4286785585
-0.3181029260 -0.1502619088 0.5153716207 4286917171
-0.3181731105 -0.1497223228 0.5154852867 4286784043
-0.3177330792 -0.1489433050 0.5147723556 4286652457
-0.3178026974 -0.1484038681 0.5148851871 4286127653
-0.3173618615 -0.1476267278 0.5141709447 4285996067
-0.3174309433 -0.1470874548 0.5142828822 4285800998
-0.3174997866 -0.1465478241 0.5143944025 4285998377
-0.3175684214 -0.1460078508 0.5145056248 4285867304
-0.3181474805 -0.1457013935 0.5154437423 4285998890
-0.3182157576 -0.1451598555 0.5155544281 4286590514
-0.3182838261 -0.1446179599 0.5156646967 4287182651
-0.3183516562 -0.1440757215 0.5157745481 4287972167
-0.3184192777 -0.1435331255 0.5158841014 4288564304
-0.3189978600 -0.1432197094 0.5168215036 4288764250
-0.3190651238 -0.1426755637 0.5169304609 4289685352
-0.3191321492 -0.1421310753 0.5170390606 4290280312
-0.3197104931 -0.1418131441 0.5179761052 4291135621
-0.3202888370 -0.1414931118 0.5189130306 4290681482
-0.3203553855 -0.1409458518 0.5190209150 4291207826
-0.3209335804 -0.1406225264 0.5199576616 4291472027
-0.3209997714 -0.1400737017 0.5200648904 4291800992
-0.3215778172 -0.1397470683 0.5210013986 4291933859
-0.3221558332 -0.1394183487 0.5219378471 4291999652
-0.3227338195 -0.1390875280 0.5228742957 4291934370
-0.3233118057 -0.1387546211 0.5238106847 4292197542
-0.3244022131 -0.1386386454 0.5255773067 4292066726
-0.3239550591 -0.1378643960 0.5248528719 4292000933
-0.3250455260 -0.1377433538 0.5266195536 4291869860
-0.3256233633 -0.1374020725 0.5275557637 4291738274
-0.3256883025 -0.1368431896 0.5276609659 4291540895
-0.3262659609 -0.1364986002 0.5285968781 4291343516
-0.3268436193 -0.1361519247 0.5295327306 4291342488
-0.3274212182 -0.1358031482 0.5304685235 4291145109
-0.3279987872 -0.1354522705 0.5314042568 4290947730
-0.3285762966 -0.1350992918 0.5323399305 4290881937
-0.3286402822 -0.1345340163 0.5324435830 4290684558
-0.3292176127 -0.1341777444 0.5333789587 4290421386
-0.3297949135 -0.1338193566 0.5343142152 4290354567
-0.3303721547 -0.1334588826 0.5352494717 4290091395
-0.3304354548 -0.1328896433 0.5353519917 4289828223
-0.3310124874 -0.1325258613 0.5362868905 4289696637
-0.3315894902 -0.1321599782 0.5372217298 4289565051
-0.3316522241 -0.1315879822 0.5373233557 4289499258
-0.3317147493 -0.1310156584 0.5374246240 4289368185
-0.3322913647 -0.1306452602 0.5383588672 4289236599
-0.3328679502 -0.1302727461 0.5392929912 4288908147
-0.3334444761 -0.1298981458 0.5402270555 4288776561
-0.3335062563 -0.1293218732 0.5403271317 4288513903
-0.3335677981 -0.1287452877 0.5404268503 4288513903
-0.3341439366 -0.1283661723 0.5413602591 4288775793
-0.3352349699 -0.1281818449 0.5431278944 4288578414
-0.3363261223 -0.1279936582 0.5448957086 4288381035
-0.3369022608 -0.1276064515 0.5458291769 4288315242
-0.3379935622 -0.1274113804 0.5475972295 4288315242
-0.3390849531 -0.1272124201 0.5493654609 4288183656
-0.3396610618 -0.1268171221 0.5502988100 4288183656
-0.3397215903 -0.1262281835 0.5503968596 4288117863
-0.3402974308 -0.1258295923 0.5513297915 4288249449
-0.3403575122 -0.1252391338 0.5514271855 4288315242
-0.3393857777 -0.1242706403 0.5498527884 4288315242
-0.3389292955 -0.1234933808 0.5491132140 4288052070
-0.3389883041 -0.1229046807 0.5492088795 4287920227
-0.3364668190 -0.1213848069 0.5451236367 4287986020
-0.3365248740 -0.1207999736 0.5452177525 4288183399
-0.3360664546 -0.1200304627 0.5444750190 4288183399
-0.3361238837 -0.1194459274 0.5445680618 4288052838
-0.3361810744 -0.1188610941 0.5446607471 4288118631
-0.3357215226 -0.1180942804 0.5439161658 4288184939
-0.3357780874 -0.1175097525 0.5440078378 4288053353
-0.3358344138 -0.1169249266 0.5440990925 4287987562
-0.3353736997 -0.1161608249 0.5433526635 4288184941
-0.3354848623 -0.1149915159 0.5435327888 4289039996
-0.3350230157 -0.1142301485 0.5427845120 4289566344
-0.3350778520 -0.1136456728 0.5428733826 4289961102
-0.3351324201 -0.1130609065 0.5429617763 4290290327
-0.3351867199 -0.1124758571 0.5430497527 4290553499
-0.3352407813 -0.1118905321 0.5431373119 4290882210
-0.3352945447 -0.1113049164 0.5432244539 4291211175
-0.3353480697 -0.1107190251 0.5433111191 4291605935
-0.3348837197 -0.1099628881 0.5425587893 4292000693
-0.3344189227 -0.1092082933 0.5418058038 4292066738
-0.3339537084 -0.1084552258 0.5410521030 4292329910
-0.3340059221 -0.1078709364 0.5411366820 4292594109
-0.3335399330 -0.1071200371 0.5403817296 4293054660
-0.3335915208 -0.1065361127 0.5404652953 4293449418
-0.3331247866 -0.1057873964 0.5397090912 4293712590
-0.3326576054 -0.1050402224 0.5389521718 4293844174
-0.3321900070 -0.1042945981 0.5381945968 4293975760
-0.3322402835 -0.1037123203 0.5382760763 4294435284
-0.3312535286 -0.1028080061 0.5366773605 4294369491
-0.3313031197 -0.1022270247 0.5367577672 4294499536
-0.3308339119 -0.1014867127 0.5359975696 4294499536
-0.3303642571 -0.1007479578 0.5352366567 4294761168
-0.3293755054 -0.0998535231 0.5336347222 4294366410
-0.3294237256 -0.0992751494 0.5337128639 4293839037
-0.3289528489 -0.0985410959 0.5329499841 4293181107
-0.3284815252 -0.0978086144 0.5321863890 4293567141
-0.3280098140 -0.0970777050 0.5314221382 4292053902
-0.3280567527 -0.0965010598 0.5314981937 4290931055
-0.3281034231 -0.0959241763 0.5315737724 4289286230
-0.3276306093 -0.0951961800 0.5308077335 4288689982
-0.3276766539 -0.0946197137 0.5308824182 4287900466
-0.3277224600 -0.0940430090 0.5309565663 4288162095
-0.3272485435 -0.0933179334 0.5301887989 4288491060
-0.3272937536 -0.0927416608 0.5302619934 4288093992
-0.3268190920 -0.0920188576 0.5294929743 4288422957
-0.3268636763 -0.0914430246 0.5295652151 4287772728
-0.3269079924 -0.0908669606 0.5296370387 4288364865
-0.3269520402 -0.0902906582 0.5297083855 4287647565
-0.3275156915 -0.0898567587 0.5306215882 4288502874
-0.3270393312 -0.0891373679 0.5298498273 4289029992
-0.3276025653 -0.0887011662 0.5307623148 4288766820
-0.3276455998 -0.0881230310 0.5308320522 4288899172
-0.3282085061 -0.0876836255 0.5317440629 4289293930
-0.3287712932 -0.0872421563 0.5326558352 4289494138
-0.3298542202 -0.0869357437 0.5344102979 4290875791
-0.3263915777 -0.1621068567 0.5297536254 4287584350
-0.3269745111 -0.1618067473 0.5306997895 4287452764
-0.3260339499 -0.1607533395 0.5291731358 4287451734
-0.3256006241 -0.1599525213 0.5284698606 4287583320
-0.3246588111 -0.1589043736 0.5269412398 4287452504
-0.3237162828 -0.1578592956 0.5254114866 4287386711
-0.3227730989 -0.1568172723 0.5238806009 4287978848
-0.3223376274 -0.1560244262 0.5231738091 4288505192
-0.3208846450 -0.1547424644 0.5208155513 4288636778
-0.3199394047 -0.1537096798 0.5192813277 4288307813
-0.3195022345 -0.1529234797 0.5185717940 4288437091
-0.3190646470 -0.1521386504 0.5178615451 4288173919
-0.3181175888 -0.1511133909 0.5163244605 4287712086
-0.3176789880 -0.1503321677 0.5156125426 4286790984
-0.3177491426 -0.1497923583 0.5157263875 4286265667
-0.3173097372 -0.1490129977 0.5150132775 4285739323
-0.3168699145 -0.1482350230 0.5142993927 4285476920
-0.3164296150 -0.1474584192 0.5135847330 4285345334
-0.3164985478 -0.1469197869 0.5136966109 4285148468
-0.3165672719 -0.1463808119 0.5138081312 4285148468
-0.3166357577 -0.1458414793 0.5139192939 4285344305
-0.3161940277 -0.1450678110 0.5132023692 4285146926
-0.3162619472 -0.1445286572 0.5133126378 4285274662
-0.3163296580 -0.1439891458 0.5134224892 4285340455
-0.3163971305 -0.1434492916 0.5135320425 4285930534
-0.3164643943 -0.1429090947 0.5136411786 4285996327
-0.3170419633 -0.1425981671 0.5145786405 4285602851
-0.3171088696 -0.1420564204 0.5146872401 4285537058
-0.3171755672 -0.1415143162 0.5147954822 4285473833
-0.3172420263 -0.1409718692 0.5149033070 4285868591
-0.3173082471 -0.1404290795 0.5150108337 4285804589
-0.3178853095 -0.1401112229 0.5159474611 4286265140
-0.3179512024 -0.1395668834 0.5160543919 4286660927
-0.3180168569 -0.1390222162 0.5161609054 4287384650
-0.3180822730 -0.1384772062 0.5162671208 4288109143
-0.3186589479 -0.1381536126 0.5172030926 4288832866
-0.3187240064 -0.1376070529 0.5173087120 4289557098
-0.3193005621 -0.1372801661 0.5182444453 4290280821
-0.3198770583 -0.1369511783 0.5191801786 4291268229
-0.3204535544 -0.1366201043 0.5201158524 4291597194
-0.3205179870 -0.1360695809 0.5202203989 4291664786
-0.3210943043 -0.1357351989 0.5211558342 4292059544
-0.3211583793 -0.1351831406 0.5212598443 4292323229
-0.3217345476 -0.1348454505 0.5221949816 4292520608
-0.3223106563 -0.1345056891 0.5231300592 4292783519
-0.3223742247 -0.1339508593 0.5232332349 4293046691
-0.3229501843 -0.1336077899 0.5241680145 4292393634
-0.3230133951 -0.1330514401 0.5242705941 4292327841
-0.3235891461 -0.1327050626 0.5252051353 4292130976
-0.3236519694 -0.1321471632 0.5253070593 4292130976
-0.3242275715 -0.1317974925 0.5262413025 4292196771
-0.3248031139 -0.1314457208 0.5271754265 4292196771
-0.3248654008 -0.1308850795 0.5272765756 4292196001
-0.3254407644 -0.1305300146 0.5282104015 4292130208
-0.3255026639 -0.1299678534 0.5283108950 4292196001
-0.3255643249 -0.1294053644 0.5284109116 4292327587
-0.3266529441 -0.1292490065 0.5301778316 4292262564
-0.3267143071 -0.1286841035 0.5302774310 4292196771
-0.3267754316 -0.1281189024 0.5303766131 4292065698
-0.3273501992 -0.1277539134 0.5313094854 4291999905
-0.3274109066 -0.1271871775 0.5314080715 4291999905
-0.3274713755 -0.1266201288 0.5315061808 4292131491
-0.3285599649 -0.1264485419 0.5332730412 4292065443
-0.3296486735 -0.1262730658 0.5350400805 4291999650
-0.3307375014 -0.1260937154 0.5368072987 4291933857
-0.3313120008 -0.1257152706 0.5377397537 4291933857
-0.3324009776 -0.1255290508 0.5395072103 4291933857
-0.3334900737 -0.1253389567 0.5412749052 4291933857
-0.3340645432 -0.1249524280 0.5422073007 4292065443
-0.3341241181 -0.1243721768 0.5423039794 4291933857
-0.3346983492 -0.1239823475 0.5432360172 4291933857
-0.3337274790 -0.1230208874 0.5416602492 4292065443
-0.3322408795 -0.1218737438 0.5392473936 4292065186
-0.3322990835 -0.1212958470 0.5393418670 4291933600
-0.3308111727 -0.1201561615 0.5369268656 4291999393
-0.3313839436 -0.1197666079 0.5378565192 4292262565
-0.3206165135 -0.1152969301 0.5203803182 4292459944
-0.3309825957 -0.1184278131 0.5372051597 4292394151
-0.3305236101 -0.1176675335 0.5364601612 4292459690
-0.3305799067 -0.1170914248 0.5365515351 4292591276
-0.3306359351 -0.1165150255 0.5366424918 4292657582
-0.3301758170 -0.1157574579 0.5358956456 4292591789
-0.3302312195 -0.1151813716 0.5359856486 4292657584
-0.3302864134 -0.1146050021 0.5360751748 4292854963
-0.3303413093 -0.1140283346 0.5361642838 4293183676
-0.3303959668 -0.1134513840 0.5362529755 4293644227
-0.3304503560 -0.1128741503 0.5363413095 4294105036
-0.3299880922 -0.1121211722 0.5355910063 4294368208
-0.3300418854 -0.1115442663 0.5356782675 4294500312
-0.3295788467 -0.1107934266 0.5349267125 4294566105
-0.3291153610 -0.1100441143 0.5341745019 4294566107
-0.3296849430 -0.1096400321 0.5350989699 4294566107
-0.3302544355 -0.1092338637 0.5360232592 4294566107
-0.3297900259 -0.1084855348 0.5352694988 4294500314
-0.3293251693 -0.1077387333 0.5345150232 4294696154
-0.3293769658 -0.1071617007 0.5345990658 4294498775
-0.3289113343 -0.1064170748 0.5338433385 4294563285
-0.3284453154 -0.1056739911 0.5330869555 4294365906
-0.3284961581 -0.1050979644 0.5331695080 4294429644
-0.3280293345 -0.1043570712 0.5324118137 4293969093
-0.3275621235 -0.1036177203 0.5316534638 4293834682
-0.3276120126 -0.1030427143 0.5317344666 4293308338
-0.3276616633 -0.1024674401 0.5318150520 4292780193
-0.3271933496 -0.1017309427 0.5310549140 4292122263
-0.3272423744 -0.1011560634 0.5311345458 4291594122
-0.3267732859 -0.1004217789 0.5303731561 4291396743
-0.3263037801 -0.0996890590 0.5296111107 4291592581
-0.3258338571 -0.0989579037 0.5288484097 4290539893
-0.3253635168 -0.0982283130 0.5280849934 4289288540
-0.3254109323 -0.0976558030 0.5281620026 4288433231
-0.3254580796 -0.0970830470 0.5282384753 4288689219
-0.3249866664 -0.0963563547 0.5274733305 4287833910
-0.3245148063 -0.0956312492 0.5267075300 4287110185
-0.3245610297 -0.0950595737 0.5267825127 4287504943
-0.3246069849 -0.0944876596 0.5268570781 4287901495
-0.3251712620 -0.0940655246 0.5277729630 4287769909
-0.3252167702 -0.0934922025 0.5278468132 4287901241
-0.3252619803 -0.0929186493 0.5279202461 4288690757
-0.3253069520 -0.0923448578 0.5279932022 4288825426
-0.3253516257 -0.0917708203 0.5280657411 4289417563
-0.3253960609 -0.0911965594 0.5281378627 4289289827
-0.3254402280 -0.0906220526 0.5282095075 4289421413
-0.3260032237 -0.0901909322 0.5291233063 4288570213
-0.3260469437 -0.0896150544 0.5291942358 4288636006
-0.3260903656 -0.0890389383 0.5292647481 4288571242
-0.3266528249 -0.0886034593 0.5301776528 4288439656
-0.3272151947 -0.0881659091 0.5310903788 4289096036
-0.3277773857 -0.0877263024 0.5320028663 4289359208
-0.3283394873 -0.0872846320 0.5329151750 4289821563
-0.3294210136 -0.0869780853 0.5346705914 4291137423
-0.3260296881 -0.1616305560 0.5301218629 4287059294
-0.3255974948 -0.1608280689 0.5294191241 4287124317
-0.3251648247 -0.1600269079 0.5287156105 4287255903
-0.3252391219 -0.1594758928 0.5288364291 4286927449
-0.3248056769 -0.1586765647 0.5281316638 4286927449
-0.3238641322 -0.1576315165 0.5266007185 4287254872
-0.3229219317 -0.1565895379 0.5250687003 4288307560
-0.3204554915 -0.1548145860 0.5210582614 4289427581
-0.3215434551 -0.1547592878 0.5228272676 4290348683
-0.3195831478 -0.1532384455 0.5196398497 4290086544
-0.3191463053 -0.1524524093 0.5189295411 4289757579
-0.3182007074 -0.1514258534 0.5173920393 4289298315
-0.3177628517 -0.1506434232 0.5166801214 4288706178
-0.3168160319 -0.1496221870 0.5151405334 4287784824
-0.3168858290 -0.1490826756 0.5152540207 4287192687
-0.3164466321 -0.1483043581 0.5145399570 4286997102
-0.3160070181 -0.1475274265 0.5138251185 4287062895
-0.3155669272 -0.1467518806 0.5131095648 4286866282
-0.3151264191 -0.1459777057 0.5123932362 4287195247
-0.3151946664 -0.1454398930 0.5125042200 4287916915
-0.3147533536 -0.1446676403 0.5117866993 4287785329
-0.3148210347 -0.1441299915 0.5118967295 4287912034
-0.3148885071 -0.1435920000 0.5120064020 4287056725
-0.3149557412 -0.1430536658 0.5121157169 4287183688
-0.3150227666 -0.1425149739 0.5122246742 4286788930
-0.3150895536 -0.1419759542 0.5123332739 4286327350
-0.3151561022 -0.1414365917 0.5124415159 4285735213
-0.3152224422 -0.1408968866 0.5125494003 4285473324
-0.3152885437 -0.1403568387 0.5126568675 4285604910
-0.3153544366 -0.1398164481 0.5127640367 4286650147
-0.3154200912 -0.1392757148 0.5128707886 4286518561
-0.3154855371 -0.1387346536 0.5129771829 4286190625
-0.3155507445 -0.1381932646 0.5130831599 4286190625
-0.3156157136 -0.1376515180 0.5131888390 4286256418
-0.3156804442 -0.1371094584 0.5132941008 4286190625
-0.3157449663 -0.1365670562 0.5133990049 4286322209
-0.3163202703 -0.1362444311 0.5143344402 4286716967
-0.3163844347 -0.1357004791 0.5144388080 4286915627
-0.3164483607 -0.1351562142 0.5145427585 4287178799
-0.3165120780 -0.1346116066 0.5146462917 4286918198
-0.3165755272 -0.1340666711 0.5147495270 4286983991
-0.3171502948 -0.1337371171 0.5156840682 4287051065
-0.3172134161 -0.1331906617 0.5157867074 4287380030
-0.3172762692 -0.1326438636 0.5158889294 4287906372
-0.3173389137 -0.1320967525 0.5159907341 4288564302
-0.3179132640 -0.1317614913 0.5169246197 4288111186
-0.3179755211 -0.1312128454 0.5170258880 4288242772
-0.3185496926 -0.1308742762 0.5179594755 4288244312
-0.3186115921 -0.1303241104 0.5180600882 4288573277
-0.3191855848 -0.1299822628 0.5189934373 4288968548
-0.3192470968 -0.1294305623 0.5190934539 4289363306
-0.3193083704 -0.1288785487 0.5191931129 4289561199
-0.3198820651 -0.1285321862 0.5201258659 4289758578
-0.3199429512 -0.1279786527 0.5202249289 4289890166
-0.3205164373 -0.1276290119 0.5211573839 4290153338
-0.3210898936 -0.1272772700 0.5220898390 4290284924
-0.3211502731 -0.1267210245 0.5221880078 4290284924
-0.3212103844 -0.1261644512 0.5222857594 4290416510
-0.3212702870 -0.1256075650 0.5223831534 4290482303
-0.3213299215 -0.1250503659 0.5224801302 4290810498
-0.3224161267 -0.1248906106 0.5242462754 4291073670
-0.3229889870 -0.1245289966 0.5251777172 4290812551
-0.3240753710 -0.1243623793 0.5269441605 4290878344
-0.3251618743 -0.1241918877 0.5287108421 4291009930
-0.3257347345 -0.1238222122 0.5296422839 4291141516
-0.3263075054 -0.1234504431 0.5305736661 4291075723
-0.3273942173 -0.1232701018 0.5323405862 4291141516
-0.3279669583 -0.1228932515 0.5332719088 4291404688
-0.3285396695 -0.1225143075 0.5342031121 4291404688
-0.3285980523 -0.1219424307 0.5342980027 4291601297
-0.3281418383 -0.1211803183 0.5335562229 4291732883
-0.3271707892 -0.1202306524 0.5319772959 4291732883
-0.3256846070 -0.1190961227 0.5295608044 4291930262
-0.3257414401 -0.1185284257 0.5296531916 4292522399
-0.3252833486 -0.1177740768 0.5289083123 4293180329
-0.3253395855 -0.1172066778 0.5289997458 4293509294
-0.3253955543 -0.1166389883 0.5290908217 4293509294
-0.3249363303 -0.1158873513 0.5283440948 4293378738
-0.3249917328 -0.1153199822 0.5284341574 4293444531
-0.3250468671 -0.1147523150 0.5285238028 4293444788
-0.3251017630 -0.1141843647 0.5286130905 4293378995
-0.3251563907 -0.1136161312 0.5287019014 4293444790
-0.3252107501 -0.1130476072 0.5287902951 4293510583
-0.3252648711 -0.1124788001 0.5288783312 4293642171
-0.3253187537 -0.1119097024 0.5289658904 4293905343
-0.3253723681 -0.1113403291 0.5290530920 4293576894
-0.3249099851 -0.1105951294 0.5283012390 4293511101
-0.3249630034 -0.1100260988 0.5283874869 4293248187
-0.3250157535 -0.1094567925 0.5284732580 4293050808
-0.3245522678 -0.1087143719 0.5277196169 4292787638
-0.3246044219 -0.1081454083 0.5278044343 4292524466
-0.3251724839 -0.1077472121 0.5287280679 4291932329
-0.3252242208 -0.1071768031 0.5288122296 4291340192
-0.3247593641 -0.1064369082 0.5280563831 4291071897
-0.3248105049 -0.1058668643 0.5281395316 4290348174
-0.3243449032 -0.1051291451 0.5273824334 4289885313
-0.3243954480 -0.1045594737 0.5274646282 4289161590
-0.3244456947 -0.1039895415 0.5275463462 4289289065
-0.3239790201 -0.1032546535 0.5267875195 4288762721
-0.3240286708 -0.1026851013 0.5268682837 4288823634
-0.3240781128 -0.1021152809 0.5269486308 4288099911
-0.3236103058 -0.1013832465 0.5261880159 4288228926
-0.3236591220 -0.1008138210 0.5262673497 4287965754
-0.3237076700 -0.1002441347 0.5263463259 4288095285
-0.3237559795 -0.0996741951 0.5264248252 4288424250
-0.3232867420 -0.0989456922 0.5256618857 4288884029
-0.3233344555 -0.0983761549 0.5257394314 4288357685
-0.3228644729 -0.0976498798 0.5249752998 4288159277
-0.3229115605 -0.0970807523 0.5250518322 4288619828
-0.3229584098 -0.0965113789 0.5251280069 4287574586
-0.3230049908 -0.0959417596 0.5252037644 4288561481
-0.3230512738 -0.0953718871 0.5252790451 4289087311
-0.3230973482 -0.0948017761 0.5253539085 4289679448
-0.3231431246 -0.0942314267 0.5254283547 4290470767
-0.3237065673 -0.0938109234 0.5263445377 4290997111
-0.3237518966 -0.0932391733 0.5264182091 4290540159
-0.3237969577 -0.0926671848 0.5264915228 4291263882
-0.3243599236 -0.0922423080 0.5274068713 4290087569
-0.3244045377 -0.0916689262 0.5274794102 4289561225
-0.3244488537 -0.0910953060 0.5275514722 4289097078
-0.3250113130 -0.0906660557 0.5284659863 4288439148
-0.3255736232 -0.0902347416 0.5293803215 4288766570
-0.3256172836 -0.0896585882 0.5294513106 4288700777
-0.3261792660 -0.0892240554 0.5303651094 4288701031
-0.3267411292 -0.0887874588 0.5312786698 4288766824
-0.3278215528 -0.0884888098 0.5330354571 4288964963
-0.3283831775 -0.0880471542 0.5339486599 4289425514
-0.3289447129 -0.0876034424 0.5348616838 4289031534
-0.3300249875 -0.0872949213 0.5366182327 4290807945
-0.3250856102 -0.1614540964 0.5295431614 4286993242
-0.3251604140 -0.1609027535 0.5296649933 4287058003
-0.3252350092 -0.1603510380 0.5297865272 4286860624
-0.3242959380 -0.1593011171 0.5282568336 4286992727
-0.3238630295 -0.1585023105 0.5275516510 4286663762
-0.3229227364 -0.1574576646 0.5260199308 4287123547
-0.3219817281 -0.1564161032 0.5244871378 4286991961
-0.3225615919 -0.1561139971 0.5254316926 4287322720
-0.3211122751 -0.1548313946 0.5230708718 4289033338
-0.3201694787 -0.1537973434 0.5215350986 4290348683
-0.3192260265 -0.1527663767 0.5199982524 4290546062
-0.3177742362 -0.1514964998 0.5176334381 4290481813
-0.3188602626 -0.1514371485 0.5194024444 4290416020
-0.3174072504 -0.1501726061 0.5170356035 4289824918
-0.3169692755 -0.1493917257 0.5163221955 4289561746
-0.3165308535 -0.1486122161 0.5156080127 4289561746
-0.3160919845 -0.1478340775 0.5148931146 4289627539
-0.3156526685 -0.1470573246 0.5141775012 4289824918
-0.3152129352 -0.1462819576 0.5134611726 4289759125
-0.3147727251 -0.1455079764 0.5127441287 4289824918
-0.3148407042 -0.1449695975 0.5128548741 4290351262
-0.3143997490 -0.1441975236 0.5121365786 4290417055
-0.3144671917 -0.1436593086 0.5122464299 4290285469
-0.3140254319 -0.1428891569 0.5115268230 4289759127
-0.3140923083 -0.1423511356 0.5116357803 4289232783
-0.3141589761 -0.1418127567 0.5117443800 4288706439
-0.3142254055 -0.1412740350 0.5118525624 4287982716
-0.3137822151 -0.1405068785 0.5111306310 4286996591
-0.3133385777 -0.1397411376 0.5104080439 4286601833
-0.3139137328 -0.1394294947 0.5113449097 4286206046
-0.3134694397 -0.1386648118 0.5106211901 4285745495
-0.3135345280 -0.1381261498 0.5107271671 4286003526
-0.3135993779 -0.1375871599 0.5108328462 4285674561
-0.3136640191 -0.1370478272 0.5109381080 4286524470
-0.3137284219 -0.1365081519 0.5110430717 4286458677
-0.3137926161 -0.1359681636 0.5111476183 4286916142
-0.3138565421 -0.1354278326 0.5112517476 4286652970
-0.3139202893 -0.1348871738 0.5113555789 4286586916
-0.3139837682 -0.1343461871 0.5114589930 4286389537
-0.3140470386 -0.1338048726 0.5115620494 4286455330
-0.3141100705 -0.1332632452 0.5116646886 4286586916
-0.3141728640 -0.1327212751 0.5117670298 4286783014
-0.3147463799 -0.1323939115 0.5127012134 4286717221
-0.3142977655 -0.1316363662 0.5119704604 4286847013
-0.3143598735 -0.1310934275 0.5120716691 4286847013
-0.3149330020 -0.1307624578 0.5130052567 4287110169
-0.3149947524 -0.1302179843 0.5131058097 4286978583
-0.3155677319 -0.1298837215 0.5140391588 4287173910
-0.3156290948 -0.1293377280 0.5141391158 4287173910
-0.3156902492 -0.1287914366 0.5142387152 4287109143
-0.3157511353 -0.1282448173 0.5143378973 4287174936
-0.3158118129 -0.1276978701 0.5144367218 4287698457
-0.3163841963 -0.1273567080 0.5153691173 4287830043
-0.3164444864 -0.1268082559 0.5154673457 4287961631
-0.3165045381 -0.1262594908 0.5155651569 4288027424
-0.3170765936 -0.1259138286 0.5164970160 4287503134
-0.3171362579 -0.1253635585 0.5165941715 4287700513
-0.3171957135 -0.1248129681 0.5166910291 4287896867
-0.3167423606 -0.1240613312 0.5159525871 4288028453
-0.3173138499 -0.1237108707 0.5168834925 4287701798
-0.3178853095 -0.1233583316 0.5178143382 4287833384
-0.3179438710 -0.1228056252 0.5179097056 4287636262
-0.3190280199 -0.1226469725 0.5196757317 4287636262
-0.3195992708 -0.1222881675 0.5206062794 4287702055
-0.3201704919 -0.1219272688 0.5215367675 4288031020
-0.3202284873 -0.1213697717 0.5216311812 4288031790
-0.3207994699 -0.1210055873 0.5225613117 4288031790
-0.3213704228 -0.1206393093 0.5234913826 4288098096
-0.3219413161 -0.1202709451 0.5244212747 4288229682
-0.3219985664 -0.1197095662 0.5245145559 4288164148
-0.3215419352 -0.1189578548 0.5237707496 4288032562
-0.3205711544 -0.1180185154 0.5221893787 4288295221
-0.3201135695 -0.1172706932 0.5214440227 4288361014
-0.3196555674 -0.1165243760 0.5206979513 4289282116
-0.3197111487 -0.1159659997 0.5207884908 4290137425
-0.3166819215 -0.1142940819 0.5158540606 4290730075
-0.3203357458 -0.1150330231 0.5218059421 4290532696
-0.3203906417 -0.1144728810 0.5218954086 4290336093
-0.3199309707 -0.1137296110 0.5211465955 4290270300
-0.3199853003 -0.1131697968 0.5212350488 4290270302
-0.3200393915 -0.1126096919 0.5213232040 4290007130
-0.3200932145 -0.1120493114 0.5214108825 4289942107
-0.3201467991 -0.1114886478 0.5214981437 4289744728
-0.3207149208 -0.1111060381 0.5224235654 4289876827
-0.3202531934 -0.1103664711 0.5216714740 4289811034
-0.3203060329 -0.1098049656 0.5217575431 4289942618
-0.3203586042 -0.1092431843 0.5218431950 4289613653
-0.3198958039 -0.1085063964 0.5210892558 4289349452
-0.3199477792 -0.1079449728 0.5211739540 4289086280
-0.3199995160 -0.1073832735 0.5212582350 4289477955
-0.3200509846 -0.1068212986 0.5213420987 4289148990
-0.3201022148 -0.1062590554 0.5214255452 4289080628
-0.3201531768 -0.1056965366 0.5215085745 4288620077
-0.3207195401 -0.1053030565 0.5224310756 4288355367
-0.3202543557 -0.1045707092 0.5216733813 4288289574
-0.3203045726 -0.1040073931 0.5217551589 4287961380
-0.3203545213 -0.1034438163 0.5218365192 4288027173
-0.3204042315 -0.1028799787 0.5219174623 4287765805
-0.3204536438 -0.1023158729 0.5219979882 4287831598
-0.3205028474 -0.1017515138 0.5220780969 4287702073
-0.3205517530 -0.1011868864 0.5221577883 4288031038
-0.3206004202 -0.1006220058 0.5222370625 4288491591
-0.3206488490 -0.1000568718 0.5223159194 4288557384
-0.3206969798 -0.0994914770 0.5223943591 4288558154
-0.3207448721 -0.0989258364 0.5224723816 4289150291
-0.3207925260 -0.0983599350 0.5225499868 4288957790
-0.3208398819 -0.0977937803 0.5226271749 4288957790
-0.3208869994 -0.0972273797 0.5227038860 4288633706
-0.3209338486 -0.0966607332 0.5227802396 4289949566
-0.3209804595 -0.0960938334 0.5228561163 4289429903
-0.3210267723 -0.0955266953 0.5229315758 4289956247
-0.3210728467 -0.0949593037 0.5230066180 4290219419
-0.3216357827 -0.0945436731 0.5239235759 4290614177
-0.3216813803 -0.0939748809 0.5239979029 4291074213
-0.3227612376 -0.0937061906 0.5257568955 4291468971
-0.3228064775 -0.0931350961 0.5258306265 4292060079
-0.3228514493 -0.0925637558 0.5259038806 4292125872
-0.3234136403 -0.0921396017 0.5268196464 4291993512
-0.3234581649 -0.0915668681 0.5268921256 4290348687
-0.3240200281 -0.0911394879 0.5278073549 4289163382
-0.3245817423 -0.0907100439 0.5287224054 4288505452
-0.3251433671 -0.0902785286 0.5296372175 4288898921
-0.3257048428 -0.0898449495 0.5305518508 4288964714
-0.3257482946 -0.0892673805 0.5306226611 4288963685
-0.3268274069 -0.0889715776 0.5323804021 4289226857
-0.3279065192 -0.0886718780 0.5341382027 4289621361
-0.3289856017 -0.0883682668 0.5358960032 4289555568
-0.3295465708 -0.0879225060 0.5368097425 4288110683
-0.3306255937 -0.0876120031 0.5385674238 4289821301
-0.3236365914 -0.1610257626 0.5281382799 4286861915
-0.3247227371 -0.1609774083 0.5299107432 4286795603
-0.3247973025 -0.1604254693 0.5300324559 4286466638
-0.3248716295 -0.1598731428 0.5301537514 4286729557
-0.3244395852 -0.1590722799 0.5294487476 4286532178
-0.3235008419 -0.1580254734 0.5279167891 4286663512
-0.3225614130 -0.1569817215 0.5263837576 4286400340
-0.3216213286 -0.1559410542 0.5248495936 4286203985
-0.3206805289 -0.1549034566 0.5233143568 4287125087
-0.3197390735 -0.1538689584 0.5217779875 4288440688
-0.3187969327 -0.1528375447 0.5202405453 4289361790
-0.3198818862 -0.1527777016 0.5220110416 4289889165
-0.3179247379 -0.1512665153 0.5188171864 4290218130
-0.3174879849 -0.1504830569 0.5181044340 4289890965
-0.3170507550 -0.1497009695 0.5173909664 4289890965
-0.3166131079 -0.1489202529 0.5166767836 4289759125
-0.3161750138 -0.1481409222 0.5159618258 4289495953
-0.3157364726 -0.1473629773 0.5152462125 4289495953
-0.3147897422 -0.1463503540 0.5137012601 4289759125
-0.3153658807 -0.1460464001 0.5146414638 4289890711
-0.3144181669 -0.1450374275 0.5130949020 4290088090
-0.3144859076 -0.1444984674 0.5132054090 4289957276
-0.3140452504 -0.1437265873 0.5124863386 4290023069
-0.3141124249 -0.1431878060 0.5125959516 4289891483
-0.3136710227 -0.1424178630 0.5118756294 4289759897
-0.3132291436 -0.1416493058 0.5111545324 4289759897
-0.3132954538 -0.1411112398 0.5112627149 4289430932
-0.3128527999 -0.1403446198 0.5105404258 4288970381
-0.3129185438 -0.1398067474 0.5106476545 4288707209
-0.3124751449 -0.1390420794 0.5099241138 4288378504
-0.3120312989 -0.1382788271 0.5091997981 4288115332
-0.3120961487 -0.1377416849 0.5093055964 4288178553
-0.3121607900 -0.1372042149 0.5094110966 4287915381
-0.3117158413 -0.1364434659 0.5086849928 4288240747
-0.3117799163 -0.1359062046 0.5087895393 4288043368
-0.3118437529 -0.1353686154 0.5088937283 4288304739
-0.3119073510 -0.1348306984 0.5089974999 4288107360
-0.3119707406 -0.1342924535 0.5091009736 4287843672
-0.3120338917 -0.1337538809 0.5092040300 4287251535
-0.3120968342 -0.1332149804 0.5093067288 4286790470
-0.3121595383 -0.1326757520 0.5094090700 4286395712
-0.3122220039 -0.1321361959 0.5095109940 4286263099
-0.3122842312 -0.1315963268 0.5096125603 4285999927
-0.3123462498 -0.1310561299 0.5097137690 4285867314
-0.3118975759 -0.1303023398 0.5089815259 4285801521
-0.3119589984 -0.1297623962 0.5090818405 4286652716
-0.3125309050 -0.1294336170 0.5100150704 4286718509
-0.3125919998 -0.1288921386 0.5101147890 4286980141
-0.3126528263 -0.1283503473 0.5102140903 4286980141
-0.3127134442 -0.1278082281 0.5103129745 4287242284
-0.3127738535 -0.1272658110 0.5104115605 4287110698
-0.3128339946 -0.1267230809 0.5105096698 4287306019
-0.3134051859 -0.1263861954 0.5114418268 4287306019
-0.3134649694 -0.1258419454 0.5115393400 4287239454
-0.3135245144 -0.1252973974 0.5116365552 4287436833
-0.3135838211 -0.1247525215 0.5117333531 4287239964
-0.3136428893 -0.1242073476 0.5118297338 4287437343
-0.3137017190 -0.1236618608 0.5119257569 4287567900
-0.3137603402 -0.1231160685 0.5120213628 4287633693
-0.3138186932 -0.1225699708 0.5121166110 4287371548
-0.3143888712 -0.1222226322 0.5130470395 4287503134
-0.3144468367 -0.1216750368 0.5131416917 4288355365
-0.3150168061 -0.1213244125 0.5140717626 4288223779
-0.3155867159 -0.1209717020 0.5150018334 4288224292
-0.3156441748 -0.1204214171 0.5150955915 4288355878
-0.3157013655 -0.1198708266 0.5151889324 4288225319
-0.3162709177 -0.1195136458 0.5161184072 4288225319
-0.3168404400 -0.1191543713 0.5170477629 4287963687
-0.3168970942 -0.1186011061 0.5171402097 4287897894
-0.3169535100 -0.1180475354 0.5172322989 4287634722
-0.3164967299 -0.1173035577 0.5164868832 4287700515
-0.3160395324 -0.1165610775 0.5157407522 4287831588
-0.3160950243 -0.1160084233 0.5158313513 4287634209
-0.3161503077 -0.1154554784 0.5159215331 4288093733
-0.3162053227 -0.1149022430 0.5160112977 4288356905
-0.3162600994 -0.1143487245 0.5161007047 4288487721
-0.3163146079 -0.1137949154 0.5161896944 4288092963
-0.3163689077 -0.1132408231 0.5162782669 4287044897
-0.3164229393 -0.1126864403 0.5163664222 4286979104
-0.3164767325 -0.1121317819 0.5164542198 4287109921
-0.3165302575 -0.1115768328 0.5165416002 4286978335
-0.3165835440 -0.1110216081 0.5166285634 4287175460
-0.3171506226 -0.1106454283 0.5175539255 4287241253
-0.3172034919 -0.1100887433 0.5176402330 4287635754
-0.3167419434 -0.1093542576 0.5168870091 4287504168
-0.3167942464 -0.1087979227 0.5169723630 4286847013
-0.3168462813 -0.1082413048 0.5170572996 4287110185
-0.3168980777 -0.1076844186 0.5171418190 4286980142
-0.3169496357 -0.1071272641 0.5172259212 4286980142
-0.3170009255 -0.1065698341 0.5173096657 4286850098
-0.3170519769 -0.1060121357 0.5173929334 4287047477
-0.3171027601 -0.1054541618 0.5174758434 4287179577
-0.3171533048 -0.1048959270 0.5175583363 4287376956
-0.3177185357 -0.1045068055 0.5184807181 4287445069
-0.3177686632 -0.1039471254 0.5185624957 4287708241
-0.3178185225 -0.1033871919 0.5186438560 4287906131
-0.3178681433 -0.1028269902 0.5187248588 4288169303
-0.3179174960 -0.1022665277 0.5188053846 4288039259
-0.3179665804 -0.1017057970 0.5188854933 4288105052
-0.3185308576 -0.1013087481 0.5198063254 4288171875
-0.3185795248 -0.1007465944 0.5198857784 4288566633
-0.3186279535 -0.1001841873 0.5199647546 4289224309
-0.3186761141 -0.0996215269 0.5200433731 4289750653
-0.3187240064 -0.0990586057 0.5201215148 4290014338
-0.3192874491 -0.0986548141 0.5210410357 4290409096
-0.3193349242 -0.0980904773 0.5211184621 4290543253
-0.3193821311 -0.0975258946 0.5211955309 4290609046
-0.3199451268 -0.0971176997 0.5221142173 4290152092
-0.3199918866 -0.0965517014 0.5221905708 4290678436
-0.3195222020 -0.0958306417 0.5214240551 4291207090
-0.3200846314 -0.0954189673 0.5223419070 4291207090
-0.3196142614 -0.0946992487 0.5215743184 4291141296
-0.3206927478 -0.0944373310 0.5233342648 4291207089
-0.3212547600 -0.0940203518 0.5242514014 4291600818
-0.3213000894 -0.0934510604 0.5243254304 4291600818
-0.3218618035 -0.0930308551 0.5252420902 4291664807
-0.3224233985 -0.0926085785 0.5261585116 4291204256
-0.3229848742 -0.0921842307 0.5270748138 4289623679
-0.3235462308 -0.0917578116 0.5279908776 4288834163
-0.3241074681 -0.0913293213 0.5289067030 4288635495
-0.3246685565 -0.0908987597 0.5298223495 4288635495
-0.3252295256 -0.0904661343 0.5307378173 4288832615
-0.3257903755 -0.0900314301 0.5316530466 4288898408
-0.3268682957 -0.0897366554 0.5334120989 4288963431
-0.3274289370 -0.0892968923 0.5343270302 4289226603
-0.3285067976 -0.0889952183 0.5360859632 4289686897
-0.3295846581 -0.0886896327 0.5378448963 4289423725
-0.3306624889 -0.0883801430 0.5396038294 4287254347
-0.3317403495 -0.0880667344 0.5413627028 4288636000
-0.3232742250 -0.1605503261 0.5285048485 4286598482
-0.3238537312 -0.1602498740 0.5294523239 4286203724
-0.3239279389 -0.1596981883 0.5295735598 4286335314
-0.3234964311 -0.1588978618 0.5288681388 4286335314
-0.3230644763 -0.1580988616 0.5281620026 4286268754
-0.3221263885 -0.1570546627 0.5266283751 4286531926
-0.3216934204 -0.1562592387 0.5259205103 4286532693
-0.3212600052 -0.1554651558 0.5252119303 4286335314
-0.3203201294 -0.1544284821 0.5236753225 4286400594
-0.3183672428 -0.1529086828 0.5204827189 4286795352
-0.3179320395 -0.1521221548 0.5197711587 4287454054
-0.3174963593 -0.1513369977 0.5190589428 4288177777
-0.3170602620 -0.1505531967 0.5183459520 4288574079
-0.3166236877 -0.1497707814 0.5176322460 4288968837
-0.3172001243 -0.1494672596 0.5185745955 4289232009
-0.3162560761 -0.1484479606 0.5170312524 4289232009
-0.3158182800 -0.1476688087 0.5163155198 4289100938
-0.3148730099 -0.1466548741 0.5147701502 4289232524
-0.3154485524 -0.1463499367 0.5157110691 4289495953
-0.3145022988 -0.1453396529 0.5141640902 4289495953
-0.3140627444 -0.1445660591 0.5134454966 4289956506
-0.3141302168 -0.1440265179 0.5135558248 4290219678
-0.3136898875 -0.1432548463 0.5128359199 4290022815
-0.3132491410 -0.1424845606 0.5121153593 4289759643
-0.3133157194 -0.1419457346 0.5122242570 4289496984
-0.3128741980 -0.1411773860 0.5115023851 4289233812
-0.3124322295 -0.1404104382 0.5107797980 4289036433
-0.3124979138 -0.1398723274 0.5108872652 4289102226
-0.3125634193 -0.1393338889 0.5109943151 4289035921
-0.3121203482 -0.1385694295 0.5102699399 4288838542
-0.3116768301 -0.1378063858 0.5095448494 4288641163
-0.3112328649 -0.1370447576 0.5088190436 4288575370
-0.3112971485 -0.1365076154 0.5089241266 4288509062
-0.3108524084 -0.1357479542 0.5081970692 4288377476
-0.3109161258 -0.1352110207 0.5083012581 4288442754
-0.3109796047 -0.1346737444 0.5084050298 4288311168
-0.3105337918 -0.1339166164 0.5076761842 4288310139
-0.3100875318 -0.1331609190 0.5069466233 4287783795
-0.3101501465 -0.1326244324 0.5070489645 4287783020
-0.3102124929 -0.1320876181 0.5071509480 4287519848
-0.3102746606 -0.1315504909 0.5072525144 4287321443
-0.3103365600 -0.1310130358 0.5073537230 4286992478
-0.3103982508 -0.1304752529 0.5074545741 4286794329
-0.3104597032 -0.1299371570 0.5075550079 4286596950
-0.3105209172 -0.1293987334 0.5076551437 4286400594
-0.3105819225 -0.1288599968 0.5077548623 4286466387
-0.3106426597 -0.1283209473 0.5078541636 4286597201
-0.3107031882 -0.1277815849 0.5079531074 4286531408
-0.3107635081 -0.1272418946 0.5080516934 4287251535
-0.3108235598 -0.1267019063 0.5081499219 4287251535
-0.3108834028 -0.1261615902 0.5082477331 4287643725
-0.3109430075 -0.1256209761 0.5083451867 4287643725
-0.3110023737 -0.1250800341 0.5084422231 4288364877
-0.3110615015 -0.1245388016 0.5085389018 4288430670
-0.3111204207 -0.1239972487 0.5086352229 4288690759
-0.3111790717 -0.1234553978 0.5087311268 4288756552
-0.3112375140 -0.1229132339 0.5088266134 4288624450
-0.3107845485 -0.1221698299 0.5080861449 4288295485
-0.3113536537 -0.1218279973 0.5090165138 4288228150
-0.3114113808 -0.1212849244 0.5091109276 4288228150
-0.3119803071 -0.1209398136 0.5100409985 4288031798
-0.3120376468 -0.1203952506 0.5101347566 4287834419
-0.3126063943 -0.1200468540 0.5110645890 4288097591
-0.3126633465 -0.1195008010 0.5111576915 4288163384
-0.3127200902 -0.1189544424 0.5112504363 4288098104
-0.3132884800 -0.1186015829 0.5121796727 4288229690
-0.3138568103 -0.1182466373 0.5131087899 4287901495
-0.3134008944 -0.1175055951 0.5123634338 4287704116
-0.3134567440 -0.1169571653 0.5124547482 4287704116
-0.3130000830 -0.1162182316 0.5117082000 4287967288
-0.3130553663 -0.1156701073 0.5117985606 4288098104
-0.3131103814 -0.1151216999 0.5118885636 4287966518
-0.3131651878 -0.1145730019 0.5119780898 4288032313
-0.3132197261 -0.1140240133 0.5120673180 4288492864
-0.3132740557 -0.1134747416 0.5121560693 4288624450
-0.3133281171 -0.1129251868 0.5122444630 4288624450
-0.3133819401 -0.1123753488 0.5123324394 4288099650
-0.3134354949 -0.1118252203 0.5124200583 4288099650
-0.3140019178 -0.1114569381 0.5133460164 4288034370
-0.3140550852 -0.1109053493 0.5134329796 4288034370
-0.3141080141 -0.1103534847 0.5135194659 4288231749
-0.3141607046 -0.1098013371 0.5136055946 4288494921
-0.3142131269 -0.1092489138 0.5136913061 4289086547
-0.3142653108 -0.1086962149 0.5137766600 4288757582
-0.3143172562 -0.1081432477 0.5138615370 4288627027
-0.3138552606 -0.1074142009 0.5131062865 4289284957
-0.3139066100 -0.1068615839 0.5131902695 4289287273
-0.3139577210 -0.1063086987 0.5132738352 4289221480
-0.3145225346 -0.1059286296 0.5141971707 4288632683
-0.3145732284 -0.1053743064 0.5142800212 4288698476
-0.3146236539 -0.1048197076 0.5143625140 4288503668
-0.3146738708 -0.1042648479 0.5144445896 4288766840
-0.3147237897 -0.1037097201 0.5145261884 4287784062
-0.3147735000 -0.1031543314 0.5146074295 4288113027
-0.3153373599 -0.1027663201 0.5155292749 4288638853
-0.3159011304 -0.1023762375 0.5164509416 4288704646
-0.3159502149 -0.1018182412 0.5165312290 4288508036
-0.3159990609 -0.1012599915 0.5166110992 4288573829
-0.3160476685 -0.1007014811 0.5166904926 4288705929
-0.3166108131 -0.1003058180 0.5176112056 4288903308
-0.3171738684 -0.0999080688 0.5185316801 4289363859
-0.3172218502 -0.0993469730 0.5186101198 4289758617
-0.3177846074 -0.0989459902 0.5195301771 4289955742
-0.3178321719 -0.0983834714 0.5196079612 4290153121
-0.3178794682 -0.0978206992 0.5196852684 4290351529
-0.3184417784 -0.0974153131 0.5206045508 4290548908
