VERSION 0.7
FIELDS x y z rgba
SIZE 4 4 4 4
TYPE F F F U
COUNT 1 1 1 1
WIDTH 920
HEIGHT 1
VIEWPOINT 0.0 0.0 0.0 1.0 0.0 0.0 0.0
POINTS 920
DATA ascii
-0.2950085700 -0.1701360643 0.5559924841 4289770288
-0.2955339849 -0.1698202342 0.5569826961 4289638702
-0.2956067026 -0.1692430228 0.5571197867 4289572909
-0.2956792414 -0.1686653942 0.5572564602 4289507116
-0.2957515419 -0.1680873334 0.5573927164 4289507116
-0.2958236337 -0.1675088555 0.5575286150 4289507116
-0.2958955169 -0.1669299603 0.5576640964 4289375530
-0.2959671915 -0.1663506329 0.5577991605 4289441323
-0.2960386276 -0.1657708883 0.5579338074 4289441323
-0.2961098552 -0.1651907265 0.5580680966 4289375530
-0.2961808741 -0.1646101475 0.5582019091 4289375530
-0.2962516844 -0.1640291363 0.5583353639 4289507116
-0.2963222861 -0.1634477228 0.5584684014 4289572909
-0.2963926494 -0.1628658921 0.5586010218 4289572909
-0.2964628041 -0.1622836441 0.5587332249 4289572911
-0.2969868481 -0.1619486213 0.5597208738 4289638704
-0.2970566750 -0.1613646597 0.5598524809 4289704497
-0.2971262634 -0.1607802808 0.5599836707 4289638704
-0.2971956432 -0.1601954997 0.5601143837 4289638704
-0.2977193296 -0.1598543674 0.5611013770 4289770290
-0.2977883816 -0.1592678726 0.5612314939 4289967665
-0.2978572249 -0.1586809605 0.5613612533 4290033458
-0.2983806729 -0.1583350152 0.5623477697 4290231090
-0.2984491587 -0.1577464044 0.5624768138 4290625848
-0.2985174060 -0.1571573913 0.5626054406 4290625848
-0.2985854447 -0.1565679759 0.5627337098 4290757434
-0.2991085052 -0.1562159210 0.5637195110 4290691390
-0.2991761863 -0.1556247920 0.5638470650 4290757183
-0.2996991277 -0.1552692354 0.5648326278 4290625346
-0.3002220392 -0.1549114883 0.5658181310 4291349069
-0.3007449210 -0.1545515358 0.5668035746 4292667350
-0.3012677729 -0.1541893780 0.5677890182 4293785831
-0.3520399034 -0.2507306933 0.6648691893 4287204924
-0.3516994119 -0.2497501969 0.6642261147 4287139131
-0.3491374850 -0.2471982837 0.6593876481 4287466276
-0.3510170281 -0.2477924824 0.6629373431 4287466276
-0.3502306640 -0.2465024441 0.6614522338 4287532572
-0.3489989638 -0.2449032068 0.6591260433 4287598365
-0.2944006324 -0.2059721202 0.5560106039 4287796765
-0.2909272611 -0.2029315680 0.5494507551 4287928351
-0.2892315686 -0.2011418343 0.5462481976 4288190243
-0.2879797220 -0.1996669769 0.5438839793 4288321829
-0.2877000272 -0.1982656419 0.5433557034 4288783393
-0.2877824605 -0.1977185607 0.5435113907 4288586790
-0.2871369123 -0.1954674721 0.5422922373 4288980774
-0.2867723703 -0.1946175545 0.5416037440 4288980774
-0.2864074111 -0.1937688738 0.5409144163 4289178153
-0.2860420048 -0.1929214150 0.5402243137 4289375532
-0.2861225009 -0.1923753321 0.5403763652 4289572911
-0.2857563496 -0.1915295124 0.5396848321 4289507632
-0.2858363986 -0.1909833550 0.5398359895 4289573425
-0.2859162390 -0.1904367507 0.5399867892 4289705011
-0.2859959006 -0.1898896694 0.5401372313 4289639218
-0.2860753834 -0.1893421412 0.5402873755 4289639732
-0.2861546576 -0.1887941658 0.5404371023 4289705525
-0.2862337828 -0.1882457286 0.5405865312 4289771318
-0.2863126993 -0.1876968294 0.5407355428 4289771318
-0.2868389189 -0.1874399036 0.5417293906 4289837111
-0.2869175673 -0.1868892461 0.5418779254 4289902904
-0.2874437869 -0.1866288334 0.5428717732 4289968443
-0.2875221968 -0.1860764027 0.5430198312 4289902650
-0.2876004279 -0.1855235249 0.5431675911 4290034236
-0.2876784503 -0.1849702001 0.5433149338 4290297408
-0.2877562940 -0.1844164282 0.5434619784 4290428994
-0.2878339291 -0.1838621944 0.5436086059 4290428994
-0.2883598506 -0.1835930496 0.5446018577 4290494787
-0.2884372473 -0.1830370724 0.5447480083 4290560580
-0.2885144353 -0.1824806333 0.5448938012 4290626373
-0.2890402377 -0.1822066903 0.5458868742 4290626373
-0.2891171575 -0.1816484928 0.5460321307 4290692166
-0.2891938984 -0.1810898632 0.5461770296 4290692166
-0.2892704308 -0.1805307716 0.5463215709 4290692166
-0.2897960544 -0.1802507192 0.5473142862 4290692166
-0.2898722887 -0.1796898842 0.5474582911 4290692166
-0.2903978825 -0.1794063151 0.5484509468 4290626373
-0.2904738784 -0.1788437366 0.5485944152 4290757959
-0.2909994125 -0.1785566807 0.5495870113 4290757959
-0.2915249765 -0.1782674342 0.5505796075 4290692166
-0.2920506001 -0.1779760122 0.5515722632 4290692166
-0.2921261191 -0.1774090379 0.5517148972 4290626373
-0.2922014594 -0.1768416315 0.5518571734 4290626373
-0.2927269340 -0.1765453964 0.5528495908 4290691906
-0.2928019464 -0.1759762317 0.5529913306 4290757699
-0.2933273613 -0.1756764948 0.5539835691 4290757951
-0.2934021056 -0.1751055866 0.5541247725 4290823744
-0.2939274311 -0.1748023331 0.5551169515 4290823744
-0.2940018773 -0.1742296815 0.5552574992 4290626365
-0.2940761149 -0.1736565828 0.5553976893 4290428986
-0.2941501439 -0.1730830520 0.5555375218 4290231607
-0.2946752310 -0.1727736890 0.5565292239 4289968437
-0.2947489619 -0.1721984148 0.5566684604 4289771058
-0.2948224843 -0.1716227084 0.5568072796 4289704495
-0.2948957682 -0.1710465699 0.5569457412 4289704495
-0.2945171595 -0.1702089459 0.5562306643 4289704495
-0.2950417697 -0.1698930115 0.5572214127 4289638702
-0.2951144278 -0.1693155915 0.5573586822 4289572909
-0.2951868773 -0.1687377542 0.5574955344 4289507116
-0.2952591479 -0.1681594849 0.5576319695 4289441323
-0.2953311801 -0.1675807834 0.5577680469 4289441323
-0.2954030037 -0.1670016795 0.5579036474 4289375530
-0.2954745889 -0.1664221287 0.5580388904 4289441323
-0.2955459952 -0.1658421755 0.5581737757 4289441323
-0.2956171632 -0.1652617902 0.5583081841 4289375530
-0.2956881523 -0.1646810025 0.5584421754 4289441323
-0.2957588732 -0.1640997827 0.5585758090 4289507116
-0.2958294153 -0.1635181457 0.5587090254 4289572909
-0.2958997190 -0.1629361063 0.5588418245 4289638702
-0.2959698141 -0.1623536348 0.5589742064 4289572909
-0.2964930534 -0.1620184928 0.5599623919 4289638702
-0.2965628207 -0.1614343226 0.5600941181 4289638704
-0.2966323793 -0.1608497202 0.5602254868 4289572911
-0.2967016995 -0.1602647156 0.5603564382 4289638449
-0.2972245812 -0.1599234641 0.5613439679 4289770035
-0.2972935736 -0.1593367457 0.5614742637 4289901874
-0.2973623276 -0.1587496251 0.5616041422 4290033460
-0.2978849709 -0.1584035605 0.5625911951 4290231091
-0.2979533970 -0.1578147262 0.5627204180 4290625849
-0.2980216146 -0.1572254896 0.5628492236 4290625849
-0.2980895936 -0.1566358358 0.5629776120 4290691642
-0.2986118495 -0.1562836617 0.5639640093 4290757183
-0.2991341054 -0.1559292972 0.5649502873 4290757183
-0.2992016077 -0.1553366333 0.5650777817 4290691139
-0.2997237146 -0.1549787670 0.5660638809 4291151690
-0.3002457917 -0.1546186805 0.5670498610 4292469704
-0.3007678390 -0.1542563885 0.5680357814 4293917150
-0.3539166152 -0.1079922095 0.6684135795 4293653476
-0.3544283807 -0.1074046418 0.6693801284 4293521890
-0.3544766009 -0.1066754237 0.6694712043 4293522394
-0.3549879491 -0.1060843989 0.6704369187 4293456601
-0.3550355732 -0.1053536385 0.6705269217 4293653721
-0.3550829291 -0.1046225801 0.6706163287 4293587928
-0.3546663225 -0.1037556008 0.6698294878 4293521882
-0.3551766276 -0.1031595916 0.6707932949 4293587675
-0.3552230299 -0.1024276689 0.6708809137 4293718758
-0.3557328880 -0.1018282175 0.6718438268 4293587172
-0.3496738672 -0.2495690733 0.6617888212 4287731521
-0.3493335247 -0.2485915720 0.6611447334 4287336763
-0.3476623595 -0.2466712892 0.6579818726 4287532069
-0.3464335203 -0.2450709343 0.6556562185 4287400483
-0.3443162739 -0.2428491414 0.6516491175 4287401758
-0.2938193977 -0.2066154331 0.5560793281 4287401758
-0.2903531790 -0.2035674155 0.5495191813 4287862305
-0.2886610925 -0.2017740756 0.5463167429 4287993891
-0.2887446880 -0.2012253404 0.5464749336 4288190496
-0.2883837223 -0.2003673911 0.5457918644 4288322082
-0.2880223691 -0.1995106488 0.5451079011 4288651297
-0.2872159481 -0.1983480901 0.5435816646 4288782883
-0.2872982919 -0.1978008300 0.5437375307 4288586790
-0.2869355977 -0.1969477534 0.5430511236 4288784169
-0.2870174944 -0.1964004189 0.5432060957 4289046567
-0.2866540551 -0.1955489516 0.5425182581 4288980774
-0.2867354453 -0.1950015128 0.5426722765 4289046312
-0.2863712609 -0.1941516697 0.5419830680 4289177898
-0.2860066593 -0.1933030635 0.5412930250 4289178668
-0.2856416106 -0.1924556941 0.5406021476 4289310254
-0.2852761447 -0.1916095763 0.5399104357 4289441839
-0.2853561044 -0.1910632402 0.5400617719 4289507632
-0.2854358852 -0.1905164421 0.5402127504 4289573425
-0.2855154872 -0.1899691820 0.5403634310 4289573425
-0.2855948806 -0.1894214749 0.5405136943 4289573938
-0.2856741250 -0.1888733059 0.5406636596 4289639731
-0.2857531607 -0.1883246750 0.5408132076 4289705524
-0.2862786055 -0.1880689859 0.5418077111 4289771317
-0.2863574028 -0.1875185966 0.5419568419 4289837108
-0.2868828773 -0.1872594357 0.5429512858 4289902901
-0.2869614065 -0.1867072731 0.5430999398 4290033976
-0.2870397568 -0.1861546636 0.5432482362 4289968183
-0.2871178985 -0.1856015921 0.5433961153 4290099769
-0.2876432240 -0.1853363067 0.5443903208 4290297148
-0.2872736454 -0.1844941080 0.5436908603 4290362941
-0.2877988219 -0.1842262000 0.5446848273 4290362941
-0.2878763080 -0.1836704761 0.5448315144 4290428734
-0.2879536450 -0.1831142902 0.5449778438 4290560320
-0.2880307734 -0.1825576723 0.5451238155 4290691906
-0.2881076932 -0.1820005924 0.5452694297 4290691906
-0.2886326313 -0.1817252636 0.5462628603 4290691906
-0.2891575992 -0.1814477444 0.5472564101 4290691906
-0.2887857556 -0.1806071550 0.5465527177 4290691906
-0.2893105745 -0.1803270131 0.5475459695 4290691906
-0.2893867493 -0.1797659695 0.5476901531 4290691906
-0.2899115384 -0.1794823408 0.5486833453 4290757699
-0.2899874449 -0.1789195538 0.5488269925 4290626627
-0.2905121744 -0.1786324084 0.5498201251 4290692420
-0.2910369337 -0.1783430874 0.5508132577 4290692166
-0.2915617228 -0.1780515760 0.5518065095 4290626373
-0.2916371822 -0.1774844080 0.5519493222 4290692420
-0.2917124629 -0.1769167930 0.5520917177 4290692420
-0.2922371030 -0.1766204685 0.5530846715 4290757951
-0.2923120856 -0.1760511100 0.5532265902 4290757951
-0.2928366661 -0.1757512838 0.5542194247 4290758204
-0.2929113507 -0.1751801670 0.5543607473 4290823997
-0.2929858267 -0.1746086031 0.5545017123 4290758204
-0.2930600941 -0.1740366220 0.5546422601 4290626618
-0.2935844362 -0.1737306565 0.5556346178 4290494777
-0.2936584055 -0.1731569171 0.5557746291 4290231605
-0.2941826582 -0.1728474498 0.5567668676 4289902642
-0.2942563295 -0.1722719669 0.5569062829 4289771056
-0.2943297923 -0.1716960520 0.5570452809 4289836081
-0.2948538959 -0.1713817716 0.5580371618 4289770288
-0.2949270308 -0.1708041131 0.5581756234 4289704495
-0.2945488989 -0.1699657440 0.5574599504 4289572909
-0.2946214974 -0.1693881154 0.5575973988 4289507116
-0.2946939170 -0.1688100547 0.5577344298 4289441323
-0.2947660983 -0.1682315767 0.5578710437 4289375530
-0.2948380709 -0.1676526666 0.5580072403 4289375530
-0.2949098349 -0.1670733392 0.5581430793 4289507116
-0.2949813902 -0.1664935797 0.5582785010 4289441323
-0.2950527370 -0.1659134030 0.5584135056 4289441323
-0.2951238453 -0.1653328091 0.5585480928 4289375530
-0.2951947451 -0.1647517979 0.5586822629 4289441325
-0.2952654362 -0.1641703695 0.5588160753 4289507118
-0.2957881987 -0.1638390422 0.5598054528 4289507118
-0.2958585620 -0.1632558852 0.5599386096 4289572911
-0.2959286869 -0.1626723111 0.5600713491 4289572907
-0.2959986329 -0.1620883197 0.5602037311 4289638700
-0.2960683405 -0.1615039259 0.5603356361 4289638704
-0.2965906262 -0.1611651629 0.5613241196 4289638704
-0.2966600060 -0.1605790406 0.5614554286 4289704242
-0.2967291772 -0.1599925160 0.5615863204 4289770035
-0.2967981100 -0.1594055742 0.5617167950 4289901876
-0.2973200381 -0.1590607017 0.5627046227 4290033462
-0.2973886430 -0.1584720463 0.5628344417 4290296630
-0.2979104519 -0.1581236571 0.5638220310 4290691388
-0.2979787290 -0.1575333029 0.5639511943 4290625595
-0.2980467379 -0.1569425315 0.5640799403 4290625595
-0.2981145382 -0.1563513577 0.5642082691 4290757183
-0.2986359894 -0.1559968591 0.5651951432 4290757183
-0.2991573811 -0.1556401551 0.5661819577 4290756930
-0.2992247343 -0.1550459862 0.5663093925 4290822723
-0.2997459769 -0.1546857804 0.5672959089 4291943865
-0.3002672195 -0.1543233544 0.5682824254 4293983448
-0.3530837893 -0.1183590740 0.6682424545 4293456099
-0.3522134125 -0.1173266768 0.6665952206 4293324513
-0.3522658348 -0.1166033894 0.6666944027 4293258971
-0.3518562019 -0.1157279089 0.6659191251 4292995799
-0.3514461219 -0.1148540080 0.6651430130 4292732366
-0.3505736887 -0.1138317138 0.6634918451 4292534987
-0.3501626551 -0.1129619256 0.6627138853 4292337610
-0.3502131701 -0.1122417971 0.6628095508 4292206024
-0.3498013318 -0.1113742366 0.6620301008 4292008645
-0.3498511612 -0.1106544361 0.6621243954 4291877059
-0.3494384885 -0.1097891182 0.6613433957 4291875774
-0.3485631049 -0.1087811142 0.6596866250 4291612602
-0.3481494784 -0.1079199389 0.6589038372 4291415215
-0.3477354050 -0.1070603728 0.6581201553 4291283629
-0.3468584418 -0.1060609967 0.6564604044 4291218338
-0.3469060063 -0.1053460613 0.6565504074 4291152545
-0.3474158347 -0.1047703400 0.6575153470 4291153049
-0.3479254842 -0.1041924208 0.6584799290 4291021463
-0.3479722440 -0.1034747064 0.6585683823 4290955669
-0.3489442468 -0.1030299887 0.6604080200 4290889876
-0.3494533598 -0.1024454683 0.6613715291 4291283611
-0.3494993448 -0.1017240286 0.6614585519 4291415197
-0.3495450318 -0.1010022983 0.6615450382 4291085985
-0.3500534296 -0.1004131138 0.6625072360 4290954399
-0.3505616486 -0.0998217314 0.6634690166 4291086250
-0.3501433432 -0.0989663377 0.6626773477 4291283629
-0.3501878083 -0.0982425362 0.6627615690 4290889910
-0.3506952524 -0.0976474509 0.6637219191 4291350461
-0.3490000367 -0.0861672685 0.6605135798 4293193443
-0.3495030403 -0.0855565220 0.6614655852 4293456615
-0.3473130763 -0.2484062910 0.6587054729 4287600703
-0.3469728827 -0.2474318147 0.6580602527 4287074359
-0.3461894989 -0.2461436838 0.6565745473 4287532323
-0.3454053998 -0.2448583245 0.6550874114 4287334944
-0.3437346518 -0.2429495901 0.6519187093 4287401504
-0.3416195512 -0.2407348007 0.6479072571 4287598883
-0.2934085727 -0.2061428726 0.5564715266 4287928100
-0.2903904021 -0.2034104466 0.5507473350 4288125479
-0.2882571816 -0.2013087720 0.5467015505 4288256285
-0.2878969312 -0.2004505098 0.5460182428 4288387871
-0.2875362337 -0.1995934695 0.5453341603 4288716838
-0.2867312431 -0.1984304637 0.5438074470 4288782631
-0.2868135273 -0.1978830397 0.5439634919 4288586790
-0.2864515185 -0.1970296502 0.5432769656 4288849962
-0.2860890925 -0.1961774975 0.5425895452 4289112360
-0.2861705720 -0.1956303567 0.5427441001 4289112360
-0.2862518728 -0.1950827390 0.5428982973 4289112105
-0.2858884037 -0.1942325830 0.5422089100 4289243691
-0.2855244875 -0.1933836788 0.5415187478 4289309484
-0.2851601243 -0.1925359964 0.5408276916 4289441070
-0.2852403224 -0.1919890791 0.5409798026 4289442093
-0.2848752141 -0.1911430508 0.5402873755 4289573679
-0.2849549353 -0.1905960590 0.5404385328 4289573677
-0.2850344479 -0.1900486201 0.5405893922 4289639470
-0.2851138115 -0.1895007193 0.5407398343 4289705265
-0.2851929665 -0.1889523715 0.5408899784 4289771058
-0.2852719426 -0.1884035617 0.5410397649 4289836849
-0.2853507102 -0.1878542900 0.5411891937 4289902642
-0.2858752906 -0.1875972301 0.5421841145 4289968433
-0.2859538198 -0.1870462000 0.5423330665 4289968433
-0.2864784002 -0.1867856532 0.5433279276 4289968435
-0.2865566909 -0.1862328500 0.5434764028 4289968435
-0.2866347730 -0.1856795996 0.5436245203 4290100021
-0.2871592641 -0.1854142398 0.5446192622 4290297400
-0.2867903709 -0.1845717281 0.5439196229 4290428986
-0.2873147428 -0.1843037456 0.5449140668 4290363193
-0.2873921692 -0.1837478280 0.5450609922 4290363195
-0.2874694467 -0.1831914634 0.5452075005 4290560574
-0.2875464857 -0.1826346368 0.5453536510 4290692160
-0.2876233757 -0.1820773631 0.5454994440 4290692160
-0.2881474793 -0.1818019599 0.5464934707 4290692160
-0.2882240713 -0.1812429279 0.5466387272 4290692160
-0.2883004844 -0.1806834638 0.5467836261 4290692160
-0.2883766890 -0.1801235378 0.5469281673 4290757953
-0.2889005840 -0.1798420101 0.5479217768 4290757953
-0.2889765203 -0.1792803407 0.5480657816 4290757953
-0.2895004153 -0.1789952964 0.5490593910 4290692420
-0.2895760536 -0.1784318686 0.5492028594 4290692420
-0.2900998890 -0.1781433374 0.5501963496 4290692420
-0.2906237543 -0.1778526157 0.5511898994 4290758213
-0.2911476493 -0.1775597185 0.5521835089 4290758212
-0.2912228405 -0.1769918948 0.5523260832 4290758212
-0.2917466760 -0.1766954809 0.5533195734 4290757953
-0.2913726270 -0.1758549511 0.5526102185 4290757953
-0.2923453748 -0.1758259982 0.5544550419 4290757951
-0.2924199700 -0.1752546728 0.5545965433 4290692158
-0.2924943864 -0.1746829152 0.5547376871 4290692156
-0.2925685942 -0.1741107255 0.5548784137 4290626363
-0.2930921316 -0.1738046706 0.5558713675 4290428984
-0.2931660116 -0.1732307225 0.5560114980 4290165812
-0.2932397127 -0.1726563573 0.5561512709 4289902895
-0.2937630713 -0.1723454744 0.5571438670 4289771309
-0.2938364744 -0.1717693508 0.5572830439 4289704495
-0.2939096689 -0.1711927950 0.5574218631 4289638702
-0.2944328487 -0.1708770990 0.5584141016 4289572909
-0.2940554023 -0.1700384021 0.5576982498 4289507116
-0.2941279411 -0.1694605649 0.5578358769 4289441323
-0.2942003012 -0.1688822955 0.5579730868 4289441323
-0.2942724228 -0.1683035940 0.5581098795 4289441323
-0.2943443358 -0.1677244753 0.5582462549 4289507116
-0.2944160402 -0.1671449393 0.5583822727 4289441323
-0.2944875360 -0.1665649712 0.5585178733 4289441323
-0.2945588231 -0.1659845859 0.5586530566 4289375530
-0.2946298718 -0.1654037684 0.5587878227 4289375530
-0.2947007418 -0.1648225486 0.5589221716 4289441325
-0.2947713733 -0.1642408967 0.5590561628 4289441325
-0.2952933013 -0.1639094502 0.5600460172 4289441325
-0.2953636050 -0.1633260846 0.5601793528 4289507118
-0.2954337001 -0.1627422869 0.5603123307 4289507367
-0.2955035567 -0.1621580869 0.5604448318 4289573160
-0.2955732048 -0.1615734696 0.5605769157 4289638702
-0.2956426442 -0.1609884351 0.5607085824 4289704495
-0.2961640358 -0.1606482565 0.5616974235 4289770035
-0.2962331176 -0.1600615084 0.5618284941 4289770035
-0.2963019907 -0.1594743431 0.5619591475 4289901876
-0.2968231440 -0.1591293514 0.5629475117 4290033462
-0.2968916893 -0.1585404724 0.5630775094 4290296630
-0.2974126637 -0.1581919789 0.5640655756 4290625595
-0.2974808812 -0.1576013863 0.5641949177 4290625595
-0.2975488603 -0.1570103914 0.5643238425 4290625595
-0.2980695963 -0.1566570848 0.5653114915 4290822976
-0.2981372178 -0.1560643762 0.5654397607 4290757183
-0.2986578047 -0.1557075530 0.5664271116 4290888771
-0.2987250984 -0.1551131457 0.5665547252 4290691392
-0.2992455363 -0.1547528207 0.5675417781 4291286185
-0.2997659743 -0.1543902755 0.5685288310 4293852112
-0.3512551785 -0.1224351749 0.6661819816 4293519847
-0.3503888547 -0.1213948503 0.6645389199 4293322468
-0.3490613997 -0.1201993972 0.6620213389 4293125591
-0.3481938243 -0.1191669181 0.6603758931 4292862419
-0.3473256528 -0.1181379035 0.6587293148 4292402876
-0.3469175994 -0.1172680780 0.6579554677 4291942325
-0.3460483551 -0.1162450314 0.6563068032 4291679393
-0.3456393480 -0.1153793037 0.6555311084 4291482014
-0.3452299237 -0.1145151481 0.6547545791 4291087756
-0.3443590403 -0.1135006323 0.6531029344 4290758791
-0.3439486623 -0.1126405895 0.6523246169 4290561147
-0.3430767357 -0.1116320938 0.6506708860 4290232182
-0.3426654041 -0.1107761785 0.6498907804 4289903213
-0.3427149057 -0.1100700051 0.6499846578 4289837420
-0.3423027694 -0.1092163250 0.6492030621 4289903213
-0.3418902159 -0.1083642542 0.6484205723 4289903213
-0.3410157561 -0.1073684916 0.6467621326 4289705574
-0.3401407301 -0.1063762382 0.6451026201 4289705574
-0.3397267461 -0.1055308804 0.6443174481 4289836897
-0.3383890390 -0.1044022739 0.6417803764 4289836897
-0.3379740715 -0.1035620570 0.6409932971 4289705307
-0.3380204141 -0.1028639749 0.6410812736 4289573721
-0.3385283351 -0.1023051813 0.6420445442 4289377364
-0.3385741711 -0.1016055793 0.6421315074 4289377364
-0.3307663202 -0.0985654518 0.6273232698 4290035294
-0.3395889699 -0.1004789397 0.6440561414 4289772122
-0.3308543563 -0.0971973240 0.6274902821 4289442389
-0.3304358125 -0.0963780507 0.6266964674 4289310803
-0.3295546174 -0.0954265893 0.6250252128 4289771104
-0.3300597072 -0.0948773250 0.6259831190 4289705311
-0.3504316211 -0.0837492123 0.6646199822 4292270295
-0.3504693806 -0.0830197111 0.6646916270 4292665053
-0.3523613214 -0.0827253759 0.6682798862 4292796904
-0.3523986340 -0.0819915533 0.6683506370 4292928490
-0.3449575901 -0.2472423911 0.6556191444 4287732289
-0.3441756964 -0.2459551990 0.6541330814 4287140152
-0.3433930874 -0.2446707934 0.6526457071 4287729700
-0.3434938788 -0.2440172732 0.6528372765 4287334942
-0.3422678709 -0.2424235493 0.6505071521 4287335711
-0.2932685912 -0.2070987672 0.5573801398 4287598883
-0.3398128748 -0.2392495573 0.6458411813 4287797027
-0.2894560397 -0.2031839490 0.5501340628 4287994406
-0.2873263955 -0.2010823041 0.5460864902 4288256539
-0.2865238190 -0.1999155879 0.5445611477 4288322332
-0.2857205570 -0.1987517774 0.5430344939 4288651047
-0.2858028412 -0.1982054859 0.5431908965 4288716840
-0.2858849168 -0.1976587176 0.5433468819 4288455204
-0.2853240073 -0.1948608458 0.5422807932 4289112360
-0.2849610746 -0.1940112412 0.5415910482 4289243946
-0.2845976949 -0.1931628585 0.5409004092 4289309739
-0.2846780121 -0.1926162243 0.5410530567 4289309739
-0.2847581506 -0.1920691282 0.5412053466 4289507114
-0.2843937278 -0.1912227869 0.5405127406 4289638700
-0.2844733894 -0.1906756163 0.5406641364 4289704747
-0.2845528424 -0.1901279986 0.5408151746 4289704747
-0.2846321166 -0.1895799190 0.5409657955 4289573675
-0.2847112119 -0.1890313774 0.5411161184 4289639468
-0.2847900987 -0.1884823740 0.5412660837 4289771054
-0.2848688364 -0.1879329234 0.5414156914 4289902640
-0.2849473655 -0.1873830110 0.5415649414 4289968686
-0.2854710519 -0.1871245801 0.5425602794 4289902893
-0.2855493426 -0.1865728945 0.5427090526 4289902642
-0.2860730290 -0.1863109767 0.5437043905 4289902642
-0.2861510515 -0.1857575327 0.5438526869 4289968435
-0.2862288654 -0.1852036268 0.5440005660 4290231607
-0.2867524922 -0.1849368960 0.5449957252 4290428988
-0.2868300378 -0.1843812317 0.5451431870 4290428988
-0.2869074345 -0.1838251203 0.5452902317 4290363195
-0.2869846225 -0.1832685471 0.5454369783 4290494781
-0.2870616019 -0.1827115417 0.5455833077 4290692160
-0.2871384323 -0.1821540743 0.5457292795 4290692160
-0.2876617014 -0.1818785965 0.5467237830 4290692160
-0.2877382338 -0.1813193709 0.5468692780 4290692160
-0.2878145874 -0.1807596982 0.5470143557 4290691906
-0.2878907323 -0.1801995933 0.5471590757 4290691906
-0.2879666686 -0.1796390414 0.5473033786 4290757699
-0.2884896994 -0.1793561131 0.5482974648 4290757699
-0.2885653675 -0.1787937880 0.5484412313 4290758213
-0.2890883386 -0.1785073727 0.5494351983 4290692420
-0.2896113396 -0.1782187521 0.5504292250 4290692420
-0.2901344001 -0.1779279411 0.5514233112 4290692420
-0.2902096212 -0.1773612499 0.5515663028 4290626626
-0.2907325923 -0.1770669371 0.5525602698 4290626626
-0.2908075452 -0.1764984876 0.5527026653 4290691906
-0.2913304567 -0.1762006730 0.5536965728 4290626113
-0.2914051116 -0.1756304502 0.5538384318 4290757699
-0.2919279635 -0.1753291339 0.5548321605 4290626113
-0.2920023203 -0.1747571677 0.5549734831 4290626113
-0.2920764685 -0.1741847694 0.5551143885 4290560320
-0.2925991714 -0.1738786250 0.5561078787 4290363191
-0.2926730216 -0.1733044684 0.5562481880 4290100019
-0.2927466631 -0.1727298945 0.5563881397 4289968684
-0.2928200960 -0.1721548736 0.5565277338 4289771305
-0.2933425307 -0.1718425900 0.5575206876 4289770288
-0.2934156656 -0.1712658256 0.5576596260 4289704495
-0.2939380109 -0.1709500253 0.5586524010 4289572909
-0.2944603860 -0.1706320196 0.5596452355 4289441323
-0.2945331037 -0.1700522006 0.5597834587 4289375530
-0.2941558361 -0.1692132056 0.5590664148 4289375530
-0.2942280173 -0.1686334163 0.5592035651 4289375530
-0.2942999899 -0.1680531949 0.5593403578 4289375530
-0.2943717241 -0.1674725562 0.5594767332 4289375530
-0.2944432795 -0.1668914855 0.5596126914 4289375530
-0.2945145965 -0.1663099974 0.5597482920 4289309737
-0.2945857048 -0.1657280773 0.5598834157 4289375530
-0.2946566045 -0.1651457399 0.5600181818 4289441325
-0.2947272956 -0.1645629853 0.5601525307 4289375532
-0.2947977483 -0.1639798135 0.5602864623 4289375532
-0.2948680222 -0.1633962244 0.5604199767 4289572911
-0.2949380577 -0.1628122181 0.5605530739 4289507365
-0.2950078547 -0.1622277945 0.5606857538 4289573158
-0.2950774431 -0.1616429538 0.5608180165 4289704493
-0.2951468229 -0.1610577106 0.5609498620 4289836079
-0.2952159941 -0.1604720503 0.5610812902 4289770290
-0.2957364321 -0.1601304412 0.5620704889 4289770290
-0.2958052456 -0.1595430672 0.5622012615 4289967667
-0.2963255644 -0.1591979563 0.5631901622 4290033460
-0.2963940501 -0.1586088538 0.5633203387 4290296630
-0.2969142497 -0.1582602412 0.5643090010 4290625595
-0.2969823778 -0.1576694250 0.5644385219 4290625595
-0.2970502973 -0.1570782065 0.5645675659 4290757181
-0.2971180081 -0.1564865857 0.5646962523 4290822976
-0.2976378202 -0.1561318487 0.5656841993 4290757183
-0.2981576025 -0.1557748914 0.5666720867 4291020357
-0.2982248068 -0.1551802605 0.5667998195 4290691392
-0.2987444401 -0.1548198014 0.5677874684 4290628252
-0.2997168005 -0.1546908021 0.5696355104 4293654730
-0.3503383994 -0.1268122047 0.6658458114 4293390555
-0.3499354720 -0.1259274185 0.6650800109 4293127383
-0.3486135006 -0.1247155219 0.6625674963 4292601542
-0.3472907543 -0.1235089526 0.6600535512 4292206784
-0.3459672928 -0.1223077103 0.6575381756 4291877809
-0.3451026082 -0.1212732792 0.6558948159 4291548844
-0.3446969390 -0.1204028353 0.6551237702 4291480731
-0.3438311815 -0.1193743572 0.6534783244 4291020180
-0.3420453370 -0.1180320382 0.6500841975 4290625924
-0.3411782384 -0.1170123667 0.6484361887 4290231166
-0.3403105736 -0.1159961596 0.6467871666 4289902953
-0.3394423425 -0.1149834245 0.6451369524 4289705574
-0.3385735154 -0.1139741614 0.6434857249 4289771354
-0.3386242986 -0.1132761911 0.6435822248 4289771354
-0.3372943103 -0.1121190265 0.6410545111 4289771605
-0.3364238441 -0.1111192629 0.6394001245 4289705812
-0.3360131085 -0.1102740467 0.6386194825 4289836883
-0.3351415694 -0.1092803106 0.6369630694 4289836883
-0.3347299099 -0.1084392369 0.6361806393 4289705301
-0.3347783089 -0.1077479720 0.6362726092 4289705301
-0.3343658447 -0.1069091484 0.6354887486 4289968220
-0.3330317140 -0.1057793200 0.6329531074 4290099806
-0.3321575820 -0.1048002616 0.6312917471 4290297695
-0.3312828839 -0.1038247198 0.6296293139 4290100316
-0.3304076493 -0.1028527021 0.6279658675 4290034523
-0.3299927413 -0.1020267084 0.6271772981 4290231902
-0.3295774162 -0.1012023315 0.6263878942 4290297695
-0.3296226859 -0.1005201712 0.6264739037 4289639765
-0.3296676278 -0.0998377353 0.6265593767 4288389701
-0.3306345940 -0.0994323716 0.6283971667 4287468599
-0.3297566772 -0.0984720215 0.6267286539 4287270966
-0.3214980960 -0.0953269377 0.6110325456 4287797310
-0.3439301550 -0.2470274717 0.6550492048 4287862594
-0.3431495726 -0.2457406372 0.6535624862 4287533629
-0.3423682451 -0.2444566041 0.6520743370 4287532839
-0.3415861726 -0.2431753576 0.6505848169 4287269667
-0.3403619230 -0.2415835559 0.6482531428 4287467808
-0.3378119469 -0.2390587628 0.6433964372 4287467808
-0.2928557694 -0.2066249698 0.5577729344 4288255782
-0.2889643908 -0.2032679319 0.5503614545 4288189989
-0.2872804105 -0.2014754266 0.5471541286 4288256289
-0.2869215012 -0.2006165385 0.5464705229 4288453668
-0.2865621746 -0.1997588873 0.5457861423 4288454947
-0.2853176892 -0.1982876062 0.5434159040 4288586533
-0.2858421803 -0.1980472207 0.5444148779 4288783140
-0.2854815423 -0.1971932352 0.5437279940 4288783140
-0.2851204574 -0.1963404715 0.5430402756 4289243942
-0.2852018178 -0.1957929581 0.5431951880 4289112356
-0.2852829695 -0.1952449828 0.5433498025 4289178149
-0.2849208713 -0.1943942159 0.5426601171 4289309735
-0.2845582962 -0.1935446858 0.5419695973 4289375528
-0.2841953039 -0.1926963925 0.5412782431 4289375528
-0.2842753828 -0.1921491176 0.5414307117 4289507368
-0.2843552530 -0.1916013658 0.5415828824 4289638954
-0.2844349444 -0.1910531670 0.5417346358 4289704747
-0.2840706110 -0.1902073026 0.5410407186 4289704747
-0.2841498256 -0.1896590292 0.5411915779 4289770540
-0.2846729457 -0.1894057840 0.5421879292 4289836333
-0.2843076885 -0.1885611266 0.5414922237 4289967919
-0.2843863368 -0.1880114824 0.5416420698 4290033712
-0.2849092782 -0.1877543032 0.5426380038 4290099505
-0.2849876583 -0.1872028857 0.5427873731 4290099505
-0.2855105996 -0.1869422048 0.5437833071 4290099505
-0.2855887413 -0.1863890290 0.5439321399 4290099505
-0.2856667042 -0.1858353913 0.5440806150 4290165298
-0.2857444584 -0.1852813065 0.5442287326 4290231091
-0.2858220339 -0.1847267598 0.5443764925 4290165814
-0.2863447666 -0.1844586432 0.5453720689 4290297400
-0.2864220738 -0.1839023381 0.5455192924 4290494779
-0.2864992023 -0.1833455861 0.5456662178 4290626365
-0.2865761220 -0.1827883720 0.5458127260 4290560574
-0.2866528630 -0.1822307259 0.5459588766 4290692160
-0.2871753275 -0.1819551587 0.5469539762 4290757953
-0.2872518003 -0.1813957542 0.5470995903 4290823746
-0.2868818939 -0.1805550903 0.5463951230 4290889285
-0.2874041498 -0.1802755743 0.5473898053 4290889285
-0.2874800265 -0.1797148287 0.5475342870 4290692419
-0.2880022228 -0.1794318110 0.5485289097 4290692419
-0.2880778313 -0.1788693070 0.5486729145 4290823746
-0.2885999978 -0.1785827875 0.5496673584 4290823746
-0.2886753082 -0.1780185252 0.5498108268 4290757699
-0.2891974151 -0.1777285188 0.5508052707 4290757699
-0.2897195518 -0.1774363071 0.5517997146 4290691906
-0.2897945046 -0.1768689603 0.5519424677 4290691906
-0.2903166115 -0.1765732616 0.5529368520 4290626367
-0.2903912663 -0.1760041565 0.5530790687 4290626367
-0.2909132838 -0.1757049412 0.5540733337 4290626365
-0.2909876704 -0.1751340926 0.5542149544 4290560572
-0.2915096283 -0.1748313606 0.5552091002 4290626367
-0.2915837169 -0.1742587537 0.5553501844 4290560574
-0.2916575968 -0.1736857146 0.5554909110 4290363195
-0.2921793759 -0.1733781546 0.5564846992 4290165816
-0.2922529578 -0.1728033721 0.5566248298 4290034228
-0.2923263311 -0.1722281426 0.5567645431 4289902642
-0.2928479612 -0.1719157547 0.5577580333 4289901874
-0.2929210067 -0.1713387817 0.5578972101 4289704495
-0.2934425473 -0.1710228771 0.5588905215 4289507116
-0.2935153246 -0.1704441607 0.5590291023 4289441323
-0.2940367758 -0.1701247543 0.5600222945 4289507116
-0.2936601937 -0.1692854464 0.5593050718 4289507116
-0.2937323153 -0.1687054336 0.5594424009 4289375530
-0.2938042283 -0.1681250036 0.5595793724 4289375530
-0.2938759029 -0.1675441414 0.5597159266 4289375530
-0.2939473987 -0.1669628620 0.5598520637 4289309737
-0.2940186560 -0.1663811505 0.5599877834 4289375530
-0.2940897346 -0.1657990217 0.5601231456 4289441323
-0.2941605747 -0.1652164757 0.5602580309 4289441323
-0.2942311764 -0.1646335125 0.5603925586 4289441323
-0.2943015993 -0.1640501171 0.5605266690 4289441321
-0.2943717837 -0.1634663045 0.5606603622 4289441321
-0.2944417596 -0.1628820896 0.5607936382 4289310767
-0.2945115268 -0.1622974426 0.5609264970 4289179181
-0.2945810556 -0.1617123932 0.5610589385 4289244973
-0.2946503758 -0.1611269265 0.5611909628 4289442352
-0.2947194874 -0.1605410427 0.5613225698 4289508143
-0.2952390909 -0.1601993293 0.5623122454 4289573936
-0.2953078747 -0.1596117169 0.5624431968 4289902644
-0.2958273590 -0.1592665017 0.5634326339 4290034230
-0.2958957851 -0.1586771756 0.5635629892 4290296632
-0.2964151800 -0.1583284289 0.5645521879 4290494011
-0.2964832485 -0.1577374041 0.5646818280 4290494781
-0.2965511084 -0.1571459621 0.5648111105 4290560574
-0.2970702350 -0.1567924023 0.5657998323 4290757185
-0.2971377373 -0.1561992466 0.5659283996 4290954564
-0.2976567149 -0.1558421850 0.5669168234 4290954309
-0.2981756628 -0.1554829031 0.5679052472 4290756930
-0.2986945808 -0.1551214010 0.5688935518 4290494589
-0.2996654809 -0.1549914777 0.5707427263 4293652653
-0.3476939499 -0.1290643215 0.6622177362 4293126883
-0.3463765979 -0.1278423369 0.6597087383 4292534746
-0.3455167711 -0.1267938167 0.6580710411 4292337089
-0.3441979885 -0.1255814880 0.6555593014 4291744952
-0.3433368802 -0.1245407611 0.6539192200 4291481493
-0.3424751759 -0.1235034615 0.6522780657 4291218321
-0.3416128755 -0.1224695966 0.6506357193 4291152502
-0.3398327827 -0.1211122870 0.6472452879 4290691951
-0.3385104835 -0.1199246943 0.6447268724 4290297438
-0.3371874392 -0.1187424436 0.6422070265 4289902680
-0.3363225162 -0.1177261472 0.6405596733 4289639504
-0.3345392048 -0.1163939908 0.6371632218 4289573711
-0.3332140148 -0.1152277961 0.6346392632 4289639504
-0.3323471546 -0.1142247319 0.6329882145 4289639504
-0.3314797282 -0.1132251397 0.6313360929 4289573713
-0.3306117058 -0.1122290269 0.6296828985 4289639506
-0.3297431469 -0.1112364009 0.6280286312 4289771351
-0.3293333054 -0.1104012281 0.6272480488 4290034523
-0.3284636736 -0.1094146296 0.6255917549 4290100317
-0.3280529380 -0.1085835993 0.6248094440 4289639766
-0.3276417851 -0.1077541709 0.6240263581 4289508182
-0.3272301853 -0.1069263443 0.6232424378 4289376596
-0.3263585269 -0.1059508920 0.6215822697 4290363489
-0.3264057636 -0.1052754968 0.6216722131 4290824040
-0.3259929121 -0.1044524908 0.6208859086 4290297949
-0.3251197636 -0.1034847274 0.6192229390 4290100570
-0.3242460787 -0.1025204882 0.6175588965 4288586828
-0.3238318563 -0.1017042398 0.6167699695 4288126277
-0.3229571283 -0.1007460952 0.6151039600 4287863103
-0.3230021000 -0.1000766084 0.6151896715 4287073587
-0.3225866258 -0.0992652327 0.6143983006 4286679083
-0.3221707344 -0.0984554961 0.6136061549 4287665978
-0.3226750195 -0.0979267806 0.6145666838 4289376594
-0.3227187693 -0.0972571373 0.6146500111 4288916043
-0.3223018348 -0.0964494422 0.6138558984 4287270968
-0.3214239478 -0.0955065638 0.6121839285 4286218280
-0.3214666843 -0.0948389843 0.6122652292 4287862854
-0.3145998716 -0.0921474025 0.5991867781 4289705058
-0.3215512335 -0.0935030356 0.6124262810 4289507677
-0.3091532290 -0.0892436355 0.5888130665 4287928645
-0.3142619133 -0.0900533423 0.5985431075 4287402806
-0.3092328608 -0.0879578590 0.5889647603 4289442389
-0.3092722595 -0.0873145983 0.5890397429 4289705812
-0.3097723424 -0.0868002623 0.5899922252 4288521538
-0.3144215047 -0.0874376297 0.5988470316 4288126778
-0.3093887568 -0.0853833556 0.5892616510 4289376845
-0.3094270229 -0.0847391188 0.5893345475 4291021157
-0.3099262118 -0.0842199773 0.5902853012 4291481708
-0.3150377870 -0.0849423483 0.6000208259 4291350124
-0.3100014627 -0.0829284117 0.5904286504 4291415917
-0.3095773160 -0.0821598321 0.5896207690 4291350124
-0.3100755811 -0.0816359147 0.5905697942 4291350124
-0.3101122379 -0.0809893161 0.5906395912 4291415917
-0.3161484897 -0.0818967372 0.6021362543 4291415917
-0.3106462359 -0.0798140317 0.5916566849 4291546993
-0.3106820881 -0.0791657940 0.5917249322 4291546993
-0.3107176423 -0.0785173327 0.5917927027 4291480948
-0.3112146556 -0.0779843479 0.5927392840 4291480948
-0.3112497032 -0.0773344785 0.5928060412 4291481718
-0.3186739981 -0.0785047933 0.6069463491 4291481718
-0.3122427464 -0.0762597099 0.5946973562 4291416430
-0.3205920756 -0.0776204690 0.6105995178 4291416430
-0.3206270039 -0.0769504309 0.6106659770 4291351151
-0.3146549761 -0.0748512894 0.5992916822 4291285358
-0.3427300155 -0.0742772147 0.6527633667 4291941042
-0.3464640379 -0.0743532851 0.6598752141 4292534989
-0.3451097012 -0.0733323395 0.6572957039 4293061333
-0.3398222327 -0.2445943654 0.6485973001 4287862594
-0.3412435949 -0.2448937446 0.6513100863 4287665215
-0.3409037292 -0.2439269125 0.6506614685 4287598634
-0.3405633867 -0.2429611981 0.6500118971 4287467048
-0.3397818804 -0.2416831106 0.6485202909 4287730983
-0.3385588229 -0.2400951982 0.6461858749 4287665190
-0.3360119164 -0.2375764400 0.6413247585 4288255786
-0.2924419641 -0.2061502486 0.5581655502 4288189993
-0.2885559797 -0.2027989924 0.5507485867 4288256036
-0.2868742347 -0.2010086924 0.5475387573 4288453415
-0.2860742211 -0.1998414844 0.5460118055 4288520740
-0.2857151330 -0.1989847422 0.5453264713 4288652326
-0.2857973278 -0.1984359175 0.5454833508 4288914981
-0.2849956453 -0.1972749084 0.5439531803 4288914981
-0.2846352458 -0.1964218467 0.5432653427 4289178149
-0.2842744291 -0.1955699921 0.5425766706 4289112356
-0.2847976089 -0.1953260005 0.5435752869 4289178149
-0.2844361961 -0.1944749206 0.5428854227 4289309735
-0.2840743065 -0.1936250776 0.5421947241 4289375528
-0.2841546237 -0.1930772215 0.5423479676 4289441321
-0.2837919891 -0.1922290176 0.5416558981 4289507368
-0.2838717997 -0.1916810870 0.5418082476 4289704747
-0.2835084498 -0.1908345222 0.5411147475 4289704747
-0.2840308845 -0.1905838549 0.5421118140 4289704747
-0.2841101587 -0.1900345534 0.5422631502 4289770540
-0.2841892242 -0.1894847751 0.5424140692 4289902126
-0.2842681110 -0.1889345497 0.5425646305 4290033712
-0.2839032114 -0.1880899817 0.5418681502 4290099505
-0.2844253480 -0.1878327280 0.5428647399 4290099504
-0.2845036685 -0.1872811317 0.5430142283 4290033711
-0.2850257754 -0.1870203912 0.5440107584 4290099505
-0.2855479419 -0.1867574602 0.5450073481 4290099505
-0.2851817608 -0.1859131902 0.5443084240 4290165298
-0.2852594554 -0.1853589118 0.5444567204 4290231091
-0.2853369713 -0.1848041862 0.5446046591 4290362677
-0.2858588398 -0.1845359951 0.5456007719 4290494263
-0.2859360874 -0.1839794964 0.5457481742 4290494779
-0.2860131562 -0.1834225506 0.5458952785 4290560572
-0.2860900164 -0.1828651577 0.5460419655 4290494779
-0.2861666977 -0.1823073030 0.5461882949 4290626365
-0.2866883278 -0.1820316613 0.5471839309 4290692160
-0.2867647409 -0.1814720631 0.5473297834 4290823746
-0.2868409455 -0.1809120029 0.5474752188 4290889539
-0.2869169414 -0.1803514957 0.5476202965 4290889539
-0.2869927585 -0.1797905415 0.5477650166 4290889285
-0.2870683968 -0.1792291552 0.5479093194 4290823492
-0.2875896990 -0.1789447516 0.5489042997 4290823746
-0.2881110311 -0.1786581576 0.5498993397 4290757953
-0.2881862819 -0.1780936867 0.5500429869 4290757699
-0.2887075841 -0.1778035909 0.5510379672 4290691906
-0.2887825668 -0.1772373766 0.5511810780 4290691906
-0.2893037796 -0.1769437641 0.5521758795 4290626113
-0.2898250520 -0.1766479611 0.5531708002 4290626367
-0.2894529700 -0.1758073568 0.5524606109 4290626367
-0.2899740636 -0.1755089313 0.5534551740 4290626365
-0.2904951870 -0.1752083004 0.5544497967 4290560572
-0.2905692756 -0.1746368110 0.5545912981 4290626367
-0.2910903394 -0.1743326783 0.5555857420 4290560574
-0.2911641300 -0.1737594306 0.5557266474 4290428988
-0.2912377417 -0.1731857508 0.5558671355 4290165816
-0.2917586267 -0.1728767753 0.5568612814 4289968435
-0.2918319404 -0.1723013520 0.5570012331 4289836849
-0.2923527360 -0.1719888598 0.5579952598 4289770288
-0.2924257517 -0.1714116931 0.5581346154 4289638702
-0.2929464579 -0.1710956842 0.5591284633 4289572909
-0.2930191755 -0.1705167592 0.5592672229 4289507116
-0.2935397923 -0.1701972485 0.5602608919 4289507116
-0.2931639254 -0.1693576127 0.5595434904 4289441323
-0.2932359874 -0.1687773913 0.5596809983 4289375530
-0.2933078408 -0.1681967527 0.5598181486 4289309737
-0.2933794558 -0.1676156819 0.5599548817 4289309737
-0.2934508920 -0.1670341790 0.5600911975 4289243944
-0.2935220897 -0.1664522588 0.5602270961 4289309737
-0.2935930789 -0.1658699214 0.5603626370 4289375530
-0.2936638594 -0.1652871519 0.5604977012 4289375530
-0.2937344313 -0.1647039652 0.5606324077 4289441323
-0.2938047945 -0.1641203612 0.5607666969 4289507116
-0.2938749194 -0.1635363400 0.5609005094 4289441323
-0.2939448357 -0.1629519016 0.5610339642 4289638449
-0.2940145433 -0.1623670459 0.5611670017 4289572656
-0.2940840125 -0.1617817581 0.5612996221 4289507633
-0.2941532731 -0.1611960828 0.5614318252 4289639219
-0.2946721911 -0.1608555615 0.5624222755 4289705012
-0.2947411239 -0.1602681428 0.5625538230 4289770805
-0.2948098481 -0.1596803218 0.5626849532 4290033462
-0.2953285277 -0.1593349874 0.5636749268 4290099255
-0.2953968942 -0.1587454379 0.5638054013 4290362427
-0.2959154546 -0.1583965868 0.5647951365 4290494013
-0.2959834635 -0.1578053236 0.5649250150 4290560574
-0.2960512936 -0.1572136581 0.5650544167 4290626367
-0.2965695858 -0.1568599790 0.5660436749 4290626365
-0.2970878482 -0.1565040946 0.5670328736 4290757951
-0.2976061106 -0.1561459899 0.5680220127 4290888767
-0.2981243432 -0.1557856798 0.5690111518 4290691388
-0.2986425757 -0.1554231644 0.5700002313 4290165884
-0.2996119559 -0.1552923024 0.5718504786 4293192362
-0.3481931984 -0.1332155764 0.6645743847 4293257958
-0.3464239240 -0.1318040341 0.6611975431 4292995019
-0.3437395692 -0.1300537586 0.6560740471 4292534468
-0.3419683278 -0.1286584288 0.6526933908 4292206496
-0.3388244510 -0.1267570853 0.6466928720 4291745945
-0.3402524889 -0.1265697777 0.6494184732 4291351929
-0.3329900205 -0.1231620759 0.6355570555 4290957171
-0.3376193047 -0.1241583303 0.6443926692 4290562136
-0.3207447827 -0.1172726080 0.6121853590 4290035792
-0.3227308393 -0.1159455776 0.6159759760 4289442366
-0.3301077783 -0.1178958043 0.6300559044 4289639745
-0.3287862837 -0.1167266071 0.6275336742 4289836877
-0.3256320953 -0.1149162576 0.6215134859 4290034256
-0.3270572722 -0.1147256345 0.6242336035 4290166102
-0.3197780252 -0.1114940792 0.6103401184 4290363481
-0.3248677552 -0.1125797480 0.6200546026 4290560608
-0.3240011930 -0.1115923598 0.6184006333 4290560608
-0.3231340647 -0.1106084511 0.6167455912 4290428769
-0.3222663701 -0.1096280292 0.6150894761 4290428769
-0.3218565881 -0.1088060960 0.6143074036 4290626150
-0.3214463890 -0.1079857573 0.6135244966 4290757736
-0.3210358024 -0.1071670204 0.6127407551 4290560616
-0.3210834563 -0.1065020263 0.6128317118 4287797310
-0.3206720650 -0.1056855470 0.6120465398 4284639246
-0.3198014498 -0.1047204286 0.6103848815 4285034004
-0.3193891644 -0.1039081216 0.6095979810 4285692186
-0.3185175061 -0.1029490829 0.6079342961 4288323906
-0.3185633421 -0.1022883430 0.6080217957 4290626914
-0.3181498349 -0.1014808863 0.6072325110 4290824293
-0.3172767162 -0.1005295664 0.6055660844 4289178963
-0.3168623149 -0.0997263119 0.6047751307 4287205173
-0.3164474964 -0.0989246815 0.6039833426 4285494559
-0.3164916039 -0.0982673094 0.6040675640 4286349868
-0.3160760105 -0.0974679962 0.6032743454 4286481199
-0.3156600296 -0.0966703147 0.6024803519 4284902167
-0.3157031536 -0.0960140377 0.6025627255 4286284073
-0.3157460093 -0.0953574851 0.6026445031 4288981586
-0.3148692548 -0.0944249779 0.6009711027 4290297696
-0.3149114251 -0.0937698185 0.6010515690 4288455492
-0.3149533272 -0.0931143910 0.6011315584 4287797561
-0.3145350814 -0.0923237205 0.6003332734 4289310800
-0.3150362372 -0.0918027535 0.6012898088 4290955877
-0.3081777692 -0.0891506374 0.5881994963 4290890084
-0.3137379587 -0.0900937766 0.5988118052 4289771856
-0.3137782216 -0.0894399434 0.5988887548 4289311305
-0.3138182461 -0.0887858495 0.5989651084 4290824289
-0.3087957501 -0.0867100358 0.5893789530 4291021668
-0.3138974011 -0.0874769241 0.5991162062 4290824289
-0.3139365613 -0.0868220925 0.5991909504 4290626910
-0.3139754236 -0.0861670151 0.5992650986 4291153256
-0.3089492619 -0.0841324776 0.5896720290 4291745393
-0.3145128191 -0.0849805623 0.6002907753 4291744882
-0.3145508766 -0.0843238011 0.6003634334 4291415917
-0.3145886660 -0.0836668015 0.6004355550 4291744882
-0.3090983331 -0.0815511271 0.5899564624 4291810675
-0.3151240647 -0.0824726745 0.6014574766 4291876468
-0.3156218231 -0.0819336250 0.6024074554 4291876468
-0.3156585693 -0.0812737644 0.6024776101 4291876468
-0.3101646006 -0.0792014673 0.5919916034 4291876468
-0.3152702451 -0.0798366442 0.6017364860 4291876470
-0.3153060973 -0.0791770667 0.6018048525 4291876470
-0.3158026338 -0.0786320567 0.6027525663 4291613822
-0.3167600930 -0.0781987235 0.6045800447 4291679615
-0.3177174628 -0.0777613074 0.6064072847 4291745142
-0.3122182190 -0.0757532716 0.5959112644 4291745142
-0.3131747246 -0.0753212124 0.5977368355 4291810673
-0.3136698306 -0.0747751147 0.5986818075 4291810673
-0.3141647577 -0.0742268711 0.5996264219 4291679602
-0.3128139675 -0.0732443631 0.5970482826 4291745395
-0.3137697577 -0.0728027672 0.5988725424 4291876981
-0.3142639399 -0.0722509921 0.5998157859 4291745395
-0.3147579432 -0.0716970786 0.6007586718 4291679089
-0.3152837455 -0.0704796538 0.6017622352 4291547254
-0.3180854321 -0.0704314038 0.6071096063 4291613047
-0.3190405369 -0.0699663162 0.6089325547 4291415167
-0.3241829872 -0.0697191283 0.6187476516 4290955394
-0.3255999088 -0.0693333670 0.6214519739 4291481738
-0.3388016522 -0.2443778217 0.6480230689 4287862592
-0.3384622633 -0.2434137464 0.6473739743 4287796799
-0.3376827240 -0.2421354949 0.6458829641 4287796265
-0.3369024694 -0.2408600450 0.6443905234 4287730472
-0.3312820494 -0.2361378372 0.6336403489 4287928362
-0.2917720079 -0.2073550373 0.5580698848 4287796776
-0.3341171443 -0.2367386073 0.6390630603 4288255533
-0.2884196639 -0.2037467360 0.5516578555 4288189740
-0.2867416739 -0.2019519955 0.5484483838 4288255784
-0.2855030596 -0.2004729211 0.5460793376 4288453163
-0.2847042382 -0.1993069649 0.5445514321 4288586533
-0.2852272689 -0.1990669668 0.5455517769 4288783912
-0.2853094041 -0.1985179633 0.5457088947 4288849954
-0.2853913307 -0.1979684830 0.5458655953 4288849954
-0.2845906615 -0.1968082786 0.5443341732 4288981540
-0.2846719921 -0.1962595582 0.5444897413 4288915747
-0.2838701904 -0.1951035112 0.5429561138 4289047333
-0.2835093141 -0.1942529827 0.5422658324 4289310505
-0.2835897207 -0.1937054098 0.5424196720 4289376298
-0.2836699486 -0.1931573749 0.5425730944 4289376298
-0.2833080292 -0.1923088580 0.5418808460 4289507368
-0.2833877504 -0.1917607486 0.5420333743 4289638954
-0.2834673226 -0.1912121773 0.5421855450 4289770540
-0.2835466862 -0.1906631440 0.5423373580 4289770540
-0.2836259007 -0.1901136488 0.5424888730 4289836332
-0.2837049067 -0.1895637065 0.5426399708 4289902125
-0.2837837040 -0.1890132874 0.5427907109 4289967918
-0.2834195197 -0.1881684065 0.5420941114 4290099504
-0.2843837738 -0.1882042438 0.5439384580 4290099504
-0.2840190828 -0.1873593032 0.5432409048 4290033711
-0.2845403552 -0.1870984882 0.5442379713 4290099505
-0.2850616872 -0.1868355125 0.5452350974 4290099505
-0.2851396501 -0.1862806231 0.5453841686 4290165298
-0.2847738266 -0.1854364574 0.5446844697 4290362677
-0.2848512530 -0.1848815382 0.5448325872 4290494263
-0.2853723168 -0.1846132725 0.5458292365 4290560056
-0.2854495049 -0.1840565950 0.5459768772 4290559802
-0.2855264843 -0.1834994555 0.5461241603 4290559802
-0.2856032848 -0.1829418540 0.5462710261 4290494779
-0.2856799066 -0.1823838204 0.5464175344 4290560572
-0.2862007320 -0.1821081042 0.5474137068 4290692160
-0.2862770557 -0.1815482974 0.5475597382 4290823746
-0.2863532007 -0.1809880435 0.5477053523 4290823746
-0.2864291370 -0.1804273576 0.5478506088 4290889539
-0.2865048945 -0.1798662096 0.5479955077 4290889539
-0.2865804434 -0.1793046147 0.5481400490 4290823746
-0.2871009409 -0.1790201366 0.5491355658 4290758210
-0.2876214385 -0.1787334681 0.5501311421 4290692417
-0.2876966298 -0.1781687886 0.5502749681 4290692417
-0.2882170975 -0.1778786182 0.5512704253 4290626624
-0.2882920206 -0.1773121953 0.5514137149 4290626624
-0.2888124287 -0.1770184934 0.5524091125 4290560831
-0.2893328667 -0.1767226160 0.5534045696 4290626367
-0.2889614999 -0.1758816838 0.5526942015 4290560574
-0.2894817591 -0.1755831689 0.5536893010 4290692158
-0.2900020480 -0.1752824634 0.5546844602 4290626365
-0.2900761068 -0.1747107655 0.5548260808 4290626365
-0.2901499271 -0.1741386205 0.5549673438 4290560572
-0.2906700671 -0.1738330871 0.5559622049 4290428986
-0.2907436192 -0.1732591987 0.5561028719 4290165814
-0.2912636697 -0.1729501337 0.5570976138 4289968435
-0.2913369238 -0.1723744869 0.5572376847 4289836849
-0.2918569148 -0.1720619202 0.5582322478 4289770290
-0.2919298410 -0.1714845300 0.5583717823 4289638704
-0.2924497426 -0.1711684316 0.5593661666 4289572911
-0.2925223708 -0.1705892831 0.5595051050 4289572911
-0.2930421829 -0.1702696681 0.5604993701 4289441325
-0.2931145132 -0.1696887910 0.5606376529 4289441325
