VERSION 0.7
FIELDS x y z rgba
SIZE 4 4 4 4
TYPE F F F U
COUNT 1 1 1 1
WIDTH 920
HEIGHT 1
VIEWPOINT 0.0 0.0 0.0 1.0 0.0 0.0 0.0
POINTS 920
DATA ascii
-0.3086576164 -0.1350690424 0.5276010036 4283980903
-0.3077335358 -0.1340802163 0.5260214806 4283652455
-0.3073020875 -0.1333086044 0.5252839923 4283652455
-0.3058834970 -0.1321122795 0.5228590965 4283652455
-0.3049575090 -0.1311331838 0.5212762952 4283849834
-0.3084729612 -0.1320589781 0.5272853971 4283652455
-0.3040910363 -0.1296055317 0.5197951794 4283784041
-0.3041509092 -0.1290533990 0.5198975205 4283718250
-0.3042105436 -0.1285009533 0.5199994445 4282336597
-0.3042699397 -0.1279481798 0.5201010108 4282928734
-0.3038350642 -0.1271882653 0.5193576813 4282468183
-0.3043880463 -0.1268416494 0.5203028917 4282599769
-0.3044467568 -0.1262879074 0.5204032660 4283060320
-0.3045052290 -0.1257338524 0.5205031633 4282994784
-0.3050578833 -0.1253826767 0.5214478374 4282994784
-0.3056104779 -0.1250293851 0.5223924518 4282994784
-0.3056684434 -0.1244725734 0.5224915147 4282665819
-0.3052314520 -0.1237149313 0.5217445493 4282731355
-0.3052888215 -0.1231583878 0.5218426585 4283060320
-0.3053459823 -0.1226015240 0.5219403505 4283323490
-0.3058978617 -0.1222421527 0.5228837132 4283389283
-0.3060111403 -0.1211250722 0.5230773091 4283126111
-0.3060674369 -0.1205660701 0.5231735110 4283126111
-0.3066188097 -0.1202009395 0.5241160393 4283257697
-0.3066747189 -0.1196404174 0.5242115855 4283323488
-0.3067303598 -0.1190795824 0.5243067145 4283455074
-0.3072814047 -0.1187099144 0.5252485871 4283717732
-0.3073366582 -0.1181475669 0.5253430605 4283849318
-0.3078874648 -0.1177745759 0.5262845755 4283980904
-0.3084382117 -0.1173994616 0.5272259712 4284573041
-0.3089888692 -0.1170222312 0.5281672478 4285494143
-0.3085473776 -0.1162690222 0.5274125934 4286020487
-0.3090977371 -0.1158893779 0.5283533335 4287138968
-0.3101442456 -0.1156927198 0.5301421881 4287928484
-0.3097019196 -0.1149395332 0.5293861032 4288717487
-0.3102519512 -0.1145544425 0.5303263068 4289309624
-0.3108019233 -0.1141672358 0.5312663913 4289901761
-0.3113518357 -0.1137779057 0.5322063565 4290428105
-0.3114050031 -0.1132059172 0.5322972536 4290559690
-0.3119546473 -0.1128132641 0.5332368016 4290428104
-0.3120073974 -0.1122397780 0.5333269238 4290164932
-0.3130536973 -0.1120216176 0.5351154208 4289112244
-0.3131061196 -0.1114457175 0.5352050066 4287993249
-0.3136553466 -0.1110455170 0.5361438394 4286611596
-0.3137073219 -0.1104681268 0.5362327099 4285098355
-0.3132618070 -0.1097162962 0.5354711413 4283848288
-0.3133131862 -0.1091392562 0.5355589986 4283914081
-0.3143591583 -0.1089065671 0.5373468995 4284243046
-0.3149076700 -0.1084985286 0.5382845402 4284111199
-0.3144609928 -0.1077473983 0.5375209451 4283913820
-0.3145115077 -0.1071673930 0.5376073718 4284637543
-0.3145617843 -0.1065871119 0.5376932621 4285032301
-0.3151096106 -0.1061742753 0.5386297107 4284572263
-0.3151594400 -0.1055925190 0.5387148857 4285756537
-0.3157069981 -0.1051763818 0.5396508574 4288322978
-0.3162544370 -0.1047581285 0.5405865908 4289836217
-0.3168017864 -0.1043377593 0.5415222049 4289507765
-0.3108506203 -0.1563981324 0.5323603153 4287335046
-0.3114104867 -0.1560872495 0.5333191156 4287729285
-0.3109923601 -0.1552859247 0.5326030850 4287531906
-0.3110629022 -0.1547292471 0.5327239037 4287861900
-0.3111332357 -0.1541721970 0.5328443050 4288454037
-0.3107140064 -0.1533732414 0.5321263671 4288914590
-0.3102943301 -0.1525756568 0.5314076543 4288783004
-0.3103637695 -0.1520192325 0.5315265656 4288059282
-0.3099433482 -0.1512235403 0.5308065414 4287138180
-0.3095224798 -0.1504292339 0.5300857425 4286217337
-0.3091011643 -0.1496362984 0.5293641686 4285559407
-0.3086794019 -0.1488447785 0.5286418796 4285032811
-0.3087472916 -0.1482900232 0.5287581682 4284572260
-0.3088149428 -0.1477348953 0.5288740396 4284243812
-0.3079017997 -0.1467121691 0.5273101926 4284441191
-0.3089495897 -0.1466235667 0.5291045904 4284572779
-0.3090165555 -0.1460673511 0.5292193294 4284375400
-0.3090833127 -0.1455107778 0.5293336511 4284243814
-0.3091498613 -0.1449538469 0.5294476151 4284309607
-0.3092161417 -0.1443965584 0.5295611620 4283981155
-0.3102640808 -0.1442955285 0.5313557982 4284046948
-0.3108211756 -0.1439631879 0.5323098898 4284178021
-0.3113782406 -0.1436287165 0.5332639217 4284506986
-0.3114440441 -0.1430664510 0.5333766341 4284573292
-0.3105269372 -0.1420542896 0.5318059921 4284507499
-0.3110835254 -0.1417169720 0.5327591896 4284704878
-0.3111485243 -0.1411545277 0.5328705311 4284968050
-0.3112133145 -0.1405917406 0.5329814553 4284902257
-0.3112778664 -0.1400285959 0.5330920219 4284902257
-0.3108503222 -0.1392447799 0.5323598385 4284902003
-0.3104223609 -0.1384623945 0.5316268802 4284967796
-0.3095018864 -0.1374628991 0.5300505161 4285033589
-0.3095650971 -0.1369019300 0.5301587582 4285033589
-0.3096280992 -0.1363406181 0.5302666426 4285033589
-0.3091984689 -0.1355631053 0.5295308828 4285033589
-0.3087684512 -0.1347870231 0.5287944078 4285231740
-0.3078454137 -0.1337983310 0.5272136331 4285231740
-0.3059364557 -0.1323865056 0.5239443779 4285429119
-0.3069829941 -0.1322552264 0.5257366300 4285494912
-0.3055654168 -0.1310630739 0.5233089328 4285099899
-0.3041470349 -0.1298759729 0.5208798647 4285165692
-0.3047000170 -0.1295323223 0.5218268633 4285231485
-0.3042666912 -0.1287691295 0.5210847259 4284178797
-0.3043261468 -0.1282152236 0.5211865902 4284441969
-0.3043853939 -0.1276609898 0.5212880373 4284113004
-0.3044444025 -0.1271064430 0.5213890672 4284310383
-0.3040096462 -0.1263464540 0.5206444860 4284705141
-0.3040680885 -0.1257921606 0.5207446218 4284770936
-0.3046199977 -0.1254408509 0.5216898322 4284770936
-0.3046780527 -0.1248850152 0.5217892528 4284770936
-0.3047358990 -0.1243288666 0.5218882561 4284639350
-0.3047934771 -0.1237723976 0.5219869018 4284705396
-0.3048508167 -0.1232156157 0.5220851302 4285231740
-0.3044137657 -0.1224597171 0.5213366151 4285889670
-0.3044705689 -0.1219032109 0.5214338899 4286350221
-0.3050214648 -0.1215433851 0.5223773718 4286810002
-0.3055723310 -0.1211814433 0.5233207345 4287138967
-0.3056285679 -0.1206221953 0.5234171152 4287599518
-0.3061792254 -0.1202569231 0.5243601203 4287928483
-0.3062351048 -0.1196961552 0.5244557858 4288454825
-0.3062907159 -0.1191350818 0.5245510936 4288783790
-0.3063460886 -0.1185737029 0.5246459246 4289441463
-0.3068962395 -0.1182026714 0.5255880952 4289967807
-0.3069512248 -0.1176397800 0.5256822705 4290165184
-0.3075011373 -0.1172654182 0.5266240239 4290428356
-0.3075557351 -0.1167010143 0.5267175436 4290757321
-0.3086007535 -0.1165103465 0.5285072327 4290691528
-0.3081596196 -0.1157574207 0.5277517438 4290559944
-0.3087090850 -0.1153764054 0.5286927223 4290296772
-0.3092584610 -0.1149932668 0.5296335816 4289507256
-0.3093120754 -0.1144246459 0.5297254324 4288717740
-0.3103570044 -0.1142206490 0.5315150023 4287796638
-0.3109061718 -0.1138311625 0.5324554443 4286612364
-0.3114552498 -0.1134395525 0.5333958268 4285756285
-0.3105161488 -0.1125066578 0.5317875147 4285032562
-0.3120570481 -0.1124711707 0.5344264507 4283914079
-0.3121095896 -0.1118962243 0.5345164537 4284243044
-0.3121618927 -0.1113209873 0.5346060395 4284177251
-0.3127103150 -0.1109215319 0.5355452299 4283848286
-0.3127621710 -0.1103448048 0.5356340408 4284111458
-0.3128138185 -0.1097677872 0.5357224345 4284703595
-0.3123685718 -0.1090171710 0.5349599123 4285361779
-0.3134129941 -0.1087853089 0.5367485881 4285493365
-0.3139607012 -0.1083780080 0.5376865864 4285493105
-0.3130177557 -0.1074569002 0.5360717177 4285690484
-0.3135650456 -0.1070481166 0.5370090008 4284440417
-0.3141122162 -0.1066372246 0.5379461050 4284243038
-0.3141622245 -0.1060564071 0.5380317569 4286413953
-0.3142119646 -0.1054753140 0.5381169319 4288716708
-0.3152559400 -0.1052258834 0.5399048328 4289835702
-0.3153052926 -0.1046423987 0.5399893522 4290362046
-0.3153544366 -0.1040586382 0.5400735140 4289441459
-0.3094241917 -0.1559771299 0.5309273005 4287795596
-0.3104712367 -0.1559130400 0.5327239037 4287795078
-0.3110302389 -0.1556008011 0.5336830616 4287400320
-0.3106124401 -0.1547996402 0.5329661965 4287269506
-0.3106827438 -0.1542423666 0.5330867767 4287664264
-0.3102642000 -0.1534430683 0.5323686004 4287993488
-0.3093564808 -0.1524043977 0.5308111310 4288256660
-0.3089369535 -0.1516087353 0.5300912857 4288519832
-0.3080280423 -0.1505754590 0.5285317302 4288717211
-0.3080965281 -0.1500215828 0.5286492705 4288585626
-0.3076756895 -0.1492300928 0.5279271603 4288388247
-0.3072543740 -0.1484399885 0.5272042155 4287730576
-0.3064104617 -0.1468639672 0.5257562399 4286612097
-0.3069670200 -0.1465455145 0.5267111659 4286283132
-0.3075235486 -0.1462249309 0.5276660919 4285953913
-0.3075903058 -0.1456702650 0.5277805924 4285624948
-0.3076567948 -0.1451152265 0.5278947353 4285165167
-0.3077231050 -0.1445598453 0.5280084610 4285033581
-0.3077891469 -0.1440040916 0.5281218290 4284770156
-0.3088354170 -0.1439048201 0.5299170613 4284112226
-0.3093915582 -0.1435741186 0.5308713317 4283652188
-0.3099476695 -0.1432413012 0.5318255424 4283981153
-0.3100132346 -0.1426805705 0.5319380164 4284112739
-0.3105691969 -0.1423443705 0.5328919888 4283849567
-0.3101436794 -0.1415580660 0.5321618319 4283915362
-0.3102732003 -0.1404341459 0.5323840976 4283915362
-0.3103376031 -0.1398716718 0.5324946046 4283915362
-0.3104017675 -0.1393088251 0.5326046944 4284046948
-0.3099744916 -0.1385261118 0.5318715572 4284112741
-0.3095467389 -0.1377448291 0.5311376452 4284178534
-0.3096100390 -0.1371827424 0.5312461853 4284244327
-0.3091815412 -0.1364034414 0.5305109620 4284375913
-0.3092442453 -0.1358415633 0.5306185484 4284441706
-0.3088150024 -0.1350642592 0.5298820138 4284441452
-0.3083852828 -0.1342884004 0.5291447043 4284507245
-0.3079551756 -0.1335140020 0.5284066796 4285099382
-0.3065405190 -0.1323162913 0.5259793997 4285230968
-0.3056172132 -0.1313351095 0.5243951082 4285165175
-0.3051854968 -0.1305677742 0.5236543417 4285559933
-0.3042610288 -0.1295921952 0.5220680833 4285626498
-0.3043208122 -0.1290374845 0.5221706629 4285560705
-0.3043803275 -0.1284824461 0.5222727656 4286350221
-0.3044396341 -0.1279270798 0.5223745704 4286284428
-0.3044987023 -0.1273714006 0.5224758983 4286547600
-0.3045575321 -0.1268153787 0.5225768685 4286942358
-0.3046161532 -0.1262590587 0.5226774216 4287139737
-0.3046745062 -0.1257023960 0.5227775574 4287271323
-0.3047326207 -0.1251454204 0.5228772759 4287468447
-0.3047905266 -0.1245881394 0.5229766369 4287534240
-0.3048481643 -0.1240305305 0.5230755210 4287862688
-0.3049055934 -0.1234726086 0.5231740475 4288125860
-0.3049627841 -0.1229143739 0.5232721567 4288520618
-0.3045261502 -0.1221578345 0.5225229859 4288783790
-0.3050764203 -0.1217969581 0.5234671831 4288783790
-0.3056266308 -0.1214339584 0.5244112611 4288652204
-0.3051891029 -0.1206782982 0.5236605406 4288652458
-0.3057390153 -0.1203128695 0.5246040821 4288586665
-0.3062888682 -0.1199453250 0.5255475640 4288125601
-0.3063445687 -0.1193831041 0.5256431103 4287862429
-0.3064000010 -0.1188205779 0.5257382393 4287533462
-0.3069494963 -0.1184484884 0.5266810656 4287401876
-0.3070045412 -0.1178844422 0.5267755389 4287072911
-0.3070593476 -0.1173200980 0.5268695951 4286612360
-0.3076084554 -0.1169434637 0.5278117657 4285954430
-0.3076628447 -0.1163776070 0.5279051065 4285099121
-0.3077170253 -0.1158114523 0.5279980302 4284309607
-0.3077709377 -0.1152449921 0.5280905366 4283980642
-0.3083195090 -0.1148626134 0.5290318131 4283388503
-0.3093629777 -0.1146615669 0.5308222771 4283125331
-0.3099114597 -0.1142740399 0.5317634344 4283059538
-0.3089744449 -0.1133394837 0.5301555991 4283256917
-0.3100177646 -0.1131311730 0.5319457650 4283980126
-0.3105658591 -0.1127391011 0.5328862667 4284177505
-0.3106184602 -0.1121660247 0.5329765081 4284967021
-0.3106708229 -0.1115926579 0.5330663323 4285493365
-0.3112185001 -0.1111960635 0.5340060592 4285624950
-0.3112704158 -0.1106211990 0.5340951681 4286019708
-0.3118178546 -0.1102212891 0.5350344777 4286414466
-0.3108777106 -0.1092962995 0.5334213972 4285953915
-0.3119206131 -0.1090682968 0.5352108479 4284834921
-0.3129635751 -0.1088363454 0.5370004177 4283979612
-0.3125184476 -0.1080857441 0.5362365842 4283913558
-0.3130651712 -0.1076779887 0.5371747017 4285163625
-0.3131155670 -0.1070983857 0.5372611880 4286743170
-0.3141583204 -0.1068561301 0.5390504003 4288585374
-0.3132156134 -0.1059383526 0.5374328494 4289703857
-0.3147546053 -0.1058588326 0.5400735736 4289769650
-0.3153007627 -0.1054414064 0.5410106778 4289901493
-0.3153502047 -0.1048567444 0.5410954952 4290296251
-0.3153993487 -0.1042718068 0.5411798358 4289507507
-0.3094619811 -0.1562940478 0.5320060253 4288124562
-0.3090453446 -0.1554933190 0.5312897563 4287729287
-0.3100909293 -0.1554270983 0.5330872536 4287992459
-0.3101613820 -0.1548699886 0.5332084298 4287729803
-0.3102316260 -0.1543124914 0.5333291292 4287795596
-0.3098137677 -0.1535128653 0.5326107740 4287664010
-0.3093954325 -0.1527146250 0.5318916440 4287466631
-0.3089766800 -0.1519177556 0.5311717391 4287598217
-0.3080692589 -0.1508831531 0.5296117663 4287795596
-0.3076494932 -0.1500899345 0.5288901329 4287861903
-0.3072293103 -0.1492981166 0.5281677842 4288059282
-0.3068087101 -0.1485076845 0.5274446607 4288322454
-0.3063876331 -0.1477186531 0.5267208219 4288519833
-0.3060330749 -0.1463786066 0.5261112452 4288059282
-0.3060997725 -0.1458258331 0.5262259245 4287730317
-0.3061662614 -0.1452727169 0.5263402462 4287796110
-0.3062325120 -0.1447192281 0.5264541507 4287862162
-0.3062985539 -0.1441653818 0.5265676975 4287993748
-0.3068537712 -0.1438405812 0.5275222063 4287269775
-0.3074089587 -0.1435136646 0.5284766555 4285888122
-0.3074745536 -0.1429569721 0.5285893679 4284770411
-0.3075398803 -0.1423999220 0.5287016630 4285033583
-0.3080948293 -0.1420684010 0.5296556950 4285296755
-0.3081597984 -0.1415097564 0.5297673941 4285165169
-0.3082245588 -0.1409507543 0.5298787355 4285099376
-0.3087792397 -0.1406146139 0.5308322906 4285033583
-0.3088436425 -0.1400540322 0.5309430361 4284836204
-0.3089078069 -0.1394930929 0.5310533643 4284770411
-0.3089717627 -0.1389317960 0.5311632752 4284770411
-0.3085449338 -0.1381505281 0.5304294825 4284573032
-0.3086083233 -0.1375894397 0.5305384398 4284309860
-0.3086714447 -0.1370280087 0.5306470394 4284178274
-0.3087343574 -0.1364662349 0.5307551622 4284243812
-0.3083061278 -0.1356880516 0.5300189257 4284243812
-0.3083684742 -0.1351264864 0.5301261544 4283980642
-0.3079394400 -0.1343502998 0.5293886065 4283717470
-0.3070187867 -0.1333621889 0.5278058052 4283914849
-0.3060974777 -0.1323773265 0.5262219906 4283585884
-0.3051755428 -0.1313957125 0.5246370435 4283388505
-0.3047445118 -0.1306280345 0.5238960981 4283388505
-0.3048046827 -0.1300716251 0.5239995122 4283125335
-0.3048646152 -0.1295148879 0.5241025090 4283388507
-0.3049243093 -0.1289578229 0.5242051482 4283586143
-0.3049837649 -0.1284004301 0.5243073702 4283586143
-0.3045509756 -0.1276365072 0.5235633850 4283651936
-0.3046098948 -0.1270793676 0.5236646533 4283849315
-0.3051607311 -0.1267262846 0.5246116519 4283915108
-0.3052192628 -0.1261675954 0.5247122645 4283980901
-0.3052775562 -0.1256085932 0.5248124599 4284046694
-0.3048431277 -0.1248475686 0.5240656137 4284112487
-0.3049008548 -0.1242888197 0.5241648555 4284243814
-0.3049583137 -0.1237297580 0.5242636204 4284112228
-0.3050155640 -0.1231703758 0.5243620276 4283981155
-0.3050725758 -0.1226106882 0.5244600773 4283981155
-0.3056222796 -0.1222478524 0.5254050493 4284112228
-0.3051858544 -0.1214903593 0.5246548057 4284178021
-0.3057352602 -0.1211250946 0.5255993009 4284243812
-0.3062846363 -0.1207577065 0.5265437365 4284178019
-0.3063406050 -0.1201946437 0.5266399980 4284309605
-0.3063963652 -0.1196312755 0.5267358422 4284243812
-0.3064518571 -0.1190676019 0.5268312693 4284112226
-0.3070006967 -0.1186944470 0.5277747512 4284046433
-0.3070558012 -0.1181292534 0.5278695226 4283980895
-0.3071106672 -0.1175637543 0.5279638171 4284309860
-0.3061776161 -0.1166217551 0.5263597965 4284769641
-0.3072196841 -0.1164318547 0.5281512141 4284572262
-0.3072738051 -0.1158654541 0.5282442570 4284572262
-0.3073276877 -0.1152987555 0.5283368826 4285032813
-0.3073813319 -0.1147317588 0.5284291506 4285493364
-0.3079290092 -0.1143480018 0.5293706059 4285690743
-0.3089709282 -0.1141447648 0.5311618447 4285953913
-0.3090240955 -0.1135741472 0.5312532783 4286348671
-0.3090769947 -0.1130032316 0.5313442349 4286875015
-0.3091296852 -0.1124320179 0.5314347148 4287006601
-0.3091820776 -0.1118605211 0.5315248370 4286808965
-0.3097290099 -0.1114667952 0.5324651003 4286545793
-0.3097810149 -0.1108938009 0.5325545073 4285624689
-0.3103277087 -0.1104967520 0.5334942937 4285032552
-0.3103792667 -0.1099222675 0.5335829854 4284177243
-0.3109768629 -0.1089459211 0.5346103311 4284374622
-0.3110277653 -0.1083696634 0.5346978307 4286216826
-0.3115737438 -0.1079647765 0.5356364250 4288124562
-0.3116242290 -0.1073870361 0.5357232094 4289769387
-0.3121699393 -0.1069788262 0.5366613865 4290427319
-0.3127155900 -0.1065685004 0.5375993848 4290229940
-0.3132611215 -0.1061560512 0.5385372639 4290230199
-0.3133108020 -0.1055744439 0.5386226773 4290032820
-0.3138560653 -0.1051586866 0.5395600200 4289967029
-0.3144012094 -0.1047408059 0.5404972434 4290427580
-0.3149462640 -0.1043208167 0.5414342284 4289572530
-0.3090111315 -0.1563649029 0.5322472453 4287663241
-0.3085951507 -0.1555638462 0.5315307379 4287663496
-0.3096392751 -0.1554976255 0.5333291888 4287597703
-0.3097096980 -0.1549402922 0.5334504843 4288058250
-0.3092928231 -0.1541398317 0.5327324271 4287926664
-0.3093627095 -0.1535826176 0.5328527689 4287729285
-0.3084577620 -0.1525430530 0.5312941074 4287597699
-0.3075521588 -0.1515066326 0.5297342539 4287729285
-0.3081084490 -0.1511910409 0.5306924582 4287663492
-0.3072018623 -0.1501582563 0.5291308761 4287401092
-0.3067823350 -0.1493661106 0.5284083486 4287335299
-0.3063623905 -0.1485753506 0.5276849866 4287532424
-0.3054540753 -0.1475502700 0.5261204839 4287532424
-0.3055211902 -0.1469980180 0.5262360573 4287664010
-0.3050999045 -0.1462114453 0.5255104899 4287927182
-0.3051664829 -0.1456593424 0.5256251097 4287992975
-0.3052328229 -0.1451068670 0.5257393718 4288190354
-0.3052989542 -0.1445540488 0.5258532763 4289177250
-0.3053648472 -0.1440008581 0.5259667635 4290427317
-0.3054305315 -0.1434473097 0.5260798931 4291019456
-0.3059847653 -0.1431220472 0.5270345211 4290493112
-0.3065389991 -0.1427946538 0.5279891491 4289835439
-0.3066041768 -0.1422382593 0.5281014442 4289572267
-0.3066691756 -0.1416815221 0.5282133818 4288980130
-0.3067339063 -0.1411244273 0.5283249021 4287861649
-0.3067984283 -0.1405669898 0.5284360051 4287269514
-0.3073521554 -0.1402324885 0.5293897390 4287137928
-0.3074163198 -0.1396734565 0.5295002460 4286874756
-0.3069906235 -0.1388925463 0.5287670493 4286743170
-0.3070542216 -0.1383337080 0.5288766026 4286414718
-0.3071176112 -0.1377745122 0.5289857984 4286217339
-0.3071807623 -0.1372149885 0.5290945172 4285953913
-0.3072436750 -0.1366551071 0.5292028785 4285888120
-0.3073063493 -0.1360948831 0.5293108821 4285953656
-0.3068785667 -0.1353181452 0.5285740495 4285953656
-0.3069407046 -0.1347581446 0.5286810398 4285822070
-0.3065121472 -0.1339834183 0.5279429555 4285756277
-0.3055926859 -0.1329966635 0.5263592005 4285756023
-0.3061444163 -0.1326509118 0.5273095369 4285624437
-0.3052239716 -0.1316679716 0.5257241130 4285624437
-0.3047937155 -0.1308990717 0.5249830484 4285624437
-0.3043630421 -0.1301316321 0.5242412686 4285493364
-0.3039319217 -0.1293656677 0.5234987140 4285559157
-0.3039914966 -0.1288092732 0.5236012936 4285295985
-0.3040508330 -0.1282525361 0.5237035155 4285295985
-0.3041099310 -0.1276954859 0.5238053203 4285295986
-0.3041688204 -0.1271381080 0.5239067078 4285427572
-0.3037359715 -0.1263759136 0.5231611729 4285428086
-0.3042858243 -0.1260223836 0.5241082907 4285559672
-0.3043439984 -0.1254640371 0.5242084861 4285559672
-0.3044019341 -0.1249053702 0.5243082047 4285559672
-0.3044596016 -0.1243463829 0.5244075656 4285427571
-0.3040251136 -0.1235871017 0.5236592293 4285361778
-0.3040822446 -0.1230283901 0.5237575769 4285230962
-0.3041391075 -0.1224693656 0.5238555670 4285362548
-0.3041957617 -0.1219100282 0.5239531398 4285756534
-0.3042521775 -0.1213503778 0.5240502954 4285953913
-0.3043083251 -0.1207904145 0.5241470337 4286019706
-0.3048567772 -0.1204246879 0.5250916481 4286085499
-0.3049125373 -0.1198631972 0.5251877308 4286019706
-0.3049680889 -0.1193014085 0.5252833962 4286282878
-0.3050233722 -0.1187393069 0.5253786445 4286611843
-0.3050784469 -0.1181768999 0.5254734755 4286611843
-0.3051332533 -0.1176141873 0.5255678892 4286480257
-0.3051878214 -0.1170511767 0.5256618857 4286875015
-0.3057352901 -0.1166760474 0.5266048312 4287401359
-0.3052962422 -0.1159242466 0.5258486271 4287335566
-0.3058433831 -0.1155466959 0.5267910361 4287335566
-0.3058970571 -0.1149815768 0.5268834829 4287335566
-0.3064439893 -0.1146006957 0.5278255343 4287401100
-0.3060037196 -0.1138504446 0.5270671844 4287006342
-0.3070439398 -0.1136498675 0.5288589001 4286545791
-0.3070968091 -0.1130817384 0.5289499760 4286216826
-0.3076432645 -0.1126942039 0.5298911929 4285953654
-0.3076957166 -0.1121245772 0.5299815536 4285822068
-0.3082419038 -0.1117337123 0.5309222937 4285164138
-0.3082939684 -0.1111625955 0.5310119390 4285690482
-0.3083457649 -0.1105911806 0.5311011672 4285492844
-0.3088915646 -0.1101957932 0.5320412517 4285887602
-0.3094372451 -0.1097982898 0.5329811573 4287203462
-0.3089940846 -0.1090497002 0.5322178602 4289045666
-0.3100338876 -0.1088233516 0.5340088606 4289966768
-0.3105792403 -0.1084204093 0.5349481702 4290427319
-0.3106298745 -0.1078436151 0.5350353718 4290887353
-0.3106802404 -0.1072665453 0.5351220965 4290426802
-0.3117199242 -0.1070289686 0.5369129181 4290229938
-0.3122648299 -0.1066184640 0.5378514528 4290295731
-0.3123146594 -0.1060377955 0.5379372835 4290032818
-0.3128592670 -0.1056239754 0.5388753414 4290098611
-0.3134037852 -0.1052080318 0.5398132205 4290295992
-0.3139482141 -0.1047899798 0.5407509208 4290427578
-0.3144925237 -0.1043698043 0.5416885018 4289506735
-0.3055033982 -0.1560577899 0.5272140503 4287401352
-0.3026590347 -0.1540244967 0.5223054290 4287597701
-0.3080737591 -0.1561893672 0.5316497087 4287531908
-0.3086303771 -0.1558798105 0.5326103568 4287794567
-0.3091870248 -0.1555681080 0.5335709453 4287465602
-0.3087711632 -0.1547668278 0.5328532457 4287597953
-0.3088412285 -0.1542097777 0.5329741836 4287597953
-0.3084245622 -0.1534103602 0.5322551727 4287597952
-0.3080074787 -0.1526123285 0.5315353870 4287663745
-0.3075899780 -0.1518156826 0.5308148265 4287597953
-0.3066852093 -0.1507810801 0.5292534828 4287400574
-0.3062666953 -0.1499880850 0.5285312533 4287400320
-0.3058477342 -0.1491964906 0.5278082490 4287466113
-0.3054283559 -0.1484062821 0.5270845294 4287663494
-0.3050085306 -0.1476174593 0.5263600349 4287466115
-0.3045882881 -0.1468300521 0.5256347656 4287202943
-0.3046550453 -0.1462780833 0.5257499814 4287137150
-0.3047215641 -0.1457257569 0.5258647799 4287137152
-0.3043002188 -0.1449407935 0.5251376629 4287071359
-0.3043662012 -0.1443886161 0.5252515078 4287729034
-0.3044319451 -0.1438360959 0.5253649950 4288715929
-0.3044974804 -0.1432832181 0.5254780650 4289374114
-0.3050508797 -0.1429587156 0.5264330506 4289505700
-0.3051160574 -0.1424042284 0.5265455842 4289440421
-0.3056693077 -0.1420763582 0.5275003314 4289703593
-0.3057341278 -0.1415202767 0.5276122093 4289703593
-0.3057987392 -0.1409638375 0.5277237296 4288848284
-0.3058631420 -0.1404070556 0.5278348327 4288189585
-0.3059273064 -0.1398499310 0.5279455185 4287860620
-0.3059912324 -0.1392924488 0.5280558467 4287860620
-0.3060549200 -0.1387346089 0.5281657577 4287663241
-0.3056293726 -0.1379556954 0.5274314284 4287203462
-0.3056925237 -0.1373980641 0.5275403857 4287071876
-0.3057554364 -0.1368400753 0.5276489258 4287203462
-0.3058181107 -0.1362817585 0.5277571082 4287269255
-0.3058805466 -0.1357230842 0.5278648734 4287335048
-0.3054532707 -0.1349478215 0.5271275043 4287335048
-0.3050255477 -0.1341740042 0.5263893604 4287335048
-0.3050870895 -0.1336161047 0.5264955759 4287532427
-0.3046586215 -0.1328442842 0.5257561207 4287335048
-0.3047195971 -0.1322866082 0.5258613825 4287466634
-0.3038003743 -0.1313050389 0.5242750645 4287532427
-0.3033705950 -0.1305376142 0.5235334039 4287532427
-0.3034305871 -0.1299816370 0.5236369371 4287730063
-0.3034903705 -0.1294253170 0.5237401128 4287466891
-0.3035499156 -0.1288686842 0.5238428116 4287466893
-0.3036092222 -0.1283117235 0.5239451528 4287401100
-0.3036682904 -0.1277544349 0.5240471363 4287466893
-0.3032364547 -0.1269913316 0.5233018994 4287532686
-0.3032949567 -0.1264342964 0.5234028697 4287533199
-0.3033532202 -0.1258769333 0.5235034227 4287598992
-0.3034112453 -0.1253192574 0.5236035585 4287598992
-0.3034690619 -0.1247612610 0.5237033367 4287401613
-0.3035266101 -0.1242029443 0.5238026381 4287466891
-0.3035839498 -0.1236443073 0.5239015818 4287532684
-0.3031497002 -0.1228861883 0.5231522322 4287598990
-0.3032064736 -0.1223278344 0.5232501626 4287796369
-0.3032630086 -0.1217691600 0.5233477354 4288125334
-0.3033192754 -0.1212101728 0.5234448314 4288256920
-0.3033753335 -0.1206508800 0.5235415697 4288387993
-0.3034311533 -0.1200912744 0.5236378908 4288519579
-0.3039785922 -0.1197250932 0.5245826244 4288651165
-0.3040339947 -0.1191639677 0.5246782303 4288651165
-0.3040891886 -0.1186025366 0.5247734785 4288585885
-0.3041441143 -0.1180407926 0.5248683095 4288520092
-0.3041988313 -0.1174787506 0.5249626637 4288322713
-0.3042532802 -0.1169164106 0.5250566602 4288191127
-0.3043074906 -0.1163537651 0.5251502395 4287664270
-0.3043614626 -0.1157908142 0.5252433419 4286611582
-0.3049077690 -0.1154140234 0.5261861086 4285427310
-0.3049613535 -0.1148495674 0.5262786150 4284703587
-0.3050146699 -0.1142848134 0.5263706446 4284506208
-0.3055605888 -0.1139034852 0.5273127556 4284900966
-0.3056135178 -0.1133372262 0.5274040699 4285558894
-0.3061592281 -0.1129525676 0.5283457637 4286151031
-0.3062117398 -0.1123848110 0.5284364223 4286742657
-0.3067571819 -0.1119968221 0.5293776989 4287532173
-0.3068092763 -0.1114275753 0.5294676423 4288650908
-0.3073544800 -0.1110362560 0.5304085016 4289835182
-0.3078996241 -0.1106428280 0.5313492417 4290229938
-0.3079511523 -0.1100708768 0.5314381123 4290295731
-0.3084959984 -0.1096741185 0.5323784351 4290229938
-0.3085471094 -0.1091006771 0.5324666500 4290493110
-0.3095854819 -0.1088742390 0.5342585444 4290229938
-0.3096362650 -0.1082983986 0.5343461633 4289966766
-0.3106746078 -0.1080658883 0.5361381173 4290032044
-0.3112190366 -0.1076585278 0.5370776057 4290229423
-0.3112692833 -0.1070790812 0.5371643305 4290032559
-0.3118134141 -0.1066683978 0.5381033421 4289835180
-0.3113690019 -0.1059193462 0.5373364091 4290164404
-0.3124071062 -0.1056734771 0.5391278863 4290295990
-0.3134452701 -0.1054236442 0.5409194827 4290164406
-0.3134945631 -0.1048391238 0.5410045385 4290559164
-0.3135435879 -0.1042543277 0.5410891175 4289769650
-0.2986816764 -0.1534398943 0.5164314508 4287532424
-0.3081075847 -0.1565065086 0.5327292085 4287530877
-0.3076929450 -0.1557047814 0.5320122838 4287465856
-0.3087341487 -0.1556385607 0.5338125825 4287400063
-0.3088045120 -0.1550807953 0.5339341760 4287334267
-0.3083889782 -0.1542796791 0.5332157612 4287268474
-0.3079729974 -0.1534799337 0.5324965119 4287334267
-0.3075565994 -0.1526815742 0.5317765474 4287202681
-0.3066537678 -0.1516442746 0.5302155018 4287136889
-0.3072085679 -0.1513284445 0.5311747193 4287268475
-0.3063047230 -0.1502947956 0.5296120048 4287268475
-0.3054002523 -0.1492642909 0.5280481577 4287268475
-0.3049815595 -0.1484737545 0.5273241997 4287268475
-0.3050489426 -0.1479205340 0.5274406672 4287400061
-0.3046294451 -0.1471319050 0.5267153978 4287202684
-0.3042095304 -0.1463446766 0.5259893537 4287071098
-0.3042760491 -0.1457921267 0.5261043310 4287071098
-0.3038553596 -0.1450068355 0.5253769755 4286939512
-0.3039213121 -0.1444544494 0.5254909396 4286742133
-0.3039870262 -0.1439016908 0.5256046057 4286873719
-0.3040525317 -0.1433485895 0.5257178545 4286675318
-0.3041177988 -0.1427951306 0.5258306861 4286412146
-0.3041828275 -0.1422413141 0.5259431601 4286412400
-0.3047352433 -0.1419142038 0.5268982649 4286741365
-0.3047999442 -0.1413587779 0.5270101428 4286873465
-0.3048644066 -0.1408030093 0.5271216035 4287070844
-0.3049286604 -0.1402468979 0.5272327065 4287136639
-0.3049926758 -0.1396904290 0.5273433924 4287070846
-0.3050564528 -0.1391336024 0.5274537206 4287070847
-0.3046318293 -0.1383547038 0.5267195106 4287070847
-0.3046950698 -0.1377980858 0.5268288255 4287005053
-0.3047580719 -0.1372411102 0.5269377828 4286873467
-0.3048208356 -0.1366837919 0.5270463228 4286873980
-0.3048833907 -0.1361261308 0.5271544456 4287202945
-0.3044570088 -0.1353508681 0.5264171958 4287400069
-0.3045189977 -0.1347934157 0.5265243649 4287465862
-0.3045807481 -0.1342356354 0.5266311765 4287400841
-0.3041532636 -0.1334629357 0.5258920193 4287335048
-0.3037253618 -0.1326916814 0.5251522064 4287532427
-0.3032970428 -0.1319219023 0.5244116187 4287729806
-0.3033575714 -0.1313654482 0.5245162845 4287729806
-0.3029284775 -0.1305976957 0.5237743258 4287466634
-0.3024989665 -0.1298314035 0.5230317116 4287335046
-0.3025586307 -0.1292757541 0.5231348276 4287269253
-0.3026180267 -0.1287197769 0.5232375860 4287203460
-0.3026772141 -0.1281634867 0.5233398676 4287203460
-0.3027361631 -0.1276068687 0.5234417915 4287400841
-0.3023048937 -0.1268443316 0.5226961374 4287664013
-0.3023632765 -0.1262879670 0.5227971077 4287861392
-0.3024214208 -0.1257312745 0.5228976011 4287927185
-0.3024793267 -0.1251742691 0.5229977369 4287927183
-0.3025370240 -0.1246169358 0.5230974555 4287927183
-0.3025944531 -0.1240592822 0.5231968164 4287861390
-0.3026516736 -0.1235013157 0.5232957006 4288190355
-0.3022180200 -0.1227437779 0.5225459337 4288519320
-0.3022746444 -0.1221860871 0.5226438642 4288585113
-0.3023310602 -0.1216280833 0.5227413774 4288519833
-0.3023872077 -0.1210697666 0.5228384733 4288519833
-0.3024431467 -0.1205111369 0.5229352117 4288585626
-0.3029899001 -0.1201469302 0.5238805413 4288717212
-0.3030454516 -0.1195867807 0.5239765644 4288717212
-0.3031007349 -0.1190263182 0.5240721703 4288783005
-0.3031558096 -0.1184655577 0.5241674185 4288454040
-0.3032106459 -0.1179044843 0.5242621899 4288059282
-0.3032652140 -0.1173431128 0.5243565440 4287993746
-0.3038111627 -0.1169707105 0.5253005028 4287796367
-0.3043570220 -0.1165961847 0.5262443423 4286941058
-0.3044110537 -0.1160320863 0.5263378024 4286217335
-0.3044648468 -0.1154676825 0.5264307857 4286216565
-0.3045184016 -0.1149029806 0.5265233517 4287137667
-0.3050637245 -0.1145227030 0.5274662971 4288058769
-0.3051168621 -0.1139564961 0.5275581479 4288650906
-0.3051697612 -0.1133899987 0.5276496410 4289243043
-0.3057147264 -0.1130051762 0.5285918713 4289835180
-0.3057672083 -0.1124371737 0.5286825895 4290295731
-0.3063119054 -0.1120490208 0.5296244025 4290558903
-0.3063639998 -0.1114795208 0.5297144651 4290493112
-0.3069084585 -0.1110880449 0.5306558609 4290295733
-0.3069601357 -0.1105170473 0.5307452083 4290098354
-0.3079971373 -0.1102987230 0.5325382352 4290032561
-0.3075555861 -0.1095497608 0.5317747593 4290032561
-0.3085924983 -0.1093262732 0.5335676670 4289966768
-0.3091364503 -0.1089251041 0.5345081687 4289966768
-0.3091872036 -0.1083490103 0.5345959067 4289966768
-0.3097308874 -0.1079445183 0.5355359316 4290097322
-0.3102744818 -0.1075379029 0.5364758372 4290294701
-0.3108179867 -0.1071291715 0.5374155641 4289965996
-0.3108679652 -0.1065491885 0.5375019908 4289768617
-0.3119046986 -0.1063053384 0.5392945409 4289769389
-0.3119543195 -0.1057229564 0.5393803716 4289900975
-0.3120036721 -0.1051402986 0.5394656658 4290098613
-0.3125465214 -0.1047228053 0.5404043198 4290164406
-0.3135831058 -0.1044677049 0.5421965718 4289572528
-0.3050916195 -0.1564471573 0.5285294652 4287400322
-0.3017714322 -0.1541637629 0.5227777362 4287531132
-0.3081394136 -0.1568238288 0.5338093042 4287399546
-0.3077255487 -0.1560208946 0.5330923796 4287334268
-0.3082806766 -0.1557089835 0.5340540409 4287268475
-0.3083509803 -0.1551509798 0.5341758728 4287202681
-0.3084210753 -0.1545926034 0.5342972875 4287071095
-0.3080058694 -0.1537916511 0.5335780382 4287267960
-0.3075902462 -0.1529920846 0.5328580141 4287267960
-0.3062036633 -0.1517130286 0.5304558873 4287202167
-0.3067576885 -0.1513970941 0.5314157009 4287136374
-0.3058552444 -0.1503629982 0.5298523903 4286939510
-0.3054377735 -0.1495698541 0.5291291475 4287005303
-0.3050198555 -0.1487781107 0.5284051299 4286939510
-0.3041156828 -0.1477517337 0.5268387794 4287071096
-0.3041826785 -0.1471987963 0.5269548297 4287201912
-0.3037634492 -0.1464112401 0.5262286067 4287201912
-0.3038299084 -0.1458584666 0.5263437033 4287201914
-0.3034099042 -0.1450728476 0.5256161094 4287004535
-0.3034757972 -0.1445202380 0.5257303119 4286676340
-0.3035414815 -0.1439672709 0.5258440971 4286676340
-0.3036069572 -0.1434139311 0.5259574652 4286939258
-0.3036721945 -0.1428602487 0.5260704756 4286807672
-0.3032504320 -0.1420781463 0.5253398418 4286873465
-0.3033151031 -0.1415246427 0.5254518986 4286939258
-0.3033795655 -0.1409707814 0.5255635977 4287005051
-0.3039308786 -0.1406419426 0.5265186429 4287005051
-0.3035078049 -0.1398619860 0.5257857442 4286939258
-0.3040588498 -0.1395306736 0.5267403722 4286873465
-0.3041225076 -0.1389745176 0.5268506408 4286676088
-0.3036984503 -0.1381961852 0.5261160135 4286676088
-0.3037615716 -0.1376402229 0.5262253284 4286544500
-0.3038244247 -0.1370839179 0.5263342261 4286347121
-0.3033992946 -0.1363081187 0.5255977511 4286216048
-0.3034615815 -0.1357520223 0.5257056952 4286347634
-0.3035236597 -0.1351955682 0.5258132219 4286545015
-0.3035855293 -0.1346387863 0.5259203911 4286545015
-0.3031589687 -0.1338661015 0.5251814127 4286347636
-0.3032202423 -0.1333095282 0.5252875686 4286347636
-0.3027929366 -0.1325388551 0.5245473385 4286413174
-0.3033421338 -0.1321953833 0.5254987478 4286544760
-0.3024255931 -0.1312138587 0.5239109397 4286544760
-0.3019970953 -0.1304466575 0.5231686234 4286478967
-0.3025456965 -0.1301012933 0.5241190195 4286413429
-0.3021165431 -0.1293352395 0.5233755708 4286479222
-0.3021759391 -0.1287790388 0.5234784484 4286676601
-0.3022350669 -0.1282225102 0.5235809088 4286873980
-0.3022939861 -0.1276656538 0.5236829519 4287202690
-0.3018634319 -0.1269027889 0.5229370594 4287465862
-0.3019217551 -0.1263461858 0.5230381489 4287532425
-0.3019798696 -0.1257892698 0.5231388211 4287532425
-0.3020377755 -0.1252320260 0.5232390761 4287466632
-0.3020954132 -0.1246744543 0.5233389139 4287466632
-0.3021528125 -0.1241165698 0.5234383941 4287795597
-0.3022100031 -0.1235583648 0.5235374570 4288058769
-0.3017770350 -0.1228004992 0.5227873921 4288190355
-0.3018336296 -0.1222425699 0.5228854418 4288190355
-0.3018900156 -0.1216843277 0.5229831338 4288256148
-0.3019461334 -0.1211257800 0.5230803490 4288321941
-0.3020020425 -0.1205669120 0.5231772065 4288519320
-0.3020577133 -0.1200077385 0.5232736468 4288782492
-0.3026035726 -0.1196421683 0.5242192745 4288585113
-0.3021683097 -0.1188884676 0.5234652162 4289045664
-0.3027138710 -0.1185204610 0.5244103670 4289111970
-0.3027686775 -0.1179591566 0.5245052576 4288783005
-0.3028232157 -0.1173975393 0.5245997906 4288585626
-0.3028775156 -0.1168356240 0.5246938467 4288717212
-0.3034225702 -0.1164618507 0.5256380439 4289046177
-0.3034764826 -0.1158984229 0.5257314444 4289243556
-0.3035301566 -0.1153346896 0.5258244276 4289572010
-0.3035835922 -0.1147706583 0.5259169936 4289966768
-0.3041281104 -0.1143911332 0.5268602967 4290164147
-0.3046725392 -0.1140094846 0.5278034806 4290098354
-0.3047254086 -0.1134427413 0.5278950334 4290098354
-0.3047780097 -0.1128757000 0.5279862285 4290164147
-0.3053220510 -0.1124895066 0.5289286971 4290295733
-0.3053742647 -0.1119209677 0.5290191174 4290295733
-0.3054262400 -0.1113521382 0.5291091800 4290164147
-0.3059698939 -0.1109614074 0.5300509334 4290098354
-0.3060214520 -0.1103910804 0.5301402807 4289900975
-0.3065648377 -0.1099970266 0.5310816169 4289769389
-0.3066159785 -0.1094252095 0.5311701894 4289768619
-0.3071590960 -0.1090278327 0.5321111083 4289834412
-0.3081944585 -0.1088021323 0.5339047313 4289965998
-0.3082450926 -0.1082267091 0.5339924693 4290097584
-0.3087879717 -0.1078229621 0.5349329114 4290228908
-0.3093307316 -0.1074170917 0.5358731747 4290294701
-0.3098734319 -0.1070091054 0.5368133187 4289966251
-0.3104160130 -0.1065989956 0.5377532244 4289834665
-0.3104656935 -0.1060184762 0.5378392935 4289835180
-0.3110080063 -0.1056050509 0.5387787819 4290032559
-0.3115502298 -0.1051894948 0.5397180915 4290229940
-0.3120923340 -0.1047718152 0.5406572223 4290229940
-0.3126343191 -0.1043520197 0.5415961742 4289572528
-0.3047124445 -0.1559662968 0.5288901925 4287399546
-0.3072015941 -0.1566479355 0.5332106352 4287333753
-0.3077560961 -0.1563371867 0.5341730714 4287202681
-0.3078265786 -0.1557793468 0.5342954397 4287136888
-0.3078968227 -0.1552211344 0.5344173908 4287202165
-0.3079668880 -0.1546625346 0.5345389843 4287004786
-0.3075523674 -0.1538612545 0.5338194966 4287135861
-0.3071374297 -0.1530613452 0.5330992937 4287135861
-0.3062374890 -0.1520222872 0.5315372348 4287070068
-0.3058215380 -0.1512260288 0.5308153033 4286938482
-0.3054051697 -0.1504311711 0.5300925970 4286873202
-0.3049883544 -0.1496376991 0.5293691158 4287136374
-0.3040861189 -0.1486085951 0.5278031230 4287136119
-0.3036683202 -0.1478188038 0.5270779133 4287201912
-0.3032501042 -0.1470303982 0.5263519883 4287267705
-0.3028314114 -0.1462434083 0.5256253481 4287267705
-0.3033831418 -0.1459247768 0.5265829563 4287136119
-0.3024783134 -0.1449062228 0.5250124335 4287004533
-0.3025440872 -0.1443542838 0.5251265764 4286807924
-0.3026096225 -0.1438019723 0.5252403617 4286676338
-0.3026749194 -0.1432493031 0.5253537297 4286873719
-0.3027400374 -0.1426962763 0.5254666805 4286873719
-0.3023188412 -0.1419147402 0.5247356892 4286873719
-0.3023833930 -0.1413618922 0.5248476863 4286873719
-0.3024477065 -0.1408087015 0.5249593258 4286873719
-0.3025118113 -0.1402551383 0.5250705481 4286807926
-0.3025756776 -0.1397012472 0.5251814127 4286742133
-0.3026393056 -0.1391469836 0.5252918601 4286676340
-0.3027027249 -0.1385923922 0.5254019499 4286610547
-0.3027659059 -0.1380374283 0.5255116224 4286742133
-0.3028288782 -0.1374821365 0.5256208777 4286742133
-0.3028916121 -0.1369264871 0.5257297754 4286478961
-0.3029541075 -0.1363705099 0.5258382559 4286347375
-0.3025292158 -0.1355958283 0.5251007676 4286347375
-0.3025911748 -0.1350400448 0.5252082944 4286478707
-0.3026528955 -0.1344839185 0.5253154635 4286544500
-0.3022269011 -0.1337118000 0.5245760679 4286610547
-0.3022880554 -0.1331558973 0.5246822238 4286676340
-0.3018613458 -0.1323857903 0.5239415169 4286742133
-0.3024096787 -0.1320430785 0.5248933434 4286873719
-0.3019823134 -0.1312741041 0.5241515040 4287070844
-0.3020424247 -0.1307177544 0.5242558718 4287136637
-0.3021023571 -0.1301610768 0.5243598819 4287202943
-0.3016738594 -0.1293946952 0.5236161351 4287334529
-0.3017332256 -0.1288382560 0.5237191916 4287334529
-0.3017923236 -0.1282815039 0.5238217711 4287663494
-0.3018512130 -0.1277244091 0.5239239931 4288058254
-0.3019098639 -0.1271670014 0.5240257382 4288255633
-0.3019682765 -0.1266092509 0.5241271257 4288189840
-0.3020264506 -0.1260511875 0.5242280960 4288058254
-0.3020843863 -0.1254928112 0.5243287086 4287992461
-0.3016531765 -0.1247319430 0.5235802531 4287926668
-0.3017105758 -0.1241738275 0.5236798525 4287926668
-0.3017677069 -0.1236153916 0.5237790346 4288189840
-0.3018246293 -0.1230566353 0.5238777995 4288453012
-0.3013920188 -0.1222990230 0.5231269598 4288584598
-0.3014483452 -0.1217405498 0.5232247114 4288585112
-0.3015044630 -0.1211817563 0.5233221054 4288716698
-0.3015603423 -0.1206226572 0.5234190822 4288914077
-0.3016159534 -0.1200632453 0.5235156417 4289177249
-0.3021610677 -0.1196975261 0.5244618058 4289045663
-0.3017264903 -0.1189434975 0.5237075090 4289111456
-0.3017814159 -0.1183831617 0.5238028169 4289111456
-0.3023260832 -0.1180137917 0.5247482061 4288914077
-0.3023805916 -0.1174519360 0.5248428583 4288782491
-0.3024348915 -0.1168897748 0.5249370337 4288979870
-0.3024889231 -0.1163273156 0.5250308514 4289243042
-0.3030330837 -0.1159521788 0.5259753466 4289440421
-0.3030867279 -0.1153882071 0.5260684490 4289571238
-0.3031401038 -0.1148239374 0.5261611342 4289834410
-0.3031932712 -0.1142593622 0.5262534022 4289965996
-0.3037368655 -0.1138784662 0.5271969438 4289900203
-0.3037896454 -0.1133123934 0.5272884965 4290031789
-0.3043330014 -0.1129281670 0.5282316208 4290163375
-0.3043853641 -0.1123605892 0.5283225179 4290229168
-0.3049284816 -0.1119730249 0.5292652249 4290163375
-0.3049804270 -0.1114039496 0.5293553472 4290031789
-0.3050321341 -0.1108345836 0.5294451118 4290031789
-0.3055748343 -0.1104424819 0.5303871036 4289966251
-0.3056261241 -0.1098716184 0.5304760933 4289834665
-0.3061685860 -0.1094761938 0.5314176679 4289834152
-0.3062194586 -0.1089038402 0.5315059423 4289899945
-0.3077448905 -0.1088528633 0.5341536403 4290097324
-0.3077954948 -0.1082771793 0.5342414975 4290163117
-0.3083376288 -0.1078732684 0.5351824760 4290359978
-0.3083878160 -0.1072961017 0.5352695584 4290294185
-0.3089296520 -0.1068888605 0.5362100601 4289965736
-0.3094714284 -0.1064794958 0.5371503830 4289899943
-0.3095210195 -0.1058996469 0.5372364521 4289834665
-0.3105546534 -0.1056543961 0.5390305519 4290032044
-0.3115883768 -0.1054051816 0.5408247709 4290164147
-0.3121297956 -0.1049863994 0.5417645574 4290164147
-0.3116863668 -0.1042361632 0.5409948826 4289572271
-0.3071598709 -0.1575226784 0.5341679454 4287333240
-0.3077845871 -0.1566536576 0.5352544188 4287267960
-0.3078551292 -0.1560947299 0.5353770852 4287136374
-0.3079254925 -0.1555354148 0.5354994535 4287201652
-0.3079955876 -0.1549757123 0.5356213450 4287135859
-0.3075818717 -0.1541732252 0.5349018574 4287070068
-0.3066839874 -0.1531305760 0.5333403945 4287004275
-0.3062692583 -0.1523317248 0.5326191783 4287070068
-0.3053701520 -0.1512944996 0.5310555696 4287070068
-0.3049544692 -0.1504992992 0.5303326845 4287004788
-0.3045383394 -0.1497054994 0.5296089649 4287267960
-0.3041217625 -0.1489130855 0.5288845301 4287201912
-0.3032203615 -0.1478858441 0.5273169875 4287333498
-0.3028028011 -0.1470971107 0.5265908241 4287267705
-0.3023848236 -0.1463097930 0.5258639455 4287136119
-0.3024511039 -0.1457574517 0.5259791613 4287004533
-0.3020323515 -0.1449720562 0.5252509713 4286872947
-0.3016131818 -0.1441880763 0.5245219469 4286676338
-0.3016785681 -0.1436364353 0.5246356726 4286742131
-0.3017437458 -0.1430844218 0.5247490406 4286676338
-0.3018086851 -0.1425320655 0.5248619914 4286676338
-0.3018734157 -0.1419793516 0.5249745846 4286610545
-0.3014524877 -0.1411989033 0.5242425799 4286544752
-0.3015166819 -0.1406463832 0.5243541598 4286544752
-0.3015806377 -0.1400934905 0.5244653821 4286544752
-0.3016443551 -0.1395402551 0.5245761871 4286544752
-0.3017078638 -0.1389866620 0.5246866345 4286478959
-0.3017711341 -0.1384327263 0.5247966647 4286478959
-0.3018341959 -0.1378784478 0.5249063373 4286676338
-0.3018970191 -0.1373238117 0.5250155926 4286807924
-0.3019596040 -0.1367688328 0.5251244307 4286742131
-0.3020219803 -0.1362135112 0.5252329111 4286610545
-0.3015976548 -0.1354393959 0.5244950056 4286676338
-0.3016594648 -0.1348842829 0.5246025324 4286873717
-0.3017210662 -0.1343288273 0.5247095823 4287005303
-0.3012956679 -0.1335572749 0.5239698291 4287070581
-0.3013567030 -0.1330020279 0.5240759254 4287202167
-0.3014174998 -0.1324464679 0.5241816640 4287267960
-0.3014780581 -0.1318905503 0.5242869854 4287399546
-0.3010512590 -0.1311221421 0.5235447884 4287465854
-0.3011112511 -0.1305664629 0.5236490965 4287663233
-0.3011710346 -0.1300104558 0.5237531066 4287729026
-0.3012305796 -0.1294541210 0.5238566399 4287860612
-0.3012898862 -0.1288974583 0.5239597559 4288057993
-0.3013489842 -0.1283404529 0.5240625143 4288386958
-0.3014078140 -0.1277831346 0.5241648555 4288650389
-0.3014664352 -0.1272254884 0.5242667794 4288650389
-0.3015248179 -0.1266675144 0.5243682861 4288518803
-0.3015829623 -0.1261092126 0.5244694352 4288387217
-0.3016408682 -0.1255505979 0.5245701671 4288453010
-0.3012103438 -0.1247894093 0.5238214731 4288518803
-0.3012677133 -0.1242310479 0.5239211917 4288518803
-0.3008364439 -0.1234719381 0.5231711864 4288781975
-0.3008932173 -0.1229138523 0.5232699513 4288979354
-0.3009497821 -0.1223554537 0.5233682990 4289110940
-0.3010060787 -0.1217967346 0.5234662294 4289110940
-0.3005734384 -0.1210408956 0.5227137804 4289110940
-0.3006291687 -0.1204824597 0.5228107572 4289110940
-0.3011735976 -0.1201187223 0.5237575173 4289176733
-0.3012289703 -0.1195587590 0.5238538384 4288913561
-0.3012840748 -0.1189984903 0.5239496827 4288781975
-0.3013389707 -0.1184379160 0.5240451097 4288781975
-0.3013935983 -0.1178770363 0.5241401196 4288913561
-0.3019373715 -0.1175063029 0.5250858068 4289242526
-0.3019916415 -0.1169439033 0.5251801610 4289439905
-0.3020456433 -0.1163812056 0.5252740383 4289505698
-0.3025890291 -0.1160059124 0.5262190700 4289374112
-0.3026426435 -0.1154416949 0.5263122916 4289505445
-0.3026960194 -0.1148771793 0.5264050961 4289768617
-0.3027491570 -0.1143123657 0.5264975429 4289966251
-0.3032920063 -0.1139313132 0.5274415612 4289966251
-0.3033447266 -0.1133649945 0.5275332928 4289966251
-0.3038873672 -0.1129806042 0.5284768939 4289966251
-0.3039396703 -0.1124127805 0.5285679102 4289900458
-0.3044820726 -0.1120250598 0.5295111537 4289703079
-0.3045339882 -0.1114557311 0.5296014547 4289899943
-0.3045856357 -0.1108861193 0.5296912789 4289965736
-0.3051276207 -0.1104938537 0.5306338072 4289965736
-0.3051788807 -0.1099227443 0.5307229161 4289965736
-0.3057205975 -0.1095271558 0.5316650271 4289965990
-0.3067530692 -0.1093043238 0.5334604979 4290097576
-0.3072946966 -0.1089035645 0.5344024301 4290097576
-0.3073452711 -0.1083276346 0.5344904065 4290097576
-0.3078866601 -0.1079235449 0.5354319215 4290031783
-0.3084279299 -0.1075173318 0.5363731980 4290097576
-0.3094603419 -0.1072792783 0.5381686091 4289965736
-0.3095102310 -0.1066985354 0.5382553935 4289899943
-0.3100512028 -0.1062859446 0.5391961932 4289834665
-0.3105921149 -0.1058712378 0.5401368737 4289966251
-0.3116244376 -0.1056209952 0.5419321060 4290098354
-0.3121652007 -0.1052011177 0.5428725481 4290098354
-0.3071157038 -0.1583994180 0.5351248384 4287005564
-0.3067046404 -0.1575936377 0.5344085693 4287267447
-0.3077401817 -0.1575299501 0.5362129211 4287201654
-0.3073285818 -0.1567242742 0.5354956985 4287136119
-0.3078816533 -0.1564102769 0.5364593863 4287004533
-0.3074693978 -0.1556055844 0.5357410312 4287201654
-0.3075394630 -0.1550456733 0.5358631611 4287201654
-0.3076093197 -0.1544853747 0.5359848738 4287070068
-0.3067129254 -0.1534414142 0.5344229937 4286938482
-0.3058158755 -0.1524005830 0.5328599215 4287135861
-0.3054013848 -0.1516027898 0.5321377516 4287135861
-0.3049864769 -0.1508063823 0.5314148068 4286938482
-0.3040876985 -0.1497732550 0.5298486948 4287004275
-0.3036717772 -0.1489805281 0.5291240215 4287070326
-0.3032554686 -0.1481891870 0.5283986330 4287201912
-0.3028386831 -0.1473992467 0.5276724100 4286872947
-0.3019376099 -0.1463761330 0.5261023641 4286543982
-0.3024878204 -0.1460572630 0.5270611048 4286741363
-0.3015857935 -0.1450378597 0.5254893303 4286741363
-0.3011672795 -0.1442535371 0.5247601271 4286609777
-0.3012326360 -0.1437016726 0.5248740315 4286675570
-0.3012977839 -0.1431494504 0.5249875188 4286675823
-0.3013626933 -0.1425968707 0.5251006484 4286675823
-0.3009427786 -0.1418155581 0.5243689418 4286741361
-0.3010071516 -0.1412631571 0.5244811177 4286675568
-0.3010712862 -0.1407103986 0.5245928764 4286741361
-0.3011352122 -0.1401572824 0.5247042179 4286872947
-0.3011988997 -0.1396038234 0.5248152018 4286873202
-0.3007772267 -0.1388261020 0.5240805149 4286807409
-0.3008403778 -0.1382728219 0.5241905451 4286807409
-0.3004179597 -0.1374970824 0.5234544873 4286873202
-0.3004805446 -0.1369440109 0.5235635638 4286938995
-0.3005428910 -0.1363905966 0.5236722231 4286938995
-0.3006050289 -0.1358368248 0.5237804651 4287004788
