VERSION 0.7
FIELDS x y z rgba
SIZE 4 4 4 4
TYPE F F F U
COUNT 1 1 1 1
WIDTH 920
HEIGHT 1
VIEWPOINT 0.0 0.0 0.0 1.0 0.0 0.0 0.0
POINTS 920
DATA ascii
-0.2788002789 -0.1376167834 0.5594033003 4294506751
-0.2788583934 -0.1370237917 0.5595198870 4294506751
-0.2789162695 -0.1364304423 0.5596359968 4294506751
-0.2794098258 -0.1360489577 0.5606262684 4294440959
-0.2794673443 -0.1354539394 0.5607416630 4294375420
-0.2799606919 -0.1350689381 0.5617315769 4294375420
-0.2795816958 -0.1342628002 0.5609710813 4294375419
-0.2800747752 -0.1338752210 0.5619604588 4294309626
-0.2801314592 -0.1332778037 0.5620741844 4294440959
-0.2801879048 -0.1326800287 0.5621874928 4294309373
-0.2806806564 -0.1322876364 0.5631761551 4293980408
-0.2811733186 -0.1318930238 0.5641646981 4293585650
-0.2812292576 -0.1312922984 0.5642769337 4293388271
-0.2817217410 -0.1308941692 0.5652650595 4293256685
-0.2817772925 -0.1302918047 0.5653765202 4293256685
-0.2818326056 -0.1296890825 0.5654875040 4293190892
-0.2818876803 -0.1290860176 0.5655980110 4293322478
-0.2819425464 -0.1284825802 0.5657081008 4293322478
-0.2824343443 -0.1280770749 0.5666949153 4293322478
-0.2820515335 -0.1272746772 0.5659267306 4293190892
-0.2821056545 -0.1266702116 0.5660353899 4293190894
-0.2825970054 -0.1262608320 0.5670212507 4293190894
-0.2826507688 -0.1256547272 0.5671291351 4293256687
-0.2827042639 -0.1250482649 0.5672364831 4293256687
-0.2827575505 -0.1244414747 0.5673433542 4293125867
-0.2828105688 -0.1238343343 0.5674497485 4293125867
-0.2828633487 -0.1232268587 0.5675556660 4293060076
-0.2833538651 -0.1228088513 0.5685398579 4293060076
-0.2834062576 -0.1221997514 0.5686450005 4293060076
-0.2834584117 -0.1215903163 0.5687496066 4293060076
-0.2835102975 -0.1209805459 0.5688537955 4293060076
-0.2835619748 -0.1203704402 0.5689574480 4293060076
-0.2836134136 -0.1197599992 0.5690606236 4292928490
-0.2836645842 -0.1191492304 0.5691633224 4292994283
-0.2837155163 -0.1185381338 0.5692654848 4293256685
-0.2837662101 -0.1179267019 0.5693672299 4293322478
-0.2838166654 -0.1173149496 0.5694684386 4293388271
-0.2838668525 -0.1167028695 0.5695691705 4293585650
-0.2839168310 -0.1160904616 0.5696694255 4293717236
-0.2844054401 -0.1156562194 0.5706498027 4293848822
-0.2848939598 -0.1152197570 0.5716300011 4293915638
-0.2849433124 -0.1146044955 0.5717290640 4293915638
-0.2849924564 -0.1139889136 0.5718276501 4294047224
-0.2850413322 -0.1133730114 0.5719256997 4294047224
-0.2850899696 -0.1127567962 0.5720232725 4294113017
-0.2851383388 -0.1121402606 0.5721203685 4294178810
-0.2856259048 -0.1116952598 0.5730985999 4294376189
-0.2852343619 -0.1109062657 0.5723130107 4294441982
-0.2857215703 -0.1104587317 0.5732905269 4294573567
-0.2857690156 -0.1098400056 0.5733857751 4294573567
-0.2853764892 -0.1090529412 0.5725982189 4294573567
-0.2854233682 -0.1084345505 0.5726922750 4294639359
-0.2859098613 -0.1079819873 0.5736684203 4294705151
-0.2859563231 -0.1073620394 0.5737615824 4294770687
-0.2864425182 -0.1069060117 0.5747371316 4294770687
-0.2864885330 -0.1062845066 0.5748294592 4294705151
-0.2865343094 -0.1056627035 0.5749213099 4294770429
-0.2865798175 -0.1050406098 0.5750126243 4294770429
-0.2870653272 -0.1045786068 0.5759868026 4294704636
-0.2871104181 -0.1039549634 0.5760772228 4294770429
-0.2875956297 -0.1034895107 0.5770508647 4294836222
-0.2876402736 -0.1028643250 0.5771403909 4294836222
-0.2876846194 -0.1022388414 0.5772293806 4294836222
-0.2877287269 -0.1016130820 0.5773178935 4294770429
-0.2877725959 -0.1009870246 0.5774058700 4294836222
-0.2878161967 -0.1003606915 0.5774933696 4294836222
-0.2878595293 -0.0997340679 0.5775803328 4294770429
-0.2879025936 -0.0991071612 0.5776667595 4294770429
-0.2879454195 -0.0984799787 0.5777526498 4294770429
-0.2884289920 -0.0980023667 0.5787229538 4294770429
-0.2884713709 -0.0973736644 0.5788079500 4294770429
-0.2885134816 -0.0967446864 0.5788924098 4294836222
-0.2885553241 -0.0961154327 0.5789763927 4294639359
-0.2885968983 -0.0954859033 0.5790598392 4294639359
-0.2890795469 -0.0950011462 0.5800282955 4294639359
-0.2886792719 -0.0942260399 0.5792251229 4294639359
-0.2891615331 -0.0937388167 0.5801927447 4294705151
-0.2896436751 -0.0932493955 0.5811601281 4294705151
-0.2896840572 -0.0926166028 0.5812411904 4294770687
-0.2892825305 -0.0918433219 0.5804355145 4294770687
-0.2893223464 -0.0912109688 0.5805153847 4294770175
-0.2893618941 -0.0905783549 0.5805947781 4294704382
-0.2894011736 -0.0899454802 0.5806735754 4294704382
-0.2894401848 -0.0893123448 0.5807518363 4294835967
-0.2894789279 -0.0886789560 0.5808295608 4294835967
-0.2899594009 -0.0881797373 0.5817936659 4294835967
-0.2899976969 -0.0875448808 0.5818704367 4294901759
-0.2904778123 -0.0870422497 0.5828338265 4294704382
-0.2909578085 -0.0865374357 0.5837969184 4294704383
-0.2914376259 -0.0860304385 0.5847596526 4294638591
-0.2923596203 -0.0856508389 0.5866096020 4294704383
-0.2950509489 -0.0857815370 0.5920096636 4294835967
-0.2968578935 -0.0856450796 0.5956352353 4294375419
-0.2964526415 -0.0848672837 0.5948221087 4293256938
-0.2987021506 -0.0848453566 0.5993357301 4292862180
-0.3067714572 -0.1874035746 0.6169012785 4292403177
-0.3068486452 -0.1867651194 0.6170564890 4291547868
-0.3064957559 -0.1858655214 0.6163467765 4291943139
-0.3061423898 -0.1849672198 0.6156362295 4291877346
-0.3053585291 -0.1838113517 0.6140599251 4292140005
-0.3041438162 -0.1824005991 0.6116171479 4292337384
-0.3029282391 -0.1809947640 0.6091727018 4292533994
-0.3012813926 -0.1793376505 0.6058610082 4292665580
-0.2983419299 -0.1769213527 0.5999499559 4292797166
-0.2997069359 -0.1770611852 0.6026948690 4292665580
-0.2967651486 -0.1746601611 0.5967791080 4292797166
-0.2959757745 -0.1735342890 0.5951917171 4293323510
-0.2960476577 -0.1729149520 0.5953361988 4293719037
-0.2961192727 -0.1722951829 0.5954802632 4293455865
-0.2961906791 -0.1716749519 0.5956238508 4293060852
-0.2962618768 -0.1710542738 0.5957670212 4292929266
-0.2967641652 -0.1706812233 0.5967771411 4293191924
-0.2968350053 -0.1700587422 0.5969195962 4293060338
-0.2969056368 -0.1694358289 0.5970615745 4292666349
-0.2969760299 -0.1688124537 0.5972031355 4292403177
-0.2970461845 -0.1681886464 0.5973442197 4292797935
-0.2966842651 -0.1673208475 0.5966164470 4291876833
-0.2954580188 -0.1659691334 0.5941504836 4291020754
-0.2937988639 -0.1643806845 0.5908140540 4290823375
-0.2908422053 -0.1620766073 0.5848683715 4290954448
-0.2891806960 -0.1605045795 0.5815271139 4291283413
-0.2870858014 -0.1587004066 0.5773144364 4292073440
-0.2854221463 -0.1571430266 0.5739688873 4292402405
-0.2820272446 -0.1546437740 0.5671418905 4292467687
-0.2842550576 -0.1552302390 0.5716219544 4292730859
-0.2804250717 -0.1525121629 0.5639200211 4292599273
-0.2791902125 -0.1512167752 0.5614368320 4292862445
-0.2783875167 -0.1501599997 0.5598226190 4293454582
-0.2775841951 -0.1491064876 0.5582072139 4293783547
-0.2767802775 -0.1480562389 0.5565905571 4294112764
-0.2764089704 -0.1472400576 0.5558438897 4294310143
-0.2760372758 -0.1464253068 0.5550964475 4294638591
-0.2760986090 -0.1458409429 0.5552197695 4294704383
-0.2761597037 -0.1452561915 0.5553426147 4294835967
-0.2762206197 -0.1446710676 0.5554651022 4294835967
-0.2767150104 -0.1443117261 0.5564593077 4294704383
-0.2767755389 -0.1437249035 0.5565810204 4294770175
-0.2768358588 -0.1431376934 0.5567023754 4294770175
-0.2768959701 -0.1425500959 0.5568231940 4294704382
-0.2773899436 -0.1421846449 0.5578165650 4294704382
-0.2774496973 -0.1415953636 0.5579367280 4294704382
-0.2775092423 -0.1410056949 0.5580564737 4293849076
-0.2775685489 -0.1404156685 0.5581757426 4292993767
-0.2776276469 -0.1398252398 0.5582945347 4292927720
-0.2781210542 -0.1394523531 0.5592867732 4293125099
-0.2777451277 -0.1386432946 0.5585308075 4293256687
-0.2782382965 -0.1382677853 0.5595225692 4293322480
-0.2782965600 -0.1376749575 0.5596397519 4293519859
-0.2783546150 -0.1370817423 0.5597564578 4293519859
-0.2784124315 -0.1364881545 0.5598727465 4293519859
-0.2789051533 -0.1361065358 0.5608635545 4293519859
-0.2789626122 -0.1355112940 0.5609791279 4293519857
-0.2790198326 -0.1349156797 0.5610941648 4293519857
-0.2790768445 -0.1343196929 0.5612088442 4293520111
-0.2795690894 -0.1339319646 0.5621986985 4293520111
-0.2796257138 -0.1333343238 0.5623125434 4293651443
-0.2796820998 -0.1327363253 0.5624259710 4293585650
-0.2801740170 -0.1323437840 0.5634151697 4293454064
-0.2802300453 -0.1317441314 0.5635278225 4293322478
-0.2807217240 -0.1313480735 0.5645166039 4293190892
-0.2807773650 -0.1307467669 0.5646284819 4293125099
-0.2812688649 -0.1303471923 0.5656168461 4293059306
-0.2813241184 -0.1297442466 0.5657280087 4293059306
-0.2813791633 -0.1291409284 0.5658386350 4293125099
-0.2814339399 -0.1285372674 0.5659488440 4293125099
-0.2814885080 -0.1279332638 0.5660585761 4293059306
-0.2815428376 -0.1273288876 0.5661678314 4292927720
-0.2820335031 -0.1269206554 0.5671545267 4292927722
-0.2820874453 -0.1263146549 0.5672630072 4292927722
-0.2821411192 -0.1257083118 0.5673709512 4292927722
-0.2821945846 -0.1251016110 0.5674784780 4292927722
-0.2822478116 -0.1244945824 0.5675854683 4292862697
-0.2823008001 -0.1238872036 0.5676920414 4292862697
-0.2827906013 -0.1234703213 0.5686770082 4292862697
-0.2828432024 -0.1228613183 0.5687827468 4292862697
-0.2828955352 -0.1222519800 0.5688880086 4292862697
-0.2829476297 -0.1216422990 0.5689927936 4292862697
-0.2829994857 -0.1210322902 0.5690970421 4292862697
-0.2830511034 -0.1204219386 0.5692008734 4292862697
-0.2831024826 -0.1198112592 0.5693041682 4292862699
-0.2831536233 -0.1192002445 0.5694069862 4292796906
-0.2832044959 -0.1185889021 0.5695093274 4292862699
-0.2832551599 -0.1179772317 0.5696111917 4292862699
-0.2833055556 -0.1173652336 0.5697125196 4292928492
-0.2833557129 -0.1167529076 0.5698133707 4293125871
-0.2838436365 -0.1163197681 0.5707946420 4293125871
-0.2838933766 -0.1157058477 0.5708946586 4293257457
-0.2839428782 -0.1150916070 0.5709941983 4293389041
-0.2839921415 -0.1144770384 0.5710932016 4293454834
-0.2844794691 -0.1140378714 0.5720732212 4293454834
-0.2845283151 -0.1134217232 0.5721714497 4293520627
-0.2845768929 -0.1128052622 0.5722691417 4293652213
-0.2841866612 -0.1120156124 0.5714844465 4293652213
-0.2846733034 -0.1115713865 0.5724630356 4293586420
-0.2847211659 -0.1109539792 0.5725592375 4293586420
-0.2847687304 -0.1103362665 0.5726549625 4293586418
-0.2848160863 -0.1097182408 0.5727501512 4293652211
-0.2853021026 -0.1092680097 0.5737274885 4293718004
-0.2849099934 -0.1084812731 0.5729389787 4293783797
-0.2853956521 -0.1080285236 0.5739156604 4293914869
-0.2854420543 -0.1074083224 0.5740089417 4293980662
-0.2859274447 -0.1069521159 0.5749850273 4294046455
-0.2859733999 -0.1063303575 0.5750774741 4294112248
-0.2860191166 -0.1057083011 0.5751693845 4294507005
-0.2860645950 -0.1050859466 0.5752608180 4294572798
-0.2865493000 -0.1046237648 0.5762355328 4294704383
-0.2865943015 -0.1039998680 0.5763260722 4294770175
-0.2871232927 -0.1029087827 0.5773898363 4294835967
-0.2871676087 -0.1022830456 0.5774789453 4294901759
-0.2872116864 -0.1016570255 0.5775675774 4294901759
-0.2872554958 -0.1010307148 0.5776556730 4294901759
-0.2872990370 -0.1004041135 0.5777432323 4294901759
-0.2873423398 -0.0997772366 0.5778303146 4294835967
-0.2873853743 -0.0991500765 0.5779168606 4294835967
-0.2874281704 -0.0985226333 0.5780028701 4294901759
-0.2879109085 -0.0980448201 0.5789736509 4294901759
-0.2879532278 -0.0974158645 0.5790587664 4294901759
-0.2879953086 -0.0967866257 0.5791434050 4294901759
-0.2880371213 -0.0961571112 0.5792274475 4294770687
-0.2880786359 -0.0955273211 0.5793110132 4294770687
-0.2881199419 -0.0948972628 0.5793939829 4294770687
-0.2881609499 -0.0942669362 0.5794764757 4294705151
-0.2882017195 -0.0936363339 0.5795584321 4294705151
-0.2886829376 -0.0931476802 0.5805261731 4294639359
-0.2887232304 -0.0925155878 0.5806072354 4294639359
-0.2887632847 -0.0918832272 0.5806877613 4294639359
-0.2888030410 -0.0912506059 0.5807676911 4294770175
-0.2888425589 -0.0906177312 0.5808471441 4294770175
-0.2888817787 -0.0899845883 0.5809260607 4294704382
-0.2889207602 -0.0893511921 0.5810044408 4294770175
-0.2889594734 -0.0887175426 0.5810822845 4294835967
-0.2889979184 -0.0880836323 0.5811595917 4294770175
-0.2899186611 -0.0877164975 0.5830111504 4294835967
-0.2903980315 -0.0872126967 0.5839751363 4294704382
-0.2917600274 -0.0869698450 0.5867140293 4294572798
-0.2913562953 -0.0861985236 0.5859021544 4294770175
-0.2931597233 -0.0860770643 0.5895287395 4294835967
-0.2940801978 -0.0856902674 0.5913797617 4294901759
-0.2936757505 -0.0849162638 0.5905665159 4294835967
-0.2976876795 -0.0854111835 0.5986342430 4294375419
-0.2990499735 -0.0851338729 0.6013737321 4293651696
-0.3008540571 -0.0849752650 0.6050016880 4293256938
-0.3057835698 -0.1872182190 0.6162911057 4292929521
-0.3050026000 -0.1860570759 0.6147171259 4291613661
-0.3050791621 -0.1854206175 0.6148714423 4291876833
-0.3047263026 -0.1845237762 0.6141602993 4292008419
-0.3039437234 -0.1833692640 0.6125829816 4292074212
-0.3031604588 -0.1822178662 0.6110044122 4292271591
-0.3019470572 -0.1808123738 0.6085588336 4292468201
-0.3003031611 -0.1791555136 0.6052456498 4292533994
-0.2982284725 -0.1772499681 0.6010642648 4292731373
-0.2965823412 -0.1756074578 0.5977465510 4292599787
-0.2953650951 -0.1742253006 0.5952932239 4292534508
-0.2945770025 -0.1731007844 0.5937048793 4293126645
-0.2942184508 -0.1722312421 0.5929822326 4294047999
-0.2942897081 -0.1716139466 0.5931258202 4293850623
-0.2943607271 -0.1709962040 0.5932689905 4293258486
-0.2944315374 -0.1703780144 0.5934116840 4292995314
-0.2949326634 -0.1700075567 0.5944216847 4293126900
-0.2950031161 -0.1693875641 0.5945637226 4292995314
-0.2955041230 -0.1690135151 0.5955734253 4292732142
-0.2955742478 -0.1683917344 0.5957147479 4292403177
-0.2952131629 -0.1675249487 0.5949870348 4292666349
-0.2952827215 -0.1669031978 0.5951272249 4291811040
-0.2940585613 -0.1655527651 0.5926599503 4290954961
-0.2924022675 -0.1639655232 0.5893218517 4290757582
-0.2898822129 -0.1619032472 0.5842427611 4290823375
-0.2877922058 -0.1600915045 0.5800305009 4291152340
-0.2861325443 -0.1585275382 0.5766854882 4291876063
-0.2844718695 -0.1569704413 0.5733385086 4292336614
-0.2832419574 -0.1556575000 0.5708596706 4292336102
-0.2815793455 -0.1541132629 0.5675087571 4292401895
-0.2799157202 -0.1525759250 0.5641558170 4292730859
-0.2786831558 -0.1512800157 0.5616716743 4293388789
-0.2778819799 -0.1502228379 0.5600568652 4294177787
-0.2770801485 -0.1491689086 0.5584408641 4294506751
-0.2762777507 -0.1481182575 0.5568236709 4294704383
-0.2759071887 -0.1473017484 0.5560768247 4294835967
-0.2755362093 -0.1464866847 0.5553291440 4294770175
-0.2755974829 -0.1459021121 0.5554525852 4294704382
-0.2756585181 -0.1453171372 0.5555756688 4294770175
-0.2757193446 -0.1447317898 0.5556982756 4294770175
-0.2757799625 -0.1441460550 0.5558204055 4294704383
-0.2762733996 -0.1437852979 0.5568148494 4294770175
-0.2763336599 -0.1431978643 0.5569363236 4294770175
-0.2768269181 -0.1428335756 0.5579304695 4294638589
-0.2768868506 -0.1422444582 0.5580512285 4294704382
-0.2769465446 -0.1416549534 0.5581715703 4294770175
-0.2770060003 -0.1410650760 0.5582914352 4294178041
-0.2770652473 -0.1404748112 0.5584108233 4293059560
-0.2771242857 -0.1398841739 0.5585297942 4292796136
-0.2776168585 -0.1395111382 0.5595225692 4293059308
-0.2776755393 -0.1389188170 0.5596408248 4292994285
-0.2777339816 -0.1383261383 0.5597586036 4292994285
-0.2777922153 -0.1377330720 0.5598759651 4293059824
-0.2778502107 -0.1371396333 0.5599928498 4293059824
-0.2779079676 -0.1365458220 0.5601092577 4293059824
-0.2783998251 -0.1361640692 0.5611006021 4293059824
-0.2784572244 -0.1355685890 0.5612162948 4293060078
-0.2785144150 -0.1349727511 0.5613315105 4293125871
-0.2790059447 -0.1345861703 0.5623221993 4293125869
-0.2790627480 -0.1339886636 0.5624366999 4293125869
-0.2791193128 -0.1333907992 0.5625507236 4293190894
-0.2791756690 -0.1327925622 0.5626642704 4293190894
-0.2796667218 -0.1323998868 0.5636539459 4293125101
-0.2797226906 -0.1317999959 0.5637667775 4293125101
-0.2797784209 -0.1311997473 0.5638791323 4293059308
-0.2802691460 -0.1308022439 0.5648680925 4293059308
-0.2807597816 -0.1304025203 0.5658569932 4292993515
-0.2808150053 -0.1297993362 0.5659682751 4293059308
-0.2808699906 -0.1291957945 0.5660790801 4293059308
-0.2809247077 -0.1285918951 0.5661894083 4292993515
-0.2809792161 -0.1279876530 0.5662992597 4292927722
-0.2810334861 -0.1273830533 0.5664086342 4292861929
-0.2815233171 -0.1269746572 0.5673958659 4292796136
-0.2815771997 -0.1263684183 0.5675044656 4292796136
-0.2816308439 -0.1257618368 0.5676125884 4292796136
-0.2816842496 -0.1251549125 0.5677201748 4292796136
-0.2817374170 -0.1245476380 0.5678273439 4292861929
-0.2817903459 -0.1239400208 0.5679340363 4292861929
-0.2818430364 -0.1233320609 0.5680402517 4292927722
-0.2818954885 -0.1227237582 0.5681459308 4292927722
-0.2823841572 -0.1223041564 0.5691308379 4292796906
-0.2824361920 -0.1216942370 0.5692357421 4292862699
-0.2824880183 -0.1210839823 0.5693401098 4292796906
-0.2825395763 -0.1204733923 0.5694440603 4292796906
-0.2825908959 -0.1198624671 0.5695475340 4292796652
-0.2826419771 -0.1192512140 0.5696504712 4292730859
-0.2826928198 -0.1186396256 0.5697529316 4292730859
-0.2827434242 -0.1180277169 0.5698549151 4292730859
-0.2827937901 -0.1174154729 0.5699563622 4292796652
-0.2828438878 -0.1168029010 0.5700573921 4292928238
-0.2833310068 -0.1163695902 0.5710391402 4292862445
-0.2833806872 -0.1157554239 0.5711392760 4292862445
-0.2834301293 -0.1151409373 0.5712389350 4292994031
-0.2834793329 -0.1145261303 0.5713381171 4293059824
-0.2835282981 -0.1139109954 0.5714367628 4293060078
-0.2840146422 -0.1134703904 0.5724169612 4293125871
-0.2840631604 -0.1128536761 0.5725147724 4293257457
-0.2841114700 -0.1122366488 0.5726121068 4293191664
-0.2841595113 -0.1116193086 0.5727089047 4293060078
-0.2842072845 -0.1110016555 0.5728052258 4292994285
-0.2842548192 -0.1103836894 0.5729010701 4292993515
-0.2843021154 -0.1097654104 0.5729963779 4292993515
-0.2843491733 -0.1091468334 0.5730912089 4293059308
-0.2848341763 -0.1086951643 0.5740686655 4293059308
-0.2848807871 -0.1080750152 0.5741626620 4293059308
-0.2849271297 -0.1074545681 0.5742560625 4293059308
-0.2854116857 -0.1069981754 0.5752326250 4293190894
-0.2854576111 -0.1063761637 0.5753251910 4293256687
-0.2855032682 -0.1057538539 0.5754172206 4293191662
-0.2855486870 -0.1051312461 0.5755087733 4293323248
-0.2855938673 -0.1045083478 0.5755997896 4293454834
-0.2865163088 -0.1042043045 0.5774589777 4293586420
-0.2865611017 -0.1035788953 0.5775492787 4293652213
-0.2866056561 -0.1029531956 0.5776390433 4293783799
-0.2866499424 -0.1023272052 0.5777282715 4294046201
-0.2866939604 -0.1017009243 0.5778170228 4294177787
-0.2867377400 -0.1010743603 0.5779052377 4294441213
-0.2867812514 -0.1004475057 0.5779929161 4294375420
-0.2868244946 -0.0998203680 0.5780801177 4294375420
-0.2868674994 -0.0991929471 0.5781667829 4294375420
-0.2869102359 -0.0985652432 0.5782529116 4294309627
-0.2869527042 -0.0979372635 0.5783385038 4294441213
-0.2869949341 -0.0973090008 0.5784236193 4294572799
-0.2874764502 -0.0968285203 0.5793941021 4294572799
-0.2875182331 -0.0961987451 0.5794782639 4294375934
-0.2875597477 -0.0955687016 0.5795619488 4294375934
-0.2876009643 -0.0949383825 0.5796450377 4294375934
-0.2880817652 -0.0944519937 0.5806140900 4294375934
-0.2881225646 -0.0938201696 0.5806962848 4294507775
-0.2881630957 -0.0931880772 0.5807779431 4294573567
-0.2882033288 -0.0925557166 0.5808590651 4294705151
-0.2882433236 -0.0919230953 0.5809397101 4294770687
-0.2882830799 -0.0912902132 0.5810197592 4294639359
-0.2883225381 -0.0906570703 0.5810993314 4294441982
-0.2883617282 -0.0900236666 0.5811783075 4294441210
-0.2884006798 -0.0893900022 0.5812568069 4294572796
-0.2884393632 -0.0887560844 0.5813347697 4294638589
-0.2884777784 -0.0881219134 0.5814121962 4294638589
-0.2889564037 -0.0876210630 0.5823768377 4294704382
-0.2894348800 -0.0871180147 0.5833411813 4294704382
-0.2899132073 -0.0866127834 0.5843052268 4294507005
-0.2921539843 -0.0866280049 0.5888214111 4294770175
-0.2908693850 -0.0855957568 0.5862323642 4294770175
-0.2935510874 -0.0857275650 0.5916371942 4294704383
-0.2949106991 -0.0854642317 0.5943774581 4294901759
-0.2967112660 -0.0853215978 0.5980063677 4294901759
-0.2980710864 -0.0850451514 0.6007469893 4294507005
-0.2985489666 -0.0845129490 0.6017101407 4293849075
-0.3035887778 -0.1856101006 0.6132403612 4291679454
-0.3032367527 -0.1847143024 0.6125292778 4291679454
-0.3033126891 -0.1840798259 0.6126826406 4292140005
-0.3025313616 -0.1829266697 0.6111044288 4292140005
-0.3017493784 -0.1817766279 0.6095248461 4292205798
-0.3005380332 -0.1803723872 0.6070780158 4292205543
-0.2988969982 -0.1787166744 0.6037631631 4292337129
-0.2972548902 -0.1770676821 0.6004461050 4292468715
-0.2938955426 -0.1744070053 0.5936603546 4292402922
-0.2956840992 -0.1748047620 0.5972731709 4292468715
-0.2931807041 -0.1726668030 0.5922163725 4292995059
-0.2928226590 -0.1717987359 0.5914931297 4294047999
-0.2924641371 -0.1709320098 0.5907689333 4294179583
-0.2925347984 -0.1703167558 0.5909116864 4293455865
-0.2930348814 -0.1699502468 0.5919218659 4293061107
-0.2931051850 -0.1693332046 0.5920638442 4293192693
-0.2936051488 -0.1689630896 0.5930737853 4293061107
-0.2936751246 -0.1683442593 0.5932151079 4293060337
-0.2937448621 -0.1677249670 0.5933559537 4292797165
-0.2938143909 -0.1671052426 0.5934963822 4292599786
-0.2934533954 -0.1662413180 0.5927671790 4291810270
-0.2926615775 -0.1651359349 0.5911677480 4290954961
-0.2910081744 -0.1635498703 0.5878279209 4290757582
-0.2889231443 -0.1617296338 0.5836162567 4290691789
-0.2872675955 -0.1601581872 0.5802720785 4290954961
-0.2856110036 -0.1585935950 0.5769258142 4291744477
-0.2839534283 -0.1570358872 0.5735775232 4292270821
-0.2827257812 -0.1557224244 0.5710977316 4292270308
-0.2810662687 -0.1541775763 0.5677455664 4292270308
-0.2794057429 -0.1526396126 0.5643913150 4293586422
-0.2781754732 -0.1513432115 0.5619062781 4294573311
-0.2773757875 -0.1502856165 0.5602909327 4294507006
-0.2765755057 -0.1492312700 0.5586743355 4294375420
-0.2757745981 -0.1481802016 0.5570565462 4294638591
-0.2754047513 -0.1473633796 0.5563095212 4294572798
-0.2750345170 -0.1465480030 0.5555616021 4294638591
-0.2750957310 -0.1459632069 0.5556852221 4294572798
-0.2751567066 -0.1453780234 0.5558084249 4294507005
-0.2752174735 -0.1447924525 0.5559312105 4294572798
-0.2752780318 -0.1442064941 0.5560535192 4294704383
-0.2757706046 -0.1438456178 0.5570484996 4294770175
-0.2758308053 -0.1432579607 0.5571700931 4294704382
-0.2758907974 -0.1426699311 0.5572912693 4294572796
-0.2763830721 -0.1423042119 0.5582856536 4294770175
-0.2764427364 -0.1417144835 0.5584061742 4294835967
-0.2765021324 -0.1411243826 0.5585261583 4294507006
-0.2765613198 -0.1405338943 0.5586457253 4293454318
-0.2766202986 -0.1399430335 0.5587648749 4292861927
-0.2766790390 -0.1393518001 0.5588834882 4292993513
-0.2771706581 -0.1389773339 0.5598765612 4292993517
-0.2772290409 -0.1383844167 0.5599944592 4293125103
-0.2768539488 -0.1375758201 0.5592367649 4292928238
-0.2773451507 -0.1371974647 0.5602290034 4292928238
-0.2774028480 -0.1366034299 0.5603455901 4292928238
-0.2774603367 -0.1360090226 0.5604617000 4292928238
-0.2775175869 -0.1354142427 0.5605773330 4292928492
-0.2780083418 -0.1350297630 0.5615686178 4292928492
-0.2780652344 -0.1344333142 0.5616835356 4292928490
-0.2785557806 -0.1340453029 0.5626744628 4292928490
-0.2786122859 -0.1334472150 0.5627886057 4293125103
-0.2791026533 -0.1330556720 0.5637791157 4293059310
-0.2795929611 -0.1326619089 0.5647695065 4293059310
-0.2796489596 -0.1320608705 0.5648826361 4293059310
-0.2797047198 -0.1314594448 0.5649952888 4293059308
-0.2797602713 -0.1308576763 0.5651074648 4292993515
-0.2798155546 -0.1302555501 0.5652192235 4292927722
-0.2803052366 -0.1298543811 0.5662083030 4292927722
-0.2803601325 -0.1292506158 0.5663192272 4292993515
-0.2804148495 -0.1286464781 0.5664296746 4292927722
-0.2804692984 -0.1280419976 0.5665397048 4292861929
-0.2805235088 -0.1274371594 0.5666491985 4292861929
-0.2810125053 -0.1270286143 0.5676369667 4292861929
-0.2810663283 -0.1264221370 0.5677456856 4292861929
-0.2811199129 -0.1258153170 0.5678539276 4292861929
-0.2811732590 -0.1252081543 0.5679616928 4292861929
-0.2812263966 -0.1246006414 0.5680689812 4292796138
-0.2812792659 -0.1239927858 0.5681757927 4292796138
-0.2813318968 -0.1233845875 0.5682821274 4292861931
-0.2818198800 -0.1229661033 0.5692678690 4292861931
-0.2818721235 -0.1223562807 0.5693733692 4292796652
-0.2819241285 -0.1217461228 0.5694783926 4292796652
-0.2819758952 -0.1211356297 0.5695829988 4292796652
-0.2820273936 -0.1205247939 0.5696870089 4292796652
-0.2820786834 -0.1199136302 0.5697906017 4292665067
-0.2821297050 -0.1193021312 0.5698937178 4292665067
-0.2821805179 -0.1186903045 0.5699962974 4292665580
-0.2822310627 -0.1180781424 0.5700984001 4292599787
-0.2822813690 -0.1174656600 0.5702000260 4292599787
-0.2827677727 -0.1170334518 0.5711826086 4292665580
-0.2828176916 -0.1164193675 0.5712834001 4292665580
-0.2828673422 -0.1158049554 0.5713836551 4292731373
-0.2829167247 -0.1151902229 0.5714834332 4292665579
-0.2829658985 -0.1145751700 0.5715827346 4292731372
-0.2830148041 -0.1139597893 0.5716815591 4292862958
-0.2830634713 -0.1133440956 0.5717798471 4292928751
-0.2831118703 -0.1127280891 0.5718776584 4293059824
-0.2831600606 -0.1121117622 0.5719749331 4292994031
-0.2836450338 -0.1116671860 0.5729545951 4292862445
-0.2836927772 -0.1110492796 0.5730510354 4292862445
-0.2837402523 -0.1104310676 0.5731469393 4292994285
-0.2837875187 -0.1098125428 0.5732424259 4292928492
-0.2838345170 -0.1091937125 0.5733373165 4293059308
-0.2838812470 -0.1085745692 0.5734317899 4292993515
-0.2843652368 -0.1081214696 0.5744094253 4292993515
-0.2844115496 -0.1075007617 0.5745029449 4293059308
-0.2848952413 -0.1070441902 0.5754799843 4292993515
-0.2849411368 -0.1064219251 0.5755726695 4292993515
-0.2849867642 -0.1057993621 0.5756648779 4292796906
-0.2850321531 -0.1051765010 0.5757565498 4292796906
-0.2855151892 -0.1047139540 0.5767322183 4292796906
-0.2859981060 -0.1042491868 0.5777077079 4292796906
-0.2860428393 -0.1036235243 0.5777981281 4292796906
-0.2860873342 -0.1029975712 0.5778880119 4292862699
-0.2861315906 -0.1023713276 0.5779773593 4292928492
-0.2861755788 -0.1017447859 0.5780662298 4292994285
-0.2862192988 -0.1011179611 0.5781545639 4293059306
-0.2862627804 -0.1004908532 0.5782423615 4293059306
-0.2863059938 -0.0998634547 0.5783296227 4293059306
-0.2867874503 -0.0993877500 0.5793021917 4293059306
-0.2863916457 -0.0986078158 0.5785026550 4292993513
-0.2864340842 -0.0979795754 0.5785883665 4293059306
-0.2864762545 -0.0973510593 0.5786736012 4293190892
-0.2865181863 -0.0967222601 0.5787582994 4293322478
-0.2865598500 -0.0960931927 0.5788424015 4293257455
-0.2866012454 -0.0954638496 0.5789260864 4293323248
-0.2870813608 -0.0949794576 0.5798958540 4293323248
-0.2875613272 -0.0944928676 0.5808653831 4293389041
-0.2876020670 -0.0938607827 0.5809476972 4293586420
-0.2876425385 -0.0932284296 0.5810294747 4293783799
-0.2876827717 -0.0925958082 0.5811107159 4293981176
-0.2877227068 -0.0919629261 0.5811914206 4294112762
-0.2877624035 -0.0913297832 0.5812715888 4294046969
-0.2878018320 -0.0906963721 0.5813512206 4293849590
-0.2878410220 -0.0900627077 0.5814303756 4293718259
-0.2878799140 -0.0894287750 0.5815089345 4293981431
-0.2879185677 -0.0887945965 0.5815870166 4294113017
-0.2879569232 -0.0881601572 0.5816645026 4294113017
-0.2879950404 -0.0875254720 0.5817414522 4294244603
-0.2884726226 -0.0870231912 0.5827062130 4294310396
-0.2893898785 -0.0866504014 0.5845589638 4294243833
-0.2894273400 -0.0860120580 0.5846347213 4294309626
-0.2916641533 -0.0860221982 0.5891529322 4294375419
-0.2939012349 -0.0860223770 0.5936717987 4294375419
-0.2921783626 -0.0848623663 0.5901916623 4294507005
-0.2952956855 -0.0851050392 0.5964885354 4294638591
-0.2948924005 -0.0843269750 0.5956739187 4294704383
-0.2966896892 -0.0841750577 0.5993044376 4294704383
-0.3026047945 -0.1854245067 0.6126272082 4292008419
-0.3022533655 -0.1845292896 0.6119157076 4291679454
-0.3014738560 -0.1833752692 0.6103376150 4292271591
-0.3011214435 -0.1824835688 0.6096241474 4292271591
-0.3003407717 -0.1813348830 0.6080436707 4292271591
-0.2991314828 -0.1799319088 0.6055954695 4292205543
-0.2974933088 -0.1782773435 0.6022789478 4292337129
-0.2962822020 -0.1768851280 0.5998270512 4292402922
-0.2942137420 -0.1749884188 0.5956394076 4292337129
-0.2930007279 -0.1736078858 0.5931836963 4292599787
-0.2917868793 -0.1722323298 0.5907261968 4292928752
-0.2910007536 -0.1711137295 0.5891346931 4293981439
-0.2910713255 -0.1705005020 0.5892775655 4294310399
-0.2907129228 -0.1696366370 0.5885519385 4293718265
-0.2912118435 -0.1692727208 0.5895620584 4293389300
-0.2912817895 -0.1686581671 0.5897036195 4293455095
-0.2917805612 -0.1682906449 0.5907134414 4293323509
-0.2922793627 -0.1679208875 0.5917232037 4293191923
-0.2923488319 -0.1673031896 0.5918638706 4292994544
-0.2919886708 -0.1664402932 0.5911347270 4292533993
-0.2920575738 -0.1658226252 0.5912742615 4291678684
-0.2908374965 -0.1644756794 0.5888041258 4291020241
-0.2896165550 -0.1631337702 0.5863323212 4290888655
-0.2879649997 -0.1615557373 0.5829887390 4290691276
-0.2858825326 -0.1597443670 0.5787727833 4290822862
-0.2842288315 -0.1581809819 0.5754248500 4291743964
-0.2830042243 -0.1568628699 0.5729455948 4292270308
-0.2817787826 -0.1555498093 0.5704646707 4292336355
-0.2801222503 -0.1540052593 0.5671110153 4292928492
-0.2788951099 -0.1527032554 0.5646266341 4294310143
-0.2776671350 -0.1514063329 0.5621406436 4294639103
-0.2768689692 -0.1503483206 0.5605247021 4293520627
-0.2760702074 -0.1492935717 0.5589075685 4292862697
-0.2757015824 -0.1484740824 0.5581613183 4292928492
-0.2749016881 -0.1474249661 0.5565419197 4292862699
-0.2745321989 -0.1466092616 0.5557938218 4292994285
-0.2745933235 -0.1460242569 0.5559176207 4292994285
-0.2746542692 -0.1454388499 0.5560410023 4293190892
-0.2747149765 -0.1448530704 0.5561639071 4293454064
-0.2747754455 -0.1442668885 0.5562863350 4293980662
-0.2752671838 -0.1439058781 0.5572818518 4294375420
-0.2753273249 -0.1433180124 0.5574036241 4294704383
-0.2753872573 -0.1427297592 0.5575249791 4294901759
-0.2754469514 -0.1421411186 0.5576458573 4294770175
-0.2759382725 -0.1417739540 0.5586404800 4294704383
-0.2759976387 -0.1411836296 0.5587606430 4294638591
-0.2760567665 -0.1405929327 0.5588803887 4293849076
-0.2761156857 -0.1400018483 0.5589996576 4292993513
-0.2761743665 -0.1394103765 0.5591184497 4292730341
-0.2762328386 -0.1388185322 0.5592368245 4292664552
-0.2767234445 -0.1384426355 0.5602300763 4292861931
-0.2767815590 -0.1378491223 0.5603477359 4292796653
-0.2768394351 -0.1372552365 0.5604649186 4292730860
-0.2768971026 -0.1366609782 0.5605816245 4292730859
-0.2769545317 -0.1360663474 0.5606979132 4292730859
-0.2774445713 -0.1356830150 0.5616899729 4292731113
-0.2775016129 -0.1350867152 0.5618054867 4292731113
-0.2775584459 -0.1344900429 0.5619205832 4292731113
-0.2780481577 -0.1341018975 0.5629119873 4292731113
-0.2781046331 -0.1335035712 0.5630263090 4292927724
-0.2785941362 -0.1331118941 0.5640172958 4292927724
-0.2786502242 -0.1325118989 0.5641309023 4292993517
-0.2787061036 -0.1319115460 0.5642439723 4292993517
-0.2791952491 -0.1315150559 0.5652343035 4292993517
-0.2792507410 -0.1309130490 0.5653465986 4292861931
-0.2793059945 -0.1303106844 0.5654584765 4292730345
-0.2793610096 -0.1297079772 0.5655698776 4292730345
-0.2798496783 -0.1293053776 0.5665591359 4292861931
-0.2799043059 -0.1287010014 0.5666697621 4292796138
-0.2799586952 -0.1280962825 0.5667799115 4292730345
-0.2800128758 -0.1274912208 0.5668895841 4292730345
-0.2800667882 -0.1268857867 0.5669987202 4292730343
-0.2805548012 -0.1264758110 0.5679866672 4292730343
-0.2806083262 -0.1258687526 0.5680950880 4292730343
-0.2806616426 -0.1252613366 0.5682029724 4292796136
-0.2807146907 -0.1246535927 0.5683104396 4292599274
-0.2807675302 -0.1240454987 0.5684173703 4292599274
-0.2808201015 -0.1234370619 0.5685238242 4292533481
-0.2808724642 -0.1228282824 0.5686298013 4292533481
-0.2813594341 -0.1224083602 0.5696157217 4292533481
-0.2814113796 -0.1217979565 0.5697208643 4292533481
-0.2814630866 -0.1211872250 0.5698255897 4292599274
-0.2815145552 -0.1205761507 0.5699297786 4292599274
-0.2815657854 -0.1199647412 0.5700334907 4292533994
-0.2816167772 -0.1193530038 0.5701366663 4292468201
-0.2816675305 -0.1187409312 0.5702394247 4292468201
-0.2821534276 -0.1183111072 0.5712231994 4292402408
-0.2822037637 -0.1176974326 0.5713250637 4292336615
-0.2822538614 -0.1170834228 0.5714265108 4292468201
-0.2823533118 -0.1158544421 0.5716277957 4292599787
-0.2824026644 -0.1152394563 0.5717277527 4292533993
-0.2824517787 -0.1146241575 0.5718271732 4292533993
-0.2825006247 -0.1140085384 0.5719260573 4292665579
-0.2825492620 -0.1133925989 0.5720245242 4292731372
-0.2826457620 -0.1121597663 0.5722198486 4292665579
-0.2831298709 -0.1117150187 0.5731999874 4292731372
-0.2831775844 -0.1110968664 0.5732965469 4292665579
-0.2832250297 -0.1104784012 0.5733926296 4292730859
-0.2832722366 -0.1098596230 0.5734881759 4292665066
-0.2833191752 -0.1092405468 0.5735832453 4292665066
-0.2833659053 -0.1086211503 0.5736777782 4292665066
-0.2838490307 -0.1081678718 0.5746559501 4292665066
-0.2843320668 -0.1077123731 0.5756338239 4292665066
-0.2843781710 -0.1070901603 0.5757271647 4292599273
-0.2844240069 -0.1064676493 0.5758199692 4292533480
-0.2844696045 -0.1058448330 0.5759122372 4292797165
-0.2853890061 -0.1055449769 0.5777736306 4292731372
-0.2854342461 -0.1049196497 0.5778651834 4292665579
-0.2854791880 -0.1042940319 0.5779561996 4292599786
-0.2855239213 -0.1036681160 0.5780467391 4292731113
-0.2855683565 -0.1030419022 0.5781367421 4292731113
-0.2856125534 -0.1024153978 0.5782262087 4292731113
-0.2856565118 -0.1017886102 0.5783151984 4292665320
-0.2857002020 -0.1011615247 0.5784035921 4292665320
-0.2857436240 -0.1005341634 0.5784915686 4292731113
-0.2857868075 -0.0999065042 0.5785789490 4292861929
-0.2862674296 -0.0994306058 0.5795519948 4292861929
-0.2863101363 -0.0988014266 0.5796384811 4292861927
-0.2863526046 -0.0981719643 0.5797244310 4292861927
-0.2863948047 -0.0975422189 0.5798099041 4292927720
-0.2864367664 -0.0969122052 0.5798948407 4292993513
-0.2864784598 -0.0962819085 0.5799792409 4292796906
-0.2865198851 -0.0956513435 0.5800631046 4292796906
-0.2869991958 -0.0951657891 0.5810335279 4292796906
-0.2870401740 -0.0945337117 0.5811164379 4292796906
-0.2870808840 -0.0939013660 0.5811988711 4292862699
-0.2871213257 -0.0932687521 0.5812807083 4292928492
-0.2871614993 -0.0926358700 0.5813620687 4293060076
-0.2872014344 -0.0920027196 0.5814428926 4293125869
-0.2876796126 -0.0915088058 0.5824109912 4293257455
-0.2877190709 -0.0908741653 0.5824908614 4293125869
-0.2877582610 -0.0902392641 0.5825701952 4293125867
-0.2877971828 -0.0896041095 0.5826489925 4293520625
-0.2878358662 -0.0889686942 0.5827273130 4293783797
-0.2874354124 -0.0881983712 0.5819166303 4293718004
-0.2874734998 -0.0875634179 0.5819936991 4293718004
-0.2879502475 -0.0870609283 0.5829588771 4293718004
-0.2888658643 -0.0866879895 0.5848125219 4293651697
-0.2893423736 -0.0861801505 0.5857772231 4293717490
-0.2898187339 -0.0856701136 0.5867416263 4293849076
-0.2907340825 -0.0852867290 0.5885947943 4294046455
-0.2929671109 -0.0852827951 0.5931156278 4294112248
-0.2938825488 -0.0848882273 0.5949689150 4294243834
-0.2956766486 -0.0847413540 0.5986010432 4294572798
-0.2961526811 -0.0842116326 0.5995648503 4294835967
-0.3011950850 -0.1849766225 0.6111474037 4292534763
-0.3004174232 -0.1838217527 0.6095694900 4291941856
-0.3000659347 -0.1829302013 0.6088562608 4292468200
-0.2997139990 -0.1820399761 0.6081421971 4292533993
-0.2989346087 -0.1808926463 0.6065607667 4292533993
-0.2977274060 -0.1794909239 0.6041112542 4292533994
-0.2969466150 -0.1783507615 0.6025269628 4292599787
-0.2953104377 -0.1767022759 0.5992070436 4292599787
-0.2936731875 -0.1750605553 0.5958849192 4292533994
-0.2916073203 -0.1731716543 0.5916931033 4292533994
-0.2908232212 -0.1720503718 0.5901021361 4292731373
-0.2896107137 -0.1706801355 0.5876418352 4293652474
-0.2892531157 -0.1698172837 0.5869162679 4293915646
-0.2893230915 -0.1692061126 0.5870583057 4293849853
-0.2893928587 -0.1685944945 0.5871998668 4293652474
-0.2894624174 -0.1679824293 0.5873409510 4293520886
-0.2899600565 -0.1676175147 0.5883507133 4293455093
-0.2904576659 -0.1672503501 0.5893604159 4293388789
-0.2909552455 -0.1668809354 0.5903700590 4293059824
-0.2905956209 -0.1660195291 0.5896403193 4292533480
-0.2898068428 -0.1649155468 0.5880398154 4291743964
-0.2890174389 -0.1638147533 0.5864381194 4291152081
-0.2877985239 -0.1624750495 0.5839647651 4291020495
-0.2861497402 -0.1608991325 0.5806193352 4290625737
-0.2849290669 -0.1595703959 0.5781424642 4290823116
-0.2832783759 -0.1580073088 0.5747930408 4291809757
-0.2816266418 -0.1564510912 0.5714415908 4292270308
-0.2804033160 -0.1551393569 0.5689593554 4292336353
-0.2796086967 -0.1540693343 0.5673469901 4293915385
-0.2783838511 -0.1527668238 0.5648617148 4294770687
-0.2771581709 -0.1514693946 0.5623747706 4294441727
-0.2763615251 -0.1504109651 0.5607582927 4293718008
-0.2755642533 -0.1493558139 0.5591405630 4293125871
-0.2751964033 -0.1485360116 0.5583941340 4292862445
-0.2743980289 -0.1474864781 0.5567741394 4292994031
-0.2740292251 -0.1466704607 0.5560258627 4292862446
-0.2740903199 -0.1460852325 0.5561497808 4292796653
-0.2741511762 -0.1454996169 0.5562732816 4292730859
-0.2742118239 -0.1449136138 0.5563963652 4292796652
-0.2742722631 -0.1443272233 0.5565189719 4293190892
-0.2743324637 -0.1437404305 0.5566411614 4293585650
-0.2743924558 -0.1431532651 0.5567628741 4294111994
-0.2744522393 -0.1425657123 0.5568841696 4294506751
-0.2749427259 -0.1422006637 0.5578794479 4294901759
-0.2750021517 -0.1416114122 0.5580000281 4294704383
-0.2754924893 -0.1412428319 0.5589949489 4294770175
-0.2755515575 -0.1406518966 0.5591148138 4294309627
-0.2756104171 -0.1400605887 0.5592342019 4293322480
-0.2756690681 -0.1394689083 0.5593531728 4292730343
-0.2757274508 -0.1388768405 0.5594717264 4292598759
-0.2762172222 -0.1385008097 0.5604655147 4292664552
-0.2758435905 -0.1376915872 0.5597073436 4292730090
-0.2763330936 -0.1373129487 0.5607005954 4292730090
-0.2763907015 -0.1367184669 0.5608174801 4292599273
-0.2768800259 -0.1363362968 0.5618103743 4292665066
-0.2769372463 -0.1357401460 0.5619264841 4292665320
-0.2774263918 -0.1353544444 0.5629189610 4292665320
-0.2774832547 -0.1347566247 0.5630343556 4292665318
-0.2775399089 -0.1341584325 0.5631492734 4292731111
-0.2775963247 -0.1335598677 0.5632637739 4292861931
-0.2776525021 -0.1329609454 0.5633777380 4292861931
-0.2781410217 -0.1325678378 0.5643689632 4292861931
-0.2786294818 -0.1321724951 0.5653601289 4292861931
-0.2786851227 -0.1315706074 0.5654730201 4292861931
-0.2787405550 -0.1309683770 0.5655854940 4292796138
-0.2792286873 -0.1305682063 0.5665759444 4292730345
-0.2792837322 -0.1299643219 0.5666876435 4292730345
-0.2793385386 -0.1293600798 0.5667988658 4292730345
-0.2793931365 -0.1287554801 0.5669096112 4292664552
-0.2794474661 -0.1281505227 0.5670198798 4292664552
-0.2795015872 -0.1275452226 0.5671296716 4292598759
-0.2795554698 -0.1269395649 0.5672389865 4292598759
-0.2796091139 -0.1263335496 0.5673478246 4292598759
-0.2800960839 -0.1259221286 0.5683360100 4292664552
-0.2797156870 -0.1251204908 0.5675640702 4292664552
-0.2797686160 -0.1245134473 0.5676714778 4292533481
-0.2802551389 -0.1240981594 0.5686587095 4292533481
-0.2803076804 -0.1234894842 0.5687652826 4292467688
-0.2803599536 -0.1228804663 0.5688714385 4292467688
-0.2804120183 -0.1222711131 0.5689770579 4292401895
-0.2808980048 -0.1218497455 0.5699630976 4292401895
-0.2809496522 -0.1212387681 0.5700679421 4292402408
-0.2810010612 -0.1206274554 0.5701722503 4292402408
-0.2810522616 -0.1200158074 0.5702760816 4292468201
-0.2811031938 -0.1194038242 0.5703794360 4292402408
-0.2811538875 -0.1187915057 0.5704823136 4292402408
-0.2816389501 -0.1183615178 0.5714665651 4292270822
-0.2816892564 -0.1177475974 0.5715686083 4292270822
-0.2817392945 -0.1171333492 0.5716701746 4292402408
-0.2817890942 -0.1165187731 0.5717712045 4292402408
-0.2818386257 -0.1159038767 0.5718717575 4292468201
-0.2818879485 -0.1152886525 0.5719717741 4292468201
-0.2819370031 -0.1146731079 0.5720713139 4292402408
-0.2819858193 -0.1140572354 0.5721703768 4292468201
-0.2820343971 -0.1134410501 0.5722689629 4292533994
-0.2820827067 -0.1128245443 0.5723670125 4292468201
-0.2825661600 -0.1123808846 0.5733479857 4292533994
-0.2826140821 -0.1117627993 0.5734451413 4292533994
-0.2826617360 -0.1111444011 0.5735418797 4292533994
-0.2827091515 -0.1105256900 0.5736380816 4292533994
-0.2827562988 -0.1099066660 0.5737337470 4292533994
-0.2828032076 -0.1092873290 0.5738289356 4292533994
-0.2832856774 -0.1088351309 0.5748078823 4292599787
-0.2833321691 -0.1082142293 0.5749022365 4292599787
-0.2838143706 -0.1077585518 0.5758806467 4292599787
-0.2838604152 -0.1071360856 0.5759740472 4292665066
-0.2839061916 -0.1065133214 0.5760669708 4292599273
-0.2843879163 -0.1060529128 0.5770444274 4292468200
-0.2848695219 -0.1055902913 0.5780216455 4292468200
-0.2849147022 -0.1049647108 0.5781133175 4292402407
-0.2849596441 -0.1043388322 0.5782044530 4292468200
-0.2850042880 -0.1037126556 0.5782951117 4292533480
-0.2850487232 -0.1030861959 0.5783852339 4292599273
-0.2850928605 -0.1024594381 0.5784748197 4292665320
-0.2851367593 -0.1018323898 0.5785639286 4292665320
-0.2851804197 -0.1012050509 0.5786524415 4292599527
-0.2856605947 -0.1007314473 0.5796267986 4292665320
-0.2857037783 -0.1001025736 0.5797144175 4292599527
-0.2857467234 -0.0994734243 0.5798015594 4292599527
-0.2857894003 -0.0988439843 0.5798881650 4292665320
-0.2858318388 -0.0982142612 0.5799742341 4292665320
-0.2858740091 -0.0975842625 0.5800598264 4292599527
-0.2859159112 -0.0969539806 0.5801448226 4292665320
-0.2859575450 -0.0963234305 0.5802293420 4292796652
-0.2859989405 -0.0956926048 0.5803133249 4292730859
-0.2864774466 -0.0952068567 0.5812842250 4292730859
-0.2865183651 -0.0945745111 0.5813672543 4292730859
-0.2865590155 -0.0939419046 0.5814497471 4292730859
-0.2870369852 -0.0934514850 0.5824195743 4292796652
-0.2866395712 -0.0926758870 0.5816132426 4292862699
-0.2866794467 -0.0920424759 0.5816941261 4292862699
-0.2867190838 -0.0914088041 0.5817745328 4292928492
-0.2871962488 -0.0909134522 0.5827426910 4292862699
-0.2872353792 -0.0902782902 0.5828221440 4292862699
-0.2872742712 -0.0896428674 0.5829010606 4293257457
-0.2868749201 -0.0888715088 0.5820907354 4293586420
-0.2873512506 -0.0883712545 0.5830572844 4293520627
-0.2873893678 -0.0877350643 0.5831345916 4293586420
-0.2883034945 -0.0873641670 0.5849894285 4293652213
-0.2887793779 -0.0868573412 0.5859550238 4293388525
-0.2896933556 -0.0864791498 0.5878095627 4293520111
-0.2901690006 -0.0859669670 0.5887746811 4293585904
-0.2910828590 -0.0855814740 0.5906289816 4293717490
-0.2924351096 -0.0853197724 0.5933727622 4293980662
-0.2920334637 -0.0845442116 0.5925577879 4294375420
-0.2964554131 -0.0851560310 0.6015302539 4294572798
-0.2964921892 -0.0844981670 0.6016048789 4294572798
-0.2997878194 -0.1845282316 0.6096659899 4292995314
-0.2994373739 -0.1836359352 0.6089532971 4292139235
-0.2995125651 -0.1830052733 0.6091061234 4292336614
-0.2987352014 -0.1818552911 0.6075252295 4292533993
-0.2975309193 -0.1804499030 0.6050761938 4292599786
-0.2967521548 -0.1793070734 0.6034924388 4292599787
-0.2959727645 -0.1781673729 0.6019073725 4292665580
-0.2943395376 -0.1765191555 0.5985860229 4292731373
-0.2927052677 -0.1748776734 0.5952624679 4292599787
-0.2910699546 -0.1732429713 0.5919367671 4292467688
-0.2894335687 -0.1716150194 0.5886089206 4292467688
-0.2886501253 -0.1704982668 0.5870156884 4293060337
-0.2882931828 -0.1696360111 0.5862897635 4293389302
-0.2879357636 -0.1687751114 0.5855629444 4293784830
-0.2880052626 -0.1681650877 0.5857042670 4293850623
-0.2885019481 -0.1678032130 0.5867143273 4293586679
-0.2885710895 -0.1671914011 0.5868549943 4293455093
-0.2890676558 -0.1668259352 0.5878647566 4293454582
-0.2895641923 -0.1664582044 0.5888745785 4292994031
-0.2892050743 -0.1655982882 0.5881442428 4292533480
-0.2884176075 -0.1644956917 0.5865427852 4292007136
-0.2876295149 -0.1633963138 0.5849400759 4291283924
-0.2868407965 -0.1623001248 0.5833361149 4291020752
-0.2851950228 -0.1607245058 0.5799891949 4290691530
-0.2839765251 -0.1593961716 0.5775111914 4290757323
-0.2819004059 -0.1575938612 0.5732890368 4291678425
-0.2806800902 -0.1562774479 0.5708073378 4292270562
-0.2794589698 -0.1549661011 0.5683240294 4293060076
-0.2786657512 -0.1538966000 0.5667108893 4294573311
-0.2774431109 -0.1525944918 0.5642244816 4294770687
-0.2766485810 -0.1515323967 0.5626086593 4294441727
-0.2758534551 -0.1504735649 0.5609915853 4293981180
-0.2750577033 -0.1494179815 0.5593733191 4293191664
-0.2746905684 -0.1485978663 0.5586267114 4292730859
-0.2743229866 -0.1477791965 0.5578792095 4292796652
-0.2735256255 -0.1467316002 0.5562576652 4292796138
-0.2735866606 -0.1461461633 0.5563817620 4292730345
-0.2736474574 -0.1455603242 0.5565053821 4292598759
-0.2737080455 -0.1449740976 0.5566285849 4292598759
-0.2737684250 -0.1443874836 0.5567513704 4292730345
-0.2738285661 -0.1438004822 0.5568737388 4292927724
-0.2738884985 -0.1432130933 0.5569955707 4293322227
-0.2739482224 -0.1426253170 0.5571170449 4293716985
-0.2740077078 -0.1420371681 0.5572380424 4294507519
-0.2744972408 -0.1416706741 0.5582335591 4294573311
-0.2749867141 -0.1413019598 0.5592289567 4294770687
-0.2750457227 -0.1407108158 0.5593490005 4294507519
-0.2751045227 -0.1401192844 0.5594685674 4293520629
-0.2755937278 -0.1397457272 0.5604634285 4292665320
-0.2757103741 -0.1385589242 0.5607006550 4292401895
-0.2758261263 -0.1373706162 0.5609360337 4292401895
-0.2758836746 -0.1367758960 0.5610530972 4292401894
-0.2763721347 -0.1363936067 0.5620464683 4292467687
-0.2764293253 -0.1357972175 0.5621627569 4292467941
-0.2769176066 -0.1354113817 0.5631557703 4292467941
-0.2769744098 -0.1348133236 0.5632712841 4292533734
-0.2770310044 -0.1342149079 0.5633863807 4292533734
-0.2775189579 -0.1338242441 0.5643786788 4292795883
-0.2775751650 -0.1332241595 0.5644930005 4292795883
-0.2780629396 -0.1328299642 0.5654849410 4292795883
-0.2776868939 -0.1320229024 0.5647202134 4292795883
-0.2781743705 -0.1316261142 0.5657115579 4292795883
-0.2782297432 -0.1310236454 0.5658242106 4292730090
-0.2787170112 -0.1306233257 0.5668151379 4292730090
-0.2787719965 -0.1300192028 0.5669269562 4292664297
-0.2788267732 -0.1294147223 0.5670382977 4292730090
-0.2788812816 -0.1288098991 0.5671492219 4292664297
-0.2789355814 -0.1282047033 0.5672596097 4292598504
-0.2789896429 -0.1275991648 0.5673695803 4292598504
-0.2790434659 -0.1269932687 0.5674790144 4292532711
-0.2795297801 -0.1265829802 0.5684679747 4292532711
-0.2795832157 -0.1259754449 0.5685766339 4292532711
-0.2792035341 -0.1251734942 0.5678045154 4292598504
-0.2796893716 -0.1247593388 0.5687925816 4292468201
-0.2797420919 -0.1241507679 0.5688997507 4292402408
-0.2797945738 -0.1235418543 0.5690065026 4292402408
-0.2798468173 -0.1229325980 0.5691127777 4292402408
-0.2798988223 -0.1223230064 0.5692185163 4292336615
-0.2799505889 -0.1217130721 0.5693237782 4292336615
-0.2804355621 -0.1212902591 0.5703100562 4292336615
-0.2804869413 -0.1206787080 0.5704145432 4292336615
-0.2805380523 -0.1200668141 0.5705184937 4292402408
-0.2810226083 -0.1196392253 0.5715039372 4292270822
-0.2810733318 -0.1190257221 0.5716070533 4292336615
-0.2811238170 -0.1184118837 0.5717097521 4292270822
-0.2811740637 -0.1177977175 0.5718119144 4292336615
-0.2812240422 -0.1171832308 0.5719135404 4292402408
-0.2812737823 -0.1165684089 0.5720147491 4292336615
-0.2813232839 -0.1159532592 0.5721154213 4292402408
-0.2813725471 -0.1153377965 0.5722156167 4292468201
-0.2814215720 -0.1147219986 0.5723152757 4292402408
