VERSION 0.7
FIELDS x y z rgba
SIZE 4 4 4 4
TYPE F F F U
COUNT 1 1 1 1
WIDTH 920
HEIGHT 1
VIEWPOINT 0.0 0.0 0.0 1.0 0.0 0.0 0.0
POINTS 920
DATA ascii
-0.2879498899 -0.1325040460 0.5777616501 4290822346
-0.2875691354 -0.1316877455 0.5769976974 4291019725
-0.2867508531 -0.1306737661 0.5753558278 4291348690
-0.2859320045 -0.1296631694 0.5737127662 4291349460
-0.2855498493 -0.1288532764 0.5729460120 4291020495
-0.2847298980 -0.1278485358 0.5713008046 4291744218
-0.2839093804 -0.1268471777 0.5696545243 4293125871
-0.2830882967 -0.1258492321 0.5680070519 4294046973
-0.2827042639 -0.1250482649 0.5672364831 4294573311
-0.2823198438 -0.1242488399 0.5664651394 4294770687
-0.2823727727 -0.1236426458 0.5665713549 4294375935
-0.2819876373 -0.1228453517 0.5657985210 4294244350
-0.2820400000 -0.1222394109 0.5659036636 4293981178
-0.2816541195 -0.1214442700 0.5651293993 4293652213
-0.2817059457 -0.1208385974 0.5652334094 4293257455
-0.2821957469 -0.1204195842 0.5662161112 4292665320
-0.2822471559 -0.1198123097 0.5663192868 4292467941
-0.2822983563 -0.1192047000 0.5664219856 4292533734
-0.2823492885 -0.1185967624 0.5665242076 4292731113
-0.2823999822 -0.1179884970 0.5666259527 4292928492
-0.2828890383 -0.1175621673 0.5676072240 4292928492
-0.2829393148 -0.1169523075 0.5677081347 4292994285
-0.2834281325 -0.1165224910 0.5686888695 4293191664
-0.2834779918 -0.1159110367 0.5687889457 4293323250
-0.2835276425 -0.1152992547 0.5688885450 4293191664
-0.2844549716 -0.1150422245 0.5707492232 4293060335
-0.2845042646 -0.1144279093 0.5708481073 4293126128
-0.2849924564 -0.1139889136 0.5718276501 4293455093
-0.2850413322 -0.1133730114 0.5719256997 4293652472
-0.2855292261 -0.1129305363 0.5729046464 4292994542
-0.2860170305 -0.1124858409 0.5738834143 4292533991
-0.2860653102 -0.1118671000 0.5739802718 4292797163
-0.2861133516 -0.1112480387 0.5740766525 4292731370
-0.2861611247 -0.1106286719 0.5741725564 4292731370
-0.2862086594 -0.1100089923 0.5742679238 4292731370
-0.2862559259 -0.1093890071 0.5743627548 4292665577
-0.2867427468 -0.1089357883 0.5753395557 4292665577
-0.2867895961 -0.1083142385 0.5754335523 4292862956
-0.2868361771 -0.1076923832 0.5755270123 4293323507
-0.2868825197 -0.1070702299 0.5756199956 4294047230
-0.2869286239 -0.1064477712 0.5757124424 4294639359
-0.2874145806 -0.1059873253 0.5766875744 4294442239
-0.2879004478 -0.1055246666 0.5776624084 4294376447
-0.2883861959 -0.1050597951 0.5786370635 4293982458
-0.2888718247 -0.1045927256 0.5796114802 4293587700
-0.2902381718 -0.1044404060 0.5823529959 4293521907
-0.2911641896 -0.1041245311 0.5842109919 4293587700
-0.2938524485 -0.1044307947 0.5896049142 4293915895
-0.2943381369 -0.1039472222 0.5905793905 4294179067
-0.3090502620 -0.1798189878 0.6214837432 4293324537
-0.3091247678 -0.1791716665 0.6216336489 4293192951
-0.3096303046 -0.1787728667 0.6226502657 4292995572
-0.3097044826 -0.1781237125 0.6227993965 4292863728
-0.3102098405 -0.1777212769 0.6238156557 4292666349
-0.3102836609 -0.1770702899 0.6239640713 4292403177
-0.3103572130 -0.1764188409 0.6241120100 4292205798
-0.3104305267 -0.1757669151 0.6242594719 4292073442
-0.3105036318 -0.1751145422 0.6244064569 4291876063
-0.3105764687 -0.1744617075 0.6245529056 4291481303
-0.3106490970 -0.1738084108 0.6246989369 4291152338
-0.3107214570 -0.1731546521 0.6248444915 4290954702
-0.3107936084 -0.1725004464 0.6249895692 4290691530
-0.3108654916 -0.1718457788 0.6251341105 4290362565
-0.3109371364 -0.1711906642 0.6252782345 4290230979
-0.3110085726 -0.1705350876 0.6254218221 4290230979
-0.3110797405 -0.1698790640 0.6255649328 4290165186
-0.3107179105 -0.1689872295 0.6248373389 4290099139
-0.3107884824 -0.1683312356 0.6249792576 4290164932
-0.3112917840 -0.1679083109 0.6259914041 4290164932
-0.3113619983 -0.1672504991 0.6261325479 4290099139
-0.3114319444 -0.1665922403 0.6262732148 4290165186
-0.3115016520 -0.1659335345 0.6264134049 4290296772
-0.3120044768 -0.1655042619 0.6274245381 4290296002
-0.3120737672 -0.1648437679 0.6275639534 4290493381
-0.3121428490 -0.1641828269 0.6277028322 4290822346
-0.3122116625 -0.1635214537 0.6278412342 4290822346
-0.3122802377 -0.1628596336 0.6279790998 4290361795
-0.3123485744 -0.1621973813 0.6281165481 4289835451
-0.3124166429 -0.1615347117 0.6282534599 4289703865
-0.3120504618 -0.1606481522 0.6275170445 4289835451
-0.3116838634 -0.1597630233 0.6267797947 4289572277
-0.3113168180 -0.1588792950 0.6260417104 4290164414
-0.3113836050 -0.1582176685 0.6261760592 4290888137
-0.3110157847 -0.1573358625 0.6254363656 4291677653
-0.3102130294 -0.1562366635 0.6238220930 4291940825
-0.3094096780 -0.1551407427 0.6222065687 4291414481
-0.3081710339 -0.1538311243 0.6197157502 4290756553
-0.3073663712 -0.1527426988 0.6180975437 4290690760
-0.3061262369 -0.1514424533 0.6156036854 4290230209
-0.3044503629 -0.1499331594 0.6122336388 4290164416
-0.3027735353 -0.1484308690 0.6088616252 4290361797
-0.3006606102 -0.1467232704 0.6046126485 4290361797
-0.2985465527 -0.1450245678 0.6003614068 4290361797
-0.2964313626 -0.1433347464 0.5961078405 4290427590
-0.2947504222 -0.1418633908 0.5927275419 4290296004
-0.2935039699 -0.1406076998 0.5902210474 4290427590
-0.2922567725 -0.1393572241 0.5877130032 4290296002
-0.2910088003 -0.1381119341 0.5852033496 4290164416
-0.2901957929 -0.1370777041 0.5835684538 4290230209
-0.2893821895 -0.1360468119 0.5819323063 4290427588
-0.2890038788 -0.1352232546 0.5811715722 4290559174
-0.2886251807 -0.1344011724 0.5804100633 4290559174
-0.2882460654 -0.1335806102 0.5796476603 4290624967
-0.2874303758 -0.1325603873 0.5780073404 4290822346
-0.2866141200 -0.1315435469 0.5763658881 4290888909
-0.2862336040 -0.1307293773 0.5756006837 4291152081
-0.2854162455 -0.1297183782 0.5739570856 4291152081
-0.2845983505 -0.1287107617 0.5723122358 4291546839
-0.2837798297 -0.1277065426 0.5706663132 4293060078
-0.2829607725 -0.1267057210 0.5690191984 4294507519
-0.2821411192 -0.1257083118 0.5673709512 4294507519
-0.2821945846 -0.1251016110 0.5674784780 4293783801
-0.2818108797 -0.1243018657 0.5667068362 4292599525
-0.2814267874 -0.1235036477 0.5659344792 4292599525
-0.2814793587 -0.1228978112 0.5660401583 4292467939
-0.2815317214 -0.1222916394 0.5661454201 4292138974
-0.2815838158 -0.1216851249 0.5662502050 4291941597
-0.2816356719 -0.1210782751 0.5663545132 4291941597
-0.2816872895 -0.1204710901 0.5664582849 4292073183
-0.2817386687 -0.1198635697 0.5665615797 4292402148
-0.2822273672 -0.1194408983 0.5675443411 4292731113
-0.2822783291 -0.1188317761 0.5676468611 4292862699
-0.2823290527 -0.1182223260 0.5677488446 4292928492
-0.2823795378 -0.1176125407 0.5678504109 4292994285
-0.2828676701 -0.1171838343 0.5688319802 4292994285
-0.2829177380 -0.1165724546 0.5689327121 4292994285
-0.2834056020 -0.1161402613 0.5699137449 4292796906
-0.2838933766 -0.1157058477 0.5708946586 4292402148
-0.2839428782 -0.1150916070 0.5709941983 4292336355
-0.2844303846 -0.1146537066 0.5719745159 4293060078
-0.2844794691 -0.1140378714 0.5720732212 4293915387
-0.2849667072 -0.1135964915 0.5730530620 4294112766
-0.2850153744 -0.1129790768 0.5731509328 4293389043
-0.2850637734 -0.1123613417 0.5732482672 4292731113
-0.2855505943 -0.1119152084 0.5742271543 4292665320
-0.2855985761 -0.1112959012 0.5743236542 4292665320
-0.2856462896 -0.1106762812 0.5744196773 4292797163
-0.2856937945 -0.1100563556 0.5745151639 4292665577
-0.2861799300 -0.1096042246 0.5754927993 4292665577
-0.2862738073 -0.1083609238 0.5756815076 4292862956
-0.2863203585 -0.1077388152 0.5757751465 4292731370
-0.2863666415 -0.1071164012 0.5758682489 4293191921
-0.2864126861 -0.1064936891 0.5759608150 4294113023
-0.2864584625 -0.1058706790 0.5760529041 4294573823
-0.2869887650 -0.1047842279 0.5771192908 4294179837
-0.2879129946 -0.1044783890 0.5789778829 4294114044
-0.2897164822 -0.1044855341 0.5826045871 4293982458
-0.2906408906 -0.1041695327 0.5844634771 4293653493
-0.2920050621 -0.1040060371 0.5872067809 4293718516
-0.2898506820 -0.1025910825 0.5828744769 4294047481
-0.3074545264 -0.1847988516 0.6196588874 4293850623
-0.3075307012 -0.1841559857 0.6198124290 4293850623
-0.3071770668 -0.1832563430 0.6190996170 4293850623
-0.3072526753 -0.1826134324 0.6192520857 4293850623
-0.3077016175 -0.1787460297 0.6201568842 4293258744
-0.3082061112 -0.1783489138 0.6211736202 4292995572
-0.3082799911 -0.1777013242 0.6213225126 4292863986
-0.3087843060 -0.1773005724 0.6223389506 4292600814
-0.3088578284 -0.1766511500 0.6224871278 4292403177
-0.3085002303 -0.1757558137 0.6217664480 4292205798
-0.3085731864 -0.1751063764 0.6219134331 4292008419
-0.3090769649 -0.1747001410 0.6229287982 4291679454
-0.3091495335 -0.1740488857 0.6230750680 4291349719
-0.3092218935 -0.1733971685 0.6232208610 4290954961
-0.3092939854 -0.1727449894 0.6233661771 4290625994
-0.3093658388 -0.1720923632 0.6235110164 4290362822
-0.3094374537 -0.1714392751 0.6236553788 4290230979
-0.3095088601 -0.1707857400 0.6237992644 4290165186
-0.3100117743 -0.1703690439 0.6248128414 4290164932
-0.3100827634 -0.1697136909 0.6249559522 4290033346
-0.3097215593 -0.1688224226 0.6242279410 4289967553
-0.3097919822 -0.1681670994 0.6243698597 4289967553
-0.3098621666 -0.1675113142 0.6245113015 4289835967
-0.3099321127 -0.1668550819 0.6246522665 4289835967
-0.3100017905 -0.1661984175 0.6247927547 4289967807
-0.3105036914 -0.1657721847 0.6258043051 4290033600
-0.3105730116 -0.1651137173 0.6259439588 4290361795
-0.3106420636 -0.1644548029 0.6260831356 4290296002
-0.3107108772 -0.1637954563 0.6262218356 4290493381
-0.3112122715 -0.1633628756 0.6272324324 4290690760
-0.3112806976 -0.1627017409 0.6273702979 4290427586
-0.3113488555 -0.1620401591 0.6275076866 4289769656
-0.3114167750 -0.1613781452 0.6276445389 4289506484
-0.3114844263 -0.1607157141 0.6277809143 4289638070
-0.3111185431 -0.1598302275 0.6270434856 4289506484
-0.3107522130 -0.1589461714 0.6263051629 4289703863
-0.3103854358 -0.1580635160 0.6255660057 4290098621
-0.3100182414 -0.1571822912 0.6248258948 4290888137
-0.3096506000 -0.1563024968 0.6240849495 4291809239
-0.3088487685 -0.1552061439 0.6224688888 4291743446
-0.3080463111 -0.1541130692 0.6208515167 4291019725
-0.3068092465 -0.1528071463 0.6183583736 4290624967
-0.3060054779 -0.1517215818 0.6167383790 4290493381
-0.3047669232 -0.1504250318 0.6142421365 4290296002
-0.3026591539 -0.1487069279 0.6099939942 4290361797
-0.3005501926 -0.1469977051 0.6057435274 4290493383
-0.2984401286 -0.1452973783 0.6014907956 4290493383
-0.2963289022 -0.1436059475 0.5972357392 4290427590
-0.2946511209 -0.1421330571 0.5938542485 4290361797
-0.2934070826 -0.1408759356 0.5913469791 4290427590
-0.2917275131 -0.1394162327 0.5879618526 4290493381
-0.2909167111 -0.1383772939 0.5863277316 4290296002
-0.2892354131 -0.1369298846 0.5829391479 4290427588
-0.2901633680 -0.1367194355 0.5848093629 4290559174
-0.2889158428 -0.1354846507 0.5822950602 4290493381
-0.2885379493 -0.1346613169 0.5815334916 4290624967
-0.2877243757 -0.1336373240 0.5798937678 4291019725
-0.2873455882 -0.1328179240 0.5791302919 4291151311
-0.2860954702 -0.1315994412 0.5766107440 4291217874
-0.2857156694 -0.1307849437 0.5758453608 4290888909
-0.2848998606 -0.1297735274 0.5742011070 4291415253
-0.2840834856 -0.1287655085 0.5725557208 4293257457
-0.2832665145 -0.1277608722 0.5709091425 4294573311
-0.2824489772 -0.1267596632 0.5692614317 4294178559
-0.2816308439 -0.1257618368 0.5676125884 4292928492
-0.2816842496 -0.1251549125 0.5677201748 4292073183
-0.2813012898 -0.1243548393 0.5669483542 4292138976
-0.2809179425 -0.1235563010 0.5661756992 4292402148
-0.2809704542 -0.1229502261 0.5662816167 4292336355
-0.2810227573 -0.1223438084 0.5663869977 4292138976
-0.2810747921 -0.1217370555 0.5664919019 4291941597
-0.2811266184 -0.1211299673 0.5665962696 4292007390
-0.2811781764 -0.1205225438 0.5667002201 4292467941
-0.2816661894 -0.1201009899 0.5676838160 4292862699
-0.2817173600 -0.1194919497 0.5677869320 4292731113
-0.2817682922 -0.1188825890 0.5678895712 4292862699
-0.2818189859 -0.1182728931 0.5679917336 4293060078
-0.2823064327 -0.1178452894 0.5689741373 4292928492
-0.2823567092 -0.1172339916 0.5690754652 4292599527
-0.2828438878 -0.1168029010 0.5700573921 4292270562
-0.2833310068 -0.1163695902 0.5710391402 4292138976
-0.2833806872 -0.1157554239 0.5711392760 4292073183
-0.2834301293 -0.1151409373 0.5712389350 4291875802
-0.2839168012 -0.1147028655 0.5722197890 4293060076
-0.2839658558 -0.1140867844 0.5723186135 4294375935
-0.2844522595 -0.1136452332 0.5732989311 4294704895
-0.2845008671 -0.1130275652 0.5733969212 4294310143
-0.2845492363 -0.1124095917 0.5734943748 4293520627
-0.2845973372 -0.1117912978 0.5735913515 4292665318
-0.2850831151 -0.1113437265 0.5745704174 4292204767
-0.2851307988 -0.1107238531 0.5746665597 4292533732
-0.2851782441 -0.1101036742 0.5747621655 4292533732
-0.2856635749 -0.1096513644 0.5757403374 4292665320
-0.2857105732 -0.1090296134 0.5758350492 4292928492
-0.2857573330 -0.1084075570 0.5759292841 4292928492
-0.2858038545 -0.1077851951 0.5760230422 4292533734
-0.2858501077 -0.1071625352 0.5761162043 4292665320
-0.2858960927 -0.1065395698 0.5762089491 4293323250
-0.2859418392 -0.1059162989 0.5763011575 4294310653
-0.2859873176 -0.1052927375 0.5763928294 4294508031
-0.2877873778 -0.1053110212 0.5800207257 4294573823
-0.2882713974 -0.1048426107 0.5809962153 4294508031
-0.2874387801 -0.1038961336 0.5793181658 4294376446
-0.2893282175 -0.1026353911 0.5831261873 4293850102
-0.2915679216 -0.1027769893 0.5876402259 4294113528
-0.3059087992 -0.1815360487 0.6179267764 4293455865
-0.3059836924 -0.1808937490 0.6180779934 4293390072
-0.3060583472 -0.1802510023 0.6182287931 4293390072
-0.3061327636 -0.1796077639 0.6183791757 4293324537
-0.3062069714 -0.1789640635 0.6185290217 4293127158
-0.3062809110 -0.1783199012 0.6186784506 4292929779
-0.3063546717 -0.1776752621 0.6188274026 4292732400
-0.3068579435 -0.1772784591 0.6198439598 4292600814
-0.3069313169 -0.1766319871 0.6199921966 4292403435
-0.3074344099 -0.1762315333 0.6210084558 4292205798
-0.3070773482 -0.1753376722 0.6202871799 4292074212
-0.3075802028 -0.1749344766 0.6213029623 4291942626
-0.3076527417 -0.1742852628 0.6214494705 4291613661
-0.3077250421 -0.1736355871 0.6215955019 4291349717
-0.3077971041 -0.1729854494 0.6217410564 4290954959
-0.3078689277 -0.1723348498 0.6218861938 4290691787
-0.3079405427 -0.1716838032 0.6220307946 4290362822
-0.3080118895 -0.1710323095 0.6221749187 4290230979
-0.3080829978 -0.1703803539 0.6223185658 4290165186
-0.3085848689 -0.1699653417 0.6233323216 4290164932
-0.3086555898 -0.1693115681 0.6234751940 4290164932
-0.3082948923 -0.1684218049 0.6227465868 4290296518
-0.3083650470 -0.1677680463 0.6228883266 4290428104
-0.3084349632 -0.1671138555 0.6230295300 4290428358
-0.3085046411 -0.1664592177 0.6231703162 4290362565
-0.3085740805 -0.1658041477 0.6233105659 4290362565
-0.3086432517 -0.1651486158 0.6234502792 4290362565
-0.3091439605 -0.1647227257 0.6244617105 4290559172
-0.3092127740 -0.1640654057 0.6246006489 4290427586
-0.3097132742 -0.1636358649 0.6256116629 4290361793
-0.3097816706 -0.1629767567 0.6257498860 4290296000
-0.3098498285 -0.1623172015 0.6258875132 4289901496
-0.3099177480 -0.1616572142 0.6260247231 4289309359
-0.3099853992 -0.1609968096 0.6261613965 4289177773
-0.3100528121 -0.1603359580 0.6262975335 4289375152
-0.3101199865 -0.1596746743 0.6264332533 4289375152
-0.3097542822 -0.1587911993 0.6256945133 4289375152
-0.3093881607 -0.1579091251 0.6249549389 4289572531
-0.3090215921 -0.1570284814 0.6242144704 4290230461
-0.3086545765 -0.1561492682 0.6234731674 4291151309
-0.3087201118 -0.1554895639 0.6236055493 4291809239
-0.3079192638 -0.1543951333 0.6219878197 4291611860
-0.3066846132 -0.1530877650 0.6194939017 4290888137
-0.3063156903 -0.1522161365 0.6187486649 4290690760
-0.3050796390 -0.1509172022 0.6162518859 4290493381
-0.3029759228 -0.1491965503 0.6120024323 4290493381
-0.3013045788 -0.1476972997 0.6086263657 4290690760
-0.2987650335 -0.1457819045 0.6034965515 4290690762
-0.2966578901 -0.1440879107 0.5992401838 4290493383
-0.2945495844 -0.1424028426 0.5949814916 4290559176
-0.2933079600 -0.1411442757 0.5924733877 4290427590
-0.2916315496 -0.1396830678 0.5890871286 4290296004
-0.2903882861 -0.1384358406 0.5865758061 4290361797
-0.2900125682 -0.1376058310 0.5858168006 4290559174
-0.2892021835 -0.1365722567 0.5841798782 4290559174
-0.2883912027 -0.1355420351 0.5825417042 4290624967
-0.2880140543 -0.1347183883 0.5817798972 4290953932
-0.2876364887 -0.1338962317 0.5810172558 4291086288
-0.2868239582 -0.1328742504 0.5793759227 4290954702
-0.2860108018 -0.1318556666 0.5777333975 4290888909
-0.2847623527 -0.1306409985 0.5752115250 4291678425
-0.2843828201 -0.1298286319 0.5744448900 4293323250
-0.2831330299 -0.1286226213 0.5719203949 4294375935
-0.2823175192 -0.1276185364 0.5702730417 4293454836
-0.2815014124 -0.1266178340 0.5686245561 4292138976
-0.2811199129 -0.1258153170 0.5678539276 4291875804
-0.2807380259 -0.1250143349 0.5670825243 4291744218
-0.2807910442 -0.1244077608 0.5671896338 4292072929
-0.2804084420 -0.1236089021 0.5664167404 4292336101
-0.2804608941 -0.1230025887 0.5665227771 4292270562
-0.2805131376 -0.1223959327 0.5666282773 4292138976
-0.2810007930 -0.1219780594 0.5676133633 4292138976
-0.2810526490 -0.1213697866 0.5677180290 4292204769
-0.2811042368 -0.1207611784 0.5678222775 4292402148
-0.2811556160 -0.1201522350 0.5679260492 4292402148
-0.2816427052 -0.1197282970 0.5689099431 4292467941
-0.2816936672 -0.1191177443 0.5690128803 4292467941
-0.2817443609 -0.1185068563 0.5691152811 4292533734
-0.2817948461 -0.1178956479 0.5692172647 4292467941
-0.2822813690 -0.1174656600 0.5702000260 4292336355
-0.2823314071 -0.1168528423 0.5703011155 4292270562
-0.2828176916 -0.1164193675 0.5712834001 4292402148
-0.2833038568 -0.1159836650 0.5722654462 4292467941
-0.2833533287 -0.1153679863 0.5723653436 4292731109
-0.2834025621 -0.1147519797 0.5724648237 4293783797
-0.2838883102 -0.1143115163 0.5734459758 4294507519
-0.2839371264 -0.1136939228 0.5735446215 4294507519
-0.2839856744 -0.1130760163 0.5736426711 4294639103
-0.2844709754 -0.1126307994 0.5746229887 4294178557
-0.2845191061 -0.1120113060 0.5747202039 4293125869
-0.2845669985 -0.1113914996 0.5748169422 4292599525
-0.2846146524 -0.1107713804 0.5749132037 4292665318
-0.2846620381 -0.1101509482 0.5750089288 4292731111
-0.2851465344 -0.1096984595 0.5759875774 4292665318
-0.2851935029 -0.1090764552 0.5760824680 4292665318
-0.2852402031 -0.1084541455 0.5761768222 4292796906
-0.2852866650 -0.1078315377 0.5762706399 4292665320
-0.2853328884 -0.1072086170 0.5763639808 4292533734
-0.2853788435 -0.1065853983 0.5764568448 4292731113
-0.2854245305 -0.1059618816 0.5765491724 4293586931
-0.2854699790 -0.1053380668 0.5766409636 4294244861
-0.2863909900 -0.1050351560 0.5785013437 4294639615
-0.2868740559 -0.1045684814 0.5794771314 4294442239
-0.2864809036 -0.1037822142 0.5786829591 4294244860
-0.2874016762 -0.1034707576 0.5805429220 4294179067
-0.2878842950 -0.1029984057 0.5815178156 4293981688
-0.2901197970 -0.1031470895 0.5860334039 4293784309
-0.2884108722 -0.1018922180 0.5825814605 4293850102
-0.2910849452 -0.1021836549 0.5879830122 4294113274
-0.2933211327 -0.1023103446 0.5925000310 4294310907
-0.3034239411 -0.1900215447 0.6142855287 4293390585
-0.3035016656 -0.1893875301 0.6144429445 4293324024
-0.3035791814 -0.1887530386 0.6145998240 4293324024
-0.3036564589 -0.1881180555 0.6147563457 4293324024
-0.3037335277 -0.1874825954 0.6149123907 4293258231
-0.3038103878 -0.1868466437 0.6150679588 4293192438
-0.3038870096 -0.1862102151 0.6152230501 4293192438
-0.3043909371 -0.1858343035 0.6162432432 4293126645
-0.3040395975 -0.1849359125 0.6155319810 4293126645
-0.3041155636 -0.1842980385 0.6156857610 4293192438
-0.3041912913 -0.1836596876 0.6158390641 4293126645
-0.3042668104 -0.1830208749 0.6159919500 4293126645
-0.3039140403 -0.1821250618 0.6152777672 4293126645
-0.3039889932 -0.1814861894 0.6154295206 4293060852
-0.3040637076 -0.1808468401 0.6155807972 4292929266
-0.3041381836 -0.1802070290 0.6157315969 4292863473
-0.3042124510 -0.1795667410 0.6158819199 4292797680
-0.3042865098 -0.1789259911 0.6160318255 4292732400
-0.3047889769 -0.1785358638 0.6170490980 4292600814
-0.3048626781 -0.1778932810 0.6171982884 4292403690
-0.3049361110 -0.1772502214 0.6173470020 4292272104
-0.3054383397 -0.1768551022 0.6183637381 4292271591
-0.3055114150 -0.1762102097 0.6185117364 4292140005
-0.3055842817 -0.1755648553 0.6186591983 4292008419
-0.3056569099 -0.1749190539 0.6188062429 4291811040
-0.3057292998 -0.1742727757 0.6189528108 4291876061
-0.3058014810 -0.1736260504 0.6190989017 4291678682
-0.3058733940 -0.1729788631 0.6192445159 4291415510
-0.3059450984 -0.1723312140 0.6193896532 4291152338
-0.3064463437 -0.1719242483 0.6204044819 4290954702
-0.3065176606 -0.1712747812 0.6205488443 4290625737
-0.3065887392 -0.1706248671 0.6206927299 4290428358
-0.3070896864 -0.1702128947 0.6217069030 4290362565
-0.3071604073 -0.1695611626 0.6218500733 4290296772
-0.3072308600 -0.1689089835 0.6219927073 4290230979
-0.3068706989 -0.1680207103 0.6212635636 4290296772
-0.3073710799 -0.1676032841 0.6222766042 4290362565
-0.3074408174 -0.1669497639 0.6224178076 4290296770
-0.3075103164 -0.1662958115 0.6225585341 4290099391
-0.3075796068 -0.1656413972 0.6226987243 4289836219
-0.3076486290 -0.1649865508 0.6228384972 4289770426
-0.3077173829 -0.1643312722 0.6229777336 4289638324
-0.3077859282 -0.1636755466 0.6231164932 4289506738
-0.3082853854 -0.1632476896 0.6241276264 4289375152
-0.3083535433 -0.1625901759 0.6242656112 4289111980
-0.3084214330 -0.1619322151 0.6244030595 4288848807
-0.3084890842 -0.1612738371 0.6245400310 4288717221
-0.3085564971 -0.1606150120 0.6246764660 4288848807
-0.3086236417 -0.1599557549 0.6248124242 4289046186
-0.3086905777 -0.1592960805 0.6249479055 4289046187
-0.3087572157 -0.1586359590 0.6250828505 4288980394
-0.3088236451 -0.1579754353 0.6252173185 4289440945
-0.3084577918 -0.1570944488 0.6244766712 4289769910
-0.3080915213 -0.1562148929 0.6237351298 4290230207
-0.3077248037 -0.1553367674 0.6229927540 4291348688
-0.3073576689 -0.1544600725 0.6222494245 4291875032
-0.3065577149 -0.1533684880 0.6206299067 4291282895
-0.3061895967 -0.1524955928 0.6198846698 4290756553
-0.3053885102 -0.1514096856 0.6182628870 4290493381
-0.3032888472 -0.1496864706 0.6140120625 4290624967
-0.3016207814 -0.1481847465 0.6106350422 4290953932
-0.2995189428 -0.1464783847 0.6063798070 4290888141
-0.2969830036 -0.1445701867 0.6012458205 4290690762
-0.2948788106 -0.1428825706 0.5969858170 4290690762
-0.2932065427 -0.1414127499 0.5936003327 4290559176
-0.2919665277 -0.1401579529 0.5910899043 4290559176
-0.2902925014 -0.1387013495 0.5877007842 4290427590
-0.2894842029 -0.1376640052 0.5860643983 4290362311
-0.2891088128 -0.1368351579 0.5853043795 4290428104
-0.2887329757 -0.1360078156 0.5845435262 4290625483
-0.2879231274 -0.1349786818 0.5829039812 4290954448
-0.2871126831 -0.1339529157 0.5812632442 4291086288
-0.2863016427 -0.1329305321 0.5796213150 4290888909
-0.2854900360 -0.1319115311 0.5779781938 4291810011
-0.2846778631 -0.1308959126 0.5763338804 4293718008
-0.2834310532 -0.1296850741 0.5738097429 4294046973
-0.2826176286 -0.1286771744 0.5721629858 4292599527
-0.2818036377 -0.1276726872 0.5705150366 4291612632
-0.2809890807 -0.1266715825 0.5688659549 4291810011
-0.2806083262 -0.1258687526 0.5680950880 4292402148
-0.2802271843 -0.1250674427 0.5673234463 4292467941
-0.2802801430 -0.1244606301 0.5674306750 4292336101
-0.2798982859 -0.1236614585 0.5666575432 4292270308
-0.2799507082 -0.1230548993 0.5667636991 4292007136
-0.2800028920 -0.1224480122 0.5668693781 4292007136
-0.2800548375 -0.1218407750 0.5669745207 4292138722
-0.2805414796 -0.1214214563 0.5679597855 4292336101
-0.2805930376 -0.1208126098 0.5680641532 4292533734
-0.2806443572 -0.1202034280 0.5681679845 4292336355
-0.2811306119 -0.1197793260 0.5691524148 4292204769
-0.2811815143 -0.1191685349 0.5692554712 4291941597
-0.2812321782 -0.1185574085 0.5693580508 4291810011
-0.2812826037 -0.1179459542 0.5694601536 4292138976
-0.2822037637 -0.1176974326 0.5713250637 4292665320
-0.2822538614 -0.1170834228 0.5714265108 4292928492
-0.2823037207 -0.1164690927 0.5715274215 4292928492
-0.2823533118 -0.1158544421 0.5716277957 4292862699
-0.2828384638 -0.1154173017 0.5726100206 4293520627
-0.2833235264 -0.1149779409 0.5735920668 4294375935
-0.2833725512 -0.1143604144 0.5736913085 4294507519
-0.2834213078 -0.1137425750 0.5737900138 4293981178
-0.2834698260 -0.1131244153 0.5738882422 4294112764
-0.2839542925 -0.1126790270 0.5748690367 4294046971
-0.2840023935 -0.1120592803 0.5749663711 4293323250
-0.2840502262 -0.1114392281 0.5750632882 4293125871
-0.2840978503 -0.1108188555 0.5751596093 4293586422
-0.2841451764 -0.1101981774 0.5752555132 4293257457
-0.2841922939 -0.1095771864 0.5753508210 4292599784
-0.2846757472 -0.1091232523 0.5763296485 4292336612
-0.2847224176 -0.1085006967 0.5764241219 4292468200
-0.2847688198 -0.1078778282 0.5765180588 4292533993
-0.2848149836 -0.1072546616 0.5766115189 4292468200
-0.2848609090 -0.1066311896 0.5767045021 4292533993
-0.2849065661 -0.1060074195 0.5767968893 4292863208
-0.2858260572 -0.1057066098 0.5786584020 4293586931
-0.2858713567 -0.1050803289 0.5787501335 4294310654
-0.2859163880 -0.1044537425 0.5788412690 4294442239
-0.2859611511 -0.1038268730 0.5789319277 4294310654
-0.2864429951 -0.1033575013 0.5799074173 4294310654
-0.2869247198 -0.1028859168 0.5808826685 4294244861
-0.2869688570 -0.1022562459 0.5809720755 4293915896
-0.2892003357 -0.1024008691 0.5854897499 4293915896
-0.2918698192 -0.1026895642 0.5908941031 4293915896
-0.2936645448 -0.1026604399 0.5945275426 4294113274
-0.3018580973 -0.1908279955 0.6124927402 4293390585
-0.3019359708 -0.1901965290 0.6126507521 4293324792
-0.3020136356 -0.1895645708 0.6128083467 4293258999
-0.3020910621 -0.1889321357 0.6129654646 4293126645
-0.3021682799 -0.1882991940 0.6131221056 4293126645
-0.3022452891 -0.1876657903 0.6132783294 4293060852
-0.3023220599 -0.1870318949 0.6134341359 4292995059
-0.3023986220 -0.1863975078 0.6135894656 4292863473
-0.3029015660 -0.1860246509 0.6146100163 4292797680
-0.3029778004 -0.1853884161 0.6147646904 4292731887
-0.3030537963 -0.1847516894 0.6149188876 4292731887
-0.3031295538 -0.1841145009 0.6150726080 4292731887
-0.3027780652 -0.1832184047 0.6143593788 4292666094
-0.3024261296 -0.1823236346 0.6136452556 4292731887
-0.3025009930 -0.1816868186 0.6137972474 4292731887
-0.3021483123 -0.1807937920 0.6130815744 4292666094
-0.3026500940 -0.1804117411 0.6140997410 4292600301
-0.3027243018 -0.1797735095 0.6142503619 4292600301
-0.3027983010 -0.1791348010 0.6144004464 4292468715
-0.3028720319 -0.1784956157 0.6145501137 4292469483
-0.3033734560 -0.1781071872 0.6155675054 4292403690
-0.3034468591 -0.1774661690 0.6157164574 4292272104
-0.3035200238 -0.1768247038 0.6158649325 4292206311
-0.3035929799 -0.1761827618 0.6160129309 4292271591
-0.3040939867 -0.1757879406 0.6170295477 4292205798
-0.3041665852 -0.1751441807 0.6171768308 4292074212
-0.3042389154 -0.1744999439 0.6173236370 4291942626
-0.3043110371 -0.1738552600 0.6174699664 4292007647
-0.3043829203 -0.1732101142 0.6176158190 4291941854
-0.3044545949 -0.1725645065 0.6177611947 4291744475
-0.3045260012 -0.1719184518 0.6179060936 4291481303
-0.3050262034 -0.1715131700 0.6189210415 4291283667
-0.3050972521 -0.1708652973 0.6190652251 4290954702
-0.3055972755 -0.1704563648 0.6200797558 4290625735
-0.3056679368 -0.1698066741 0.6202231646 4290428356
-0.3057383895 -0.1691565365 0.6203660965 4290165184
-0.3058085740 -0.1685059518 0.6205085516 4289836219
-0.3058785498 -0.1678549051 0.6206505299 4289441461
-0.3059482574 -0.1672034264 0.6207919717 4289244082
-0.3060177565 -0.1665515006 0.6209329367 4289112494
-0.3060869873 -0.1658991277 0.6210734844 4288849322
-0.3061559796 -0.1652463078 0.6212134361 4288651943
-0.3062247336 -0.1645930558 0.6213529706 4288651943
-0.3062932491 -0.1639393568 0.6214920282 4288717222
-0.3067918122 -0.1635145694 0.6225036383 4288717222
-0.3068599403 -0.1628590673 0.6226418614 4288717221
-0.3073582947 -0.1624306440 0.6236530542 4288651428
-0.3074260354 -0.1617733687 0.6237905025 4288585635
-0.3074935377 -0.1611156464 0.6239274740 4288651428
-0.3075607717 -0.1604575068 0.6240639091 4288651428
-0.3076277673 -0.1597989351 0.6241998672 4288585635
-0.3076945245 -0.1591399163 0.6243352890 4288585636
-0.3077610433 -0.1584804952 0.6244702339 4288717222
-0.3073961735 -0.1575995833 0.6237298846 4289177773
-0.3074620664 -0.1569402218 0.6238636374 4289243566
-0.3070964217 -0.1560612470 0.6231217384 4289309359
-0.3067303598 -0.1551837176 0.6223788857 4290493633
-0.3067953289 -0.1545249373 0.6225107908 4291611860
-0.3064284921 -0.1536493301 0.6217663884 4291677653
-0.3056295216 -0.1525596976 0.6201452613 4290822344
-0.3048299551 -0.1514733583 0.6185228825 4290493379
-0.3035979271 -0.1501766890 0.6160229445 4290690760
-0.3019331396 -0.1486725062 0.6126449704 4290953932
-0.2998353541 -0.1469635814 0.6083884239 4290888139
-0.2977364361 -0.1452635676 0.6041295528 4290756553
-0.2952041626 -0.1433625817 0.5989913940 4290756553
-0.2935352027 -0.1418903023 0.5956049562 4290690760
-0.2918652892 -0.1404251009 0.5922165513 4290559690
-0.2906269133 -0.1391740739 0.5897037983 4290428104
-0.2893877625 -0.1379282773 0.5871894956 4290428104
-0.2890131772 -0.1370981783 0.5864294171 4290362311
-0.2882054448 -0.1360652596 0.5847904682 4290296518
-0.2878299356 -0.1352390796 0.5840285420 4290822862
-0.2870211005 -0.1342119724 0.5823873281 4291809757
-0.2862116992 -0.1331882477 0.5807449818 4292599273
-0.2849686146 -0.1319673359 0.5782226920 4293652215
-0.2837248147 -0.1307516843 0.5756989121 4293586422
-0.2829134762 -0.1297399849 0.5740526915 4292270562
-0.2816682756 -0.1285339445 0.5715260506 4291152081
-0.2812891304 -0.1277267784 0.5707567930 4291481046
-0.2804760933 -0.1267252862 0.5691070557 4292204769
-0.2800960839 -0.1259221286 0.5683360100 4292467941
-0.2797156870 -0.1251204908 0.5675640702 4292599527
-0.2797686160 -0.1245134473 0.5676714778 4292401894
-0.2793874741 -0.1237139553 0.5668981671 4292204515
-0.2794398367 -0.1231071651 0.5670043826 4292007136
-0.2799259722 -0.1226902530 0.5679907799 4292072929
-0.2799779475 -0.1220818385 0.5680962801 4292204515
-0.2800296843 -0.1214730814 0.5682012439 4292336101
-0.2800811827 -0.1208639964 0.5683057308 4292401894
-0.2801324427 -0.1202545688 0.5684097409 4292204515
-0.2806178629 -0.1198303103 0.5693947077 4291875550
-0.2806687057 -0.1192192733 0.5694978833 4291941343
-0.2811538875 -0.1187915057 0.5704823136 4292138722
-0.2816389501 -0.1183615178 0.5714665651 4292401894
-0.2816892564 -0.1177475974 0.5715686083 4292599273
-0.2817392945 -0.1171333492 0.5716701746 4292533480
-0.2822239399 -0.1166985855 0.5726535320 4292533734
-0.2822735608 -0.1160827354 0.5727542639 4292599527
-0.2823229432 -0.1154665649 0.5728544593 4293191410
-0.2823720872 -0.1148500666 0.5729541779 4294046719
-0.2828561366 -0.1144092679 0.5739363432 4293915133
-0.2829048634 -0.1137911752 0.5740351677 4292994031
-0.2829533219 -0.1131727695 0.5741335750 4292796652
-0.2834369540 -0.1127272099 0.5751148462 4292796652
-0.2834849954 -0.1121072173 0.5752123594 4292796652
-0.2835327983 -0.1114869118 0.5753093362 4293191410
-0.2835803628 -0.1108662933 0.5754058361 4293783547
-0.2840633392 -0.1104147062 0.5763857961 4293125617
-0.2841104567 -0.1097925156 0.5764814615 4292336614
-0.2841573358 -0.1091700122 0.5765765309 4292139235
-0.2842039466 -0.1085471958 0.5766711235 4292336614
-0.2846862972 -0.1080896109 0.5776498318 4292336614
-0.2842964530 -0.1073006615 0.5768588185 4292468201
-0.2843423188 -0.1066769361 0.5769518614 4292797166
-0.2843879163 -0.1060529128 0.5770444274 4292600038
-0.2853510380 -0.1051254496 0.5789986253 4293849592
-0.2853960097 -0.1044986174 0.5790899396 4294573311
-0.2858771980 -0.1040303111 0.5800663233 4294639103
-0.2863582671 -0.1035597920 0.5810424089 4294507519
-0.2859660387 -0.1027732491 0.5802465677 4294310654
-0.2855734229 -0.1019883305 0.5794498920 4294113275
-0.2869273126 -0.1018249914 0.5821970105 4294113275
-0.2865341604 -0.1010394990 0.5813993216 4293915896
-0.2874512076 -0.1007148251 0.5832600594 4293981176
-0.2892420888 -0.1006902233 0.5868939161 4294244348
-0.3005284369 -0.1897374839 0.6111720800 4293455865
-0.3006058037 -0.1891070902 0.6113294363 4293390072
-0.3006829321 -0.1884762198 0.6114863157 4293258231
-0.3007598519 -0.1878448576 0.6116427183 4293192438
-0.3008365631 -0.1872130036 0.6117987037 4293126645
-0.3009130359 -0.1865806729 0.6119542718 4293060852
-0.3009893000 -0.1859478652 0.6121093035 4292995059
-0.3014911711 -0.1855766922 0.6131299734 4292929266
-0.3015671074 -0.1849420220 0.6132844090 4292863473
-0.3016428053 -0.1843068749 0.6134383678 4292863473
-0.3017182946 -0.1836712509 0.6135918498 4292797680
-0.3013672829 -0.1827766299 0.6128780246 4292731887
-0.3010158241 -0.1818833202 0.6121633053 4292797680
-0.3010904491 -0.1812480688 0.6123149991 4292863473
-0.3007382452 -0.1803565174 0.6115987301 4292797680
-0.3008122742 -0.1797212362 0.6117493510 4292797680
-0.3013128936 -0.1793394983 0.6127673984 4292797680
-0.3013865948 -0.1787023544 0.6129173040 4292666094
-0.3014600575 -0.1780647635 0.6130666733 4292732400
-0.3015333116 -0.1774266958 0.6132156253 4292666607
-0.3020335138 -0.1770385802 0.6142329574 4292600814
-0.3021064103 -0.1763986945 0.6143811941 4292600814
-0.3021790683 -0.1757583320 0.6145289540 4292535276
-0.3026790321 -0.1753651947 0.6155456305 4292403690
-0.3027513325 -0.1747230142 0.6156926751 4292271591
-0.3028233945 -0.1740803719 0.6158393025 4292140005
-0.3028952479 -0.1734372675 0.6159853935 4292140005
-0.3029668629 -0.1727937013 0.6161310077 4292008419
-0.3030382395 -0.1721496880 0.6162761450 4291876061
-0.3031093776 -0.1715052128 0.6164208651 4291481303
-0.3036085069 -0.1711016148 0.6174359322 4291020752
-0.3036792874 -0.1704553217 0.6175798774 4290625994
-0.3041782379 -0.1700480878 0.6185945868 4290099650
-0.3042486608 -0.1693999916 0.6187377572 4289704892
-0.3043188155 -0.1687514335 0.6188804507 4289375666
-0.3043887615 -0.1681024432 0.6190226674 4288783529
-0.3044584394 -0.1674529910 0.6191644073 4288322978
-0.3049568236 -0.1670380384 0.6201779246 4288257185
-0.3050261140 -0.1663867831 0.6203188896 4288322978
-0.3050951958 -0.1657350808 0.6204593182 4288322978
-0.3051640391 -0.1650829464 0.6205993295 4288388771
-0.3052326441 -0.1644303650 0.6207388043 4288520357
-0.3053009808 -0.1637773514 0.6208778620 4288783015
-0.3053691089 -0.1631238908 0.6210163236 4288848808
-0.3054369688 -0.1624699980 0.6211543679 4288848807
-0.3059342802 -0.1620432585 0.6221657395 4288914600
-0.3060017526 -0.1613875777 0.6223029494 4288914600
-0.3060689867 -0.1607314646 0.6224396825 4288717221
-0.3061359823 -0.1600749195 0.6225759387 4288454050
-0.3062027097 -0.1594179422 0.6227116585 4288256671
-0.3062692285 -0.1587605327 0.6228469014 4288322464
-0.3063354790 -0.1581027061 0.6229816079 4288454050
-0.3064014912 -0.1574444473 0.6231158376 4288651429
-0.3064672351 -0.1567857563 0.6232495904 4288717222
-0.3061022162 -0.1559073776 0.6225072742 4289046187
-0.3057367802 -0.1550304145 0.6217641234 4289704117
-0.3058016002 -0.1543723196 0.6218959689 4290756551
-0.3054353893 -0.1534973085 0.6211512089 4291611860
-0.3050687611 -0.1526237279 0.6204055548 4291151309
-0.3042707145 -0.1515369564 0.6187825799 4290559172
-0.3034720421 -0.1504534930 0.6171583533 4290756553
-0.3022416234 -0.1491605490 0.6146560907 4290888139
-0.3005791605 -0.1476609409 0.6112752557 4290822346
-0.2980530560 -0.1457465142 0.6061380506 4290822346
-0.2959570885 -0.1440528631 0.6018755436 4290756553
-0.2938599885 -0.1423681527 0.5976107717 4290624967
-0.2921933532 -0.1409004927 0.5942214131 4290296518
-0.2905257940 -0.1394399107 0.5908301473 4290362311
-0.2897208333 -0.1383989304 0.5891931653 4290493897
-0.2889153063 -0.1373613030 0.5875549316 4290296518
-0.2881091833 -0.1363270432 0.5859155655 4290230725
-0.2873024642 -0.1352961510 0.5842750072 4291480792
-0.2864951491 -0.1342686266 0.5826331973 4293125617
-0.2852550745 -0.1330429167 0.5801113248 4293849340
-0.2844465375 -0.1320230961 0.5784670115 4293191664
-0.2832050323 -0.1308069527 0.5759422183 4291481046
-0.2823952436 -0.1297948360 0.5742954016 4291152081
-0.2811523676 -0.1285883039 0.5717678070 4291810011
-0.2803413570 -0.1275839359 0.5701184869 4291810011
-0.2799624801 -0.1267789304 0.5693479776 4291875804
-0.2795832157 -0.1259754449 0.5685766339 4292402148
-0.2792035341 -0.1251734942 0.5678045154 4292599527
-0.2792564034 -0.1245662123 0.5679120421 4292270308
-0.2793090343 -0.1239585876 0.5680191517 4292138722
-0.2789283395 -0.1231593713 0.5672448874 4292204515
-0.2794136107 -0.1227423027 0.5682317615 4292270308
-0.2794655561 -0.1221336499 0.5683373809 4292336101
-0.2795172334 -0.1215246618 0.5684425235 4292204515
-0.2795686722 -0.1209153309 0.5685471296 4292007136
-0.2796199024 -0.1203056648 0.5686512589 4291941343
-0.2801044583 -0.1198812425 0.5696367025 4291941343
-0.2801552713 -0.1192699671 0.5697400570 4292270308
-0.2810733318 -0.1190257221 0.5716070533 4292533480
-0.2811238170 -0.1184118837 0.5717097521 4292401894
-0.2811740637 -0.1177977175 0.5718119144 4292007136
-0.2812240422 -0.1171832308 0.5719135404 4291809757
-0.2817078531 -0.1167482957 0.5728974938 4292072929
-0.2817574441 -0.1161321998 0.5729982853 4292533480
-0.2818067670 -0.1155157834 0.5730986595 4293323250
-0.2818558514 -0.1148990393 0.5731984973 4294178559
-0.2823390663 -0.1144580692 0.5741811395 4294310143
-0.2823877335 -0.1138397306 0.5742801428 4293849594
-0.2824361622 -0.1132210791 0.5743786097 4293586422
-0.2829189301 -0.1127753407 0.5753604174 4293454836
-0.2829669416 -0.1121551022 0.5754580498 4293388789
-0.2830146849 -0.1115345433 0.5755551457 4293388789
-0.2830621898 -0.1109136790 0.5756517649 4293717754
-0.2835443318 -0.1104619205 0.5766322613 4293257203
-0.2835914195 -0.1098394692 0.5767279863 4292533480
-0.2836382389 -0.1092167199 0.5768232346 4292138722
-0.2836848199 -0.1085936576 0.5769179463 4292270308
-0.2841663361 -0.1081358865 0.5778971910 4292401894
-0.2842124701 -0.1075112522 0.5779910088 4292533480
-0.2838230431 -0.1067226380 0.5771990418 4292862445
-0.2838686109 -0.1060983613 0.5772917271 4292665318
-0.2843493819 -0.1056355536 0.5782694221 4292665318
-0.2848300338 -0.1051705331 0.5792469382 4293323248
-0.2848749757 -0.1045434400 0.5793383121 4294178557
-0.2853553295 -0.1040749475 0.5803152323 4294507519
-0.2849641144 -0.1032883748 0.5795195699 4294507519
-0.2854440808 -0.1028173715 0.5804957151 4294441727
-0.2850522101 -0.1020321324 0.5796988010 4294375934
-0.2850959003 -0.1014035791 0.5797876120 4294310141
-0.2847033143 -0.1006206498 0.5789892077 4294046969
-0.2877988219 -0.1010643765 0.5852844119 4293915383
-0.2891504765 -0.1008856818 0.5880332589 4294178555
-0.2987760305 -0.1883815080 0.6089838147 4293455610
-0.2988527417 -0.1877530962 0.6091402173 4293389817
-0.2993538976 -0.1873899996 0.6101616621 4293389817
-0.2994302809 -0.1867597103 0.6103174090 4293389817
-0.2995064855 -0.1861289591 0.6104726791 4293324024
-0.2995824516 -0.1854977161 0.6106275320 4293324024
-0.3000832498 -0.1851282120 0.6116482615 4293258231
-0.3001588583 -0.1844951212 0.6118023992 4293258231
-0.3002342880 -0.1838615388 0.6119561195 4293258231
-0.3003094792 -0.1832274944 0.6121093631 4293126645
-0.3003844321 -0.1825929731 0.6122621894 4293060852
-0.2996080220 -0.1814424992 0.6106796861 4293192438
-0.2996823490 -0.1808088273 0.6108311415 4293192438
-0.2993306220 -0.1799187511 0.6101142764 4293126645
-0.2994043827 -0.1792850345 0.6102645993 4293126645
-0.2994779348 -0.1786508560 0.6104145050 4293126645
-0.2995512486 -0.1780162156 0.6105639338 4293060852
-0.2996243238 -0.1773810983 0.6107128859 4292996085
-0.2996971905 -0.1767455190 0.6108613610 4292930292
-0.3001962304 -0.1763599962 0.6118785739 4292864499
-0.3002687395 -0.1757225841 0.6120263338 4292732913
-0.3007676303 -0.1753334105 0.6130432487 4292732400
-0.3008397818 -0.1746941805 0.6131902933 4292535021
-0.3009117246 -0.1740544885 0.6133369207 4292272104
-0.3009833992 -0.1734143347 0.6134830713 4292140518
-0.3010548651 -0.1727737188 0.6136287451 4292140005
-0.3015532494 -0.1723768115 0.6146445274 4291876833
-0.3016243577 -0.1717343777 0.6147894263 4291613659
-0.3021225333 -0.1713338345 0.6158049107 4291218901
-0.3021932840 -0.1706895977 0.6159490943 4290757580
-0.3026913106 -0.1702854037 0.6169642210 4290362822
-0.3027617037 -0.1696393490 0.6171076298 4289902271
-0.3028318286 -0.1689928323 0.6172506213 4289375927
-0.3029017150 -0.1683458686 0.6173930764 4288980908
-0.3029713929 -0.1676984578 0.6175350547 4288454564
-0.3030408025 -0.1670506150 0.6176765561 4288125854
-0.3035381138 -0.1666373461 0.6186902523 4288191647
-0.3036071658 -0.1659876853 0.6188309789 4288323233
-0.3036759794 -0.1653375775 0.6189712286 4288389026
-0.3037445545 -0.1646870375 0.6191110015 4288388771
-0.3038128912 -0.1640360653 0.6192502975 4288454564
-0.3038809896 -0.1633846313 0.6193890572 4288717222
-0.3039488196 -0.1627327800 0.6195273399 4288717222
-0.3044452369 -0.1623090953 0.6205391884 4288717222
-0.3045127094 -0.1616554409 0.6206766963 4288848808
-0.3045799136 -0.1610013545 0.6208136678 4288980394
-0.3046469092 -0.1603468359 0.6209502220 4288651429
-0.3051428199 -0.1599168181 0.6219609976 4288454050
-0.3052093983 -0.1592605114 0.6220967174 4288519843
-0.3048463762 -0.1583807170 0.6213567853 4288388256
-0.3049123585 -0.1577244848 0.6214913130 4288585635
-0.3049781322 -0.1570678204 0.6216253042 4288388257
-0.3050436378 -0.1564107388 0.6217588186 4288585636
-0.3051089048 -0.1557532400 0.6218918562 4289177773
-0.3047440946 -0.1548768729 0.6211482882 4289177773
-0.3048087656 -0.1542194486 0.6212801337 4289638070
-0.3044431806 -0.1533450335 0.6205349565 4290953930
-0.3040771782 -0.1524720490 0.6197889447 4291414481
-0.3037107289 -0.1516005099 0.6190420389 4290690758
-0.3033438623 -0.1507304162 0.6182942986 4290756553
-0.3021158576 -0.1494360268 0.6157912612 4290888139
-0.3004565835 -0.1479348689 0.6124092937 4290822346
-0.2983658314 -0.1462297589 0.6081477404 4290953932
-0.2962739468 -0.1445335597 0.6038839221 4290756553
-0.2941809297 -0.1428462863 0.5996178389 4290493381
-0.2925176024 -0.1413761675 0.5962275267 4290428104
-0.2908533216 -0.1399131268 0.5928352475 4290428104
-0.2896190882 -0.1386635154 0.5903195739 4290428104
-0.2888151705 -0.1376245469 0.5886809826 4290230725
-0.2875795066 -0.1363844723 0.5861623883 4290757069
-0.2867743075 -0.1353531629 0.5845211744 4292599273
-0.2859685421 -0.1343252361 0.5828788280 4293520375
-0.2847307920 -0.1330990195 0.5803559422 4292730859
-0.2834922969 -0.1318780631 0.5778315663 4291086034
-0.2826846242 -0.1308621615 0.5761852860 4291151827
-0.2818763554 -0.1298496425 0.5745378733 4291415253
-0.2806358039 -0.1286426187 0.5720092654 4291678425
-0.2798263133 -0.1276378483 0.5703593493 4292138976
-0.2794481814 -0.1268325150 0.5695886612 4292467941
-0.2795016468 -0.1262238026 0.5696976185 4292336355
-0.2791227996 -0.1254206002 0.5689254403 4292467941
-0.2787435651 -0.1246189326 0.5681524277 4292072929
-0.2787961364 -0.1240110621 0.5682595968 4291941343
-0.2788484991 -0.1234028563 0.5683662891 4292138722
-0.2789006233 -0.1227943078 0.5684725046 4292270308
-0.2789524794 -0.1221854165 0.5685782433 4292336101
-0.2794366777 -0.1217646748 0.5695651770 4292204515
-0.2794881761 -0.1211541593 0.5696700811 4291941343
-0.2795394063 -0.1205433086 0.5697745681 4292007136
-0.2795903981 -0.1199321225 0.5698785186 4292467687
-0.2805069089 -0.1196900234 0.5717465878 4292401894
-0.2805576026 -0.1190762743 0.5718498826 4292138722
-0.2806080282 -0.1184621975 0.5719526410 4291875550
-0.2810913324 -0.1180296540 0.5729377270 4291743964
-0.2811413407 -0.1174139678 0.5730397105 4291875550
-0.2811911106 -0.1167979613 0.5731411576 4292401894
-0.2812406421 -0.1161816195 0.5732421279 4292994031
-0.2812899351 -0.1155649573 0.5733425617 4294111994
-0.2813389599 -0.1149479672 0.5734425187 4294638335
-0.2818213403 -0.1145068184 0.5744257569 4294769919
-0.2818699777 -0.1138882414 0.5745248199 4294704127
-0.2819183469 -0.1132693365 0.5746234655 4294704127
-0.2824002802 -0.1128234267 0.5756057501 4294638335
-0.2824482322 -0.1122029424 0.5757035017 4294244350
-0.2829298675 -0.1117535383 0.5766851902 4293652213
-0.2829774022 -0.1111314669 0.5767821074 4294112764
-0.2830246985 -0.1105090827 0.5768784881 4293981178
-0.2830717266 -0.1098863855 0.5769743323 4293060076
-0.2835527360 -0.1094309613 0.5779547691 4292138974
-0.2835993469 -0.1088066921 0.5780497789 4292138974
-0.2836456895 -0.1081821173 0.5781442523 4292467939
-0.2836917937 -0.1075572371 0.5782381892 4292599525
-0.2841721475 -0.1070958078 0.5792173147 4292731111
-0.2842178047 -0.1064693555 0.5793103576 4292731109
-0.2842632234 -0.1058426127 0.5794029236 4292665316
-0.2843083739 -0.1052155644 0.5794949532 4292994281
-0.2843532860 -0.1045882180 0.5795865059 4293586418
-0.2843979299 -0.1039605811 0.5796775222 4294112762
-0.2848772705 -0.1034906432 0.5806545019 4294507519
-0.2849214673 -0.1028614566 0.5807445645 4294573311
-0.2845303416 -0.1020758972 0.5799474120 4294441727
-0.2841388583 -0.1012919694 0.5791494250 4294310141
-0.2850525379 -0.1009721383 0.5810117722 4294046969
-0.2859662473 -0.1006481797 0.5828741193 4293915638
-0.2868799567 -0.1003200859 0.5847365260 4294047224
-0.2987755239 -0.1799925566 0.6103645563 4293324537
-0.2979989946 -0.1788483560 0.6087781787 4293258744
-0.2980722189 -0.1782157570 0.6089278460 4293258744
-0.2981452644 -0.1775826961 0.6090769768 4293192951
-0.2982180715 -0.1769491583 0.6092257500 4293061620
-0.2982906401 -0.1763151586 0.6093739867 4293061620
-0.2987886071 -0.1759313196 0.6103913188 4292995827
-0.2988608479 -0.1752955019 0.6105388403 4292864241
-0.2993586659 -0.1749080122 0.6115558743 4292732655
-0.2994305491 -0.1742703617 0.6117026806 4292535276
-0.2995021939 -0.1736322492 0.6118490696 4292337384
-0.2995736003 -0.1729936898 0.6119949818 4292140005
-0.2996447980 -0.1723546684 0.6121404171 4291942626
-0.2997157574 -0.1717151850 0.6122853756 4291811040
-0.3002129197 -0.1713186055 0.6133010387 4291482073
-0.3002835214 -0.1706773192 0.6134452224 4291087315
-0.3007805347 -0.1702770889 0.6144605875 4290692557
-0.3012774885 -0.1698746085 0.6154758334 4290166213
-0.3013476133 -0.1692301333 0.6156190038 4289770685
-0.3014174700 -0.1685852110 0.6157617569 4289375927
-0.3014870882 -0.1679398417 0.6159039736 4289113009
-0.3015564978 -0.1672940254 0.6160457730 4288586665
-0.3020528853 -0.1668838114 0.6170598269 4288322978
-0.3021219075 -0.1662361920 0.6172008514 4288322978
-0.3021906912 -0.1655881256 0.6173413396 4288322978
-0.3022592366 -0.1649396271 0.6174814105 4288388771
-0.3023275435 -0.1642906815 0.6176209450 4288454564
-0.3023956120 -0.1636412889 0.6177600026 4288454564
-0.3024634421 -0.1629914641 0.6178985834 4288783015
-0.3025310338 -0.1623412073 0.6180366278 4288914601
-0.3030263782 -0.1619192213 0.6190485954 4288914600
-0.3030935824 -0.1612671614 0.6191859245 4288914600
-0.3031605482 -0.1606146842 0.6193227172 4288914600
-0.3032272756 -0.1599617749 0.6194589734 4288848807
-0.3037221432 -0.1595334411 0.6204699278 4288651429
-0.3037884533 -0.1588787436 0.6206054688 4288585636
-0.3034259975 -0.1580004543 0.6198649406 4288519589
-0.3039203882 -0.1575680673 0.6208749413 4288388003
-0.3039859831 -0.1569120884 0.6210089326 4288256671
-0.3040513396 -0.1562556773 0.6211424470 4288256671
-0.3041164279 -0.1555988640 0.6212754250 4288519843
-0.3037522733 -0.1547230780 0.6205314994 4288717222
-0.3038167953 -0.1540663391 0.6206632853 4289177519
-0.3034518361 -0.1531925052 0.6199177504 4290032828
-0.3035157919 -0.1525358558 0.6200483441 4291085518
-0.3031500876 -0.1516639888 0.6193012595 4290756553
-0.3027839363 -0.1507935524 0.6185532808 4290493897
-0.3015582263 -0.1494986564 0.6160493493 4290493897
-0.3003317416 -0.1482089311 0.6135437489 4290362565
-0.2986747324 -0.1467132866 0.6101586819 4290428358
-0.2970167696 -0.1452247053 0.6067716479 4290428358
-0.2949279249 -0.1435339451 0.6025043726 4290428358
-0.2928379774 -0.1418521404 0.5982348323 4290361795
-0.2911770046 -0.1403866410 0.5948415995 4290493381
