VERSION 0.7
FIELDS x y z rgba
SIZE 4 4 4 4
TYPE F F F U
COUNT 1 1 1 1
WIDTH 920
HEIGHT 1
VIEWPOINT 0.0 0.0 0.0 1.0 0.0 0.0 0.0
POINTS 920
DATA ascii
-0.2603256702 -0.1250163466 0.5531523228 4293850103
-0.2603769302 -0.1244262531 0.5532612205 4293915896
-0.2600106001 -0.1236373484 0.5524828434 4293915896
-0.2731979191 -0.1741778255 0.5818771124 4291942626
-0.2732671797 -0.1735753119 0.5820246339 4291679454
-0.2737466395 -0.1732320637 0.5830458403 4291284694
-0.2738155723 -0.1726277173 0.5831926465 4290758350
-0.2738843262 -0.1720229238 0.5833390951 4290297029
-0.2739528716 -0.1714176834 0.5834850669 4289639099
-0.2740211785 -0.1708119810 0.5836305618 4288981171
-0.2740893066 -0.1702058166 0.5837756395 4288191655
-0.2741572261 -0.1695992202 0.5839203000 4287731356
-0.2746360600 -0.1692455262 0.5849401355 4287731356
-0.2747036517 -0.1686371118 0.5850841403 4287533977
-0.2747710347 -0.1680282354 0.5852276683 4287862942
-0.2752496302 -0.1676695645 0.5862470269 4288125860
-0.2749051452 -0.1668091714 0.5855133533 4287994274
-0.2753835320 -0.1664477736 0.5865322351 4288981171
-0.2754501700 -0.1658362150 0.5866741538 4290494410
-0.2759284377 -0.1654711813 0.5876927972 4291546585
-0.2759947479 -0.1648578197 0.5878340006 4291743964
-0.2760608196 -0.1642440110 0.5879747868 4291546585
-0.2761267126 -0.1636297703 0.5881150961 4291612378
-0.2757801414 -0.1627717763 0.5873769522 4291743965
-0.2754331529 -0.1619151831 0.5866379142 4291743965
-0.2746733427 -0.1608185321 0.5850195885 4291480793
-0.2735004127 -0.1594845653 0.5825214386 4291678172
-0.2682005167 -0.1557593942 0.5712333322 4291875551
-0.2715648711 -0.1570706218 0.5783989429 4291941344
-0.2637847066 -0.1519464105 0.5618281960 4291612379
-0.2605426610 -0.1494623423 0.5549229980 4291151828
-0.2589508593 -0.1479364038 0.5515326858 4291020242
-0.2573580742 -0.1464174390 0.5481402874 4291086035
-0.2578302920 -0.1460759640 0.5491459966 4291349207
-0.2566493452 -0.1447995454 0.5466307998 4291743965
-0.2567077875 -0.1442250162 0.5467551947 4291875551
-0.2567659914 -0.1436501145 0.5468792319 4291546586
-0.2568240166 -0.1430748105 0.5470027924 4291349207
-0.2568818331 -0.1424991190 0.5471258759 4291283414
-0.2569394112 -0.1419230253 0.5472485423 4291415000
-0.2569968104 -0.1413465589 0.5473707914 4291546586
-0.2570540011 -0.1407697052 0.5474925637 4291415000
-0.2571109533 -0.1401924789 0.5476139188 4291020242
-0.2575818598 -0.1398396790 0.5486168861 4290625737
-0.2576384842 -0.1392607391 0.5487375259 4289573049
-0.2581092417 -0.1389043927 0.5497401357 4289178037
-0.2577511668 -0.1381017268 0.5489774346 4289507002
-0.2586361468 -0.1379638463 0.5508623719 4289704381
-0.2591066957 -0.1376016885 0.5518645644 4289704381
-0.2591625452 -0.1370180696 0.5519835353 4289770174
-0.2596329451 -0.1366523504 0.5529854298 4289967553
-0.2601032853 -0.1362843961 0.5539872050 4290428617
-0.2605736256 -0.1359141916 0.5549889207 4290889168
-0.2606288791 -0.1353262514 0.5551066399 4291086547
-0.2610990405 -0.1349525005 0.5561079979 4291086547
-0.2607387602 -0.1341492683 0.5553407073 4291086547
-0.2603780925 -0.1333475411 0.5545725226 4290954961
-0.2604324222 -0.1327590495 0.5546882153 4291218133
-0.2604865134 -0.1321702003 0.5548034310 4291744477
-0.2601248324 -0.1313711256 0.5540331006 4291745247
-0.2601784170 -0.1307824850 0.5541472435 4291876833
-0.2598160505 -0.1299854964 0.5533754230 4292008419
-0.2598690987 -0.1293970793 0.5534884334 4292271591
-0.2599219382 -0.1288082898 0.5536009669 4292797163
-0.2599745393 -0.1282191426 0.5537130237 4293060335
-0.2596108913 -0.1274254322 0.5529384613 4293389554
-0.2596629858 -0.1268365234 0.5530493855 4293718519
-0.2597148418 -0.1262472570 0.5531598330 4293784312
-0.2597664893 -0.1256576329 0.5532698631 4293652726
-0.2598178983 -0.1250676662 0.5533793569 4293718519
-0.2598690987 -0.1244773492 0.5534884334 4293784312
-0.2599200904 -0.1238866821 0.5535969734 4293784310
-0.2723197341 -0.1733836681 0.5813820362 4291679454
-0.2723886073 -0.1727813929 0.5815290213 4291218903
-0.2724572718 -0.1721786708 0.5816756487 4290758352
-0.2725257277 -0.1715754867 0.5818217993 4290362824
-0.2725939751 -0.1709718406 0.5819674730 4289770687
-0.2726620138 -0.1703677475 0.5821127295 4289112757
-0.2727298439 -0.1697632074 0.5822575688 4288257448
-0.2732076943 -0.1694125831 0.5832777619 4287731356
-0.2732752264 -0.1688062251 0.5834218860 4287665563
-0.2733425200 -0.1681994200 0.5835655928 4287665563
-0.2734096348 -0.1675921828 0.5837088823 4287862942
-0.2738871574 -0.1672352105 0.5847283006 4288125860
-0.2739539444 -0.1666261554 0.5848708749 4288454825
-0.2744313180 -0.1662655473 0.5858901143 4289573306
-0.2744977772 -0.1656546891 0.5860319734 4290691787
-0.2745640278 -0.1650433838 0.5861734152 4291481305
-0.2746300697 -0.1644316465 0.5863143802 4291744477
-0.2746958733 -0.1638194621 0.5864549279 4291678171
-0.2747614980 -0.1632068306 0.5865949392 4291678171
-0.2748268843 -0.1625937670 0.5867345929 4291678172
-0.2744805515 -0.1617377847 0.5859951377 4291678172
-0.2733105719 -0.1604000628 0.5834973454 4291349207
-0.2725515068 -0.1593080759 0.5818768144 4291678172
-0.2701446116 -0.1572604477 0.5767382979 4292007137
-0.2669125497 -0.1547458172 0.5698380470 4292007137
-0.2628547251 -0.1517697424 0.5611749291 4291612379
-0.2600310743 -0.1495225877 0.5551466942 4291151828
-0.2580302656 -0.1477600187 0.5508750677 4291151828
-0.2564405799 -0.1462413967 0.5474812388 4291283414
-0.2573241889 -0.1461349279 0.5493676662 4291546586
-0.2561456263 -0.1448580176 0.5468515158 4291941344
-0.2562039793 -0.1442832947 0.5469760895 4291875551
-0.2562621236 -0.1437081695 0.5471002460 4291480793
-0.2563200891 -0.1431326568 0.5472239852 4291415000
-0.2563778162 -0.1425567567 0.5473472476 4291546586
-0.2564353645 -0.1419804692 0.5474700332 4291480793
-0.2564926744 -0.1414037943 0.5475924611 4291743965
-0.2569629252 -0.1410535127 0.5485963821 4291612379
-0.2570199072 -0.1404751390 0.5487180352 4290888656
-0.2570767105 -0.1398963779 0.5488392711 4290296772
-0.2571332753 -0.1393172294 0.5489600897 4289704635
-0.2571896613 -0.1387377083 0.5490804315 4289573049
-0.2576594055 -0.1383799165 0.5500832796 4289902014
-0.2581291199 -0.1380198896 0.5510860682 4289901760
-0.2581850290 -0.1374373585 0.5512054563 4289638588
-0.2586545646 -0.1370737702 0.5522079468 4289441722
-0.2591241002 -0.1367079318 0.5532103181 4289639101
-0.2591795623 -0.1361223906 0.5533286929 4290165445
-0.2596488893 -0.1357530057 0.5543307662 4291020754
-0.2601182163 -0.1353813559 0.5553327203 4291415512
-0.2601732016 -0.1347928345 0.5554500818 4291547098
-0.2602279782 -0.1342039406 0.5555670261 4291547099
-0.2598680556 -0.1334019005 0.5547986031 4291349720
-0.2599223256 -0.1328132004 0.5549144745 4291547099
-0.2599763572 -0.1322241277 0.5550298095 4291810271
-0.2600301504 -0.1316346973 0.5551446676 4291941856
-0.2596689463 -0.1308358908 0.5543735027 4292468200
-0.2597222328 -0.1302466691 0.5544872880 4292797163
-0.2593603432 -0.1294499636 0.5537146330 4292994542
-0.2594130933 -0.1288609654 0.5538273454 4293521140
-0.2594656348 -0.1282715946 0.5539395213 4293915898
-0.2595179677 -0.1276818812 0.5540512204 4293915898
-0.2595700920 -0.1270917952 0.5541624427 4293652726
-0.2596219778 -0.1265013665 0.5542732477 4293323761
-0.2596736550 -0.1259105802 0.5543835759 4293126382
-0.2597250938 -0.1253194511 0.5544933677 4293257968
-0.2597763240 -0.1247279570 0.5546027422 4293455347
-0.2594116032 -0.1239375025 0.5538240671 4293652726
-0.2713733017 -0.1731917411 0.5807384849 4291679454
-0.2714419663 -0.1725901663 0.5808854103 4291218903
-0.2715104520 -0.1719881445 0.5810319781 4290824145
-0.2715787292 -0.1713856608 0.5811780691 4290428617
-0.2712376714 -0.1705255210 0.5804482698 4289836480
-0.2713054419 -0.1699230373 0.5805932283 4289178550
-0.2713729739 -0.1693201065 0.5807378292 4288323241
-0.2718497515 -0.1689711958 0.5817580819 4287665563
-0.2719169855 -0.1683664620 0.5819019675 4287533977
-0.2719840109 -0.1677612662 0.5820453763 4287731356
-0.2724605501 -0.1674073637 0.5830652118 4287797149
-0.2725272775 -0.1668003798 0.5832079649 4288257446
-0.2730036676 -0.1664428413 0.5842275023 4289178548
-0.2730700672 -0.1658340544 0.5843695998 4289836478
-0.2731362581 -0.1652248055 0.5845112205 4290494408
-0.2732022405 -0.1646151245 0.5846523643 4291415512
-0.2732679844 -0.1640049964 0.5847930908 4291810270
-0.2733335197 -0.1633944362 0.5849333405 4291744477
-0.2733988464 -0.1627834290 0.5850731730 4291612891
-0.2734639645 -0.1621719897 0.5852125287 4291612892
-0.2731181681 -0.1613175273 0.5844725370 4291547099
-0.2719503641 -0.1599811465 0.5819733739 4291349207
-0.2707817554 -0.1586498469 0.5794726014 4291743965
-0.2692013681 -0.1570838243 0.5760905147 4292007137
-0.2659756243 -0.1545691341 0.5691874623 4291941344
-0.2619257569 -0.1515928209 0.5605207682 4291546586
-0.2591076195 -0.1493457109 0.5544899702 4291151828
-0.2575220764 -0.1478195190 0.5510968566 4291217621
-0.2567585111 -0.1467707306 0.5494628549 4291480793
-0.2559943497 -0.1457252502 0.5478275418 4291809758
-0.2556412816 -0.1449164152 0.5470719934 4292138723
-0.2556995749 -0.1443414837 0.5471967459 4292072930
-0.2557576597 -0.1437661648 0.5473210216 4291415000
-0.2558155358 -0.1431904435 0.5474448800 4291415000
-0.2562852502 -0.1428439915 0.5484500527 4291612379
-0.2559306622 -0.1420378536 0.5476912856 4291546586
-0.2559879422 -0.1414609700 0.5478138328 4291743965
-0.2564572990 -0.1411105543 0.5488182306 4291480793
-0.2565142214 -0.1405319721 0.5489400625 4290559691
-0.2565709651 -0.1399530023 0.5490614772 4290164932
-0.2566274703 -0.1393736452 0.5491824150 4290164932
-0.2566837668 -0.1387939155 0.5493029356 4290231238
-0.2567398548 -0.1382137984 0.5494229794 4290297031
-0.2572086155 -0.1378545761 0.5504260659 4290362824
-0.2576773167 -0.1374931186 0.5514290929 4290362824
-0.2581459880 -0.1371293962 0.5524320602 4290362824
-0.2582015097 -0.1365449727 0.5525508523 4290625996
-0.2586700320 -0.1361776888 0.5535534620 4291283927
-0.2591384947 -0.1358081698 0.5545560122 4291876064
-0.2591935396 -0.1352207363 0.5546738505 4291941857
-0.2596618533 -0.1348476559 0.5556759834 4291810271
-0.2597165704 -0.1342585534 0.5557931066 4291810271
-0.2593573928 -0.1334562153 0.5550245047 4291876064
-0.2594116032 -0.1328672916 0.5551404357 4292073443
-0.2594655454 -0.1322780102 0.5552559495 4292139236
-0.2595193088 -0.1316883564 0.5553709865 4292402407
-0.2591588497 -0.1308892369 0.5545995831 4293126130
-0.2592120767 -0.1302998066 0.5547134876 4293520886
-0.2592650950 -0.1297099888 0.5548269153 4293586679
-0.2589036524 -0.1289135665 0.5540534258 4293915898
-0.2589561343 -0.1283239871 0.5541657209 4294113277
-0.2590084076 -0.1277340502 0.5542775989 4293718519
-0.2590604424 -0.1271437407 0.5543889999 4293389554
-0.2591122687 -0.1265530884 0.5544999242 4292929003
-0.2591638863 -0.1259620935 0.5546103716 4292797417
-0.2592152655 -0.1253707260 0.5547202826 4293060589
-0.2592664361 -0.1247790232 0.5548297763 4293455347
-0.2593173683 -0.1241869628 0.5549387932 4293784310
-0.2696120441 -0.1724776626 0.5783440471 4291745247
-0.2700883150 -0.1721386313 0.5793656707 4291350489
-0.2701565027 -0.1715382040 0.5795119405 4290889938
-0.2702244818 -0.1709373295 0.5796577930 4290428617
-0.2698839903 -0.1700787097 0.5789273381 4289836480
-0.2699514627 -0.1694778353 0.5790720582 4289178550
-0.2704272270 -0.1691320091 0.5800926685 4288389034
-0.2704943717 -0.1685293168 0.5802367330 4287665563
-0.2709700465 -0.1681798548 0.5812570453 4287468184
-0.2710368931 -0.1675753742 0.5814004540 4287731356
-0.2711035311 -0.1669704467 0.5815433860 4287731356
-0.2711699605 -0.1663650572 0.5816859007 4288520618
-0.2716453075 -0.1660092473 0.5827055573 4289770685
-0.2721206248 -0.1656511724 0.5837251544 4289836478
-0.2721866369 -0.1650426388 0.5838667154 4290165443
-0.2722524107 -0.1644336581 0.5840078592 4291218131
-0.2723180056 -0.1638242304 0.5841485262 4291744475
-0.2719737589 -0.1629689336 0.5834101439 4291678684
-0.2720388174 -0.1623595506 0.5835496783 4291612891
-0.2721036673 -0.1617497355 0.5836887956 4291612892
-0.2717584074 -0.1608968079 0.5829482079 4291547099
-0.2705927789 -0.1595617533 0.5804477334 4291349720
-0.2694263160 -0.1582317948 0.5779456496 4291744478
-0.2678489089 -0.1566670090 0.5745619535 4291941344
-0.2646293938 -0.1541531831 0.5676557422 4291941344
-0.2609977722 -0.1514156312 0.5598655939 4291546586
-0.2581851482 -0.1491685659 0.5538322330 4291217621
-0.2570132613 -0.1478789449 0.5513184071 4291283414
-0.2562512457 -0.1468297541 0.5496838093 4291612379
-0.2554886639 -0.1457838863 0.5480480194 4292007137
-0.2551363409 -0.1449747533 0.5472922325 4292336102
-0.2551945448 -0.1443996131 0.5474171042 4292204516
-0.2552525699 -0.1438240856 0.5475415587 4291546586
-0.2553103864 -0.1432481706 0.5476655364 4291480793
-0.2553679943 -0.1426718533 0.5477891564 4291809758
-0.2554253936 -0.1420951486 0.5479122400 4291875551
-0.2554825842 -0.1415180564 0.5480349660 4291875551
-0.2555395663 -0.1409405917 0.5481571555 4291415000
-0.2555963397 -0.1403627247 0.5482789874 4290493898
-0.2556529045 -0.1397844702 0.5484002829 4290362824
-0.2557092607 -0.1392058432 0.5485212207 4290691789
-0.2561772764 -0.1388500631 0.5495251417 4290954961
-0.2562333047 -0.1382697374 0.5496453047 4290954961
-0.2562891245 -0.1376890242 0.5497650504 4291218133
-0.2567568719 -0.1373283714 0.5507683754 4291415512
-0.2572245598 -0.1369654685 0.5517717004 4291547098
-0.2576922476 -0.1366003305 0.5527748466 4291876063
-0.2581598759 -0.1362329274 0.5537779927 4292073443
-0.2582149804 -0.1356465966 0.5538962483 4292336615
-0.2586824596 -0.1352756321 0.5548989773 4292139236
-0.2587372363 -0.1346876174 0.5550164580 4292007650
-0.2587917745 -0.1340992153 0.5551335216 4292205029
-0.2588461339 -0.1335104555 0.5552500486 4292402408
-0.2589002550 -0.1329213232 0.5553661585 4292533994
-0.2585411370 -0.1321207583 0.5545958877 4292533994
-0.2585947514 -0.1315318346 0.5547108650 4292928751
-0.2586481273 -0.1309425384 0.5548253655 4293455095
-0.2582880557 -0.1301446408 0.5540529490 4293718265
-0.2583408952 -0.1295555532 0.5541663170 4293784058
-0.2583935559 -0.1289661229 0.5542792678 4293784058
-0.2584459782 -0.1283763200 0.5543917418 4293389300
-0.2584981918 -0.1277861595 0.5545037389 4292994796
-0.2585501671 -0.1271956414 0.5546152592 4293060589
-0.2586019635 -0.1266047657 0.5547263026 4293126382
-0.2586534917 -0.1260135323 0.5548368692 4293192175
-0.2587048113 -0.1254219562 0.5549469590 4293586931
-0.2587559223 -0.1248300299 0.5550566316 4293981689
-0.2686691582 -0.1722849458 0.5776978135 4291811040
-0.2687372863 -0.1716865897 0.5778442621 4291416282
-0.2688051760 -0.1710877866 0.5779902935 4290955731
-0.2688728869 -0.1704885215 0.5781358480 4290428617
-0.2689403594 -0.1698888093 0.5782809854 4289836480
-0.2694152594 -0.1695451438 0.5793020725 4289244343
-0.2694824338 -0.1689436138 0.5794464946 4288454827
-0.2695494294 -0.1683416367 0.5795905590 4287731356
-0.2692083120 -0.1674854606 0.5788570642 4287599770
-0.2696827650 -0.1671363562 0.5798772573 4287731102
-0.2697491348 -0.1665330380 0.5800199509 4287928481
-0.2702234685 -0.1661802977 0.5810399055 4289046962
-0.2702895105 -0.1655751914 0.5811819434 4289968064
-0.2707637548 -0.1652188152 0.5822016001 4289770685
-0.2708294690 -0.1646119058 0.5823429823 4289968064
-0.2708950043 -0.1640045494 0.5824838281 4291086547
-0.2709603012 -0.1633967459 0.5826242566 4291810270
-0.2710253894 -0.1627885103 0.5827642083 4291678685
-0.2706813812 -0.1619352102 0.5820245743 4291612892
-0.2707459629 -0.1613270193 0.5821633935 4291547099
-0.2704012394 -0.1604756117 0.5814221501 4291283927
-0.2692377567 -0.1591418982 0.5789204240 4291218134
-0.2680734992 -0.1578132808 0.5764170289 4291481306
-0.2664990723 -0.1562497467 0.5730316639 4292007137
-0.2636952698 -0.1539758891 0.5670028329 4292138723
-0.2604803741 -0.1514763385 0.5600900650 4291809758
-0.2576733828 -0.1492284089 0.5540544391 4291349207
-0.2560940981 -0.1477019638 0.5506586432 4291415000
-0.2549237013 -0.1464179158 0.5481420159 4291678172
-0.2558022439 -0.1463113874 0.5500310659 4292072930
-0.2546307743 -0.1450330317 0.5475121737 4292533481
-0.2546889186 -0.1444576830 0.5476372242 4292336102
-0.2547468841 -0.1438819468 0.5477617979 4291809758
-0.2548046112 -0.1433058232 0.5478859544 4291743965
-0.2548621595 -0.1427292973 0.5480096936 4292007137
-0.2549194694 -0.1421523988 0.5481329560 4292204516
-0.2549766004 -0.1415750980 0.5482558012 4292204516
-0.2550335228 -0.1409974098 0.5483781695 4291941344
-0.2550902367 -0.1404193342 0.5485001206 4291546586
-0.2551467419 -0.1398408860 0.5486215949 4291612891
-0.2552030385 -0.1392620504 0.5487426519 4291876063
-0.2556701601 -0.1389061511 0.5497471094 4291941856
-0.2557261288 -0.1383256167 0.5498673916 4291810270
-0.2557818592 -0.1377446949 0.5499873161 4291876063
-0.2558374107 -0.1371634007 0.5501067042 4292007649
-0.2563041449 -0.1368013024 0.5511103272 4292007649
-0.2567708492 -0.1364369690 0.5521138310 4292205028
-0.2572375238 -0.1360703856 0.5531172752 4292073442
-0.2577041388 -0.1357015520 0.5541206002 4292139235
-0.2577589750 -0.1351146251 0.5542384982 4292205028
-0.2578136027 -0.1345273256 0.5543559790 4292336614
-0.2578680217 -0.1339396536 0.5544729829 4292533994
-0.2579222023 -0.1333516091 0.5545894504 4292599787
-0.2579761744 -0.1327632070 0.5547055602 4292533994
-0.2580299377 -0.1321744174 0.5548211336 4292862959
-0.2580834627 -0.1315852702 0.5549362302 4293192693
-0.2581368089 -0.1309957653 0.5550509095 4293455865
-0.2577774525 -0.1301975697 0.5542782545 4293652474
-0.2578302622 -0.1296082586 0.5543918014 4293520888
-0.2578828335 -0.1290186048 0.5545048714 4293323507
-0.2579352260 -0.1284285784 0.5546174645 4293126128
-0.2579873502 -0.1278382093 0.5547295809 4293191921
-0.2580392957 -0.1272474676 0.5548412204 4293520886
-0.2580910027 -0.1266563684 0.5549524426 4293521140
-0.2581425011 -0.1260649264 0.5550631285 4293586933
-0.2673210204 -0.1718308032 0.5761750340 4291811040
-0.2673888505 -0.1712340564 0.5763211846 4291416027
-0.2674564421 -0.1706368625 0.5764669180 4291021269
-0.2675238550 -0.1700392216 0.5766122341 4290494410
-0.2675910592 -0.1694411188 0.5767570734 4289968066
-0.2680648565 -0.1690991670 0.5777782202 4289375929
-0.2681317627 -0.1684992611 0.5779224634 4288520620
-0.2681984603 -0.1678988934 0.5780662298 4287665563
-0.2682649493 -0.1672980934 0.5782095194 4287797149
-0.2683312297 -0.1666968465 0.5783523917 4287796895
-0.2683973312 -0.1660951525 0.5784948468 4288257446
-0.2692779601 -0.1659952551 0.5803929567 4289507515
-0.2693438232 -0.1653908491 0.5805348754 4289968066
-0.2690019011 -0.1645366997 0.5797979236 4289639101
-0.2694749236 -0.1641806960 0.5808175206 4289902273
-0.2695401609 -0.1635749638 0.5809581280 4290757582
-0.2696052194 -0.1629687846 0.5810982585 4291612891
-0.2696700394 -0.1623621732 0.5812379718 4291481306
-0.2693265676 -0.1615104079 0.5804976821 4291547099
-0.2689827085 -0.1606600434 0.5797565579 4291481052
-0.2690466940 -0.1600539684 0.5798944831 4291217880
-0.2678853869 -0.1587215811 0.5773914456 4291152341
-0.2667233050 -0.1573943049 0.5748866796 4291481306
-0.2651518583 -0.1558320224 0.5714996457 4292072930
-0.2623534799 -0.1535591185 0.5654681921 4292401895
-0.2595535815 -0.1512987167 0.5594333410 4292072930
-0.2571609616 -0.1492881775 0.5542763472 4291480793
-0.2555848658 -0.1477611512 0.5508792996 4291480793
-0.2548258901 -0.1467121094 0.5492433906 4291678172
-0.2544754446 -0.1459009349 0.5484880805 4292072930
-0.2541246116 -0.1450912207 0.5477318764 4292665067
-0.2541826963 -0.1445156783 0.5478571057 4292665067
-0.2542405725 -0.1439397335 0.5479818583 4292204516
-0.2542982399 -0.1433634013 0.5481061339 4291941344
-0.2543556988 -0.1427866817 0.5482299924 4292007137
-0.2544129789 -0.1422095597 0.5483534336 4292270309
-0.2544700205 -0.1416320652 0.5484763980 4292401895
-0.2545268834 -0.1410541683 0.5485989451 4292730860
-0.2545835078 -0.1404758990 0.5487210155 4292994032
-0.2546399534 -0.1398972273 0.5488426685 4293126130
-0.2542860508 -0.1390938312 0.5480798483 4293060337
-0.2547521889 -0.1387387514 0.5490846038 4292797165
-0.2548080087 -0.1381589323 0.5492048860 4292336614
-0.2548635900 -0.1375787407 0.5493246913 4292073442
-0.2549189925 -0.1369981766 0.5494440794 4292007649
-0.2553847432 -0.1366368979 0.5504480004 4291941856
-0.2554398179 -0.1360546350 0.5505666733 4292073442
-0.2559054196 -0.1356897950 0.5515702367 4292139235
-0.2567818463 -0.1355395764 0.5534592271 4292205028
-0.2568365335 -0.1349533796 0.5535770655 4292402407
-0.2573020160 -0.1345817894 0.5545803905 4292533993
-0.2573563755 -0.1339938939 0.5546975136 4292665579
-0.2574104965 -0.1334056407 0.5548141599 4292402407
-0.2574644089 -0.1328170151 0.5549303889 4292336614
-0.2575180829 -0.1322280169 0.5550460815 4293126130
-0.2575715780 -0.1316386610 0.5551613569 4293455610
-0.2576248348 -0.1310489178 0.5552761555 4293652989
-0.2576778829 -0.1304588318 0.5553904772 4293390072
-0.2577306926 -0.1298683733 0.5555043817 4292732142
-0.2577833235 -0.1292775422 0.5556177497 4292797165
-0.2578356862 -0.1286863536 0.5557306409 4293126130
-0.2578878701 -0.1280948222 0.5558431149 4293586679
-0.2575277686 -0.1272992343 0.5550670028 4293784058
-0.2575794160 -0.1267079264 0.5551782846 4293652211
-0.2576308548 -0.1261162609 0.5552891493 4293652211
-0.2576820552 -0.1255242378 0.5553995371 4294113015
-0.2659754753 -0.1713761687 0.5746505260 4291679454
-0.2660430074 -0.1707810313 0.5747964382 4291547613
-0.2661103308 -0.1701854616 0.5749419332 4291152855
-0.2661774755 -0.1695894152 0.5750869513 4290363594
-0.2662443817 -0.1689929366 0.5752315521 4289771457
-0.2667170763 -0.1686527133 0.5762527585 4289113527
-0.2663776278 -0.1677986234 0.5755193830 4288192425
-0.2668501139 -0.1674556732 0.5765402317 4287731102
-0.2673225999 -0.1671104580 0.5775610209 4287533723
-0.2673887014 -0.1665099114 0.5777038336 4288060067
-0.2674545944 -0.1659089178 0.5778462291 4289178548
-0.2679268718 -0.1655587107 0.5788666010 4289770687
-0.2675857842 -0.1647056192 0.5781296492 4289573308
-0.2676510811 -0.1641032994 0.5782707334 4289375929
-0.2677161396 -0.1635005325 0.5784112811 4289507515
-0.2677810192 -0.1628973484 0.5785514712 4290297031
-0.2678456604 -0.1622937024 0.5786911249 4291349719
-0.2679101229 -0.1616896391 0.5788304210 4291349719
-0.2679743469 -0.1610851288 0.5789691806 4291547098
-0.2676310241 -0.1602362990 0.5782274008 4291481306
-0.2672873139 -0.1593888700 0.5774847865 4291283927
-0.2665356398 -0.1583008170 0.5758607388 4291349720
-0.2653757036 -0.1569748819 0.5733547211 4292007650
-0.2638072670 -0.1554138362 0.5699660182 4292401895
-0.2585673332 -0.1517062038 0.5586449504 4292599274
-0.2618912458 -0.1530277282 0.5658263564 4292401895
-0.2566479445 -0.1493478864 0.5544980168 4291809758
-0.2550750375 -0.1478202790 0.5510997176 4291415000
-0.2539094090 -0.1465352476 0.5485813022 4291612379
-0.2543762326 -0.1461940259 0.5495898724 4292204516
-0.2536178231 -0.1451493502 0.5479513407 4292730860
-0.2536758482 -0.1445735991 0.5480766892 4292730860
-0.2537336349 -0.1439974606 0.5482015610 4292336102
-0.2537912428 -0.1434209198 0.5483260155 4292138723
-0.2538486421 -0.1428439915 0.5484500527 4292072930
-0.2539058328 -0.1422666758 0.5485736132 4292138723
-0.2539628446 -0.1416889578 0.5486967564 4292270309
-0.2540196180 -0.1411108673 0.5488194227 4292665067
-0.2540761828 -0.1405323744 0.5489416718 4293059825
-0.2537233233 -0.1397281438 0.5481792688 4293388789
-0.2533700764 -0.1389253736 0.5474160910 4293125617
-0.2538352609 -0.1385711133 0.5484210849 4292730859
-0.2538909018 -0.1379920244 0.5485413671 4292336101
-0.2539463639 -0.1374125481 0.5486611128 4292138722
-0.2544112802 -0.1370534003 0.5496655703 4292072929
-0.2540566027 -0.1362524778 0.5488993526 4292270308
-0.2545212805 -0.1358907074 0.5499032736 4292533480
-0.2549859285 -0.1355266869 0.5509071350 4292599274
-0.2558605671 -0.1353773624 0.5527968407 4292599274
-0.2563252151 -0.1350079030 0.5538007617 4292599274
-0.2563796043 -0.1344211102 0.5539183021 4292599274
-0.2568441033 -0.1340480894 0.5549218059 4292401895
-0.2568981647 -0.1334596127 0.5550386310 4292270309
-0.2569519877 -0.1328707635 0.5551549792 4292533481
-0.2570056319 -0.1322815567 0.5552708507 4293125618
-0.2570590377 -0.1316919774 0.5553862453 4293191670
-0.2571122348 -0.1311020255 0.5555011630 4292928498
-0.2571652234 -0.1305117160 0.5556156635 4292665579
-0.2572180033 -0.1299210340 0.5557296276 4292533993
-0.2572705448 -0.1293299943 0.5558431745 4292599786
-0.2573228776 -0.1287385970 0.5559562445 4293191923
-0.2573749721 -0.1281468272 0.5560687780 4293784058
-0.2570156455 -0.1273509413 0.5552924275 4293718265
-0.2570672333 -0.1267594099 0.5554038882 4293455347
-0.2571185827 -0.1261675209 0.5555148721 4293850105
-0.2642279267 -0.1706596911 0.5722481012 4291811040
-0.2646998167 -0.1703275144 0.5732700229 4291482075
-0.2647668421 -0.1697335541 0.5734152198 4291021524
-0.2648336887 -0.1691391319 0.5735599995 4290363594
-0.2653053701 -0.1688019782 0.5745815635 4289771457
-0.2653719187 -0.1682057530 0.5747256279 4289047732
-0.2654382586 -0.1676090807 0.5748693347 4288192423
-0.2659097314 -0.1672669500 0.5758904219 4287731102
-0.2659757733 -0.1666684598 0.5760334134 4287336344
-0.2664471567 -0.1663226932 0.5770543218 4288454825
-0.2665128708 -0.1657224149 0.5771966577 4289836478
-0.2665783763 -0.1651216894 0.5773385167 4289639101
-0.2666437030 -0.1645205170 0.5774800181 4289244343
-0.2667087913 -0.1639189124 0.5776209831 4289507515
-0.2667737007 -0.1633168608 0.5777615309 4289639101
-0.2668384016 -0.1627143770 0.5779016614 4289902273
-0.2669028640 -0.1621114612 0.5780413151 4290954961
-0.2669671476 -0.1615080982 0.5781804919 4291283926
-0.2666247785 -0.1606593877 0.5774390101 4291547098
-0.2658754587 -0.1595681012 0.5758161545 4291678685
-0.2655321658 -0.1587231308 0.5750727057 4291678685
-0.2647817433 -0.1576374322 0.5734475255 4291678685
-0.2640307546 -0.1565549821 0.5718210340 4292007650
-0.2624652982 -0.1549952030 0.5684307218 4292336102
-0.2604918778 -0.1532029957 0.5641567707 4292599274
-0.2581101358 -0.1511811465 0.5589985847 4292336102
-0.2561343014 -0.1494075060 0.5547193885 4291678172
-0.2549718916 -0.1481159329 0.5522019863 4291415000
-0.2538087368 -0.1468295008 0.5496828556 4291612379
-0.2542747557 -0.1464872360 0.5506921411 4292007137
-0.2535180151 -0.1454412490 0.5490532517 4292270309
-0.2531683743 -0.1446314603 0.5482960343 4292270309
-0.2532261312 -0.1440551132 0.5484210849 4292138723
-0.2536915243 -0.1437094063 0.5494289994 4292007137
-0.2537489533 -0.1431313455 0.5495533347 4292007137
-0.2538061738 -0.1425528973 0.5496772528 4292138723
-0.2534550428 -0.1417457908 0.5489168167 4292204516
-0.2535117567 -0.1411674917 0.5490396619 4292336102
-0.2531599402 -0.1403623968 0.5482777357 4292533481
-0.2528077364 -0.1395587921 0.5475149155 4292599273
-0.2528636456 -0.1389811933 0.5476360321 4292467687
-0.2529193461 -0.1384032220 0.5477566719 4292270308
-0.2529748380 -0.1378248632 0.5478768349 4292138722
-0.2530301213 -0.1372461170 0.5479965806 4292072929
-0.2530851960 -0.1366669983 0.5481158495 4292204515
-0.2535490394 -0.1363073438 0.5491203666 4292336101
-0.2540128231 -0.1359454542 0.5501248240 4292467687
-0.2544765770 -0.1355812997 0.5511292219 4292599274
-0.2549402714 -0.1352149099 0.5521335006 4292599274
-0.2554039657 -0.1348462552 0.5531376600 4292599274
-0.2558676004 -0.1344753504 0.5541418195 4292665067
-0.2563312054 -0.1341021955 0.5551458597 4292467688
-0.2563852072 -0.1335135102 0.5552628040 4292336102
-0.2568486333 -0.1331367940 0.5562664866 4292467688
-0.2569022775 -0.1325464249 0.5563826561 4292862446
-0.2569557130 -0.1319556832 0.5564984083 4292600303
-0.2570089400 -0.1313645840 0.5566136241 4292666096
-0.2570619285 -0.1307730973 0.5567284226 4292731373
-0.2567046583 -0.1299736351 0.5559546351 4292928752
-0.2567571402 -0.1293823868 0.5560683012 4293191923
-0.2568094134 -0.1287907660 0.5561814904 4293389302
-0.2568614483 -0.1281987727 0.5562942028 4293586679
-0.2565028667 -0.1274025887 0.5555176735 4293455093
-0.2565543950 -0.1268108487 0.5556292534 4293455347
-0.2566057146 -0.1262187362 0.5557403564 4293981691
-0.2628884614 -0.1702039540 0.5707199574 4291876833
-0.2633592486 -0.1698735058 0.5717419982 4291482075
-0.2634259760 -0.1692811549 0.5718868971 4290889938
-0.2634925544 -0.1686883569 0.5720313787 4290297801
-0.2635588944 -0.1680951118 0.5721754432 4289771457
-0.2640293837 -0.1677583158 0.5731968284 4288916146
-0.2640954256 -0.1671632677 0.5733402371 4288126630
-0.2645658255 -0.1668228507 0.5743614435 4287796895
-0.2646315694 -0.1662259996 0.5745041966 4287796895
-0.2651018500 -0.1658819467 0.5755251646 4289244341
-0.2651672959 -0.1652832925 0.5756672025 4290362822
-0.2652325332 -0.1646841913 0.5758088231 4289770687
-0.2652975619 -0.1640846431 0.5759500265 4289310136
-0.2653623819 -0.1634846628 0.5760907531 4289441722
-0.2654270232 -0.1628842354 0.5762310624 4289310136
-0.2654914260 -0.1622833759 0.5763708949 4289968066
-0.2655556500 -0.1616820842 0.5765103102 4290889168
-0.2652141154 -0.1608344316 0.5757688284 4291481305
-0.2648721933 -0.1599881798 0.5750265121 4291481305
-0.2641241252 -0.1588992476 0.5734025240 4291744478
-0.2633754909 -0.1578135639 0.5717772841 4291810271
-0.2638439834 -0.1574578732 0.5727943778 4291941857
-0.2622824013 -0.1558933109 0.5694042444 4292007650
-0.2611259818 -0.1545760930 0.5668936968 4292270309
-0.2591563761 -0.1527850479 0.5626177192 4292467688
-0.2571855783 -0.1510028243 0.5583392382 4292270309
-0.2556200325 -0.1494670659 0.5549405217 4291743965
-0.2544600368 -0.1481750011 0.5524221659 4291480793
-0.2537058294 -0.1471238583 0.5507848263 4291546586
-0.2533577085 -0.1463108659 0.5500290990 4291678172
-0.2530092001 -0.1454993188 0.5492725372 4291809758
-0.2530671656 -0.1449222416 0.5493983626 4292007137
-0.2527179718 -0.1441126913 0.5486402512 4292007137
-0.2531825006 -0.1437668800 0.5496487021 4292007137
-0.2532398403 -0.1431886107 0.5497732162 4292007137
-0.2532970011 -0.1426099539 0.5498973131 4292138723
-0.2529466152 -0.1418025494 0.5491366386 4292204516
-0.2525958419 -0.1409966350 0.5483751297 4292138723
-0.2522447109 -0.1401921809 0.5476127863 4292204516
-0.2523007393 -0.1396147609 0.5477344990 4292072929
-0.2519488931 -0.1388123333 0.5469706655 4292072929
-0.2520044446 -0.1382350922 0.5470912457 4292204515
-0.2520597875 -0.1376574486 0.5472113490 4292336101
-0.2521149218 -0.1370794326 0.5473310351 4292336101
-0.2525779009 -0.1367219239 0.5483361483 4292401894
-0.2522245646 -0.1359222680 0.5475690961 4292599273
-0.2530955076 -0.1357811242 0.5494598746 4292599273
-0.2535582781 -0.1354177892 0.5504645705 4292730860
-0.2544294298 -0.1352693439 0.5523557663 4292599274
-0.2548922300 -0.1349005699 0.5533604622 4292665067
-0.2553549707 -0.1345295310 0.5543650985 4292730860
-0.2558176816 -0.1341562569 0.5553696156 4292533481
-0.2558716238 -0.1335673481 0.5554866791 4292401895
-0.2563341558 -0.1331904978 0.5564908385 4292467688
-0.2563877702 -0.1325999200 0.5566071868 4292599274
-0.2564411163 -0.1320089549 0.5567230582 4292402924
-0.2564942837 -0.1314176321 0.5568384528 4292731889
-0.2565472126 -0.1308259517 0.5569534302 4292928752
-0.2565999627 -0.1302338839 0.5570678711 4293191924
-0.2562431097 -0.1294347048 0.5562931895 4293520888
-0.2562953234 -0.1288428605 0.5564064980 4293520888
-0.2563472986 -0.1282506585 0.5565193892 4293389300
-0.2568086684 -0.1278620362 0.5575209260 4293455093
-0.2560409606 -0.1268622130 0.5558543205 4293652724
-0.2619546354 -0.1700092852 0.5700672269 4291811040
-0.2620213032 -0.1694190055 0.5702123046 4291416282
-0.2620877624 -0.1688282788 0.5703569055 4290824145
-0.2621540129 -0.1682371050 0.5705011487 4290232006
-0.2626235187 -0.1679033935 0.5715228319 4289705662
-0.2626894712 -0.1673104018 0.5716664195 4288916146
-0.2627552450 -0.1667169631 0.5718095303 4288060837
-0.2632245421 -0.1663782746 0.5728307962 4287467930
-0.2632900178 -0.1657830477 0.5729732513 4288652204
-0.2637591958 -0.1654407233 0.5739942789 4289902271
-0.2638243437 -0.1648436785 0.5741360784 4290165443
-0.2638893127 -0.1642462164 0.5742774606 4289770687
-0.2639540732 -0.1636482924 0.5744183660 4289507515
-0.2640186250 -0.1630499363 0.5745588541 4289770687
-0.2640829682 -0.1624511480 0.5746988654 4290099652
-0.2641471028 -0.1618519127 0.5748384595 4289902273
-0.2642110288 -0.1612522453 0.5749775767 4290691789
-0.2638700604 -0.1604061276 0.5742355585 4291547098
-0.2635286748 -0.1595613956 0.5734926462 4291612891
-0.2627819777 -0.1584739089 0.5718677044 4292073443
-0.2624396980 -0.1576329321 0.5711228251 4292139236
-0.2616919279 -0.1565510333 0.5694954991 4292401895
-0.2609435618 -0.1554723978 0.5678668618 4292730860
-0.2597892880 -0.1541565359 0.5653550029 4292270309
-0.2582288980 -0.1526062340 0.5619592071 4292270309
-0.2566675246 -0.1510629058 0.5585613251 4292072930
-0.2555107474 -0.1497642696 0.5560439825 4291809758
-0.2543531954 -0.1484707892 0.5535249710 4291612379
-0.2536006570 -0.1474183351 0.5518872738 4291546586
-0.2532534003 -0.1466041207 0.5511315465 4291546586
-0.2529057264 -0.1457913518 0.5503749251 4291678172
-0.2529637218 -0.1452131420 0.5505011082 4291809758
-0.2526153624 -0.1444023699 0.5497430563 4291941344
-0.2526728511 -0.1438242793 0.5498681664 4292072930
-0.2527301311 -0.1432458162 0.5499927998 4292007137
-0.2527872324 -0.1426669359 0.5501170158 4292072930
-0.2524375916 -0.1418592483 0.5493561625 4292138723
-0.2520875931 -0.1410530210 0.5485944748 4292138723
-0.2517371774 -0.1402482837 0.5478318930 4292138723
-0.2517931461 -0.1396706551 0.5479537249 4292007136
-0.2510352135 -0.1386432350 0.5463042855 4292204515
-0.2510905862 -0.1380667090 0.5464248061 4292533480
-0.2511457801 -0.1374897957 0.5465449095 4292665066
-0.2516078949 -0.1371344179 0.5475505590 4292665066
-0.2520699799 -0.1367767751 0.5485561490 4292599273
-0.2517173886 -0.1359768361 0.5477888584 4292665066
-0.2525866330 -0.1358356476 0.5496805310 4292730859
-0.2530485392 -0.1354721934 0.5506857038 4292796653
-0.2539179623 -0.1353237033 0.5525777340 4292665067
-0.2543798685 -0.1349548101 0.5535829663 4292665067
-0.2548417449 -0.1345836520 0.5545880795 4292730860
-0.2553035617 -0.1342102438 0.5555931330 4292599274
-0.2553574145 -0.1336211264 0.5557103157 4292401895
-0.2558190823 -0.1332441419 0.5567150116 4292336102
-0.2558726072 -0.1326533407 0.5568314791 4292401895
-0.2559259236 -0.1320621669 0.5569474697 4292468717
-0.2559790015 -0.1314706355 0.5570630431 4292929268
-0.2560319006 -0.1308787316 0.5571780801 4293060338
-0.2560845315 -0.1302864552 0.5572926998 4293191924
-0.2561369836 -0.1296938062 0.5574068427 4293520888
-0.2557806075 -0.1288949102 0.5566312671 4293323509
-0.2558325231 -0.1283024848 0.5567442775 4293323507
-0.2562929988 -0.1279137284 0.5577463508 4293784058
-0.2563445568 -0.1273196340 0.5578585863 4294046969
-0.2606196105 -0.1695526838 0.5685361028 4291679454
-0.2606859803 -0.1689640135 0.5686808825 4291284696
-0.2607521713 -0.1683749110 0.5688253045 4290758352
-0.2608181536 -0.1677853465 0.5689691901 4290166213
-0.2612865269 -0.1674533635 0.5699909925 4289705662
-0.2613522112 -0.1668619961 0.5701342821 4289046964
-0.2614177167 -0.1662701815 0.5702771544 4288060069
-0.2614829838 -0.1656779349 0.5704195499 4288191653
-0.2619510889 -0.1653396040 0.5714406967 4289310134
-0.2624191642 -0.1649990082 0.5724617839 4289968064
-0.2624840438 -0.1644036025 0.5726033449 4290099650
-0.2625487149 -0.1638077497 0.5727444291 4290099652
-0.2622098029 -0.1629607528 0.5720050931 4290099652
-0.2622739673 -0.1623649448 0.5721450448 4289968066
-0.2623379529 -0.1617687047 0.5722846389 4290033859
-0.2628054023 -0.1614199728 0.5733043551 4290362824
-0.2628690600 -0.1608219296 0.5734432340 4291020754
-0.2625286281 -0.1599773467 0.5727006197 4291743964
-0.2621877789 -0.1591341645 0.5719570518 4291941343
-0.2614424825 -0.1580481082 0.5703311563 4292599274
-0.2611007392 -0.1572086811 0.5695856810 4292467688
-0.2607586086 -0.1563706547 0.5688393116 4292665067
-0.2600117028 -0.1552925408 0.5672099590 4293125618
-0.2584552765 -0.1537365317 0.5638146400 4292467688
-0.2573024333 -0.1524271518 0.5612997413 4292007137
-0.2565534711 -0.1513616294 0.5596659184 4291743965
-0.2549944520 -0.1498237848 0.5562649369 4291743965
-0.2542441487 -0.1487666965 0.5546281338 4291678172
-0.2534932494 -0.1477129161 0.5529901385 4291546586
-0.2531468272 -0.1468974799 0.5522344112 4291612379
-0.2523948848 -0.1458493918 0.5505940318 4291809758
-0.2524527907 -0.1452709734 0.5507203937 4291743965
-0.2525105178 -0.1446921527 0.5508462787 4291875551
-0.2525680363 -0.1441129297 0.5509717464 4292007137
-0.2526253164 -0.1435333192 0.5510967374 4292007137
-0.2526824176 -0.1429533213 0.5512213111 4292007137
-0.2519279718 -0.1419158727 0.5495754480 4292138723
-0.2515786886 -0.1411093473 0.5488135219 4292204516
-0.2516348958 -0.1405309737 0.5489361882 4292138723
-0.2512849569 -0.1397264749 0.5481727719 4292138722
-0.2509346306 -0.1389234662 0.5474085212 4292401894
-0.2509900331 -0.1383457929 0.5475293994 4292730859
-0.2510452569 -0.1377677470 0.5476498008 4292796652
-0.2511002421 -0.1371893138 0.5477697849 4292730859
-0.2515614331 -0.1368315667 0.5487759113 4292599273
-0.2520225942 -0.1364715546 0.5497819185 4292599273
-0.2524837255 -0.1361092925 0.5507878065 4292665066
-0.2529447973 -0.1357447803 0.5517936945 4292730860
-0.2534058690 -0.1353780031 0.5527994633 4292730860
-0.2538668811 -0.1350089759 0.5538051724 4292730860
-0.2543278635 -0.1346376985 0.5548108220 4292796653
-0.2547888160 -0.1342641711 0.5558163524 4292665067
-0.2552497089 -0.1338883787 0.5568217635 4292401895
-0.2553033829 -0.1332977265 0.5569388866 4292204516
-0.2553568482 -0.1327067167 0.5570554733 4292204516
-0.2554100752 -0.1321153194 0.5571716428 4292665580
-0.2558705509 -0.1317333281 0.5581761003 4293191924
-0.2559234500 -0.1311402619 0.5582914948 4293257717
-0.2559761107 -0.1305468231 0.5584064126 4293257717
-0.2560285926 -0.1299530268 0.5585208535 4293455095
-0.2560808361 -0.1293588579 0.5586348772 4293257716
-0.2557249963 -0.1285592914 0.5578585863 4293455347
-0.2592872381 -0.1690955758 0.5670033693 4291613661
-0.2597548068 -0.1687693745 0.5680258274 4291218903
-0.2598207891 -0.1681809872 0.5681701303 4290758352
-0.2598865926 -0.1675921381 0.5683140159 4290297029
-0.2599521875 -0.1670028418 0.5684574842 4289836478
-0.2604194880 -0.1666703075 0.5694793463 4289046964
-0.2604847848 -0.1660792083 0.5696220994 4288060069
-0.2605499029 -0.1654876769 0.5697644949 4289244341
-0.2606147826 -0.1648956835 0.5699064136 4289573306
-0.2606795132 -0.1643032730 0.5700479150 4290165443
-0.2611463964 -0.1639630347 0.5710688829 4290494408
-0.2612107992 -0.1633688211 0.5712097287 4290428617
-0.2608723938 -0.1625233591 0.5704697371 4290625996
-0.2613389790 -0.1621790677 0.5714900494 4291086547
-0.2614027858 -0.1615835279 0.5716295838 4291349719
-0.2614663541 -0.1609875560 0.5717686415 4292138722
-0.2615297437 -0.1603911519 0.5719072223 4292336101
-0.2611898482 -0.1595481038 0.5711639524 4292204515
-0.2604463995 -0.1584611684 0.5695381761 4292138722
-0.2601056099 -0.1576218456 0.5687929392 4292665067
-0.2597644329 -0.1567839533 0.5680468678 4292665067
-0.2590193748 -0.1557049453 0.5664176345 4292796653
-0.2586773038 -0.1548708230 0.5656695962 4293322997
-0.2579312027 -0.1537974328 0.5640379786 4292533481
-0.2567807436 -0.1524875611 0.5615221858 4291941344
-0.2560333610 -0.1514216512 0.5598878264 4291678172
-0.2548814714 -0.1501211226 0.5573688745 4291809758
-0.2541328073 -0.1490627229 0.5557317734 4291809758
-0.2533836067 -0.1480076313 0.5540934205 4291678172
-0.2534422278 -0.1474260986 0.5542216301 4291743965
-0.2526920438 -0.1463757604 0.5525811315 4291875551
-0.2523456514 -0.1455620080 0.5518236756 4291941344
-0.2524034083 -0.1449820548 0.5519499183 4291941344
-0.2524609268 -0.1444016993 0.5520757437 4292007137
-0.2525182664 -0.1438209563 0.5522010922 4292007137
-0.2525753677 -0.1432398111 0.5523260236 4292072930
-0.2518225908 -0.1422010511 0.5506798029 4292270309
-0.2514741421 -0.1413933039 0.5499178767 4292401895
-0.2511253357 -0.1405870318 0.5491551161 4292401895
-0.2507761419 -0.1397822350 0.5483915210 4292401894
-0.2504265606 -0.1389789283 0.5476270318 4292599273
-0.2504819036 -0.1384010464 0.5477480888 4292730859
-0.2509424388 -0.1380458176 0.5487551689 4292796652
-0.2509974837 -0.1374662369 0.5488755107 4292796652
-0.2510522902 -0.1368862838 0.5489953756 4292665066
-0.2515125573 -0.1365261525 0.5500018597 4292599273
-0.2523785532 -0.1363830417 0.5518955588 4292665066
-0.2528388500 -0.1360174567 0.5529021621 4292730860
-0.2532990873 -0.1356496215 0.5539085865 4292730860
-0.2541653216 -0.1354959905 0.5558028817 4292665067
-0.2546255887 -0.1351227015 0.5568093657 4292665067
-0.2546796203 -0.1345325857 0.5569275022 4292599274
-0.2551397085 -0.1341557205 0.5579336286 4292270309
-0.2555997670 -0.1337766051 0.5589396954 4292138723
-0.2556533217 -0.1331834793 0.5590568185 4292138723
-0.2557066977 -0.1325899959 0.5591734648 4292599787
-0.2557598054 -0.1319961399 0.5592896938 4293191924
-0.2558127344 -0.1314019114 0.5594053864 4293389302
-0.2554586530 -0.1305993497 0.5586310625 4293389302
-0.2555110455 -0.1300053298 0.5587456822 4293520886
-0.2555632293 -0.1294109374 0.5588597655 4293389300
-0.2556151748 -0.1288162023 0.5589733720 4293783799
-0.2579575181 -0.1686379761 0.5654689670 4291679454
-0.2584239841 -0.1683135033 0.5664914846 4291218901
-0.2584896982 -0.1677267253 0.5666355491 4290758350
-0.2585552037 -0.1671395004 0.5667791367 4290297029
-0.2590214908 -0.1668100506 0.5678012371 4289704892
-0.2590866983 -0.1662210375 0.5679442286 4289046962
-0.2591517270 -0.1656315625 0.5680867434 4288389032
-0.2592165470 -0.1650416553 0.5682288408 4290099650
-0.2592811584 -0.1644512862 0.5683705211 4290428615
-0.2593455911 -0.1638604999 0.5685117245 4291218131
-0.2598113716 -0.1635220051 0.5695328116 4291876061
-0.2594738305 -0.1626775861 0.5687928796 4292139235
-0.2595376670 -0.1620854735 0.5689327717 4292402407
-0.2600031495 -0.1617429107 0.5699531436 4292731372
-0.2600666583 -0.1611490101 0.5700923800 4292665579
-0.2601299584 -0.1605546772 0.5702311993 4292072929
-0.2601930797 -0.1599599123 0.5703695416 4292138722
-0.2598537207 -0.1591183990 0.5696256161 4291480792
-0.2595139742 -0.1582782865 0.5688809156 4291414999
-0.2587713897 -0.1571951210 0.5672530532 4291875551
-0.2584307790 -0.1563587785 0.5665063858 4292336102
-0.2576870918 -0.1552812159 0.5648761988 4292467688
-0.2573455870 -0.1544486284 0.5641275048 4292599274
-0.2570036650 -0.1536174715 0.5633780360 4292204516
-0.2562584281 -0.1525478959 0.5617443919 4291875551
-0.2555126250 -0.1514815837 0.5601094961 4291743965
-0.2547662258 -0.1504185796 0.5584732890 4291875551
-0.2540192306 -0.1493588686 0.5568358302 4291875551
-0.2528683841 -0.1480662972 0.5543130636 4291809758
-0.2537337244 -0.1479550004 0.5562099814 4291809758
-0.2525818050 -0.1466681212 0.5536848307 4291809758
-0.2522362769 -0.1458531469 0.5529274344 4291941344
-0.2522940338 -0.1452720612 0.5530540347 4291941344
-0.2523515821 -0.1446905732 0.5531801581 4291941344
-0.2520050704 -0.1438781172 0.5524206161 4292007137
-0.2520621419 -0.1432967782 0.5525456667 4292204516
-0.2517149448 -0.1424863338 0.5517845750 4292401895
-0.2513673604 -0.1416773498 0.5510226488 4292599274
-0.2510193884 -0.1408698559 0.5502598882 4292665067
-0.2510753572 -0.1402897388 0.5503825545 4292599273
-0.2507266998 -0.1394842714 0.5496183038 4292665066
-0.2507821620 -0.1389043182 0.5497398376 4292730859
-0.2512419820 -0.1385470927 0.5507478118 4292796652
-0.2512971163 -0.1379654408 0.5508686900 4292730859
-0.2517567873 -0.1376046240 0.5518763065 4292730859
-0.2514067590 -0.1368009746 0.5511090159 4292665066
-0.2526760399 -0.1368762404 0.5538914204 4292665066
-0.2531356215 -0.1365086585 0.5548988581 4292730860
-0.2535951436 -0.1361388266 0.5559062362 4292665067
-0.2536494732 -0.1355502009 0.5560252666 4292665067
-0.2541088462 -0.1351767927 0.5570322275 4292599274
-0.2545681596 -0.1348011196 0.5580391884 4292533481
-0.2546220124 -0.1342094690 0.5581572056 4292401895
-0.2550811768 -0.1338302195 0.5591637492 4292336102
-0.2551346719 -0.1332368851 0.5592809916 4292336102
-0.2551879585 -0.1326431781 0.5593978167 4292730859
-0.2552410364 -0.1320491135 0.5595141053 4293257203
-0.2552938759 -0.1314546615 0.5596299767 4293455095
-0.2553465068 -0.1308598518 0.5597453713 4293586681
-0.2549928725 -0.1300575584 0.5589701533 4293652472
-0.2550449967 -0.1294629574 0.5590844154 4293718265
-0.2570301890 -0.1684418470 0.5648112893 4291679454
-0.2570958138 -0.1678571403 0.5649555326 4291349717
-0.2571612298 -0.1672719866 0.5650992393 4290823373
-0.2572264671 -0.1666863859 0.5652425885 4290231490
-0.2576916218 -0.1663586646 0.5662648082 4289573560
-0.2577565610 -0.1657712758 0.5664075017 4289046962
-0.2578212917 -0.1651834249 0.5665497184 4288783790
-0.2582862973 -0.1648507267 0.5675715208 4290428615
-0.2583507299 -0.1642610878 0.5677131414 4291481303
-0.2584149837 -0.1636710018 0.5678542852 4292205026
-0.2584790289 -0.1630804837 0.5679950118 4292139233
-0.2585428655 -0.1624895185 0.5681353211 4291876063
-0.2582055628 -0.1616471261 0.5673941374 4291547098
-0.2586699426 -0.1613062918 0.5684145689 4291217620
-0.2587331831 -0.1607140303 0.5685535669 4291086034
-0.2587962151 -0.1601213217 0.5686920881 4291086034
-0.2588590682 -0.1595281959 0.5688301325 4291349206
-0.2581188381 -0.1584418118 0.5672035217 4290888655
-0.2585825920 -0.1580951512 0.5682226419 4291151827
-0.2578414679 -0.1570125073 0.5665940642 4291743965
-0.2570997775 -0.1559331268 0.5649642348 4292467688
-0.2567592859 -0.1550997496 0.5642160177 4292533481
-0.2564184368 -0.1542677879 0.5634669662 4292138723
-0.2560771704 -0.1534372568 0.5627170801 4291875551
-0.2553333938 -0.1523682028 0.5610827208 4291875551
-0.2549912632 -0.1515414566 0.5603308678 4291875551
-0.2546487153 -0.1507161558 0.5595781207 4291809758
-0.2539033890 -0.1496551186 0.5579403043 4291809758
-0.2535599768 -0.1488336325 0.5571857095 4291875551
-0.2532161772 -0.1480135918 0.5564301610 4291941344
-0.2528719604 -0.1471949965 0.5556738377 4291875551
-0.2525273860 -0.1463778615 0.5549166203 4291612379
-0.2525852621 -0.1457947195 0.5550437570 4291678172
-0.2526429296 -0.1452111602 0.5551704764 4291809758
-0.2522973418 -0.1443965584 0.5544111133 4292007137
-0.2523545027 -0.1438131332 0.5545367002 4292270309
-0.2520082593 -0.1430005282 0.5537758470 4292401895
-0.2516615987 -0.1421893835 0.5530140996 4292533481
-0.2513145804 -0.1413797289 0.5522515178 4292730860
-0.2509671748 -0.1405715346 0.5514881015 4292599273
-0.2506193519 -0.1397648305 0.5507237911 4292599273
-0.2506748438 -0.1391837448 0.5508457422 4292665066
-0.2511338592 -0.1388254613 0.5518543720 4292665066
-0.2511889935 -0.1382426620 0.5519756079 4292599273
-0.2516478896 -0.1378808022 0.5529839396 4292599273
-0.2512986958 -0.1370759159 0.5522165895 4292599273
-0.2525655329 -0.1371502876 0.5550004244 4292533480
-0.2530242801 -0.1367816478 0.5560085177 4292665067
-0.2534830272 -0.1364107579 0.5570165515 4292599274
-0.2535373569 -0.1358209699 0.5571359396 4292599274
-0.2539959252 -0.1354464889 0.5581436157 4292665067
-0.2540498972 -0.1348550171 0.5582622886 4292665067
-0.2545083165 -0.1344769448 0.5592696071 4292599274
-0.2545619607 -0.1338837743 0.5593874454 4292599274
-0.2546153963 -0.1332902312 0.5595048666 4292599274
-0.2550734878 -0.1329072714 0.5605115294 4292928492
-0.2547216117 -0.1321020126 0.5597382784 4293257457
-0.2547743917 -0.1315073520 0.5598542690 4293520888
-0.2548269629 -0.1309123188 0.5599697828 4293718267
-0.2548792958 -0.1303169131 0.5600848198 4293784058
-0.2549314499 -0.1297211498 0.5601994395 4293981437
-0.2561039031 -0.1682454348 0.5641527176 4291547868
-0.2557702959 -0.1674002856 0.5634178519 4291218901
-0.2558354437 -0.1668167561 0.5635613799 4290692557
-0.2562996149 -0.1664921194 0.5645838380 4290100420
-0.2563644350 -0.1659067869 0.5647266507 4289442490
-0.2564291060 -0.1653210223 0.5648691058 4288784560
-0.2564935684 -0.1647348106 0.5650110841 4288455595
-0.2569574416 -0.1644038409 0.5660328865 4290428617
-0.2570216060 -0.1638158262 0.5661742687 4291283926
-0.2570855618 -0.1632273793 0.5663151145 4291744477
