VERSION 0.7
FIELDS x y z rgba
SIZE 4 4 4 4
TYPE F F F U
COUNT 1 1 1 1
WIDTH 920
HEIGHT 1
VIEWPOINT 0.0 0.0 0.0 1.0 0.0 0.0 0.0
POINTS 920
DATA ascii
-0.2685186267 -0.1447992176 0.5705610514 4290222867
-0.2685773969 -0.1441968381 0.5706859827 4290222867
-0.2686359286 -0.1435940564 0.5708103776 4290222867
-0.2682789862 -0.1427698880 0.5700519085 4290222867
-0.2683370113 -0.1421672553 0.5701751709 4290288660
-0.2679793239 -0.1413450986 0.5694151521 4290288660
-0.2676212490 -0.1405244172 0.5686543584 4290288660
-0.2676784396 -0.1399224848 0.5687758327 4290288660
-0.2673196495 -0.1391038448 0.5680134892 4290288660
-0.2673763037 -0.1385020912 0.5681338310 4290288660
-0.2670168281 -0.1376854777 0.5673699975 4290288660
-0.2670729458 -0.1370839030 0.5674892664 4290420246
-0.2667127550 -0.1362693459 0.5667238832 4290420246
-0.2663521767 -0.1354562938 0.5659577250 4290420246
-0.2664074302 -0.1348554492 0.5660751462 4290420246
-0.2660461366 -0.1340444684 0.5653074384 4290814743
-0.2661008835 -0.1334438324 0.5654237866 4290748950
-0.2657389045 -0.1326349229 0.5646545887 4290683419
-0.2657931149 -0.1320344806 0.5647698045 4290815005
-0.2654304206 -0.1312276721 0.5639991164 4290618653
-0.2654840946 -0.1306274384 0.5641131997 4290552860
-0.2651206851 -0.1298227161 0.5633410215 4288842757
-0.2647568882 -0.1290195286 0.5625680089 4284566272
-0.2648097277 -0.1284200996 0.5626802444 4280885265
-0.2648623586 -0.1278203130 0.5627920628 4281148437
-0.2649147213 -0.1272201687 0.5629034042 4280689952
-0.2645496130 -0.1264202595 0.5621275902 4280492573
-0.2646014690 -0.1258203536 0.5622377396 4280296220
-0.2646531165 -0.1252200902 0.5623474717 4280230427
-0.2647044957 -0.1246194839 0.5624566674 4280229912
-0.2647556663 -0.1240185276 0.5625653863 4280229912
-0.2648066282 -0.1234172210 0.5626736283 4280097816
-0.2652750909 -0.1230092794 0.5636690855 4280097816
-0.2653256655 -0.1224063337 0.5637765527 4280163611
-0.2653760016 -0.1218030453 0.5638834834 4280097818
-0.2654260993 -0.1211994067 0.5639899969 4280097818
-0.2654759884 -0.1205954328 0.5640959740 4280032025
-0.2651074827 -0.1198021546 0.5633129478 4279966743
-0.2647385895 -0.1190104410 0.5625290871 4279966743
-0.2643693089 -0.1182202995 0.5617444515 4279834903
-0.2639996409 -0.1174317300 0.5609589815 4279834903
-0.2632111609 -0.1164595857 0.5592834949 4279834903
-0.2632591724 -0.1158593148 0.5593855977 4279834903
-0.2633069754 -0.1152587235 0.5594871640 4279834905
-0.2633545399 -0.1146578044 0.5595881939 4279834905
-0.2629831135 -0.1138752252 0.5587989688 4279769110
-0.2630301416 -0.1132746190 0.5588989258 4279703317
-0.2626580298 -0.1124942675 0.5581082106 4279703317
-0.2627045214 -0.1118939668 0.5582070351 4279571731
-0.2623317242 -0.1111158505 0.5574148893 4279769110
-0.2623776793 -0.1105158776 0.5575125217 4280295454
-0.2615849674 -0.1095644236 0.5558281541 4280624419
-0.2616303265 -0.1089657471 0.5559244752 4280295454
-0.2612560689 -0.1081930846 0.5551292896 4279834903
-0.2617202997 -0.1077674478 0.5561156869 4279703317
-0.2617649436 -0.1071678400 0.5562105179 4279505938
-0.2618093491 -0.1065679267 0.5563049316 4279505938
-0.2622731626 -0.1061375290 0.5572904348 4279571731
-0.2627368569 -0.1057049036 0.5582757592 4279571731
-0.2632004917 -0.1052700505 0.5592608452 4279571731
-0.2632441521 -0.1046660319 0.5593536496 4279505938
-0.2611880302 -0.1032318845 0.5549846888 4279440145
-0.2620708346 -0.1029620990 0.5568605661 4279440145
-0.2616935372 -0.1021960452 0.5560588837 4279506199
-0.2613158822 -0.1014316306 0.5552563667 4279637785
-0.2596772611 -0.1001825333 0.5517745614 4279769114
-0.2592986524 -0.0994242951 0.5509700775 4279834907
-0.2601806521 -0.0991482288 0.5528441668 4279900700
-0.2598014772 -0.0983903930 0.5520384908 4279966493
-0.2602628767 -0.0979506820 0.5530188680 4280229665
-0.2628267705 -0.0982951149 0.5584667921 4280558630
-0.2632882893 -0.0978461280 0.5594474077 4280690216
-0.2629083693 -0.0970842540 0.5586401820 4280756009
-0.2638305724 -0.0961790606 0.5605996847 4281018668
-0.2638706565 -0.0955707133 0.5606848598 4281084461
-0.2630686760 -0.0946591794 0.5589807630 4281216047
-0.2618452311 -0.0936007723 0.5563811660 4281281840
-0.2623052895 -0.0931459665 0.5573587418 4281347633
-0.2619230747 -0.0923918709 0.5565465689 4281346865
-0.2619616091 -0.0917870179 0.5566284657 4281412658
-0.2612706125 -0.0890776068 0.5551602244 4281544242
-0.2608863711 -0.0883306935 0.5543437600 4281478449
-0.2609232962 -0.0877271891 0.5544221997 4281412656
-0.2605383992 -0.0869826823 0.5536043048 4281478449
-0.2609964013 -0.0865194201 0.5545775294 4281544242
-0.2601892054 -0.0856375620 0.5528623462 4281675828
-0.2610685527 -0.0853106454 0.5547308326 4281873207
-0.2602606118 -0.0844321921 0.5530140996 4281939000
-0.2607178390 -0.0839650035 0.5539856553 4281873207
-0.2607530057 -0.0833607242 0.5540603399 4281939000
-0.2607879043 -0.0827562064 0.5541345477 4282004793
-0.2608225942 -0.0821514428 0.5542082191 4281940540
-0.2612791061 -0.0816783905 0.5551782250 4282203712
-0.2604690194 -0.0808102190 0.5534569621 4282335298
-0.2621917427 -0.0807256922 0.5571174622 4282269505
-0.2609587908 -0.0797299966 0.5544976592 4282269505
-0.2622591853 -0.0795081481 0.5572607517 4282466884
-0.2622925639 -0.0788990259 0.5573316216 4282532679
-0.2627480924 -0.0784157440 0.5582996011 4282730058
-0.2610910833 -0.0773048177 0.5547786951 4282335300
-0.2632361948 -0.0773184821 0.5593367219 4282269507
-0.2632686496 -0.0767064840 0.5594056845 4282466886
-0.2637234926 -0.0762163922 0.5603721738 4283585367
-0.2616420686 -0.0749971643 0.5559495091 4285756537
-0.2642100155 -0.0751094744 0.5614059567 4288322464
-0.2734332681 -0.1833867729 0.5823783278 4290295204
-0.2735056579 -0.1827880889 0.5825325251 4289571481
-0.2735778391 -0.1821889281 0.5826863050 4289043579
-0.2740588784 -0.1818607301 0.5837109089 4287925098
-0.2741307914 -0.1812597364 0.5838640332 4287069262
-0.2742024958 -0.1806582659 0.5840167403 4286411332
-0.2742740214 -0.1800563186 0.5841690302 4287264301
-0.2747547925 -0.1797217578 0.5851930380 4286869543
-0.2744164169 -0.1788510233 0.5844723582 4287196955
-0.2744873166 -0.1782476753 0.5846233368 4287460127
-0.2745580077 -0.1776438653 0.5847739577 4288181780
-0.2742186189 -0.1767753363 0.5840510726 4288708124
-0.2738787830 -0.1759081632 0.5833272934 4289496599
-0.2739486694 -0.1753047556 0.5834761262 4289628185
-0.2731979191 -0.1741778255 0.5818771124 4290023956
-0.2732671797 -0.1735753119 0.5820246339 4289892370
-0.2729258239 -0.1727126241 0.5812975764 4289630731
-0.2729945481 -0.1721100956 0.5814439654 4289696524
-0.2726524770 -0.1712492108 0.5807153583 4289828623
-0.2727206945 -0.1706466824 0.5808606744 4289894416
-0.2723778784 -0.1697876155 0.5801305771 4289631762
-0.2724455893 -0.1691851020 0.5802747607 4289565969
-0.2725130916 -0.1685821265 0.5804185271 4290025491
-0.2721692622 -0.1677253544 0.5796862245 4290025491
-0.2722362578 -0.1671224087 0.5798288584 4290024726
-0.2723030150 -0.1665190011 0.5799711347 4289958933
-0.2719581723 -0.1656645387 0.5792365670 4290155542
-0.2720244229 -0.1650611758 0.5793777108 4290155542
-0.2716788352 -0.1642085612 0.5786416531 4290155794
-0.2713328302 -0.1633573472 0.5779047012 4290287380
-0.2713982761 -0.1627544910 0.5780440569 4290221585
-0.2714634836 -0.1621511877 0.5781829953 4290155792
-0.2711164653 -0.1613023281 0.5774438977 4289959185
-0.2707690299 -0.1604548544 0.5767039061 4290024978
-0.2708334029 -0.1598521024 0.5768409967 4290025237
-0.2708975971 -0.1592489183 0.5769777298 4290091030
-0.2705491185 -0.1584038436 0.5762355328 4290025748
-0.2706127763 -0.1578007191 0.5763711333 4290025748
-0.2702636123 -0.1569575369 0.5756273866 4290156562
-0.2703267336 -0.1563544869 0.5757618546 4290156562
-0.2699768543 -0.1555132270 0.5750166178 4290090769
-0.2696265578 -0.1546733975 0.5742705464 4290024976
-0.2696888447 -0.1540709287 0.5744032264 4289893390
-0.2693378329 -0.1532330215 0.5736556053 4289827597
-0.2693996131 -0.1526306570 0.5737872124 4289959183
-0.2690478861 -0.1517946869 0.5730380416 4290090769
-0.2691091299 -0.1511924118 0.5731685162 4290156817
-0.2687566876 -0.1503584087 0.5724178553 4290091024
-0.2688173950 -0.1497562379 0.5725471973 4290091024
-0.2688779235 -0.1491536647 0.5726760626 4290156817
-0.2685244381 -0.1483221352 0.5719231963 4290156817
-0.2685844302 -0.1477196813 0.5720509887 4290156817
-0.2686441839 -0.1471168101 0.5721782446 4290156817
-0.2687037289 -0.1465135515 0.5723050833 4290156817
-0.2683489323 -0.1456850618 0.5715494156 4290091281
-0.2679937482 -0.1448580325 0.5707928538 4290157074
-0.2680524588 -0.1442554444 0.5709179044 4290091281
-0.2681109309 -0.1436524391 0.5710424781 4290157074
-0.2677547038 -0.1428279579 0.5702837706 4290222867
-0.2678126693 -0.1422251165 0.5704072118 4290157074
-0.2674557567 -0.1414026469 0.5696470141 4290157074
-0.2670984268 -0.1405816525 0.5688859820 4290222867
-0.2671555281 -0.1399795115 0.5690076351 4290288660
-0.2667975128 -0.1391605586 0.5682450533 4290288660
-0.2668540776 -0.1385585666 0.5683655739 4290222867
-0.2664953470 -0.1377416551 0.5676015019 4290288660
-0.2665514052 -0.1371398568 0.5677208900 4290354453
-0.2661919594 -0.1363249868 0.5669553280 4290354453
-0.2658321261 -0.1355116367 0.5661889315 4290354453
-0.2658873498 -0.1349105686 0.5663065314 4290420246
-0.2655268013 -0.1340992749 0.5655385852 4290814492
-0.2655814886 -0.1334984154 0.5656550527 4290682906
-0.2656359375 -0.1328971684 0.5657710433 4290683418
-0.2652743757 -0.1320885271 0.5650010109 4290749211
-0.2653283179 -0.1314875036 0.5651158690 4290552860
-0.2649660707 -0.1306809485 0.5643442869 4290552860
-0.2646034062 -0.1298759282 0.5635718703 4288185351
-0.2642403543 -0.1290724277 0.5627986789 4282921984
-0.2642931342 -0.1284727752 0.5629110932 4281412130
-0.2643457055 -0.1278727651 0.5630230308 4281675302
-0.2643980384 -0.1272723824 0.5631344318 4281216809
-0.2644501328 -0.1266716570 0.5632454157 4281019430
-0.2640854716 -0.1258720458 0.5624687672 4280822309
-0.2641370296 -0.1252715588 0.5625785589 4280756516
-0.2641883790 -0.1246707216 0.5626879334 4280624419
-0.2642394900 -0.1240695342 0.5627968311 4280492833
-0.2647072375 -0.1236627474 0.5637930632 4280426781
-0.2647579908 -0.1230599135 0.5639011264 4280360988
-0.2652254999 -0.1226495877 0.5648968816 4280295197
-0.2652758658 -0.1220451146 0.5650041699 4280229404
-0.2649088204 -0.1212493554 0.5642223954 4280163611
-0.2649586499 -0.1206451505 0.5643284917 4280163611
-0.2650082409 -0.1200406030 0.5644341111 4280163611
-0.2646401823 -0.1192476302 0.5636502504 4280163611
-0.2638542652 -0.1182690933 0.5619763136 4279966489
-0.2643204927 -0.1178525761 0.5629693270 4279966489
-0.2647866607 -0.1174338162 0.5639621615 4279966491
-0.2631641328 -0.1160914600 0.5605064034 4279966491
-0.2627941370 -0.1153063625 0.5597183704 4279966491
-0.2636774182 -0.1150699332 0.5615996122 4279900698
-0.2624709904 -0.1139223278 0.5590301156 4279900698
-0.2625179589 -0.1133214831 0.5591301918 4279834905
-0.2621466219 -0.1125408262 0.5583392382 4279834905
-0.2621930540 -0.1119403020 0.5584381819 4279769112
-0.2618210316 -0.1111618802 0.5576457381 4279769112
-0.2618669271 -0.1105616763 0.5577434897 4280098077
-0.2614941895 -0.1097854972 0.5569496751 4280361249
-0.2611210942 -0.1090109274 0.5561550260 4280098077
-0.2611661553 -0.1084116995 0.5562509894 4279703319
-0.2607923746 -0.1076393947 0.5554548502 4279571733
-0.2608368993 -0.1070405096 0.5555496812 4279637526
-0.2612999082 -0.1066121757 0.5565358996 4279637526
-0.2613440454 -0.1060117260 0.5566298366 4279637528
-0.2613879442 -0.1054109707 0.5567233562 4279571735
-0.2618505359 -0.1049778759 0.5577086210 4279571735
-0.2610559762 -0.1040415466 0.5560163260 4279505942
-0.2615181804 -0.1036068946 0.5570007563 4279440149
-0.2611419559 -0.1028398648 0.5561994314 4279440149
-0.2611846030 -0.1022385806 0.5562902689 4279440149
-0.2608076930 -0.1014738604 0.5554875135 4279505942
-0.2595916986 -0.1003864259 0.5528975725 4279571735
-0.2596333623 -0.0997881293 0.5529863238 4279505942
-0.2597569227 -0.0979915261 0.5532494783 4279769114
-0.2610567510 -0.0978641063 0.5560179949 4279900700
-0.2623567581 -0.0977305844 0.5587868094 4279966493
-0.2628172040 -0.0972801745 0.5597675443 4280032286
-0.2624377608 -0.0965186805 0.5589593649 4280098079
-0.2628978789 -0.0960657671 0.5599393249 4280229665
-0.2629378736 -0.0954581499 0.5600244999 4280360997
-0.2617173195 -0.0943956971 0.5574249029 4280558376
-0.2625969350 -0.0940915346 0.5592983365 4280821548
-0.2613754570 -0.0930353403 0.5566967726 4281018927
-0.2614142299 -0.0924305096 0.5567793250 4281216049
-0.2614527345 -0.0918254182 0.5568613410 4281150256
-0.2603425980 -0.0889711827 0.5544969440 4281216049
-0.2603797317 -0.0883677006 0.5545759797 4281281070
-0.2595752180 -0.0874803886 0.5528624654 4281149484
-0.2600324750 -0.0870191455 0.5538364053 4281281070
-0.2596840262 -0.0856734812 0.5530942678 4281346863
-0.2601407766 -0.0852085575 0.5540670156 4281610035
-0.2601763904 -0.0846045315 0.5541428924 4281610035
-0.2597906888 -0.0838643312 0.5533214211 4281544242
-0.2598257363 -0.0832607821 0.5533961058 4281610035
-0.2581759095 -0.0821211338 0.5498821139 4281741621
-0.2598951459 -0.0820529684 0.5535438657 4281348146
-0.2599294782 -0.0814486966 0.5536170006 4281677111
-0.2586995661 -0.0804511085 0.5509974360 4281808697
-0.2591546178 -0.0799793527 0.5519666672 4281742904
-0.2608738840 -0.0798925981 0.5556284785 4282071869
-0.2592213452 -0.0787730813 0.5521087646 4282466627
-0.2596758902 -0.0782966986 0.5530769229 4282466886
-0.2605518997 -0.0779442489 0.5549427271 4282269507
-0.2610062361 -0.0774625093 0.5559103489 4282532679
-0.2610386908 -0.0768544078 0.5559794903 4282664265
-0.2610709071 -0.0762460828 0.5560480952 4282335815
-0.2611028850 -0.0756375343 0.5561162233 4282138436
-0.2598690093 -0.0746651366 0.5534881949 4282270022
-0.2615880072 -0.0745400041 0.5571494699 4282533194
-0.2620412409 -0.0740490481 0.5581148267 4284901742
-0.2624943256 -0.0735559091 0.5590798259 4288849322
-0.2731105089 -0.1816611290 0.5830702186 4290230699
-0.2731822133 -0.1810608357 0.5832233429 4289704104
-0.2732537389 -0.1804600656 0.5833759904 4289309346
-0.2737335861 -0.1801276654 0.5844004750 4288714893
-0.2738048136 -0.1795250475 0.5845525265 4287464826
-0.2738758326 -0.1789219677 0.5847041607 4286936411
-0.2735377848 -0.1780522615 0.5839824080 4286344274
-0.2736082673 -0.1774491370 0.5841329694 4286539312
-0.2736785710 -0.1768455654 0.5842830539 4286605105
-0.2733394802 -0.1759780645 0.5835590959 4287722785
-0.2730000019 -0.1751119196 0.5828343034 4288446508
-0.2730694711 -0.1745087504 0.5829826593 4288973339
-0.2727292478 -0.1736444086 0.5822562575 4289170718
-0.2723886073 -0.1727813929 0.5815290213 4289630741
-0.2724572718 -0.1721786708 0.5816756487 4289696534
-0.2721159160 -0.1713174731 0.5809468627 4289892370
-0.2717741430 -0.1704576463 0.5802171826 4289760784
-0.2718419731 -0.1698553711 0.5803620219 4290022418
-0.2719096243 -0.1692526340 0.5805064440 4290154004
-0.2719770372 -0.1686494648 0.5806503892 4289631760
-0.2716339231 -0.1677923799 0.5799178481 4289631760
-0.2717008293 -0.1671892256 0.5800607204 4289762830
-0.2717675269 -0.1665856093 0.5802031159 4289762830
-0.2714233994 -0.1657308340 0.5794684291 4289894156
-0.2714895904 -0.1651272625 0.5796096921 4289959949
-0.2711447179 -0.1642743498 0.5788734555 4290025229
-0.2712104023 -0.1636707932 0.5790136456 4290091022
-0.2708648145 -0.1628197432 0.5782758594 4289959438
-0.2709299624 -0.1622162461 0.5784149170 4289959438
-0.2709949017 -0.1616123021 0.5785535574 4289959185
-0.2706483006 -0.1607636213 0.5778136253 4289959185
-0.2707127035 -0.1601597369 0.5779511333 4290024978
-0.2703653872 -0.1593129337 0.5772096515 4290090771
-0.2704292834 -0.1587091088 0.5773460269 4290090769
-0.2700812519 -0.1578641981 0.5766029954 4290090769
-0.2701446116 -0.1572604477 0.5767382979 4290090771
-0.2697958648 -0.1564174592 0.5759937167 4290090771
-0.2698587179 -0.1558137685 0.5761278868 4290090771
-0.2695092261 -0.1549727023 0.5753818154 4290024978
-0.2691593766 -0.1541330665 0.5746348500 4289893390
-0.2692213953 -0.1535299569 0.5747672319 4289827597
-0.2688708007 -0.1526922584 0.5740187764 4289893390
-0.2689322829 -0.1520892531 0.5741500258 4290090769
-0.2685809731 -0.1512534916 0.5734000802 4290090769
-0.2686419487 -0.1506505907 0.5735301971 4290090769
-0.2682899535 -0.1498167962 0.5727787018 4290090769
-0.2683503628 -0.1492139995 0.5729077458 4290156562
-0.2684105933 -0.1486108005 0.5730363131 4290091024
-0.2680575550 -0.1477794945 0.5722826123 4290091024
-0.2681172490 -0.1471764147 0.5724100471 4290091024
-0.2681767344 -0.1465729326 0.5725370049 4290156817
-0.2682359815 -0.1459690481 0.5726634860 4290091281
-0.2678816319 -0.1451407820 0.5719069839 4290091281
-0.2675268650 -0.1443139762 0.5711495876 4290091281
-0.2675852776 -0.1437107623 0.5712742805 4290091281
-0.2672298253 -0.1428859681 0.5705153942 4290157074
-0.2672877014 -0.1422829032 0.5706390142 4290157074
-0.2669315338 -0.1414601207 0.5698785782 4290091281
-0.2669888735 -0.1408572048 0.5700010657 4290222867
-0.2666319907 -0.1400364637 0.5692391396 4290288660
-0.2662747204 -0.1392171979 0.5684763193 4290222867
-0.2663312256 -0.1386149973 0.5685970187 4290288660
-0.2659732401 -0.1377977729 0.5678327084 4290288660
-0.2656148672 -0.1369820386 0.5670676231 4290354453
-0.2656705379 -0.1363805681 0.5671864748 4290288660
-0.2657260001 -0.1357787251 0.5673049092 4290354453
-0.2653666139 -0.1349656284 0.5665376186 4290420246
-0.2650068104 -0.1341540217 0.5657694936 4290813726
-0.2650614381 -0.1335529387 0.5658860803 4290682140
-0.2651158273 -0.1329514682 0.5660021901 4290682906
-0.2647550404 -0.1321425289 0.5652319193 4290814492
-0.2648088932 -0.1315412670 0.5653468966 4290553115
-0.2644473910 -0.1307344139 0.5645751357 4290487322
-0.2645007372 -0.1301333606 0.5646889806 4287461641
-0.2641385198 -0.1293286085 0.5639157295 4281737728
-0.2637759149 -0.1285253912 0.5631416440 4281412648
-0.2638284266 -0.1279251575 0.5632537007 4281741613
-0.2638806999 -0.1273245513 0.5633652806 4281611568
-0.2639327347 -0.1267236024 0.5634763837 4281479982
-0.2639845610 -0.1261222959 0.5635870099 4281414450
-0.2640361488 -0.1255206317 0.5636971593 4281282864
-0.2640874982 -0.1249186248 0.5638068318 4281019438
-0.2641386390 -0.1243162677 0.5639159679 4280822059
-0.2641895413 -0.1237135530 0.5640246868 4280821798
-0.2646563649 -0.1233043671 0.5650212765 4280690212
-0.2651230991 -0.1228929386 0.5660177469 4280492833
-0.2651734650 -0.1222872883 0.5661252737 4280229661
-0.2648072541 -0.1214902699 0.5653434396 4280163870
-0.2648571134 -0.1208848804 0.5654498935 4280163870
-0.2649067342 -0.1202791482 0.5655558109 4280163870
-0.2649561167 -0.1196730807 0.5656611919 4280163870
-0.2637552321 -0.1185050383 0.5630974174 4280229663
-0.2642206848 -0.1180874184 0.5640911460 4280229663
-0.2634355426 -0.1171116382 0.5624149442 4280163872
-0.2626498938 -0.1161393523 0.5607376099 4280163872
-0.2639485896 -0.1160875186 0.5635102987 4280032286
-0.2623753846 -0.1141508594 0.5601515174 4279900700
-0.2620051503 -0.1133683026 0.5593611598 4279966493
-0.2620518506 -0.1127669066 0.5594608784 4280098079
-0.2620983124 -0.1121651828 0.5595600605 4279966493
-0.2617271245 -0.1113855019 0.5587675571 4279834907
-0.2621905506 -0.1109607965 0.5597569346 4279900700
-0.2609835863 -0.1098309308 0.5571801662 4279966493
-0.2610288858 -0.1092308238 0.5572769046 4279834907
-0.2606562376 -0.1084565967 0.5564813614 4279769114
-0.2607010305 -0.1078568324 0.5565769076 4279834907
-0.2615812719 -0.1076005325 0.5584562421 4279768860
-0.2607898712 -0.1066563725 0.5567666292 4279703067
-0.2608339489 -0.1060556918 0.5568606853 4279703067
-0.2612958550 -0.1056236923 0.5578468442 4279637274
-0.2621758282 -0.1053575054 0.5597255230 4279571481
-0.2618011832 -0.1045859531 0.5589256883 4279571481
-0.2610078752 -0.1036499143 0.5572320819 4279505688
-0.2606324255 -0.1028825864 0.5564305186 4279505688
-0.2606750429 -0.1022810638 0.5565214157 4279571735
-0.2598804235 -0.1013528332 0.5548250079 4279571735
-0.2599223852 -0.1007526517 0.5549146533 4279571735
-0.2595455348 -0.0999909118 0.5541100502 4279571735
-0.2587906718 -0.0984723717 0.5524984598 4279571735
-0.2605068088 -0.0985074416 0.5561622977 4279571735
-0.2613854408 -0.0982196704 0.5580381155 4279571735
-0.2614262104 -0.0976148695 0.5581251383 4279505688
-0.2614667416 -0.0970097855 0.5582116842 4279505688
-0.2610879242 -0.0962499306 0.5574029684 4279571481
-0.2623853385 -0.0961058289 0.5601728559 4279637274
-0.2628444731 -0.0956505165 0.5611530542 4279703067
-0.2620456815 -0.0947382450 0.5594477057 4279834653
-0.2612464130 -0.0938295871 0.5577412844 4280032545
-0.2600272298 -0.0927749053 0.5551384091 4280229924
-0.2600657940 -0.0921717808 0.5552207828 4280360997
-0.2592651248 -0.0912730098 0.5535113811 4280426790
-0.2588835061 -0.0905245841 0.5526967049 4280624169
-0.2589586377 -0.0893223286 0.5528571010 4281018927
-0.2602551281 -0.0891521871 0.5556250215 4281084720
-0.2598724663 -0.0884046704 0.5548080206 4281216049
-0.2599093020 -0.0878006816 0.5548866391 4281281842
-0.2591060102 -0.0869147032 0.5531716943 4281150256
-0.2595622540 -0.0864520520 0.5541457534 4280952877
-0.2591782212 -0.0857093632 0.5533258915 4281149484
-0.2592139840 -0.0851063207 0.5534022450 4281412656
-0.2592495084 -0.0845030248 0.5534780622 4281478449
-0.2588645220 -0.0837635025 0.5526561737 4281346863
-0.2588995099 -0.0831606910 0.5527307987 4281346863
-0.2589342296 -0.0825576410 0.5528049469 4281346863
-0.2589687109 -0.0819543451 0.5528785586 4281216047
-0.2590029240 -0.0813508108 0.5529516339 4281281840
-0.2594574392 -0.0808781236 0.5539219975 4281216047
-0.2594912350 -0.0802731290 0.5539941788 4281413426
-0.2595247924 -0.0796679035 0.5540657640 4281479732
-0.2595581114 -0.0790624470 0.5541369319 4281611318
-0.2591704428 -0.0783295929 0.5533092618 4281940029
-0.2587824166 -0.0775984749 0.5524808764 4282005822
-0.2592357397 -0.0771194845 0.5534486771 4282006335
-0.2596889138 -0.0766383037 0.5544161201 4282006335
-0.2597209811 -0.0760316923 0.5544846058 4282269508
-0.2597528100 -0.0754248649 0.5545525551 4282466887
-0.2593633533 -0.0746965557 0.5537211299 4282730573
-0.2589735389 -0.0739699900 0.5528889298 4282467401
-0.2598468363 -0.0736030564 0.5547533035 4282006852
-0.2594564855 -0.0728770420 0.5539199114 4282467403
-0.2607507408 -0.0726220682 0.5566831231 4283849567
-0.2612024844 -0.0721282959 0.5576475263 4286547080
-0.2728558183 -0.1793280393 0.5839110613 4290491043
-0.2729266584 -0.1787256598 0.5840626359 4289571483
-0.2729972899 -0.1781228036 0.5842137933 4289176725
-0.2730677128 -0.1775194854 0.5843644738 4288387718
-0.2727296352 -0.1766512394 0.5836410522 4287400823
-0.2723911703 -0.1757843494 0.5829167366 4287003483
-0.2724607885 -0.1751814336 0.5830656886 4286345553
-0.2725301683 -0.1745780706 0.5832142234 4286802482
-0.2721906900 -0.1737134010 0.5824876428 4287065654
-0.2722595632 -0.1731100231 0.5826351047 4288181537
-0.2723282576 -0.1725061834 0.5827820897 4288642088
-0.2719877362 -0.1716437638 0.5820533633 4289233938
-0.2712376714 -0.1705255210 0.5804482698 4289431317
-0.2713054419 -0.1699230373 0.5805932283 4289563655
-0.2713729739 -0.1693201065 0.5807378292 4289695241
-0.2714403272 -0.1687167287 0.5808819532 4289300750
-0.2710979581 -0.1678593308 0.5801492333 4289432336
-0.2711647749 -0.1672559679 0.5802922845 4289564177
-0.2712314129 -0.1666521430 0.5804347992 4289695763
-0.2708880007 -0.1657970697 0.5796999335 4289630481
-0.2709541023 -0.1651932746 0.5798413754 4289696274
-0.2710199952 -0.1645890474 0.5799823999 4289762319
-0.2706755698 -0.1637362987 0.5792453289 4289828112
-0.2707409561 -0.1631321013 0.5793852210 4289828109
-0.2703957856 -0.1622812152 0.5786466002 4289828109
-0.2704606652 -0.1616770774 0.5787854195 4289893643
-0.2701147795 -0.1608280689 0.5780452490 4289959436
-0.2701791227 -0.1602239758 0.5781829357 4290155794
-0.2702432573 -0.1596194506 0.5783201456 4290221587
-0.2698963583 -0.1587728262 0.5775778294 4290221337
-0.2699599564 -0.1581683606 0.5777139068 4290155544
-0.2696123421 -0.1573236436 0.5769700408 4289959698
-0.2696754336 -0.1567192525 0.5771050453 4289959698
-0.2693271041 -0.1558764428 0.5763596296 4290025491
-0.2693896592 -0.1552721262 0.5764935017 4289959698
-0.2686292529 -0.1541951150 0.5748662353 4289893903
-0.2691026628 -0.1538270116 0.5758793354 4289828110
-0.2687529325 -0.1529880762 0.5751308799 4289893903
-0.2684027553 -0.1521505713 0.5743815303 4290025489
-0.2684639692 -0.1515469402 0.5745124817 4290025489
-0.2681131065 -0.1507113874 0.5737616420 4290025489
-0.2681737840 -0.1501078606 0.5738915205 4290025489
-0.2682342231 -0.1495039165 0.5740208626 4290091282
-0.2678823471 -0.1486708522 0.5732678771 4290025488
-0.2679422796 -0.1480670273 0.5733960867 4290025488
-0.2675896883 -0.1472359449 0.5726415515 4290025488
-0.2676490843 -0.1466322392 0.5727686882 4290091281
-0.2677082717 -0.1460281312 0.5728953481 4290156817
-0.2677672505 -0.1454236358 0.5730215311 4290091024
-0.2674133182 -0.1445955932 0.5722641349 4290156817
-0.2670589983 -0.1437690109 0.5715058446 4290222610
-0.2671171129 -0.1431651860 0.5716302991 4290222610
-0.2667620778 -0.1423406303 0.5708705187 4290156817
-0.2668196857 -0.1417369545 0.5709937811 4290222610
-0.2664639652 -0.1409144104 0.5702325106 4290222610
-0.2661078274 -0.1400933415 0.5694703460 4290288403
-0.2661645710 -0.1394903660 0.5695918202 4290288403
-0.2658077478 -0.1386713535 0.5688281655 4290354196
-0.2654505074 -0.1378538162 0.5680636764 4290354196
-0.2650928497 -0.1370377839 0.5672983527 4290354196
-0.2651484907 -0.1364360899 0.5674173832 4290354196
-0.2647901475 -0.1356221139 0.5666505098 4290354196
-0.2648452222 -0.1350206137 0.5667684078 4290419989
-0.2649000883 -0.1344187260 0.5668858290 4290681886
-0.2645407319 -0.1336073875 0.5661168098 4290616093
-0.2645950913 -0.1330057085 0.5662330985 4290485527
-0.2642350197 -0.1321964562 0.5654625893 4290814492
-0.2642888427 -0.1315949708 0.5655777454 4290553626
-0.2639280856 -0.1307878047 0.5648057461 4290290454
-0.2639813721 -0.1301865429 0.5649197102 4286540805
-0.2636198997 -0.1293814778 0.5641462207 4281014272
-0.2632580698 -0.1285779476 0.5633718967 4281150506
-0.2633104920 -0.1279774755 0.5634841323 4281545264
-0.2633627057 -0.1273766607 0.5635958314 4281545775
-0.2634147108 -0.1267754883 0.5637070537 4281414189
-0.2634664476 -0.1261739582 0.5638178587 4281479989
-0.2635179758 -0.1255720705 0.5639281273 4281479989
-0.2635692954 -0.1249698326 0.5640379190 4281348146
-0.2636203766 -0.1243672371 0.5641472340 4281348146
-0.2640864551 -0.1239592060 0.5651446581 4281217071
-0.2641371489 -0.1233549714 0.5652531385 4281151278
-0.2650184035 -0.1231363937 0.5671390295 4281019692
-0.2654842734 -0.1227216125 0.5681359768 4280888106
-0.2651189864 -0.1219223812 0.5673542619 4280756520
-0.2647533119 -0.1211247072 0.5665717125 4280690727
-0.2648029327 -0.1205177978 0.5666779280 4280493094
-0.2652681172 -0.1200987920 0.5676733851 4280361508
-0.2644856572 -0.1191156656 0.5659989119 4280295715
-0.2641185820 -0.1183223575 0.5652133822 4280229922
-0.2637511194 -0.1175306216 0.5644270778 4280098336
-0.2625511289 -0.1163716167 0.5618590117 4280098336
-0.2630150616 -0.1159518883 0.5628519058 4280097825
-0.2630626857 -0.1153474003 0.5629538298 4280097825
-0.2622774839 -0.1143794805 0.5612734556 4280097825
-0.2614917159 -0.1134150699 0.5595918894 4280229411
-0.2615383565 -0.1128134355 0.5596917272 4280098336
-0.2615847588 -0.1122114882 0.5597910285 4279966750
-0.2616309524 -0.1116092205 0.5598898530 4279966750
-0.2608435154 -0.1106531024 0.5582047701 4279966750
-0.2608890831 -0.1100521162 0.5583022833 4279835166
-0.2609344125 -0.1094508246 0.5583992600 4279769373
-0.2613964081 -0.1090230867 0.5593879819 4279769373
-0.2606073916 -0.1080743670 0.5576995015 4279769373
-0.2606519759 -0.1074730977 0.5577948689 4279637787
-0.2606962919 -0.1068715155 0.5578896999 4279637787
-0.2607403994 -0.1062696353 0.5579840541 4279637788
-0.2612015009 -0.1058365107 0.5589708686 4279637788
-0.2612451911 -0.1052330583 0.5590643287 4279637788
-0.2617060542 -0.1047964394 0.5600506067 4279637788
-0.2613318861 -0.1040252447 0.5592498779 4279571995
-0.2589120269 -0.1018307731 0.5540713668 4279703067
-0.2597894669 -0.1015581712 0.5559490919 4279637274
-0.2585782707 -0.1004698649 0.5533571243 4279571481
-0.2586198151 -0.0998710990 0.5534460545 4279571481
-0.2590790391 -0.0994324163 0.5544287562 4279637274
-0.2582843304 -0.0985132977 0.5527281165 4279703067
-0.2587431073 -0.0980730727 0.5537099242 4279637274
-0.2600379586 -0.0979455709 0.5564808249 4279505688
-0.2604966760 -0.0974989682 0.5574625134 4279505689
-0.2609552741 -0.0970501453 0.5584439039 4279439896
-0.2609955072 -0.0964445472 0.5585300326 4279374616
-0.2610355020 -0.0958386660 0.5586156249 4279440409
-0.2606568635 -0.0950798914 0.5578053594 4279506202
-0.2606963217 -0.0944744274 0.5578897595 4279506202
-0.2603170276 -0.0937180147 0.5570780635 4279571995
-0.2591001987 -0.0926638767 0.5544740558 4279703581
-0.2595573366 -0.0922102183 0.5554522872 4279703580
-0.2583395243 -0.0911633298 0.5528461933 4279769373
-0.2583774030 -0.0905623510 0.5529272556 4279900959
-0.2584524453 -0.0893596187 0.5530878901 4280295717
-0.2593275011 -0.0890455619 0.5549604893 4280493096
-0.2602025568 -0.0887273476 0.5568330884 4280821548
-0.2594378889 -0.0872328803 0.5551967025 4281084720
-0.2594742179 -0.0866281390 0.5552744269 4281018927
-0.2595461011 -0.0854179040 0.5554283261 4281347635
-0.2574849129 -0.0841273367 0.5510173440 4281413428
-0.2591976225 -0.0840706304 0.5546825528 4281281842
-0.2575893402 -0.0823240578 0.5512408614 4281150256
-0.2576236725 -0.0817224756 0.5513142943 4281281070
-0.2576577663 -0.0811206549 0.5513872504 4281215277
-0.2581112981 -0.0806497410 0.5523578525 4281149484
-0.2581449747 -0.0800464675 0.5524298549 4281346863
-0.2577585578 -0.0793137848 0.5516029596 4281216049
-0.2577916682 -0.0787110254 0.5516738296 4281150256
-0.2578245401 -0.0781080350 0.5517441630 4281413428
-0.2578571737 -0.0775048137 0.5518140197 4281610807
-0.2583095729 -0.0770266056 0.5527821183 4281282100
-0.2583417594 -0.0764219463 0.5528510213 4281545272
-0.2587938309 -0.0759403408 0.5538184047 4281940030
-0.2588255703 -0.0753342509 0.5538863540 4281940030
-0.2584368289 -0.0746066272 0.5530544519 4282071875
-0.2584680319 -0.0740010738 0.5531212687 4282400840
-0.2584989965 -0.0733953044 0.5531874895 4282335047
-0.2597908378 -0.0731443912 0.5559520125 4282532426
-0.2594010234 -0.0724178627 0.5551177859 4282401608
-0.2590108514 -0.0716930926 0.5542828441 4283651675
-0.2594613731 -0.0712008774 0.5552470088 4285494392
-0.2713741958 -0.1761920899 0.5821240544 4290296495
-0.2718513906 -0.1758539826 0.5831476450 4290098336
-0.2715132535 -0.1749881357 0.5824222565 4289440406
-0.2715824544 -0.1743854582 0.5825707316 4288977788
-0.2712435722 -0.1735213995 0.5818438530 4288122479
-0.2713122964 -0.1729187071 0.5819911957 4287791186
-0.2713807821 -0.1723155677 0.5821381211 4287264842
-0.2714490891 -0.1717119813 0.5822846293 4287723322
-0.2707005739 -0.1705933213 0.5806789994 4287854908
-0.2707682550 -0.1699906290 0.5808241963 4288117554
-0.2708357275 -0.1693874896 0.5809689164 4287985968
-0.2709029913 -0.1687839031 0.5811132193 4289429779
-0.2705613375 -0.1679261923 0.5803803802 4289561365
-0.2706280947 -0.1673226207 0.5805235505 4289628690
-0.2706946433 -0.1667186022 0.5806663036 4289628690
-0.2703519464 -0.1658632010 0.5799311996 4289563659
-0.2704179883 -0.1652592123 0.5800728202 4289563659
-0.2704837918 -0.1646547765 0.5802140236 4289630222
-0.2705494165 -0.1640498936 0.5803547502 4289761808
-0.2702054083 -0.1631973088 0.5796168447 4289630479
-0.2702704966 -0.1625924706 0.5797564387 4289696272
-0.2699257731 -0.1617417634 0.5790169835 4289762319
-0.2699903250 -0.1611369699 0.5791555047 4289893905
-0.2696449161 -0.1602881402 0.5784144998 4290024980
-0.2697089612 -0.1596834064 0.5785518885 4290024980
-0.2697727978 -0.1590782255 0.5786888003 4290024473
-0.2694263160 -0.1582317948 0.5779456496 4289958680
-0.2694896460 -0.1576266885 0.5780814290 4289828112
-0.2691424489 -0.1567821652 0.5773367286 4289893905
-0.2692052424 -0.1561771184 0.5774714351 4289959698
-0.2688573599 -0.1553345174 0.5767251849 4289959698
-0.2685090601 -0.1544933319 0.5759780407 4289893905
-0.2685710192 -0.1538888812 0.5761109591 4289893905
-0.2682220340 -0.1530496329 0.5753622651 4289959698
-0.2682834566 -0.1524452716 0.5754940510 4290025491
-0.2679337263 -0.1516079754 0.5747438669 4290025491
-0.2679946423 -0.1510037184 0.5748745203 4289959698
-0.2680553496 -0.1503990442 0.5750047565 4289959696
-0.2677046061 -0.1495642215 0.5742523670 4290025489
-0.2677647769 -0.1489596516 0.5743814707 4290091282
-0.2674133182 -0.1481267959 0.5736275315 4290091282
-0.2674729824 -0.1475223601 0.5737555027 4290091282
-0.2671208084 -0.1466914713 0.5730000734 4290091282
-0.2671799362 -0.1460871547 0.5731269121 4290156817
-0.2672388256 -0.1454824358 0.5732532144 4290091024
-0.2668856382 -0.1446540803 0.5724956393 4290156817
-0.2669440210 -0.1440494955 0.5726208687 4290222610
-0.2665901184 -0.1432231516 0.5718617439 4290156817
-0.2666479647 -0.1426187158 0.5719857812 4290222610
-0.2662933767 -0.1417943835 0.5712251663 4290288403
-0.2663506866 -0.1411900967 0.5713481307 4290222610
-0.2659953833 -0.1403677911 0.5705859661 4290288403
-0.2656396925 -0.1395469755 0.5698229671 4290288403
-0.2652836144 -0.1387276500 0.5690590739 4290288403
-0.2653397620 -0.1381246150 0.5691795945 4290354196
-0.2649829686 -0.1373073310 0.5684142113 4290288403
-0.2646257877 -0.1364915520 0.5676479936 4290288403
-0.2646811008 -0.1358892620 0.5677666664 4290354196
-0.2647362351 -0.1352865994 0.5678849220 4290354196
-0.2643780112 -0.1344734281 0.5671165586 4290616347
-0.2644326091 -0.1338709593 0.5672336221 4290550554
-0.2640736997 -0.1330598742 0.5664637089 4290419734
-0.2641277313 -0.1324575990 0.5665796399 4290748699
-0.2637681365 -0.1316486150 0.5658082962 4290619415
-0.2638216615 -0.1310465485 0.5659230947 4290158864
-0.2634613514 -0.1302396506 0.5651502013 4285686272
-0.2631006539 -0.1294342875 0.5643764734 4280554496
-0.2631533444 -0.1288330108 0.5644894838 4281085224
-0.2627919614 -0.1280297488 0.5637142658 4281479982
-0.2628441155 -0.1274287105 0.5638261437 4281348653
-0.2628960311 -0.1268273145 0.5639374852 4281217067
-0.2629477382 -0.1262255460 0.5640484095 4281413939
-0.2629992068 -0.1256234348 0.5641587973 4281479732
-0.2630504370 -0.1250209808 0.5642687678 4281413935
-0.2635158002 -0.1246140897 0.5652669668 4281611314
-0.2639810741 -0.1242049634 0.5662650466 4281546036
-0.2640317976 -0.1235995442 0.5663738847 4281546036
-0.2644968629 -0.1231868640 0.5673714876 4281677622
-0.2653765082 -0.1229640618 0.5692583919 4281677622
-0.2654267848 -0.1223547533 0.5693662763 4281611829
-0.2650620341 -0.1215548664 0.5685837865 4281480243
-0.2651117742 -0.1209458187 0.5686904788 4281216817
-0.2651612759 -0.1203364283 0.5687966943 4281019438
-0.2643804550 -0.1193519682 0.5671217442 4280822059
-0.2644293308 -0.1187438071 0.5672265887 4280624680
-0.2640627921 -0.1179498509 0.5664403439 4280493094
-0.2636958659 -0.1171574742 0.5656532645 4280427301
-0.2633285522 -0.1163666770 0.5648653507 4280361508
-0.2629608810 -0.1155774593 0.5640766025 4280295715
-0.2617618144 -0.1144265756 0.5615044832 4280229924
-0.2618087828 -0.1138231233 0.5616052747 4280229924
-0.2618555129 -0.1132193431 0.5617055297 4280164131
-0.2614862919 -0.1124364883 0.5609135032 4280098338
-0.2615324855 -0.1118330285 0.5610125661 4280098338
-0.2611625791 -0.1110524163 0.5602191091 4280032545
-0.2607923150 -0.1102733985 0.5594248176 4279900959
-0.2608376741 -0.1096709073 0.5595221519 4279769373
-0.2608827949 -0.1090681031 0.5596188903 4279769373
-0.2609276772 -0.1084649861 0.5597152114 4279703580
-0.2609723210 -0.1078615561 0.5598109961 4279769373
-0.2610167265 -0.1072578207 0.5599062443 4279703580
-0.2614772916 -0.1068238765 0.5608941913 4279703581
-0.2611048818 -0.1060494259 0.5600953102 4279703581
-0.2615650892 -0.1056129411 0.5610825419 4279703581
-0.2616086304 -0.1050070152 0.5611759424 4279703581
-0.2599853873 -0.1037358195 0.5576938987 4279703581
-0.2604449093 -0.1032984331 0.5586795807 4279703581
-0.2609043121 -0.1028588191 0.5596650839 4279703067
-0.2601130903 -0.1019269451 0.5579678416 4279703067
-0.2597382665 -0.1011610180 0.5571637750 4279637787
-0.2593630552 -0.1003967375 0.5563589334 4279637787
-0.2594045401 -0.0997945443 0.5564479828 4279703581
-0.2586115599 -0.0988731161 0.5547469258 4279703581
-0.2594868243 -0.0985892937 0.5566244125 4279637275
-0.2595275939 -0.0979862362 0.5567119122 4279505689
-0.2604027390 -0.0976960286 0.5585892200 4279571482
-0.2604431808 -0.0970904678 0.5586759448 4279505689
-0.2600659430 -0.0963300020 0.5578666925 4279440409
-0.2605233192 -0.0958785042 0.5588478446 4279440409
-0.2605630457 -0.0952721089 0.5589330196 4279506202
-0.2606025040 -0.0946654305 0.5590177178 4279506202
-0.2598063648 -0.0937570110 0.5573098660 4279571482
-0.2585919499 -0.0927024484 0.5547048450 4279571482
-0.2565412819 -0.0913558751 0.5503059626 4279506202
-0.2569970489 -0.0909056664 0.5512836576 4279571995
-0.2566168308 -0.0901595578 0.5504680276 4279506201
-0.2566542625 -0.0895610079 0.5505483150 4279506201
-0.2579456270 -0.0893968642 0.5533183813 4279637787
-0.2571464777 -0.0885070339 0.5516042113 4279769373
-0.2571832538 -0.0879067257 0.5516830683 4279900959
-0.2580562532 -0.0875900835 0.5535557270 4280098338
-0.2589292526 -0.0872692838 0.5554283857 4280360997
-0.2581288218 -0.0863842890 0.5537113547 4280426790
-0.2581647336 -0.0857810080 0.5537884235 4280558376
-0.2582004070 -0.0851774737 0.5538648963 4280821548
-0.2586543560 -0.0847107694 0.5548387170 4281018927
-0.2570845485 -0.0823584720 0.5514712930 4281216306
-0.2571188509 -0.0817566514 0.5515449047 4281215277
-0.2575716972 -0.0812867656 0.5525163412 4281281070
-0.2571866810 -0.0805522949 0.5516904593 4281346863
-0.2572202682 -0.0799497589 0.5517624021 4281346863
-0.2572535872 -0.0793469846 0.5518339276 4281412658
-0.2572866380 -0.0787439868 0.5519048572 4281478451
-0.2573194802 -0.0781407505 0.5519752502 4281413428
-0.2573520541 -0.0775372833 0.5520451665 4281281842
-0.2569652200 -0.0768082887 0.5512153506 4281150001
-0.2569972575 -0.0762053505 0.5512840748 4281215794
-0.2570290565 -0.0756021887 0.5513523221 4281216307
-0.2570606172 -0.0749988034 0.5514199734 4281216307
-0.2579307258 -0.0746379197 0.5532864928 4281479479
-0.2579618990 -0.0740321279 0.5533533096 4281413686
-0.2584123313 -0.0735455006 0.5543195009 4281545274
-0.2584430277 -0.0729382858 0.5543854237 4282400583
-0.2584735155 -0.0723308548 0.5544508100 4282993745
-0.2589233816 -0.0718396381 0.5554158092 4284375398
-0.2585337162 -0.0711153448 0.5545799732 4284178019
-0.2589831948 -0.0706217363 0.5555441380 4287796634
-0.2705667019 -0.1747945249 0.5817779303 4290558384
-0.2706357241 -0.1741925627 0.5819263458 4290427821
-0.2707045376 -0.1735901386 0.5820743442 4290098856
-0.2703659832 -0.1727271229 0.5813463330 4289835166
-0.2704342902 -0.1721246839 0.5814932585 4289177236
-0.2705024183 -0.1715217829 0.5816397071 4288779904
-0.2701628208 -0.1706610322 0.5809094906 4287924595
-0.2702304125 -0.1700581312 0.5810548663 4287527519
-0.2702978253 -0.1694547981 0.5811997652 4286935382
-0.2699572146 -0.1685963124 0.5804674029 4287327006
-0.2700240910 -0.1679929793 0.5806111693 4287655971
-0.2700907588 -0.1673891991 0.5807545185 4288183323
-0.2701572180 -0.1667849720 0.5808974504 4288643874
-0.2698152661 -0.1659292728 0.5801622272 4288842005
-0.2698812187 -0.1653250754 0.5803040266 4288973591
-0.2695385814 -0.1644712240 0.5795672536 4289039122
-0.2696039975 -0.1638670564 0.5797079206 4288907536
-0.2696692348 -0.1632624418 0.5798481703 4289170190
-0.2697342336 -0.1626573950 0.5799879432 4289367569
-0.2697990239 -0.1620519012 0.5801272988 4289696272
-0.2694547474 -0.1612013727 0.5793869495 4289762065
-0.2695190310 -0.1605959386 0.5795251727 4289893645
-0.2691740096 -0.1597472876 0.5787833333 4289827852
-0.2692377567 -0.1591418982 0.5789204240 4289827852
-0.2693013251 -0.1585360914 0.5790570974 4289827852
-0.2689552903 -0.1576898396 0.5783130527 4289827599
-0.2690183222 -0.1570840925 0.5784485340 4289893392
-0.2686715722 -0.1562397480 0.5777029991 4290024976
-0.2687340677 -0.1556340754 0.5778373480 4289959183
-0.2683866024 -0.1547916681 0.5770902634 4289893390
-0.2680387497 -0.1539506763 0.5763422847 4289959183
-0.2681004107 -0.1533455998 0.5764749050 4290024978
-0.2677518427 -0.1525065452 0.5757253766 4289959185
-0.2678129971 -0.1519015580 0.5758568645 4290024978
-0.2674637139 -0.1510644555 0.5751057863 4290024978
-0.2675243318 -0.1504595727 0.5752361417 4290024976
-0.2675847411 -0.1498542726 0.5753660798 4290024976
-0.2672344446 -0.1490196586 0.5746127963 4290090769
-0.2672943175 -0.1484144777 0.5747416019 4290156562
-0.2669433057 -0.1475818306 0.5739868283 4290156564
-0.2670026720 -0.1469767690 0.5741144419 4290156564
-0.2666509449 -0.1461461037 0.5733581781 4290090769
-0.2667097747 -0.1455411762 0.5734846592 4290156562
-0.2663573325 -0.1447125077 0.5727268457 4290156562
-0.2664156258 -0.1441077143 0.5728522539 4290156562
-0.2660624981 -0.1432810575 0.5720928907 4290156562
-0.2661202848 -0.1426763982 0.5722171068 4290222355
-0.2661778331 -0.1420713365 0.5723409057 4290288148
-0.2658236623 -0.1412472427 0.5715793967 4290222355
-0.2658807039 -0.1406423450 0.5717020035 4290222355
-0.2655258477 -0.1398202777 0.5709390044 4290222355
-0.2647588253 -0.1387838721 0.5692897439 4290288148
-0.2648149431 -0.1381806284 0.5694103837 4290288148
-0.2648708224 -0.1375769973 0.5695305467 4290222355
-0.2645144463 -0.1367599666 0.5687642694 4290288148
-0.2641577125 -0.1359444261 0.5679972172 4290353941
-0.2642127573 -0.1353415400 0.5681155324 4290288148
-0.2642675936 -0.1347382814 0.5682334304 4290484761
-0.2639098167 -0.1339253783 0.5674641728 4290484761
-0.2639641166 -0.1333222985 0.5675809383 4290485529
-0.2636056542 -0.1325114965 0.5668101907 4290682908
-0.2636594176 -0.1319086254 0.5669257641 4290422808
-0.2633002698 -0.1310998946 0.5661535263 4289896464
-0.2629407048 -0.1302926987 0.5653803945 4285225984
-0.2629936337 -0.1296906173 0.5654941797 4280423168
-0.2626334131 -0.1288855225 0.5647196174 4281020457
-0.2626858056 -0.1282836646 0.5648322701 4281217836
-0.2623248696 -0.1274807006 0.5640561581 4281348653
-0.2623767257 -0.1268790662 0.5641676784 4281217067
-0.2624283433 -0.1262770891 0.5642787218 4281347892
-0.2624797821 -0.1256747544 0.5643892288 4281413685
-0.2629444003 -0.1252690256 0.5653882623 4281545261
-0.2629954219 -0.1246650293 0.5654980540 4281676847
-0.2638734281 -0.1244508177 0.5673859119 4281742902
-0.2643378675 -0.1240383312 0.5683845282 4281808695
-0.2648022175 -0.1236236021 0.5693830252 4281874486
-0.2652664781 -0.1232066154 0.5703812838 4281940279
-0.2653167844 -0.1225961223 0.5704894662 4281874999
-0.2649528384 -0.1217949763 0.5697069168 4281743413
-0.2650026083 -0.1211847439 0.5698139071 4281677622
-0.2650521398 -0.1205741614 0.5699203610 4281611829
-0.2646871805 -0.1197758019 0.5691357255 4281611575
-0.2643218637 -0.1189790145 0.5683501959 4281479989
-0.2643705606 -0.1183693260 0.5684548616 4281282864
-0.2640045285 -0.1175747290 0.5676678419 4281085485
-0.2636381388 -0.1167817116 0.5668800473 4280953899
-0.2632713616 -0.1159902811 0.5660913587 4280756520
-0.2633188963 -0.1153821349 0.5661935210 4280558887
-0.2625366747 -0.1144121662 0.5645115972 4280427301
-0.2621687651 -0.1136254892 0.5637204647 4280493096
-0.2618004382 -0.1128404140 0.5629285574 4280361510
-0.2618467510 -0.1122348011 0.5630280972 4280295717
-0.2614777386 -0.1114519611 0.5622346997 4280295717
-0.2615235150 -0.1108466685 0.5623330474 4280164131
-0.2607386410 -0.1098910868 0.5606454611 4280098338
-0.2611990273 -0.1094611138 0.5616353750 4280164131
-0.2604133487 -0.1085097119 0.5599460006 4280098338
-0.2608733475 -0.1080781519 0.5609351397 4279966752
-0.2609177828 -0.1074732170 0.5610306859 4279900959
-0.2613775432 -0.1070381403 0.5620192289 4279900959
-0.2610059679 -0.1062624231 0.5612202883 4279835166
-0.2610497177 -0.1056565642 0.5613142848 4279769373
-0.2615089715 -0.1052176878 0.5623018146 4279769373
-0.2611364722 -0.1044439450 0.5615008473 4279769373
-0.2603477240 -0.1035064906 0.5598048568 4279835166
-0.2603903711 -0.1029013693 0.5598965883 4279703581
-0.2604327798 -0.1022959426 0.5599877834 4279637788
-0.2604749501 -0.1016902253 0.5600784421 4279572509
-0.2588522732 -0.1004383042 0.5565893054 4279638302
-0.2593099177 -0.0999963805 0.5575733781 4279638302
-0.2593511939 -0.0993926972 0.5576621294 4279638302
-0.2593922317 -0.0987887159 0.5577503443 4279637788
-0.2598494589 -0.0983420536 0.5587334633 4279440409
-0.2594735920 -0.0975799114 0.5579252839 4279571482
-0.2599304616 -0.0971307382 0.5589076877 4279571482
-0.2599706054 -0.0965246633 0.5589939952 4279440409
-0.2595938146 -0.0957645848 0.5581838489 4279374616
-0.2587999403 -0.0948534310 0.5564767718 4279505689
-0.2580055594 -0.0939458907 0.5547686815 4279571482
-0.2572106719 -0.0930419713 0.5530595183 4279571482
-0.2568322420 -0.0922914967 0.5522458553 4279571482
-0.2564534545 -0.0915427059 0.5514313579 4279440409
-0.2569084466 -0.0910913423 0.5524096489 4279374616
-0.2569461763 -0.0904908627 0.5524907708 4279374616
-0.2565664947 -0.0897441953 0.5516743660 4279308823
-0.2570209205 -0.0892891139 0.5526515245 4279374616
-0.2570579350 -0.0886878520 0.5527310967 4279506202
-0.2579294443 -0.0883723274 0.5546050072 4279571994
-0.2575486600 -0.0876265690 0.5537862778 4279637787
-0.2580024898 -0.0871645957 0.5547621250 4279308822
-0.2580386698 -0.0865603536 0.5548399091 4279374615
-0.2576570213 -0.0858167633 0.5540192723 4279571994
-0.2585279644 -0.0854892135 0.5558919907 4279835166
-0.2585634589 -0.0848832279 0.5559683442 4279966752
-0.2569276392 -0.0837324038 0.5524509549 4280098338
-0.2561612129 -0.0822586641 0.5508030057 4280493096
-0.2561954260 -0.0816575810 0.5508764982 4281017900
-0.2562293708 -0.0810562596 0.5509495139 4281149486
-0.2562630773 -0.0804546997 0.5510220528 4281281072
-0.2567146719 -0.0799831674 0.5519930124 4281215279
-0.2554934621 -0.0789922997 0.5493671894 4281084463
-0.2563627660 -0.0786486045 0.5512363911 4281347635
-0.2568137646 -0.0781734288 0.5522060990 4281281842
-0.2564280033 -0.0774433836 0.5513766408 4281150256
-0.2564602792 -0.0768404305 0.5514460206 4281084208
-0.2560738623 -0.0761128813 0.5506151319 4281018415
-0.2561055720 -0.0755104572 0.5506833196 4281084208
-0.2565555573 -0.0750302076 0.5516508818 4281150001
-0.2570054233 -0.0745477676 0.5526182055 4281150001
-0.2570364773 -0.0739427134 0.5526850224 4281215794
-0.2583233416 -0.0736957639 0.5554520488 4281281587
-0.2579353750 -0.0729688555 0.5546177626 4281215794
-0.2579658031 -0.0723611712 0.5546832681 4281085748
-0.2579959929 -0.0717532784 0.5547481775 4283454296
-0.2576070726 -0.0710296780 0.5539118648 4283388503
-0.2580556571 -0.0705368519 0.5548763871 4287072911
-0.2696244419 -0.1707286686 0.5811397433 4290426792
-0.2696919441 -0.1701255590 0.5812852383 4289899929
-0.2693523765 -0.1692663282 0.5805533528 4289241999
-0.2694194019 -0.1686632335 0.5806977749 4288713086
-0.2694861889 -0.1680596918 0.5808417201 4288055156
-0.2695527673 -0.1674557030 0.5809852481 4287331162
-0.2696191669 -0.1668512672 0.5811283588 4286804818
-0.2692779601 -0.1659952551 0.5803929567 4287066431
-0.2693438232 -0.1653908491 0.5805348754 4287329603
-0.2690019011 -0.1645366997 0.5797979236 4287986481
-0.2690672576 -0.1639323235 0.5799387693 4288118067
-0.2691324055 -0.1633275002 0.5800791979 4288643612
-0.2691973448 -0.1627222300 0.5802191496 4288972577
-0.2692620456 -0.1621165425 0.5803586841 4289564688
-0.2689184844 -0.1612657011 0.5796181560 4289696274
-0.2689827085 -0.1606600434 0.5797565579 4289761034
-0.2686384320 -0.1598110944 0.5790145397 4289695241
-0.2687021196 -0.1592054963 0.5791518092 4289892113
-0.2687655985 -0.1585994661 0.5792886019 4289957906
-0.2684202790 -0.1577529013 0.5785443783 4289761806
-0.2684832513 -0.1571469456 0.5786800385 4289827599
-0.2681372464 -0.1563023031 0.5779342651 4289959183
-0.2681996524 -0.1556964219 0.5780688524 4289893390
