VERSION 0.7
FIELDS x y z rgba
SIZE 4 4 4 4
TYPE F F F U
COUNT 1 1 1 1
WIDTH 920
HEIGHT 1
VIEWPOINT 0.0 0.0 0.0 1.0 0.0 0.0 0.0
POINTS 920
DATA ascii
-0.2614317536 -0.1120569333 0.5621358156 4279900700
-0.2614777386 -0.1114519611 0.5622346997 4279900700
-0.2619386315 -0.1110226139 0.5632256269 4279900700
-0.2607386410 -0.1098910868 0.5606454611 4279834907
-0.2607837915 -0.1092870906 0.5607424974 4279769114
-0.2604133487 -0.1085097119 0.5599460006 4279834907
-0.2600425482 -0.1077339500 0.5591486692 4279637787
-0.2605023086 -0.1073020771 0.5601373315 4279571994
-0.2597153783 -0.1063574553 0.5584451556 4279637787
-0.2593435049 -0.1055855900 0.5576456189 4279703580
-0.2593869567 -0.1049835980 0.5577390194 4279703580
-0.2594301999 -0.1043813005 0.5578320026 4279703580
-0.2590573430 -0.1036123857 0.5570303202 4279703580
-0.2586841583 -0.1028451100 0.5562278032 4279769373
-0.2587265372 -0.1022438481 0.5563189387 4279703578
-0.2587686777 -0.1016422957 0.5564095974 4279637785
-0.2580199242 -0.1001153514 0.5547996163 4279571735
-0.2580612302 -0.0995148569 0.5548884273 4279505942
-0.2572697103 -0.0985950008 0.5531865358 4279440149
-0.2577267885 -0.0981544405 0.5541692972 4279505942
-0.2569344640 -0.0972388610 0.5524656177 4279505942
-0.2573911250 -0.0967967659 0.5534475446 4279571735
-0.2574311197 -0.0961967930 0.5535335541 4279505942
-0.2570542693 -0.0954418555 0.5527232289 4279505429
-0.2562603652 -0.0945348665 0.5510161519 4279439636
-0.2567161918 -0.0940897167 0.5519962907 4279439638
-0.2563382983 -0.0933388099 0.5511837602 4279571224
-0.2563769221 -0.0927403793 0.5512667894 4279834653
-0.2564153075 -0.0921416730 0.5513493419 4280097825
-0.2556194663 -0.0912450030 0.5496380925 4280031775
-0.2569084466 -0.0910913423 0.5524096489 4280163361
-0.2569461763 -0.0904908627 0.5524907708 4280426790
-0.2565664947 -0.0897441953 0.5516743660 4280624169
-0.2570209205 -0.0892891139 0.5526515245 4280755755
-0.2574752271 -0.0888318270 0.5536283851 4280821548
-0.2579294443 -0.0883723274 0.5546050072 4280887341
-0.2567138374 -0.0873425305 0.5519912243 4281018927
-0.2580024898 -0.0871645957 0.5547621250 4281282099
-0.2580386698 -0.0865603536 0.5548399091 4281216306
-0.2572394311 -0.0856776759 0.5531213284 4281216307
-0.2585279644 -0.0854892135 0.5558919907 4281216307
-0.2585634589 -0.0848832279 0.5559683442 4281282100
-0.2573454082 -0.0838685483 0.5533492565 4281347893
-0.2582159042 -0.0835353583 0.5552210212 4281282100
-0.2586685121 -0.0830638036 0.5561941862 4281216307
-0.2582851052 -0.0823236331 0.5553697944 4280952622
-0.2574833632 -0.0814529434 0.5536458492 4280886829
-0.2570991814 -0.0807171911 0.5528197885 4281150003
-0.2567146719 -0.0799831674 0.5519930124 4281478968
-0.2571660876 -0.0795094371 0.5529636741 4281479479
-0.2567809820 -0.0787769035 0.5521355867 4281545272
-0.2568137646 -0.0781734288 0.5522060990 4281676858
-0.2568463385 -0.0775697157 0.5522761345 4281611065
-0.2568786442 -0.0769657791 0.5523455739 4281545785
-0.2569106817 -0.0763616115 0.5524145365 4281677371
-0.2573609948 -0.0758806020 0.5533827543 4283125331
-0.2565555573 -0.0750302076 0.5516508818 4285493879
-0.2565868497 -0.0744263530 0.5517181754 4285099121
-0.2566178739 -0.0738222823 0.5517848730 4288586150
-0.2570673227 -0.0733374357 0.5527513027 4293257453
-0.2700987160 -0.1703821719 0.5821620226 4290621861
-0.2701661289 -0.1697777063 0.5823072791 4290292896
-0.2698263824 -0.1689180136 0.5815749764 4289374856
-0.2694861889 -0.1680596918 0.5808417201 4288848512
-0.2699599564 -0.1677086651 0.5818628669 4288583030
-0.2696191669 -0.1668512672 0.5811283588 4287727721
-0.2692779601 -0.1659952551 0.5803929567 4287329362
-0.2693438232 -0.1653908491 0.5805348754 4286605639
-0.2694094777 -0.1647859961 0.5806764364 4287129904
-0.2694749236 -0.1641806960 0.5808175206 4287393076
-0.2691324055 -0.1633275002 0.5800791979 4288247324
-0.2691973448 -0.1627222300 0.5802191496 4288576289
-0.2692620456 -0.1621165425 0.5803586841 4289102605
-0.2689184844 -0.1612657011 0.5796181560 4289299984
-0.2689827085 -0.1606600434 0.5797565579 4289497866
-0.2690466940 -0.1600539684 0.5798944831 4289563659
-0.2691104710 -0.1594474465 0.5800319314 4289432589
-0.2687655985 -0.1585994661 0.5792886019 4289432589
-0.2684202790 -0.1577529013 0.5785443783 4289564429
-0.2684832513 -0.1571469456 0.5786800385 4289498636
-0.2681372464 -0.1563023031 0.5779342651 4289564429
-0.2681996524 -0.1556964219 0.5780688524 4289696015
-0.2682618797 -0.1550901085 0.5782029033 4289761808
-0.2679148614 -0.1542478949 0.5774549246 4289761808
-0.2675674260 -0.1534070969 0.5767061114 4289827601
-0.2672196031 -0.1525677443 0.5759564042 4289761808
-0.2672806680 -0.1519625336 0.5760880709 4289893392
-0.2669321299 -0.1511251330 0.5753368139 4289893392
-0.2669926882 -0.1505200267 0.5754672885 4289893392
-0.2666434348 -0.1496845931 0.5747145414 4289959185
-0.2667034566 -0.1490795910 0.5748439431 4289893392
-0.2667632699 -0.1484741867 0.5749728680 4289959185
-0.2668228745 -0.1478683800 0.5751013160 4290024978
-0.2664722800 -0.1470359564 0.5743456483 4289893392
-0.2665313482 -0.1464302689 0.5744729638 4290155796
-0.2665902078 -0.1458241791 0.5745998621 4290155796
-0.2662386000 -0.1449942887 0.5738419890 4290024980
-0.2662969232 -0.1443883330 0.5739677548 4290024980
-0.2659446299 -0.1435604244 0.5732083917 4290090773
-0.2660024166 -0.1429546177 0.5733329654 4290156566
-0.2656494081 -0.1421287358 0.5725721121 4290222357
-0.2652960122 -0.1413043290 0.5718103647 4290222357
-0.2653529644 -0.1406992078 0.5719331503 4290156564
-0.2649988532 -0.1398768425 0.5711699128 4290222357
-0.2646443546 -0.1390559524 0.5704058409 4290222357
-0.2642894685 -0.1382365674 0.5696408749 4290156564
-0.2643452883 -0.1376327127 0.5697612166 4290156564
-0.2639896572 -0.1368153691 0.5689947605 4290222357
-0.2640449703 -0.1362116933 0.5691139102 4290353943
-0.2636886537 -0.1353964210 0.5683459640 4290353943
-0.2633319497 -0.1345826536 0.5675771236 4290749471
-0.2633863986 -0.1339797229 0.5676944852 4290683678
-0.2630290091 -0.1331680417 0.5669241548 4289170706
-0.2630829513 -0.1325653195 0.5670403838 4283709952
-0.2627248466 -0.1317557096 0.5662685633 4280423684
-0.2627782226 -0.1311531961 0.5663836598 4281607958
-0.2624194324 -0.1303456873 0.5656103492 4281282353
-0.2620602548 -0.1295396984 0.5648361444 4281084974
-0.2621128261 -0.1289379895 0.5649494529 4281479992
-0.2621651590 -0.1283359081 0.5650622249 4281479992
-0.2622172534 -0.1277334690 0.5651745200 4281349423
-0.2622691393 -0.1271306574 0.5652863979 4281481009
-0.2623208165 -0.1265275031 0.5653977394 4281808946
-0.2623722553 -0.1259239912 0.5655086040 4281808946
-0.2632486820 -0.1257142127 0.5673976541 4281612848
-0.2637125254 -0.1253041923 0.5683973432 4281612848
-0.2641762793 -0.1248919144 0.5693969727 4281875001
-0.2650528550 -0.1246715710 0.5712862611 4281875001
-0.2655165493 -0.1242538318 0.5722857118 4281809206
-0.2651541531 -0.1234492660 0.5715046525 4281743413
-0.2656175792 -0.1230289191 0.5725034475 4281677620
-0.2660808861 -0.1226063222 0.5735020638 4281611827
-0.2657176554 -0.1218026206 0.5727191567 4281546036
-0.2653540373 -0.1210004762 0.5719354153 4281546036
-0.2649900019 -0.1201998964 0.5711508393 4281545525
-0.2650390863 -0.1195874512 0.5712566376 4281216560
-0.2646743953 -0.1187890545 0.5704705119 4280953386
-0.2643092871 -0.1179922372 0.5696836114 4280690214
-0.2643575072 -0.1173806936 0.5697875619 4280492835
-0.2635779381 -0.1164033413 0.5681073070 4280427042
-0.2632116973 -0.1156112626 0.5673179030 4280427044
-0.2628450692 -0.1148207784 0.5665277243 4280427044
-0.2628920674 -0.1142117456 0.5666289926 4280295458
-0.2621106803 -0.1132445782 0.5649448037 4280163872
-0.2617429197 -0.1124588698 0.5641521215 4280098079
-0.2613747716 -0.1116747633 0.5633586645 4280163872
-0.2618348300 -0.1112442985 0.5643502474 4280098079
-0.2610517144 -0.1102864146 0.5626623631 4279966493
-0.2606824934 -0.1095061675 0.5618665814 4279900959
-0.2594839036 -0.1083812565 0.5592831373 4279966752
-0.2603575289 -0.1081226617 0.5611661673 4279769373
-0.2591579556 -0.1070038751 0.5585806370 4279703580
-0.2583724558 -0.1060608104 0.5568875670 4279703581
-0.2592456043 -0.1057984009 0.5587695241 4279703581
-0.2580875456 -0.1040896699 0.5562734604 4279571995
-0.2581303418 -0.1034887657 0.5563657284 4279506202
-0.2590030432 -0.1032183990 0.5582467318 4279506202
-0.2582152188 -0.1022860706 0.5565487146 4279440408
-0.2578421235 -0.1015208066 0.5557445288 4279571994
-0.2587144673 -0.1012447104 0.5576246977 4279703067
-0.2579254806 -0.1003182828 0.5559241772 4279703067
-0.2575514019 -0.0995560065 0.5551179051 4279637274
-0.2571769655 -0.0987953842 0.5543107986 4279505688
-0.2572176754 -0.0981950536 0.5543985963 4279374615
-0.2568425536 -0.0974367708 0.5535900593 4279374615
-0.2564670742 -0.0966801494 0.5527808070 4279571994
-0.2560912371 -0.0959251896 0.5519706607 4279440408
-0.2569624186 -0.0956361443 0.5538483858 4279571481
-0.2565860152 -0.0948815942 0.5530371666 4279637274
-0.2562092841 -0.0941287205 0.5522251129 4279505942
-0.2558321655 -0.0933775157 0.5514123440 4279571735
-0.2558707297 -0.0927788466 0.5514954925 4279637528
-0.2563251853 -0.0923297927 0.5524749756 4279571735
-0.2559472024 -0.0915806964 0.5516602397 4279440149
-0.2555688322 -0.0908332840 0.5508447289 4279571735
-0.2552273571 -0.0894895047 0.5501087308 4279769114
-0.2552644014 -0.0888911858 0.5501885414 4279834907
-0.2557542920 -0.0878368393 0.5512444377 4280295204
-0.2553740740 -0.0870946944 0.5504249334 4280624169
-0.2554101348 -0.0864953473 0.5505027175 4280755755
-0.2558626831 -0.0860358775 0.5514780879 4280755755
-0.2558983564 -0.0854350477 0.5515549779 4280953134
-0.2559337616 -0.0848339722 0.5516313314 4281018927
-0.2559689581 -0.0842326507 0.5517071486 4281084721
-0.2572547197 -0.0840396956 0.5544784665 4281216307
-0.2568725944 -0.0832997113 0.5536547899 4281216307
-0.2573242188 -0.0828299299 0.5546281934 4281347893
-0.2553068995 -0.0809577778 0.5502801538 4280754729
-0.2557577193 -0.0804882571 0.5512518883 4280886829
-0.2566257119 -0.0801468566 0.5531226993 4280821036
-0.2566590011 -0.0795426220 0.5531944633 4280689450
-0.2566920519 -0.0789381489 0.5532656908 4280952622
-0.2563074529 -0.0782060698 0.5524367094 4281150514
-0.2563399374 -0.0776021183 0.5525068045 4280953135
-0.2563722134 -0.0769979358 0.5525763035 4280558890
-0.2568218410 -0.0765179396 0.5535454154 4281414199
-0.2564360201 -0.0757888854 0.5527138710 4282400840
-0.2564675510 -0.0751840249 0.5527818203 4284440423
-0.2560811043 -0.0744574815 0.5519488454 4282993747
-0.2565298975 -0.0739736408 0.5529161692 4286349190
-0.2565607131 -0.0733681172 0.5529825687 4292336351
-0.2688809335 -0.1687300652 0.5809279084 4290164906
-0.2689476609 -0.1681263298 0.5810720325 4289967527
-0.2686077952 -0.1672690809 0.5803377628 4289900446
-0.2686739862 -0.1666653454 0.5804808140 4289571481
-0.2687399983 -0.1660611629 0.5806233883 4289373065
-0.2683991194 -0.1652062386 0.5798869133 4288715135
-0.2684645951 -0.1646020859 0.5800283551 4288121190
-0.2685298622 -0.1639975011 0.5801693797 4287200088
-0.2685949206 -0.1633924693 0.5803099871 4286869055
-0.2686598003 -0.1627870053 0.5804501176 4286671676
-0.2687244415 -0.1621810943 0.5805897713 4287327533
-0.2683816254 -0.1613299400 0.5798490644 4287722291
-0.2684457302 -0.1607240885 0.5799876451 4288182042
-0.2681021988 -0.1598748118 0.5792453885 4288116249
-0.2681658268 -0.1592690200 0.5793828368 4288445704
-0.2682292163 -0.1586627811 0.5795198083 4288840462
-0.2678846419 -0.1578159034 0.5787754059 4288842505
-0.2679475248 -0.1572097391 0.5789112449 4288842505
-0.2676022649 -0.1563647836 0.5781652927 4289038606
-0.2676646113 -0.1557586789 0.5782999992 4289038606
-0.2669105232 -0.1546791345 0.5766707063 4289366029
-0.2673804760 -0.1543096304 0.5776860714 4289431822
-0.2670337856 -0.1534685344 0.5769370794 4289497353
-0.2666867077 -0.1526288688 0.5761871338 4289563146
-0.2667477131 -0.1520234495 0.5763189793 4289956875
-0.2663998902 -0.1511857361 0.5755675435 4290022668
-0.2664603889 -0.1505804211 0.5756981969 4290022927
-0.2665206492 -0.1499746889 0.5758283734 4290022927
-0.2661718428 -0.1491394639 0.5750747323 4289958417
-0.2662315667 -0.1485338360 0.5752038360 4289958417
-0.2662910819 -0.1479278058 0.5753324628 4289828109
-0.2663504183 -0.1473213732 0.5754605532 4289828109
-0.2660002708 -0.1464891732 0.5747041106 4289762317
-0.2660590410 -0.1458828747 0.5748310685 4289959696
-0.2661176026 -0.1452761590 0.5749576092 4290025239
-0.2657664418 -0.1444464922 0.5741989017 4290025239
-0.2658244967 -0.1438399106 0.5743243098 4290156059
-0.2654726207 -0.1430122405 0.5735641122 4290221852
-0.2651203573 -0.1421860605 0.5728030205 4290222359
-0.2647677064 -0.1413613409 0.5720410943 4290156566
-0.2648245990 -0.1407560110 0.5721639991 4290157075
-0.2648812830 -0.1401502788 0.5722864866 4290157075
-0.2645276189 -0.1393281519 0.5715223551 4290026002
-0.2641735375 -0.1385075152 0.5707573891 4289960209
-0.2638190985 -0.1376883686 0.5699915886 4290091543
-0.2638746202 -0.1370839179 0.5701115727 4290157336
-0.2635194659 -0.1362668276 0.5693442225 4290288411
-0.2631639242 -0.1354512423 0.5685760379 4290419997
-0.2632186115 -0.1348475367 0.5686942339 4290552096
-0.2628623545 -0.1340340227 0.5679244995 4290288924
-0.2629165351 -0.1334305108 0.5680415630 4288778771
-0.2625595927 -0.1326190680 0.5672703385 4283910144
-0.2626132071 -0.1320157647 0.5673862100 4280422656
-0.2622555792 -0.1312064230 0.5666135550 4281935894
-0.2618975341 -0.1303986162 0.5658400059 4281478693
-0.2619503438 -0.1297960877 0.5659540296 4281281314
-0.2615916133 -0.1289903820 0.5651789904 4281479468
-0.2616438866 -0.1283880770 0.5652919412 4281479468
-0.2616959214 -0.1277854145 0.5654044151 4281545010
-0.2617477477 -0.1271823794 0.5655163527 4281610803
-0.2617993355 -0.1265790015 0.5656278133 4281611064
-0.2622624338 -0.1261733472 0.5666283369 4281676857
-0.2627254725 -0.1257654279 0.5676287413 4281481011
-0.2636002898 -0.1255514324 0.5695188642 4281546804
-0.2640632689 -0.1251380444 0.5705190897 4281677361
-0.2649382055 -0.1249166876 0.5724094510 4281743154
-0.2654010952 -0.1244978458 0.5734095573 4281677361
-0.2654517591 -0.1238843799 0.5735189915 4281677361
-0.2659144402 -0.1234619766 0.5745186210 4281677361
-0.2659646869 -0.1228468642 0.5746272206 4281743154
-0.2656022906 -0.1220418885 0.5738442540 4281611829
-0.2652395070 -0.1212384775 0.5730603933 4281546036
-0.2652888894 -0.1206242368 0.5731671453 4281611829
-0.2649254203 -0.1198230013 0.5723818541 4281611829
-0.2649742961 -0.1192090288 0.5724874139 4281611829
-0.2646101117 -0.1184099913 0.5717005730 4281546036
-0.2642455399 -0.1176125258 0.5709129572 4281348403
-0.2638806105 -0.1168166474 0.5701244473 4281085231
-0.2635152638 -0.1160223484 0.5693351626 4280691245
-0.2631495595 -0.1152296364 0.5685450435 4280559659
-0.2627834678 -0.1144385114 0.5677540898 4280558887
-0.2624169886 -0.1136489809 0.5669623017 4280295715
-0.2616368234 -0.1126830354 0.5652766824 4280098336
-0.2612695098 -0.1118976623 0.5644831061 4280098336
-0.2617287636 -0.1114660725 0.5654753447 4280164129
-0.2609473169 -0.1105068550 0.5637869835 4280098336
-0.2609925568 -0.1098994985 0.5638847351 4280032543
-0.2606238723 -0.1091186255 0.5630881786 4279966750
-0.2590135634 -0.1078226417 0.5596089959 4279835164
-0.2607130706 -0.1079042777 0.5632808805 4279900957
-0.2582738996 -0.1062747613 0.5580109954 4279900957
-0.2587314546 -0.1058419496 0.5589995384 4279769371
-0.2596029639 -0.1055752859 0.5608825088 4279637785
-0.2579898536 -0.1042999625 0.5573973060 4279637785
-0.2580326796 -0.1036978588 0.5574898124 4279637785
-0.2580752671 -0.1030954570 0.5575818419 4279637785
-0.2577033043 -0.1023282483 0.5567781925 4279637787
-0.2577453554 -0.1017262265 0.5568690300 4279571994
-0.2577871680 -0.1011239067 0.5569593906 4279637787
-0.2574142218 -0.1003596857 0.5561535954 4279637787
-0.2578700781 -0.0999183878 0.5571385026 4279637787
-0.2562526166 -0.0986765176 0.5536438823 4279571994
-0.2567079365 -0.0982356220 0.5546275973 4279440408
-0.2563335896 -0.0974770412 0.5538188219 4279440408
-0.2555440366 -0.0965633541 0.5521129966 4279506201
-0.2559987307 -0.0961206406 0.5530953407 4279571994
-0.2552476227 -0.0946131721 0.5514725447 4279571994
-0.2557017207 -0.0941676795 0.5524536967 4279506201
-0.2553639412 -0.0928172693 0.5517238379 4279571994
-0.2558175027 -0.0923680365 0.5527038574 4279571994
-0.2550249398 -0.0914696753 0.5509914756 4279637785
-0.2550626993 -0.0908709317 0.5510730147 4279506199
-0.2551002204 -0.0902719349 0.5511541367 4279506199
-0.2547219694 -0.0895266160 0.5503368974 4279571992
-0.2547589540 -0.0889280662 0.5504168272 4279506201
-0.2543800771 -0.0881851614 0.5495981574 4279571994
-0.2548322380 -0.0877301842 0.5505750775 4279769373
-0.2548685074 -0.0871308595 0.5506534576 4279900959
-0.2553203702 -0.0866724327 0.5516297817 4280097825
-0.2553562224 -0.0860716254 0.5517072082 4280229411
-0.2553918362 -0.0854705572 0.5517841578 4280492583
-0.2558432221 -0.0850074589 0.5527594090 4280755755
-0.2554623783 -0.0842676759 0.5519365072 4280887341
-0.2559133768 -0.0838021263 0.5529109836 4280953134
-0.2555319071 -0.0830638036 0.5520868301 4281084720
-0.2555663288 -0.0824614987 0.5521611571 4281216306
-0.2560167909 -0.0819922686 0.5531343818 4281150001
-0.2564671338 -0.0815208405 0.5541073680 4281347380
-0.2552517354 -0.0805217773 0.5514814854 4281478966
-0.2557015717 -0.0800498724 0.5524533391 4281413173
-0.2561512887 -0.0795757696 0.5534250140 4281347380
-0.2561843097 -0.0789710507 0.5534963012 4281413173
-0.2562170923 -0.0783661008 0.5535671115 4281413688
-0.2562496066 -0.0777609199 0.5536373854 4281413688
-0.2554484606 -0.0769045949 0.5519064665 4281479481
-0.2563139200 -0.0765498653 0.5537763834 4281479481
-0.2563457191 -0.0759439990 0.5538451076 4282137668
-0.2559604049 -0.0752154142 0.5530125499 4283782493
-0.2564086020 -0.0747315958 0.5539808869 4283453528
-0.2564396560 -0.0741250664 0.5540480018 4286874764
-0.2556364238 -0.0732792243 0.5523125529 4292730341
-0.2676638067 -0.1670821607 0.5796892643 4290493864
-0.2677298188 -0.1664791405 0.5798322558 4290230692
-0.2677956223 -0.1658756733 0.5799747705 4290294688
-0.2678612471 -0.1652717590 0.5801168680 4290097309
-0.2679266334 -0.1646673977 0.5802585483 4289898655
-0.2679918408 -0.1640626043 0.5803996921 4289503897
-0.2680568397 -0.1634573638 0.5805404782 4289436057
-0.2681216002 -0.1628516912 0.5806807280 4288514955
-0.2677798271 -0.1619997472 0.5799405575 4287592550
-0.2674376369 -0.1611492038 0.5791994929 4286671448
-0.2675015926 -0.1605440527 0.5793380141 4286343461
-0.2671587169 -0.1596954018 0.5785953999 4286409254
-0.2672221363 -0.1590903103 0.5787327290 4286937096
-0.2672853768 -0.1584847867 0.5788697004 4287266061
-0.2673483789 -0.1578788310 0.5790061355 4288577801
-0.2670041621 -0.1570330709 0.5782606602 4288577801
-0.2670666575 -0.1564271748 0.5783960223 4288840201
-0.2671289444 -0.1558208764 0.5785309076 4289103373
-0.2663764060 -0.1547409296 0.5769010782 4289431822
-0.2668454647 -0.1543712914 0.5779169798 4289300236
-0.2664995193 -0.1535298973 0.5771677494 4289300236
-0.2661531568 -0.1526899189 0.5764176250 4289497615
-0.2662141025 -0.1520842910 0.5765495896 4289629450
-0.2662748098 -0.1514782459 0.5766810775 4289892622
-0.2659274340 -0.1506407410 0.5759288073 4289958920
-0.2659876347 -0.1500347853 0.5760591626 4289893127
-0.2660476267 -0.1494284272 0.5761890411 4289892360
-0.2656992376 -0.1485934108 0.5754345655 4289892360
-0.2657586932 -0.1479871720 0.5755633116 4289958163
-0.2658179402 -0.1473805159 0.5756915808 4290089749
-0.2658769488 -0.1467734724 0.5758194327 4289959185
-0.2655272484 -0.1459414810 0.5750620365 4290024978
-0.2655857503 -0.1453345567 0.5751887560 4290090519
-0.2652353346 -0.1445045769 0.5744298697 4290090519
-0.2652933002 -0.1438977867 0.5745553970 4290090519
-0.2649421990 -0.1430698186 0.5737949610 4290024726
-0.2649996281 -0.1424631625 0.5739193559 4290090771
-0.2646478117 -0.1416372061 0.5731574297 4290156564
-0.2642956078 -0.1408127397 0.5723946095 4290156817
-0.2643522024 -0.1402067840 0.5725172162 4290222610
-0.2639992833 -0.1393843442 0.5717529058 4290091282
-0.2636459768 -0.1385634094 0.5709877014 4290091282
-0.2637017369 -0.1379581690 0.5711085200 4290157077
-0.2633477449 -0.1371392757 0.5703418255 4290288663
-0.2629933357 -0.1363218874 0.5695742965 4290353945
-0.2630482614 -0.1357173920 0.5696932673 4290419738
-0.2626931667 -0.1349020600 0.5689241886 4290421278
-0.2627475858 -0.1342977583 0.5690420270 4290223899
-0.2623917758 -0.1334845126 0.5682714581 4289107736
-0.2624456584 -0.1328803897 0.5683881640 4284897024
-0.2620891631 -0.1320692301 0.5676160455 4280423168
-0.2621425092 -0.1314653307 0.5677316189 4281146889
-0.2617853284 -0.1306562573 0.5669580102 4281478954
-0.2614277303 -0.1298487186 0.5661835670 4281149989
-0.2614802420 -0.1292456090 0.5662972927 4281348657
-0.2619431019 -0.1288440824 0.5672997832 4281480243
-0.2619952559 -0.1282393038 0.5674126744 4281479991
-0.2620471716 -0.1276341528 0.5675251484 4281479991
-0.2620988786 -0.1270286441 0.5676371455 4281545785
-0.2621503472 -0.1264227927 0.5677486062 4281743164
-0.2626125813 -0.1260137707 0.5687496662 4281743163
-0.2630747259 -0.1256024987 0.5697505474 4281677370
-0.2639479637 -0.1253842860 0.5716417432 4281677618
-0.2644100487 -0.1249675453 0.5726425052 4281809204
-0.2648720741 -0.1245485544 0.5736431479 4281808947
-0.2653340399 -0.1241273060 0.5746436119 4281743154
-0.2653844655 -0.1235123053 0.5747528076 4281743154
-0.2658461928 -0.1230874956 0.5757527947 4281743154
-0.2654846311 -0.1222812533 0.5749697685 4281611827
-0.2651226819 -0.1214765832 0.5741858482 4281611827
-0.2647603452 -0.1206734776 0.5734011531 4281743415
-0.2648094594 -0.1200586557 0.5735074878 4281743415
-0.2648583353 -0.1194434911 0.5736134052 4281743415
-0.2644950151 -0.1186431870 0.5728265047 4281809208
-0.2641312778 -0.1178444549 0.5720387697 4281743415
-0.2637671828 -0.1170473099 0.5712502003 4281611829
-0.2634027004 -0.1162517443 0.5704608560 4281349173
-0.2630378306 -0.1154577658 0.5696706176 4281217587
-0.2626725733 -0.1146653742 0.5688796043 4281414198
-0.2623069286 -0.1138745770 0.5680876970 4281085233
-0.2619409263 -0.1130853742 0.5672950149 4280756268
-0.2615745366 -0.1122977734 0.5665014982 4280624682
-0.2612077594 -0.1115117744 0.5657072067 4280624682
-0.2608406246 -0.1107273772 0.5649120212 4280493096
-0.2604731023 -0.1099445894 0.5641160607 4280229924
-0.2613437772 -0.1096832380 0.5660017729 4280032545
-0.2597369254 -0.1083838493 0.5625216961 4279966752
-0.2593682706 -0.1076058969 0.5617232919 4279966752
-0.2585861683 -0.1066591889 0.5600295067 4279966752
-0.2590429783 -0.1062242836 0.5610188246 4279900959
-0.2590864897 -0.1056186929 0.5611130595 4279835166
-0.2583031952 -0.1046778262 0.5594166517 4279703580
-0.2587594688 -0.1042400748 0.5604048371 4279637787
-0.2575619221 -0.1031378880 0.5578112602 4279571994
-0.2580177188 -0.1026995406 0.5587984324 4279769373
-0.2576462924 -0.1019317284 0.5579940081 4279703580
-0.2576881349 -0.1013282090 0.5580846071 4279703580
-0.2569023371 -0.1004010364 0.5563827753 4279703580
-0.2565298080 -0.0996381640 0.5555760264 4279637787
-0.2565707564 -0.0990366787 0.5556646585 4279506201
-0.2561975420 -0.0982761383 0.5548564196 4279506201
-0.2554500699 -0.0967600346 0.5532375574 4279637787
-0.2550757825 -0.0960044712 0.5524269342 4279571994
-0.2555294037 -0.0955603346 0.5534093976 4279506201
-0.2555687428 -0.0949600711 0.5534945130 4279440408
-0.2551935315 -0.0942065939 0.5526819825 4279440408
-0.2556466758 -0.0937587097 0.5536633134 4279506201
-0.2552708983 -0.0930066332 0.5528494716 4279571994
-0.2553091943 -0.0924062431 0.5529324412 4279571994
-0.2549327612 -0.0916565508 0.5521171689 4279703578
-0.2549705207 -0.0910566002 0.5521990061 4279571992
-0.2550080717 -0.0904563889 0.5522803068 4279571992
-0.2546306551 -0.0897097960 0.5514629483 4279571992
-0.2542529106 -0.0889649019 0.5506448150 4279506199
-0.2542896271 -0.0883658528 0.5507243276 4279506199
-0.2539111972 -0.0876233727 0.5499047637 4279571994
-0.2539473772 -0.0870247856 0.5499830842 4279506201
-0.2543983161 -0.0865671635 0.5509597063 4279571481
-0.2544340789 -0.0859670863 0.5510371923 4279703067
-0.2544696033 -0.0853667632 0.5511140823 4279834653
-0.2549200654 -0.0849044621 0.5520896912 4279966239
-0.2549551427 -0.0843026564 0.5521656871 4280032032
-0.2549900115 -0.0837006047 0.5522411466 4280163618
-0.2558553219 -0.0833689794 0.5541152358 4280295204
-0.2550590038 -0.0824957564 0.5523905754 4280426790
-0.2559240460 -0.0821597278 0.5542640686 4280492584
-0.2551270127 -0.0812899470 0.5525379181 4280887342
-0.2539139688 -0.0802924410 0.5499107242 4281216307
-0.2535315752 -0.0795614570 0.5490826368 4281282100
-0.2548115849 -0.0793499798 0.5518547297 4281282100
-0.2548444569 -0.0787469894 0.5519258976 4281216307
-0.2548770607 -0.0781437606 0.5519965887 4281282100
-0.2536619306 -0.0771608278 0.5493649244 4281479479
-0.2545257211 -0.0768111125 0.5512356162 4281282613
-0.2549735010 -0.0763327107 0.5522054434 4281348406
-0.2550051510 -0.0757285729 0.5522739887 4281940289
-0.2554526031 -0.0752467588 0.5532430410 4283650907
-0.2558999360 -0.0747627541 0.5542118549 4283848286
-0.2550986707 -0.0739148185 0.5524764657 4287401108
-0.2547131479 -0.0731901973 0.5516415834 4292796134
-0.2672417462 -0.1620640457 0.5801707506 4289767573
-0.2664946616 -0.1609681994 0.5785489082 4289175436
-0.2665584385 -0.1603637487 0.5786873698 4288517239
-0.2666220069 -0.1597588807 0.5788253546 4287727723
-0.2662794590 -0.1589113325 0.5780816674 4286675282
-0.2663425207 -0.1583065242 0.5782185793 4285819973
-0.2664053440 -0.1577012688 0.5783550143 4286932777
-0.2664679885 -0.1570956111 0.5784909725 4287130156
-0.2661240995 -0.1562509537 0.5777444243 4287788565
-0.2661862075 -0.1556453556 0.5778792500 4288314909
-0.2662481070 -0.1550393403 0.5780135989 4288840965
-0.2659032047 -0.1541971117 0.5772648454 4288775172
-0.2659645975 -0.1535911709 0.5773981214 4289038336
-0.2656189799 -0.1527508944 0.5766478181 4289564680
-0.2656798363 -0.1521450579 0.5767799616 4289498636
-0.2657404840 -0.1515387893 0.5769115686 4289630222
-0.2653938830 -0.1507009715 0.5761591196 4289564175
-0.2654539943 -0.1500948220 0.5762895942 4289498382
-0.2655138969 -0.1494882405 0.5764196515 4289760784
-0.2655735910 -0.1488812566 0.5765492320 4289826577
-0.2652256489 -0.1480464637 0.5757938623 4289892624
-0.2652848065 -0.1474395990 0.5759223104 4290024210
-0.2653437555 -0.1468323171 0.5760502815 4289892624
-0.2649948001 -0.1460000277 0.5752927661 4289826831
-0.2650532424 -0.1453928947 0.5754196048 4289893140
-0.2647035718 -0.1445626020 0.5746604800 4290024726
-0.2647614777 -0.1439555883 0.5747861862 4290024980
-0.2644110918 -0.1431273073 0.5740255713 4290024980
-0.2644684911 -0.1425204426 0.5741500854 4290090771
-0.2641174197 -0.1416941732 0.5733879805 4290156564
-0.2641742527 -0.1410874575 0.5735113621 4290156562
-0.2638224959 -0.1402632296 0.5727477074 4290156562
-0.2634703219 -0.1394404918 0.5719831586 4290090769
-0.2635263503 -0.1388344765 0.5721047521 4290090769
-0.2631734610 -0.1380137801 0.5713387132 4290091030
-0.2628202140 -0.1371945739 0.5705717802 4290288409
-0.2624665797 -0.1363768727 0.5698040724 4290354202
-0.2625214458 -0.1357721686 0.5699231625 4290419995
-0.2625760734 -0.1351670772 0.5700418353 4290683678
-0.2622214258 -0.1343519986 0.5692718625 4290288920
-0.2622755468 -0.1337471008 0.5693893433 4288975631
-0.2619202137 -0.1329341084 0.5686179399 4285949184
-0.2619737983 -0.1323294044 0.5687342882 4281410304
-0.2620271742 -0.1317243278 0.5688501000 4280752384
-0.2616708279 -0.1309140176 0.5680764914 4281084445
-0.2617236674 -0.1303091496 0.5681912303 4281018652
-0.2613666058 -0.1295009404 0.5674160719 4281546032
-0.2614189088 -0.1288962960 0.5675296187 4281611825
-0.2614710033 -0.1282912940 0.5676427484 4281546032
-0.2615228593 -0.1276859194 0.5677553415 4281414446
-0.2615745068 -0.1270801872 0.5678673983 4281545523
-0.2620359957 -0.1266723424 0.5688692927 4281808695
-0.2624973953 -0.1262622178 0.5698710084 4282071358
-0.2629587650 -0.1258498579 0.5708726048 4282071358
-0.2638303638 -0.1256306171 0.5727647543 4281809206
-0.2642916441 -0.1252127737 0.5737662315 4281874999
-0.2647528648 -0.1247926801 0.5747675300 4281940533
-0.2648034692 -0.1241777986 0.5748773813 4281940533
-0.2648538351 -0.1235625669 0.5749866962 4282006072
-0.2653146982 -0.1231376082 0.5759872198 4281940279
-0.2653646767 -0.1225207224 0.5760957003 4281743413
-0.2650035620 -0.1217147782 0.5753117800 4281677620
-0.2646420598 -0.1209104061 0.5745269656 4281809208
-0.2642802000 -0.1201076061 0.5737413764 4281809208
-0.2643290162 -0.1194922104 0.5738473535 4281809206
-0.2643776238 -0.1188764721 0.5739528537 4281809206
-0.2640147209 -0.1180764809 0.5731650591 4281875001
-0.2636514604 -0.1172780618 0.5723764300 4281875001
-0.2632878125 -0.1164812297 0.5715869665 4281875001
-0.2629238069 -0.1156859845 0.5707966685 4281875001
-0.2625593841 -0.1148923263 0.5700055361 4281940542
-0.2621946037 -0.1141002625 0.5692136288 4281743163
-0.2622410953 -0.1134879589 0.5693145990 4281479991
-0.2614638805 -0.1125209257 0.5676272511 4281348405
-0.2615097761 -0.1119098961 0.5677269101 4281282612
-0.2611435354 -0.1111232638 0.5669317842 4281085233
-0.2603649497 -0.1101639345 0.5652415156 4280756268
-0.2608219683 -0.1097281799 0.5662336946 4280427303
-0.2592183650 -0.1084282771 0.5627523065 4280098339
-0.2600870132 -0.1081642732 0.5646381378 4279966753
-0.2601312399 -0.1075552031 0.5647341013 4279835167
-0.2589382231 -0.1064373553 0.5621441603 4279835167
-0.2598065436 -0.1061676070 0.5640292764 4279835167
-0.2577876747 -0.1047208086 0.5596463680 4279835167
-0.2586556077 -0.1044494733 0.5615305901 4279900960
-0.2582857609 -0.1036771238 0.5607276559 4279900960
-0.2579155564 -0.1029063985 0.5599239469 4279769374
-0.2567612231 -0.1012071669 0.5574179888 4279769374
-0.2559769750 -0.1002806053 0.5557153821 4279703581
-0.2564310133 -0.0998399481 0.5567011237 4279703581
-0.2556459606 -0.0989176482 0.5549967885 4279637788
-0.2556865513 -0.0983166099 0.5550848842 4279637788
-0.2557268739 -0.0977152884 0.5551725030 4279637788
-0.2553538084 -0.0969567969 0.5543625355 4279769374
-0.2549803555 -0.0961999595 0.5535517931 4279703581
-0.2554332018 -0.0957546830 0.5545348525 4279571995
-0.2558859289 -0.0953071713 0.5555177331 4279571995
-0.2555116415 -0.0945514515 0.5547051430 4279571995
-0.2559640110 -0.0941014439 0.5556872487 4279637788
-0.2547619939 -0.0930450261 0.5530776978 4279637788
-0.2556275129 -0.0927445516 0.5549567938 4279703581
-0.2544246018 -0.0916944146 0.5523452163 4279769373
-0.2548760772 -0.0912423506 0.5533254147 4279637787
-0.2544998229 -0.0904937759 0.5525085926 4279637787
-0.2541232109 -0.0897468925 0.5516909361 4279571994
-0.2541601658 -0.0891468897 0.5517711639 4279571994
-0.2538193166 -0.0878028646 0.5510312319 4279506201
-0.2538554966 -0.0872030631 0.5511097908 4279374615
-0.2538914680 -0.0866030008 0.5511878729 4279703067
-0.2539271712 -0.0860026926 0.5512653589 4279703067
-0.2539626658 -0.0854021236 0.5513424277 4279769114
-0.2539978921 -0.0848013088 0.5514189005 4279834907
-0.2544473112 -0.0843375996 0.5523945689 4279769114
-0.2544821203 -0.0837353095 0.5524701476 4279769114
-0.2545166910 -0.0831327662 0.5525451899 4279769114
-0.2541364431 -0.0823955685 0.5517197251 4279834907
-0.2541704774 -0.0817935243 0.5517935753 4279768860
-0.2533749044 -0.0809263363 0.5500664115 4280163618
-0.2538231015 -0.0804572403 0.5510394573 4280426790
-0.2534415722 -0.0797249749 0.5502111316 4280624169
-0.2534745336 -0.0791239440 0.5502827168 4280690475
-0.2535072565 -0.0785226747 0.5503537655 4280756268
-0.2535397410 -0.0779211819 0.5504242778 4281019441
-0.2535719872 -0.0773194507 0.5504942536 4281414199
-0.2540190518 -0.0768430531 0.5514648557 4281414199
-0.2536357343 -0.0761153102 0.5506327152 4281545785
-0.2532520890 -0.0753893107 0.5497997999 4282730059
-0.2541137636 -0.0750328675 0.5516704321 4283651161
-0.2545601130 -0.0745506361 0.5526394248 4283453528
-0.2545909882 -0.0739455894 0.5527064800 4287795866
-0.2542062700 -0.0732206777 0.5518712997 4293322478
-0.2660211921 -0.1604273617 0.5789169073 4289966241
-0.2660847008 -0.1598222852 0.5790550709 4289768862
-0.2661479712 -0.1592167616 0.5791927576 4289111189
-0.2658058405 -0.1583694071 0.5784482360 4288519052
-0.2658686042 -0.1577639431 0.5785848498 4288450403
-0.2659311593 -0.1571580619 0.5787209868 4287660887
-0.2655880153 -0.1563131064 0.5779742002 4287001666
-0.2652444839 -0.1554695815 0.5772266388 4286672701
-0.2653062046 -0.1548642665 0.5773609281 4287197740
-0.2653677464 -0.1542585343 0.5774948001 4287395119
-0.2650231719 -0.1534174532 0.5767450333 4288314909
-0.2646782398 -0.1525777876 0.5759943128 4288775460
-0.2647389174 -0.1519726515 0.5761263967 4289629978
-0.2647993863 -0.1513671130 0.5762580037 4289761564
-0.2648596466 -0.1507611424 0.5763891339 4289958166
-0.2649196982 -0.1501547694 0.5765197873 4289826580
-0.2645731270 -0.1493186206 0.5757656097 4289760786
-0.2646326423 -0.1487123519 0.5758951306 4289760786
-0.2646919489 -0.1481056809 0.5760241747 4289630220
-0.2647510469 -0.1474985927 0.5761528015 4289630220
-0.2648099363 -0.1468911022 0.5762809515 4289958413
-0.2644617260 -0.1460585147 0.5755231380 4290024206
-0.2645200789 -0.1454511434 0.5756501555 4290024980
-0.2641711831 -0.1446205527 0.5748908520 4290024980
-0.2642289996 -0.1440133154 0.5750166774 4289959446
-0.2638793886 -0.1431847364 0.5742558837 4290025239
-0.2639366984 -0.1425776482 0.5743805766 4290156312
-0.2635863721 -0.1417510808 0.5736182332 4290156312
-0.2636431456 -0.1411441416 0.5737417936 4290090771
-0.2632921338 -0.1403196007 0.5729779005 4290156564
-0.2633483708 -0.1397128254 0.5731003284 4290090771
-0.2629966736 -0.1388903260 0.5723348856 4290024978
-0.2630524039 -0.1382837147 0.5724561810 4290156566
-0.2626999617 -0.1374632716 0.5716892481 4290353945
-0.2623471618 -0.1366443187 0.5709214211 4290419997
-0.2628101408 -0.1362500042 0.5719289780 4290419997
-0.2624567151 -0.1354321837 0.5711598396 4290879515
-0.2625111639 -0.1348255426 0.5712783337 4290616343
-0.2621570528 -0.1340097934 0.5705077052 4288843271
-0.2622109652 -0.1334033459 0.5706250668 4286606336
-0.2618561685 -0.1325896829 0.5698528886 4282923008
-0.2619095445 -0.1319834441 0.5699691176 4280817664
-0.2615540326 -0.1311718822 0.5691954494 4280490496
-0.2611981332 -0.1303618252 0.5684208870 4281411593
-0.2612506747 -0.1297563761 0.5685352683 4282005021
-0.2608940899 -0.1289484501 0.5677592754 4282136607
-0.2609461248 -0.1283432096 0.5678724647 4282267941
-0.2614070177 -0.1279378384 0.5688754320 4282267941
-0.2614586651 -0.1273309290 0.5689878464 4282136620
-0.2615101039 -0.1267236620 0.5690997839 4282070827
-0.2619706392 -0.1263134032 0.5701020360 4281939252
-0.2628405094 -0.1260973066 0.5719950795 4282005045
-0.2633009851 -0.1256815791 0.5729971528 4281874999
-0.2637614012 -0.1252636015 0.5739991069 4281874999
-0.2642217278 -0.1248433441 0.5750008821 4281809206
-0.2646819949 -0.1244208366 0.5760025382 4281743413
-0.2647323906 -0.1238044277 0.5761121511 4281743413
-0.2647825480 -0.1231876537 0.5762213469 4281743413
-0.2648324668 -0.1225705370 0.5763299465 4281677622
-0.2644721270 -0.1217642948 0.5755457878 4281677622
-0.2641113997 -0.1209596097 0.5747607946 4281809208
-0.2641604841 -0.1203433722 0.5748675466 4281809208
-0.2637990415 -0.1195408702 0.5740810633 4281874488
-0.2638475895 -0.1189249009 0.5741866827 4281808695
-0.2634854615 -0.1181245968 0.5733986497 4281808695
-0.2635334730 -0.1175089106 0.5735030770 4281808695
-0.2631706595 -0.1167108119 0.5727135539 4281875001
-0.2628074586 -0.1159143001 0.5719231367 4281940794
-0.2624439001 -0.1151193753 0.5711319447 4281874747
-0.2620799541 -0.1143260449 0.5703399181 4281874747
-0.2617156208 -0.1135343090 0.5695471168 4281808954
-0.2617618442 -0.1129214391 0.5696476698 4281677368
-0.2613968253 -0.1121319383 0.5688533187 4281677370
-0.2610314488 -0.1113440469 0.5680581927 4281545784
-0.2610768378 -0.1107321382 0.5681568980 4281348405
-0.2607107460 -0.1099464893 0.5673602819 4281151026
-0.2607555985 -0.1093349159 0.5674578547 4280887854
-0.2603888214 -0.1085515320 0.5666596889 4280690475
-0.2604331374 -0.1079402938 0.5667561293 4280493097
-0.2588312030 -0.1066505238 0.5632699728 4280295718
-0.2584631741 -0.1058739349 0.5624691248 4280164132
-0.2597413361 -0.1057694703 0.5652506351 4280032546
-0.2589611411 -0.1048256159 0.5635527372 4279966753
-0.2565755546 -0.1026191935 0.5583612323 4279835167
-0.2570294440 -0.1021792516 0.5593489408 4279835167
-0.2570712268 -0.1015742868 0.5594399571 4279769374
-0.2567007542 -0.1008072272 0.5586336851 4279769374
-0.2563299239 -0.1000418067 0.5578266978 4279769374
-0.2559587061 -0.0992780402 0.5570188761 4279703581
-0.2559993863 -0.0986748263 0.5571073294 4279637788
-0.2560397983 -0.0980713293 0.5571953058 4279637788
-0.2548429072 -0.0969966874 0.5545905828 4279506202
-0.2552950978 -0.0965515152 0.5555746555 4279506202
-0.2553346753 -0.0959491059 0.5556608438 4279506202
-0.2549614906 -0.0951923877 0.5548486710 4279506202
-0.2562384009 -0.0950495750 0.5576274991 4279571995
-0.2558647394 -0.0942923054 0.5568143129 4279637788
-0.2550779581 -0.0933855996 0.5551021099 4279637788
-0.2547034919 -0.0926326513 0.5542871952 4279703581
-0.2555672824 -0.0923288614 0.5561670065 4279703580
-0.2543664277 -0.0912799910 0.5535537004 4279703580
-0.2535779476 -0.0903839171 0.5518378019 4279703580
-0.2532020509 -0.0896377116 0.5510197878 4279637787
-0.2532389164 -0.0890384465 0.5511000156 4279637787
-0.2536886930 -0.0885831937 0.5520788431 4279637787
-0.2533119321 -0.0878391415 0.5512588620 4279637787
-0.2529347837 -0.0870967880 0.5504381657 4279637787
-0.2533839643 -0.0866388008 0.5514156818 4279637274
-0.2534196377 -0.0860382542 0.5514933467 4279637274
-0.2534550726 -0.0854374468 0.5515704751 4279768860
-0.2539038062 -0.0849747881 0.5525469780 4279768860
-0.2539388239 -0.0843725055 0.5526231527 4279768860
-0.2539736032 -0.0837699696 0.5526988506 4279768860
-0.2540081441 -0.0831671879 0.5527740121 4279703321
-0.2536286712 -0.0824296921 0.5519482493 4279703321
-0.2536626756 -0.0818274096 0.5520222187 4279703580
-0.2536964417 -0.0812248811 0.5520956516 4279703580
-0.2529021204 -0.0803590715 0.5503671169 4279703580
-0.2525213361 -0.0796274990 0.5495383739 4279835166
-0.2525542080 -0.0790272057 0.5496099591 4280032545
-0.2525868416 -0.0784266815 0.5496809483 4280229924
-0.2526192367 -0.0778259262 0.5497514606 4280558890
-0.2526513934 -0.0772249401 0.5498214364 4280887855
-0.2526832819 -0.0766237304 0.5498908758 4281019441
-0.2527149618 -0.0760222897 0.5499597788 4281545785
-0.2531607151 -0.0755442604 0.5509298444 4282598219
-0.2531919777 -0.0749413893 0.5509978533 4283519321
-0.2536374032 -0.0744599551 0.5519672036 4283387735
-0.2528392076 -0.0736142844 0.5502302051 4285690490
-0.2524551451 -0.0728920475 0.5493943691 4289901242
-0.2508269548 -0.0718154535 0.5458510518 4292730341
-0.2508566678 -0.0712174103 0.5459157825 4292994536
-0.2644842267 -0.1618100852 0.5769667029 4291479234
-0.2648013830 -0.1587950140 0.5776585340 4290295455
-0.2648641765 -0.1581906974 0.5777955055 4290098076
-0.2649267614 -0.1575859487 0.5779320598 4290163101
-0.2649891376 -0.1569807827 0.5780681372 4289702550
-0.2650513053 -0.1563751847 0.5782037973 4289175444
-0.2647085190 -0.1555313468 0.5774559975 4288451721
-0.2647701800 -0.1549258381 0.5775904655 4287858291
-0.2648316026 -0.1543198824 0.5777245164 4287002982
-0.2640827596 -0.1532434523 0.5760909319 4286804538
-0.2641435862 -0.1526385248 0.5762236118 4286343987
-0.2642042041 -0.1520331800 0.5763558149 4287263248
-0.2642646134 -0.1514274180 0.5764876008 4287723799
-0.2643248141 -0.1508212388 0.5766189098 4288906509
-0.2643847764 -0.1502146572 0.5767497420 4289235474
-0.2640389502 -0.1493781954 0.5759953260 4289431822
-0.2640984058 -0.1487717032 0.5761250257 4289366029
-0.2641576231 -0.1481648237 0.5762542486 4289497104
-0.2642166615 -0.1475575268 0.5763829947 4289431311
-0.2642754614 -0.1469498128 0.5765112638 4289563910
-0.2639279962 -0.1461169124 0.5757532716 4289892875
-0.2639862895 -0.1455093324 0.5758804083 4289959185
-0.2636381388 -0.1446784288 0.5751209259 4289827599
-0.2636958957 -0.1440709829 0.5752469301 4289827347
-0.2633470297 -0.1432420909 0.5744858980 4289958933
-0.2629977763 -0.1424146742 0.5737240314 4290090519
-0.2634612620 -0.1420270801 0.5747351050 4290156312
-0.2635180652 -0.1414189935 0.5748590231 4290287380
-0.2635746300 -0.1408105046 0.5749824643 4290287380
-0.2632241547 -0.1399852782 0.5742178559 4290352914
-0.2632802129 -0.1393769532 0.5743401647 4290352914
-0.2629290223 -0.1385537535 0.5735740662 4290352660
-0.2625774443 -0.1377320588 0.5728070736 4290418453
-0.2626326680 -0.1371244490 0.5729275346 4290484761
-0.2626876533 -0.1365164667 0.5730475187 4290550554
-0.2623350918 -0.1356973946 0.5722783804 4291207203
-0.2619821131 -0.1348798275 0.5715083480 4290680859
-0.2620362639 -0.1342725903 0.5716264844 4288908039
-0.2616825998 -0.1334571093 0.5708549619 4287460608
-0.2617362142 -0.1328500658 0.5709719658 4285422351
-0.2613818645 -0.1320366710 0.5701989532 4283777536
-0.2614349723 -0.1314298362 0.5703147650 4282857220
-0.2610799074 -0.1306185424 0.5695402622 4283646736
-0.2607244551 -0.1298087686 0.5687648058 4283712794
-0.2607767284 -0.1292027235 0.5688788295 4283647001
-0.2604205906 -0.1283950806 0.5681019425 4283581730
-0.2608805895 -0.1279895604 0.5691054463 4283779109
-0.2609321773 -0.1273824275 0.5692179799 4283320368
-0.2613919675 -0.1269733310 0.5702210069 4282925610
-0.2618516982 -0.1265619844 0.5712239146 4282465847
-0.2623113692 -0.1261483580 0.5722266436 4282465847
-0.2627709806 -0.1257324815 0.5732292533 4282071867
-0.2632305026 -0.1253143549 0.5742316842 4281940281
-0.2636899352 -0.1248939559 0.5752339363 4281875001
-0.2637404203 -0.1242786124 0.5753440857 4281809208
-0.2641996443 -0.1238546446 0.5763458610 4281677622
-0.2642497420 -0.1232376471 0.5764551759 4281743415
-0.2638904750 -0.1224304885 0.5756714344 4281940281
-0.2639400363 -0.1218137443 0.5757795572 4282006074
-0.2635800838 -0.1210087538 0.5749942660 4281940281
-0.2636290789 -0.1203922778 0.5751011968 4281940281
-0.2632684410 -0.1195894778 0.5743144751 4281940281
-0.2633168995 -0.1189732701 0.5744202137 4281874488
-0.2629555762 -0.1181726605 0.5736319423 4281874488
-0.2630034983 -0.1175567433 0.5737364888 4281874488
-0.2626414597 -0.1167583317 0.5729467273 4281874488
-0.2622790337 -0.1159615144 0.5721561313 4281874488
-0.2619162500 -0.1151662841 0.5713647008 4281808954
-0.2619630396 -0.1145519093 0.5714667439 4281808954
-0.2615995407 -0.1137589067 0.5706738234 4281808954
-0.2616457939 -0.1131448448 0.5707746744 4281743161
-0.2616917789 -0.1125304550 0.5708750486 4281743161
-0.2613272965 -0.1117403284 0.5700799227 4281743161
-0.2609624565 -0.1109518036 0.5692840219 4281743161
-0.2605972290 -0.1101648882 0.5684872866 4281677368
-0.2606420815 -0.1095521152 0.5685850978 4281677370
-0.2602761686 -0.1087674648 0.5677868724 4281611577
-0.2594992816 -0.1078138426 0.5660921335 4281545784
-0.2587218881 -0.1068637669 0.5643962622 4281348405
-0.2599976659 -0.1067605466 0.5671793222 4281085233
-0.2596303821 -0.1059804484 0.5663781166 4280690475
-0.2576192319 -0.1045350954 0.5619908571 4280295717
-0.2576619089 -0.1039278880 0.5620839000 4280164131
-0.2573354244 -0.1025487557 0.5613717437 4280032545
-0.2569661736 -0.1017787755 0.5605661869 4279966752
-0.2561853230 -0.1008485630 0.5588628054 4279900959
-0.2558152676 -0.1000828519 0.5580555201 4279835166
-0.2575015724 -0.1001184508 0.5617341399 4279769373
-0.2550740540 -0.0985563770 0.5564385653 4279769373
-0.2567602694 -0.0985855684 0.5601170063 4279769373
-0.2563890517 -0.0978216156 0.5593072176 4279835166
-0.2556058764 -0.0969032720 0.5575987697 4279769373
-0.2556455731 -0.0962986872 0.5576853156 4279703580
-0.2560967207 -0.0958479121 0.5586695075 4279703580
-0.2549006045 -0.0947824270 0.5560601950 4279637787
-0.2561750114 -0.0946353897 0.5588403344 4279703580
-0.2546044290 -0.0928209797 0.5554141402 4279703580
-0.2546424866 -0.0922176614 0.5554971695 4279637788
-0.2534440160 -0.0911693424 0.5528826714 4279703581
-0.2538935840 -0.0907156840 0.5538634658 4279769374
-0.2555797398 -0.0906986669 0.5575417280 4279703581
-0.2535555363 -0.0893657729 0.5531259775 4279703581
-0.2535922229 -0.0887640566 0.5532060266 4279703581
-0.2536287010 -0.0881620795 0.5532855988 4279769374
-0.2532524467 -0.0874174684 0.5524648428 4279703581
-0.2532883883 -0.0868159533 0.5525432229 4279768861
-0.2529115081 -0.0860737711 0.5517210364 4279834654
-0.2529468834 -0.0854727328 0.5517982244 4279900446
-0.2529820502 -0.0848714411 0.5518749356 4279900446
-0.2534297109 -0.0844073668 0.5528514981 4279834653
-0.2530516386 -0.0836681053 0.5520267487 4279834653
-0.2530860901 -0.0830660686 0.5521018505 4279834653
-0.2527073622 -0.0823292583 0.5512756705 4279834653
-0.2531542480 -0.0818612576 0.5522505641 4279900446
-0.2519488633 -0.0808608085 0.5496210456 4279768860
-0.2528083622 -0.0805239081 0.5514960289 4279768860
-0.2516021132 -0.0795298666 0.5488646030 4279900446
-0.2520480752 -0.0790599287 0.5498375297 4280032033
-0.2520806789 -0.0784591660 0.5499086380 4280295205
-0.2521130443 -0.0778581724 0.5499792099 4280558890
-0.2517318130 -0.0771302953 0.5491475463 4280690476
-0.2513502240 -0.0764041618 0.5483151078 4280295718
-0.2517952025 -0.0759291276 0.5492858291 4280558890
-0.2518265545 -0.0753282085 0.5493541956 4280756015
-0.2518576384 -0.0747270659 0.5494220257 4282071875
-0.2523021102 -0.0742474124 0.5503916740 4282664012
-0.2515054643 -0.0734033808 0.5486537814 4282006082
-0.2511220574 -0.0726828203 0.5478174090 4282729805
-0.2511520982 -0.0720827729 0.5478829145 4285098353
-0.2511818707 -0.0714825168 0.5479478836 4286546052
-0.2499698550 -0.0705317184 0.5453038812 4288651428
-0.2516546547 -0.0703971460 0.5489792228 4290888390
-0.2516837418 -0.0697952658 0.5490427017 4292401629
-0.2521266341 -0.0693069771 0.5500088334 4293323501
-0.2634865940 -0.1539090425 0.5761864185 4289243545
-0.2635475695 -0.1533043236 0.5763197541 4288715656
-0.2636083364 -0.1526991874 0.5764526129 4287860347
-0.2636688650 -0.1520936340 0.5765849948 4287528792
-0.2637291849 -0.1514876485 0.5767168999 4286936655
-0.2637892962 -0.1508812606 0.5768483877 4287328551
-0.2638491988 -0.1502744555 0.5769793391 4287394344
-0.2639088929 -0.1496672481 0.5771098733 4288182541
-0.2639683485 -0.1490596086 0.5772399306 4288511506
-0.2636226714 -0.1482238919 0.5764839649 4288970757
-0.2636816204 -0.1476163715 0.5766128898 4288773378
-0.2637403607 -0.1470084488 0.5767413378 4288577027
-0.2637988627 -0.1464001238 0.5768692493 4289234957
-0.2634518445 -0.1455674469 0.5761104226 4289695763
-0.2631044388 -0.1447362453 0.5753507614 4289695763
-0.2631621361 -0.1441285759 0.5754768848 4289695761
-0.2632195950 -0.1435205191 0.5756025314 4289761554
-0.2628711760 -0.1426918507 0.5748406649 4290024210
-0.2629281282 -0.1420839429 0.5749651790 4290090003
-0.2629848421 -0.1414756179 0.5750892162 4290352660
-0.2630413771 -0.1408669204 0.5752127767 4290286867
-0.2626916468 -0.1400413811 0.5744479895 4290417936
-0.2627476156 -0.1394328326 0.5745704174 4290417936
-0.2623971999 -0.1386093348 0.5738041401 4290483472
-0.2620463669 -0.1377873272 0.5730369687 4290549265
-0.2621015012 -0.1371795088 0.5731575489 4290615316
-0.2621564567 -0.1365713030 0.5732776523 4290681109
-0.2618046105 -0.1357519180 0.5725082755 4291206952
-0.2618590295 -0.1351438910 0.5726272464 4290614815
-0.2615064979 -0.1343265921 0.5718563795 4289170706
-0.2615603805 -0.1337187588 0.5719741583 4287591680
-0.2612071633 -0.1329035312 0.5712018013 4285816588
-0.2612605095 -0.1322959065 0.5713184476 4285224451
-0.2609065771 -0.1314827800 0.5705444813 4284567060
-0.2605522871 -0.1306711733 0.5697697401 4284632853
-0.2606047988 -0.1300643235 0.5698845387 4284435739
-0.2602497935 -0.1292548329 0.5691082478 4284369946
-0.2603017986 -0.1286482066 0.5692219138 4284436521
-0.2603535354 -0.1280412078 0.5693351030 4284699693
-0.2608125806 -0.1276332885 0.5703389645 4284109623
-0.2608639896 -0.1270246208 0.5704513192 4283517486
