VERSION 0.7
FIELDS x y z rgba
SIZE 4 4 4 4
TYPE F F F U
COUNT 1 1 1 1
WIDTH 920
HEIGHT 1
VIEWPOINT 0.0 0.0 0.0 1.0 0.0 0.0 0.0
POINTS 920
DATA ascii
-0.2407144308 -0.1204308271 0.5462911129 4282465337
-0.2407617718 -0.1198474243 0.5463985205 4282137151
-0.2408088893 -0.1192636788 0.5465055108 4282005565
-0.2408558130 -0.1186795831 0.5466119647 4282136120
-0.2409025133 -0.1180951521 0.5467179418 4282004534
-0.2409490049 -0.1175103858 0.5468234420 4282135089
-0.2409952730 -0.1169252768 0.5469284654 4282069296
-0.2414371371 -0.1165308654 0.5479312539 4282069285
-0.2414830625 -0.1159441248 0.5480355024 4281937699
-0.2415287644 -0.1153570488 0.5481392145 4282396694
-0.2415742576 -0.1147696450 0.5482424498 4282594073
-0.2420156449 -0.1143690869 0.5492441654 4283447314
-0.2420607805 -0.1137800515 0.5493465662 4283644693
-0.2425019443 -0.1133759469 0.5503478050 4284366592
-0.2425467223 -0.1127852947 0.5504494309 4285550864
-0.2425912768 -0.1121943146 0.5505505204 4287392512
-0.2426356226 -0.1116030067 0.5506511927 4289168923
-0.2430762798 -0.1111927703 0.5516512394 4290419746
-0.2431202680 -0.1105998531 0.5517510176 4291735606
-0.2431640178 -0.1100066155 0.5518503189 4292591176
-0.2432075590 -0.1094130576 0.5519491434 4293249106
-0.2432508767 -0.1088191792 0.5520474315 4293709655
-0.2436908633 -0.1084015369 0.5530459881 4293907034
-0.2441307604 -0.1079816371 0.5540443659 4294498912
-0.2441735566 -0.1073848754 0.5541414618 4294762084
-0.2442161292 -0.1067878008 0.5542380810 4294565762
-0.2442584783 -0.1061904132 0.5543341637 4294964889
-0.2393560261 -0.1599883437 0.5445809364 4290297797
-0.2394170016 -0.1594238728 0.5447196960 4289113777
-0.2394777834 -0.1588589698 0.5448579788 4288126882
-0.2395383865 -0.1582936347 0.5449958444 4287928473
-0.2395987958 -0.1577278823 0.5451332927 4287402129
-0.2396590263 -0.1571616977 0.5452703238 4286941578
-0.2393299192 -0.1563408673 0.5445215702 4286612613
-0.2393896729 -0.1557747573 0.5446575284 4286020476
-0.2390598953 -0.1549558491 0.5439072251 4285559925
-0.2391191870 -0.1543897986 0.5440421104 4285230962
-0.2391782850 -0.1538233459 0.5441765785 4284901997
-0.2392372042 -0.1532564610 0.5443105698 4284770411
-0.2392959148 -0.1526891589 0.5444442034 4284375653
-0.2393544465 -0.1521214396 0.5445773602 4284374883
-0.2394127995 -0.1515533179 0.5447100997 4283980125
-0.2394709438 -0.1509847641 0.5448424220 4283585368
-0.2395289093 -0.1504158080 0.5449743271 4283519575
-0.2399768829 -0.1500904858 0.5459935069 4283387989
-0.2400345653 -0.1495197713 0.5461247563 4283059024
-0.2400920391 -0.1489486545 0.5462555289 4282927438
-0.2405398190 -0.1486183852 0.5472742915 4282730059
-0.2405970097 -0.1480455101 0.5474044085 4282664266
-0.2406540066 -0.1474722326 0.5475341082 4282598473
-0.2407108098 -0.1468985379 0.5476633310 4282598472
-0.2407674044 -0.1463244557 0.5477921367 4282598472
-0.2408238202 -0.1457499564 0.5479204655 4282598472
-0.2404889911 -0.1449393779 0.5471586585 4282401093
-0.2405449301 -0.1443650126 0.5472859144 4282268994
-0.2402094305 -0.1435564458 0.5465226173 4282203201
-0.2398735732 -0.1427493393 0.5457584858 4282203455
-0.2403201312 -0.1424075812 0.5467744470 4282203455
-0.2403751761 -0.1418325603 0.5468997359 4282137662
-0.2400384545 -0.1410270780 0.5461335778 4282269248
-0.2400930226 -0.1404522061 0.5462577343 4282532420
-0.2397556305 -0.1396487653 0.5454900861 4282664006
-0.2398097068 -0.1390740424 0.5456131697 4282532670
-0.2398635894 -0.1384989470 0.5457357168 4282730049
-0.2399172634 -0.1379234493 0.5458579063 4283321408
-0.2399707437 -0.1373475790 0.5459795594 4282005548
-0.2400240302 -0.1367713064 0.5461007953 4281411878
-0.2400771081 -0.1361946613 0.5462215543 4280951327
-0.2401299924 -0.1356176436 0.5463418961 4280950815
-0.2401826680 -0.1350402385 0.5464617014 4281279780
-0.2402351499 -0.1344624460 0.5465811491 4281411358
-0.2406800538 -0.1341030449 0.5475933552 4281411358
-0.2407322079 -0.1335235685 0.5477120280 4281345824
-0.2399985641 -0.1325099617 0.5460428596 4281345824
-0.2400501519 -0.1319316179 0.5461602211 4281149223
-0.2397085577 -0.1311379075 0.5453830361 4281149223
-0.2393666059 -0.1303457469 0.5446050167 4280822049
-0.2390242666 -0.1295551062 0.5438261628 4280756256
-0.2390747815 -0.1289781183 0.5439410806 4281082652
-0.2391251028 -0.1284007728 0.5440555215 4281016859
-0.2383884341 -0.1274026036 0.5423794985 4281148447
-0.2384381741 -0.1268264353 0.5424926877 4281148447
-0.2384877056 -0.1262499094 0.5426053405 4281148447
-0.2385370284 -0.1256730258 0.5427175760 4281214240
-0.2385861576 -0.1250957698 0.5428293347 4281148445
-0.2390288562 -0.1247236505 0.5438365936 4281148445
-0.2390776426 -0.1241447479 0.5439475775 4281280031
-0.2391262203 -0.1235654801 0.5440580845 4281280031
-0.2391745895 -0.1229858696 0.5441681743 4281280031
-0.2396168709 -0.1226075590 0.5451744199 4281214238
-0.2396648973 -0.1220262945 0.5452836752 4281082652
-0.2397127301 -0.1214446723 0.5453925133 4281016859
-0.2397603393 -0.1208627075 0.5455008745 4281016857
-0.2398077548 -0.1202803925 0.5456086993 4281082650
-0.2398549467 -0.1196977347 0.5457161069 4281280021
-0.2399019301 -0.1191147342 0.5458229780 4281214228
-0.2399487048 -0.1185313910 0.5459294319 4281476622
-0.2399952710 -0.1179477125 0.5460353494 4281608208
-0.2400416285 -0.1173636839 0.5461407900 4282001424
-0.2400877625 -0.1167793274 0.5462458134 4282133010
-0.2401336879 -0.1161946282 0.5463503003 4282592017
-0.2405744344 -0.1157997474 0.5473530293 4282657810
-0.2406200022 -0.1152134240 0.5474567413 4283183379
-0.2406653613 -0.1146267653 0.5475599170 4283314965
-0.2411057651 -0.1142270267 0.5485619307 4283839756
-0.2411507666 -0.1136387438 0.5486643314 4284037135
-0.2411955595 -0.1130501330 0.5487662554 4284892160
-0.2412401289 -0.1124611944 0.5488676429 4286536981
-0.2412844747 -0.1118719280 0.5489685535 4288577550
-0.2413286120 -0.1112823337 0.5490689874 4290419754
-0.2413725406 -0.1106924191 0.5491688848 4291472695
-0.2418120056 -0.1102826819 0.5501687527 4292459590
-0.2422513962 -0.1098706871 0.5511685014 4293117521
-0.2422948033 -0.1092778817 0.5512672663 4293578072
-0.2423380017 -0.1086847484 0.5513654947 4293906775
-0.2423809618 -0.1080913097 0.5514632463 4293972568
-0.2428198308 -0.1076731980 0.5524618030 4294433368
-0.2428624332 -0.1070781574 0.5525587201 4294893919
-0.2429048121 -0.1064827964 0.5526551008 4294434182
-0.2429469675 -0.1058871299 0.5527510047 4294965152
-0.2380058765 -0.1600920856 0.5428809524 4290560971
-0.2380667478 -0.1595297009 0.5430197716 4290034627
-0.2381274402 -0.1589668691 0.5431582332 4289245109
-0.2381879389 -0.1584036201 0.5432962179 4288455593
-0.2382482588 -0.1578399539 0.5434338450 4288520870
-0.2383083999 -0.1572758406 0.5435709953 4287928733
-0.2383683473 -0.1567113101 0.5437077284 4287599767
-0.2380397916 -0.1558920443 0.5429583192 4287270802
-0.2384876907 -0.1555809677 0.5439799428 4286744458
-0.2381585687 -0.1547627002 0.5432292223 4286481286
-0.2378290743 -0.1539458483 0.5424776673 4286414981
-0.2382766008 -0.1536316574 0.5434984565 4286151809
-0.2379465252 -0.1528158188 0.5427455902 4286612360
-0.2380049825 -0.1522501856 0.5428789258 4286480774
-0.2380632460 -0.1516841203 0.5430117846 4286414981
-0.2381213158 -0.1511176527 0.5431442857 4286086016
-0.2385683805 -0.1507967710 0.5441640019 4285691258
-0.2386261672 -0.1502285451 0.5442957878 4285559672
-0.2386837751 -0.1496599019 0.5444272161 4285362295
-0.2387411743 -0.1490908563 0.5445581675 4285230709
-0.2391879559 -0.1487636864 0.5455772281 4285033328
-0.2392450720 -0.1481928974 0.5457074642 4284967535
-0.2393019944 -0.1476216912 0.5458373427 4284835949
-0.2393587232 -0.1470500827 0.5459667444 4284638570
-0.2394152582 -0.1464780569 0.5460956693 4284572262
-0.2394715995 -0.1459056437 0.5462242365 4284374883
-0.2395277619 -0.1453328133 0.5463522673 4284177504
-0.2395837158 -0.1447595805 0.5464799404 4284045918
-0.2396394759 -0.1441859603 0.5466071367 4283782746
-0.2393046468 -0.1433780342 0.5458434224 4283585367
-0.2389694601 -0.1425715834 0.5450788140 4283387986
-0.2394150198 -0.1422306597 0.5460951328 4283190607
-0.2394699007 -0.1416563690 0.5462203026 4283124557
-0.2395245880 -0.1410816908 0.5463450551 4283124557
-0.2391882539 -0.1402774006 0.5455778837 4283124557
-0.2388515323 -0.1394746155 0.5448098779 4282992971
-0.2389054447 -0.1389006376 0.5449328423 4283057222
-0.2389591634 -0.1383262724 0.5450553894 4283188808
-0.2390126884 -0.1377515197 0.5451774597 4284175150
-0.2390660048 -0.1371763945 0.5452990532 4282793497
-0.2391191274 -0.1366008669 0.5454202294 4282397195
-0.2395634949 -0.1362475902 0.5464338064 4282068230
-0.2396163046 -0.1356703639 0.5465542674 4282067217
-0.2396689206 -0.1350927651 0.5466742516 4282198803
-0.2397213280 -0.1345147640 0.5467938185 4282265101
-0.2397735268 -0.1339364052 0.5469128489 4282265101
-0.2402174026 -0.1335755587 0.5479253531 4282199567
-0.2394853681 -0.1325615793 0.5462555885 4282133774
-0.2399289161 -0.1321990490 0.5472673178 4282002968
-0.2391960621 -0.1311890483 0.5455957055 4282068761
-0.2388548702 -0.1303965896 0.5448174477 4281807378
-0.2385133058 -0.1296056658 0.5440384150 4281741585
-0.2385637611 -0.1290284842 0.5441534519 4281936923
-0.2386140078 -0.1284509301 0.5442680717 4281871130
-0.2382715046 -0.1276627034 0.5434868336 4281739545
-0.2379286289 -0.1268760115 0.5427047610 4281739545
-0.2379780859 -0.1262992769 0.5428175926 4281607958
-0.2384201288 -0.1259296536 0.5438258648 4281476372
-0.2384692729 -0.1253512502 0.5439379215 4281476372
-0.2385181934 -0.1247724965 0.5440495610 4281410579
-0.2385669202 -0.1241933778 0.5441606641 4281476372
-0.2386154383 -0.1236139089 0.5442713499 4281542165
-0.2390569299 -0.1232367828 0.5452783704 4281542165
-0.2391051054 -0.1226556525 0.5453882217 4281542165
-0.2391530722 -0.1220741719 0.5454976559 4281607958
-0.2392008454 -0.1214923486 0.5456066132 4281673751
-0.2392483950 -0.1209101677 0.5457150936 4281805337
-0.2392957360 -0.1203276441 0.5458230376 4281936923
-0.2393428683 -0.1197447777 0.5459305644 4282067719
-0.2393897921 -0.1191615686 0.5460376143 4282067719
-0.2394364923 -0.1185780093 0.5461441278 4282460928
-0.2394829988 -0.1179941148 0.5462502241 4282592512
-0.2395292819 -0.1174098849 0.5463557839 4283248384
-0.2395753562 -0.1168253124 0.5464608669 4283511553
-0.2396212220 -0.1162404045 0.5465654731 4283840003
-0.2396668792 -0.1156551614 0.5466696024 4284103175
-0.2401065826 -0.1152588427 0.5476725698 4284103680
-0.2401518822 -0.1146719679 0.5477758646 4284761608
-0.2401969582 -0.1140847653 0.5478787422 4285484551
-0.2402418256 -0.1134972274 0.5479810834 4286339860
-0.2402864844 -0.1129093617 0.5480828881 4287656214
-0.2403309196 -0.1123211756 0.5481842756 4289366832
-0.2403751463 -0.1117326543 0.5482851267 4291012144
-0.2404191494 -0.1111438200 0.5483855009 4292262211
-0.2404629439 -0.1105546579 0.5484853983 4292852804
-0.2409014404 -0.1101457402 0.5494855642 4293510734
-0.2413398474 -0.1097345650 0.5504856110 4293774937
-0.2413831353 -0.1091425046 0.5505843163 4293972316
-0.2414261997 -0.1085501239 0.5506825447 4294170460
-0.2414690405 -0.1079574302 0.5507802367 4294302046
-0.2415116578 -0.1073644236 0.5508775115 4294434397
-0.2415540516 -0.1067711040 0.5509741902 4294894948
-0.2415962368 -0.1061774716 0.5510703921 4294303887
-0.2416381985 -0.1055835262 0.5511661172 4294965929
-0.2367196232 -0.1596313119 0.5413184762 4289705662
-0.2367802113 -0.1590705663 0.5414569974 4288981939
-0.2368406206 -0.1585094035 0.5415951610 4288126628
-0.2369008511 -0.1579478085 0.5417328477 4287205526
-0.2369608879 -0.1573857814 0.5418701172 4286744461
-0.2370207459 -0.1568233222 0.5420070291 4286152324
-0.2370804101 -0.1562604457 0.5421434641 4285889150
-0.2371399105 -0.1556971371 0.5422794819 4285691771
-0.2368116230 -0.1548799276 0.5415288210 4285428599
-0.2372583151 -0.1545692682 0.5425503254 4285362806
-0.2373172492 -0.1540046930 0.5426850319 4285494394
-0.2369881272 -0.1531889886 0.5419324040 4285362808
-0.2370465845 -0.1526245028 0.5420660973 4285560187
-0.2371048629 -0.1520595998 0.5421993732 4285625980
-0.2371629477 -0.1514942795 0.5423322320 4285822846
-0.2372208387 -0.1509285569 0.5424646139 4285757053
-0.2376669049 -0.1506084949 0.5434846282 4285559674
-0.2377245128 -0.1500410140 0.5436163545 4285625467
-0.2377819419 -0.1494731158 0.5437476635 4285625467
-0.2378391773 -0.1489048004 0.5438785553 4285691260
-0.2382849306 -0.1485784650 0.5448979139 4285625465
-0.2383418828 -0.1480084062 0.5450281501 4285822844
-0.2380097359 -0.1471974254 0.5442686081 4285888637
-0.2384551913 -0.1468670666 0.5452872515 4285757051
-0.2385115623 -0.1462957859 0.5454161763 4285691258
-0.2385677397 -0.1457241029 0.5455446243 4285625465
-0.2386237234 -0.1451520175 0.5456725955 4285822329
-0.2386795133 -0.1445795298 0.5458002090 4285953915
-0.2383456528 -0.1437717229 0.5450367332 4285888122
-0.2384009510 -0.1431993693 0.5451632142 4285690743
-0.2380664349 -0.1423935592 0.5443982482 4285559155
-0.2381212562 -0.1418213546 0.5445235968 4285559155
-0.2381758839 -0.1412487477 0.5446485281 4285559155
-0.2382303178 -0.1406757385 0.5447730422 4285361776
-0.2382845581 -0.1401023567 0.5448970795 4284901479
-0.2379485220 -0.1393002123 0.5441285968 4284375135
-0.2380022854 -0.1387269795 0.5442515612 4284042307
-0.2380558401 -0.1381533593 0.5443739891 4284108100
-0.2381092012 -0.1375793517 0.5444960594 4285424404
-0.2381623536 -0.1370049566 0.5446175933 4284503302
-0.2382153124 -0.1364301741 0.5447387099 4284633088
-0.2386586815 -0.1360777318 0.5457525849 4284501504
-0.2387113422 -0.1355012506 0.5458729863 4284302098
-0.2387637794 -0.1349243820 0.5459929109 4284038926
-0.2388160378 -0.1343471408 0.5461124182 4283709959
-0.2392590195 -0.1339884549 0.5471253991 4283709959
-0.2393109500 -0.1334095001 0.5472441316 4283447304
-0.2389715612 -0.1326131374 0.5464680791 4283249925
-0.2390230000 -0.1320343912 0.5465856791 4282987024
-0.2386829555 -0.1312401146 0.5458080769 4282987024
-0.2383425385 -0.1304473728 0.5450296402 4282660106
-0.2383932024 -0.1298694015 0.5451455116 4282594313
-0.2384436727 -0.1292910725 0.5452609062 4282527251
-0.2381023020 -0.1285010278 0.5444802642 4282593044
-0.2377605736 -0.1277125031 0.5436988473 4282593046
-0.2378102541 -0.1271349788 0.5438124537 4282790425
-0.2378597409 -0.1265570819 0.5439255834 4282790425
-0.2379090190 -0.1259788424 0.5440382361 4282593046
-0.2383501083 -0.1256068200 0.5450469255 4282462230
-0.2383990437 -0.1250268966 0.5451588631 4282462230
-0.2384477854 -0.1244466305 0.5452702641 4282264851
-0.2384963036 -0.1238659993 0.5453812480 4282330644
-0.2385446280 -0.1232850105 0.5454917550 4282396437
-0.2389851660 -0.1229054928 0.5464991331 4282396437
-0.2390331477 -0.1223228499 0.5466088653 4282396437
-0.2390809208 -0.1217398569 0.5467181206 4282462230
-0.2391284853 -0.1211565062 0.5468268991 4282593816
-0.2391758412 -0.1205728203 0.5469352007 4282725402
-0.2392229885 -0.1199887842 0.5470430255 4283118108
-0.2392699271 -0.1194043979 0.5471503139 4283249694
-0.2393166572 -0.1188196763 0.5472571850 4283708427
-0.2393631637 -0.1182346120 0.5473635197 4283905806
-0.2390163392 -0.1174560189 0.5465704799 4284890884
-0.2390623540 -0.1168712303 0.5466756821 4285417228
-0.2395014316 -0.1164773703 0.5476797223 4285879552
-0.2395470887 -0.1158909500 0.5477841496 4286405894
-0.2395925522 -0.1153042018 0.5478881001 4287263488
-0.2396377772 -0.1147171110 0.5479915142 4288381968
-0.2396828085 -0.1141296923 0.5480945110 4289040401
-0.2397276163 -0.1135419458 0.5481969714 4290027296
-0.2397722006 -0.1129538640 0.5482989550 4291210293
-0.2398165911 -0.1123654619 0.5484004021 4291999809
-0.2398607433 -0.1117767245 0.5485013723 4292393795
-0.2402986288 -0.1113702431 0.5495027304 4292788553
-0.2403424233 -0.1107798964 0.5496028662 4293575240
-0.2403860092 -0.1101892292 0.5497025251 4294101584
-0.2404293865 -0.1095982417 0.5498017073 4293971803
-0.2404725403 -0.1090069264 0.5499004126 4294037596
-0.2405154705 -0.1084153056 0.5499985814 4294170978
-0.2405581772 -0.1078233570 0.5500962734 4294434150
-0.2406006753 -0.1072311029 0.5501934290 4294304100
-0.2406429499 -0.1066385359 0.5502901077 4294567272
-0.2406850010 -0.1060456485 0.5503862500 4294304667
-0.2407268435 -0.1054524556 0.5504819155 4294966452
-0.2353756577 -0.1597287208 0.5396156311 4289771457
-0.2354361415 -0.1591700613 0.5397543311 4288850355
-0.2354964465 -0.1586109698 0.5398925543 4288126632
-0.2355565727 -0.1580514461 0.5400304198 4287402139
-0.2360027730 -0.1577496976 0.5410533547 4286481037
-0.2356762737 -0.1569311321 0.5403048396 4285757566
-0.2357358485 -0.1563703418 0.5404413939 4285165429
-0.2357952446 -0.1558091193 0.5405775905 4284836464
-0.2358544618 -0.1552474648 0.5407133102 4284639085
-0.2359134853 -0.1546853930 0.5408486724 4284375913
-0.2359723151 -0.1541229039 0.5409835577 4284244327
-0.2364179194 -0.1538117379 0.5420051217 4284244327
-0.2360894531 -0.1529966742 0.5412520766 4284112741
-0.2361477315 -0.1524329185 0.5413856506 4284046946
-0.2362058312 -0.1518687606 0.5415188670 4283981153
-0.2362637371 -0.1513041705 0.5416516066 4283915360
-0.2363214642 -0.1507391781 0.5417839885 4283849567
-0.2363789976 -0.1501737684 0.5419158936 4283849567
-0.2368239462 -0.1498532146 0.5429359674 4283783774
-0.2368811965 -0.1492860466 0.5430672169 4283652188
-0.2369382530 -0.1487184763 0.5431979895 4283520602
-0.2369951308 -0.1481505036 0.5433284044 4283717470
-0.2370517999 -0.1475821137 0.5434583426 4283585884
-0.2371082902 -0.1470133066 0.5435878634 4283585882
-0.2371645868 -0.1464441121 0.5437169075 4283454296
-0.2376089543 -0.1461132467 0.5447356105 4283256917
-0.2376649529 -0.1455423087 0.5448639989 4283520089
-0.2377207726 -0.1449709684 0.5449919701 4283783261
-0.2373878658 -0.1441632658 0.5442287922 4283717468
-0.2374431938 -0.1435920596 0.5443556309 4284045919
-0.2371096313 -0.1427863687 0.5435909033 4284177505
-0.2371644825 -0.1422152966 0.5437166691 4284111711
-0.2372191548 -0.1416438222 0.5438419580 4284045918
-0.2372736186 -0.1410719603 0.5439668298 4283980125
-0.2373278886 -0.1404996961 0.5440912843 4284045918
-0.2369928062 -0.1396976560 0.5433230996 4284045405
-0.2370465994 -0.1391255558 0.5434464216 4283848026
-0.2371001989 -0.1385530680 0.5435692668 4283779903
-0.2371535897 -0.1379801929 0.5436916947 4284964177
-0.2372067869 -0.1374069303 0.5438136458 4286672150
-0.2372597903 -0.1368332803 0.5439351797 4286540564
-0.2373125851 -0.1362592429 0.5440561771 4286932743
-0.2377549559 -0.1359076351 0.5450703502 4286866950
-0.2378074527 -0.1353318840 0.5451906919 4286407941
-0.2378597409 -0.1347557604 0.5453105569 4286276355
-0.2383018434 -0.1343992352 0.5463241339 4285684992
-0.2383538187 -0.1338214129 0.5464432836 4285553408
-0.2384056002 -0.1332432032 0.5465620160 4285747976
-0.2380668968 -0.1324474961 0.5457854867 4285616390
-0.2385085374 -0.1320856810 0.5467979908 4285485056
-0.2381692678 -0.1312911212 0.5460202098 4285287680
-0.2378296107 -0.1304980814 0.5452415347 4284960256
-0.2378802150 -0.1299199164 0.5453575253 4284960256
-0.2375399172 -0.1291289926 0.5445773602 4284893440
-0.2375900149 -0.1285510361 0.5446922183 4284761856
-0.2376399189 -0.1279727221 0.5448065996 4284301312
-0.2372986674 -0.1271845102 0.5440242887 4284103936
-0.2373480797 -0.1266064197 0.5441375971 4283907332
-0.2373972833 -0.1260279566 0.5442503691 4283775746
-0.2378374636 -0.1256558150 0.5452595353 4283448066
-0.2378863394 -0.1250756979 0.5453715920 4283513859
-0.2379350066 -0.1244952083 0.5454831719 4283448832
-0.2379834801 -0.1239143685 0.5455942750 4283317248
-0.2380317301 -0.1233331785 0.5457049012 4283579136
-0.2384713590 -0.1229535267 0.5467127562 4283644928
-0.2385192811 -0.1223706752 0.5468226075 4284169216
-0.2385669798 -0.1217874736 0.5469319820 4284432384
-0.2386144847 -0.1212039217 0.5470408797 4284957698
-0.2386617810 -0.1206200197 0.5471493006 4285089284
-0.2387088537 -0.1200357750 0.5472572446 4285615616
-0.2387557328 -0.1194511801 0.5473647118 4286076164
-0.2388023883 -0.1188662425 0.5474717021 4286537217
-0.2388488352 -0.1182809696 0.5475781560 4286931975
-0.2388950735 -0.1176953465 0.5476841927 4287590406
-0.2385487556 -0.1169170961 0.5468901992 4288314129
-0.2389869094 -0.1165230945 0.5478947163 4289300760
-0.2390325218 -0.1159364656 0.5479992628 4290024483
-0.2390779108 -0.1153494939 0.5481033325 4290420257
-0.2391230762 -0.1147621945 0.5482068658 4290815015
-0.2391680479 -0.1141745597 0.5483099818 4291276587
-0.2392127961 -0.1135865971 0.5484125614 4291737138
-0.2392573208 -0.1129983068 0.5485146642 4292131896
-0.2393016368 -0.1124096811 0.5486162305 4292592447
-0.2393457443 -0.1118207350 0.5487173796 4293183305
-0.2397827208 -0.1114141122 0.5497191548 4293512270
-0.2398264557 -0.1108235493 0.5498194098 4294037078
-0.2398699820 -0.1102326587 0.5499192476 4293971285
-0.2399132997 -0.1096414551 0.5500184894 4293710425
-0.2399563938 -0.1090499237 0.5501173139 4293842011
-0.2399992645 -0.1084580794 0.5502156019 4294366813
-0.2400419116 -0.1078659222 0.5503134131 4294629985
-0.2400843501 -0.1072734445 0.5504106879 4294957929
-0.2401265800 -0.1066806540 0.5505074859 4294959471
-0.2401685715 -0.1060875505 0.5506037474 4294437280
-0.2402103543 -0.1054941416 0.5506995320 4294966965
-0.2340952158 -0.1592653245 0.5380501747 4290100422
-0.2345405370 -0.1589693576 0.5390737057 4289179320
-0.2346006632 -0.1584110111 0.5392119288 4288521390
-0.2346606106 -0.1578522176 0.5393496752 4287731874
-0.2347203642 -0.1572930217 0.5394870043 4286744979
-0.2347799391 -0.1567333788 0.5396239758 4285823359
-0.2348393351 -0.1561733186 0.5397604704 4285165429
-0.2348985523 -0.1556128263 0.5398966074 4284770671
-0.2349575758 -0.1550519168 0.5400322676 4284704878
-0.2350164205 -0.1544905901 0.5401675105 4284441706
-0.2350750864 -0.1539288312 0.5403023362 4284375913
-0.2351335734 -0.1533666700 0.5404367447 4284375913
-0.2351918519 -0.1528040767 0.5405707359 4284178534
-0.2352499664 -0.1522410661 0.5407042503 4284046948
-0.2353078872 -0.1516776383 0.5408374071 4284046948
-0.2353656143 -0.1511137933 0.5409700871 4283849569
-0.2354231626 -0.1505495459 0.5411023498 4283520604
-0.2354805321 -0.1499848664 0.5412341952 4283389018
-0.2355376929 -0.1494197845 0.5413656235 4283191639
-0.2355946749 -0.1488543004 0.5414965749 4283060051
-0.2356514782 -0.1482883990 0.5416271091 4283125844
-0.2357080877 -0.1477220803 0.5417572260 4283257432
-0.2357645035 -0.1471553594 0.5418868661 4283060053
-0.2358207256 -0.1465882361 0.5420161486 4282928465
-0.2358767539 -0.1460207105 0.5421448946 4282731086
-0.2363200188 -0.1456916183 0.5431637168 4282533707
-0.2363757640 -0.1451223493 0.5432918072 4282665293
-0.2364313155 -0.1445526779 0.5434194803 4282862159
-0.2364866734 -0.1439826041 0.5435467362 4282796366
-0.2365418375 -0.1434121281 0.5436735153 4282665035
-0.2362089455 -0.1426070929 0.5429084301 4282730828
-0.2362636328 -0.1420367658 0.5430341363 4282730056
-0.2363181263 -0.1414660364 0.5431593657 4282664263
-0.2359842956 -0.1406635642 0.5423920751 4282664263
-0.2360383123 -0.1400929838 0.5425162315 4282730056
-0.2360921353 -0.1395220160 0.5426399708 4282730058
-0.2361457646 -0.1389506608 0.5427631736 4282335300
-0.2361992002 -0.1383789033 0.5428860188 4283517504
-0.2362524271 -0.1378067732 0.5430083871 4285820259
-0.2363054603 -0.1372342557 0.5431302786 4288318256
-0.2363582999 -0.1366613507 0.5432516932 4288120877
-0.2364109457 -0.1360880584 0.5433726907 4288578579
-0.2364633977 -0.1355143934 0.5434932709 4288578579
-0.2369046509 -0.1351622790 0.5445074439 4288054280
-0.2369567752 -0.1345869005 0.5446272492 4287856901
-0.2373978943 -0.1342311949 0.5456411242 4288185864
-0.2374497056 -0.1336541176 0.5457602143 4287922692
-0.2378906757 -0.1332948208 0.5467737317 4288051978
-0.2375527322 -0.1324988306 0.5459970236 4287920392
-0.2376039475 -0.1319206208 0.5461147428 4288182273
-0.2372653633 -0.1311267316 0.5453365445 4288050688
-0.2373160869 -0.1305487305 0.5454531312 4287722243
-0.2373666167 -0.1299703568 0.5455692410 4287656450
-0.2370270938 -0.1291791499 0.5447888374 4287459584
-0.2370771319 -0.1286009848 0.5449038744 4287393792
-0.2371269614 -0.1280224621 0.5450183749 4287195904
-0.2371765822 -0.1274435818 0.5451324582 4287064320
-0.2372260094 -0.1268643290 0.5452460647 4286932741
-0.2372752279 -0.1262847185 0.5453591943 4286932741
-0.2373242378 -0.1257047355 0.5454718471 4286802186
-0.2373730391 -0.1251244098 0.5455840230 4286933772
-0.2378121465 -0.1247485653 0.5465932488 4287065607
-0.2378606200 -0.1241665632 0.5467046499 4287197193
-0.2379088849 -0.1235842109 0.5468156338 4287657220
-0.2379569411 -0.1230015010 0.5469260812 4288051978
-0.2380048037 -0.1224184409 0.5470360518 4288708615
-0.2380524427 -0.1218350306 0.5471455455 4288971787
-0.2380998731 -0.1212512702 0.5472545624 4289366026
-0.2381471097 -0.1206671596 0.5473631024 4289563405
-0.2381941229 -0.1200826988 0.5474711657 4289498897
-0.2382409275 -0.1194978952 0.5475787520 4289959448
-0.2382875234 -0.1189127490 0.5476858616 4290420249
-0.2383339107 -0.1183272600 0.5477924943 4290683421
-0.2383800894 -0.1177414358 0.5478985906 4290946590
-0.2384260446 -0.1171552613 0.5480042696 4291209762
-0.2384717911 -0.1165687516 0.5481094122 4291538470
-0.2385173291 -0.1159819141 0.5482140779 4291801642
-0.2385626584 -0.1153947264 0.5483182669 4291801899
-0.2386077791 -0.1148072183 0.5484219193 4292065071
-0.2386526763 -0.1142193675 0.5485251546 4292525622
-0.2390893102 -0.1138177738 0.5495287180 4292854587
-0.2391338497 -0.1132283062 0.5496311188 4293249094
-0.2391781807 -0.1126385033 0.5497329831 4293512266
-0.2392223030 -0.1120483726 0.5498343706 4293840722
-0.2392662019 -0.1114579141 0.5499352813 4293972308
-0.2393098772 -0.1108671352 0.5500357151 4294168917
-0.2393533438 -0.1102760285 0.5501356125 4294168917
-0.2393966019 -0.1096846089 0.5502349734 4293908056
-0.2394396365 -0.1090928614 0.5503339171 4293973849
-0.2390898466 -0.1083229333 0.5495299697 4294366813
-0.2391323745 -0.1077315211 0.5496277213 4294629985
-0.2391746938 -0.1071398035 0.5497249365 4294892908
-0.2392167747 -0.1065477654 0.5498216748 4294959729
-0.2392586470 -0.1059554145 0.5499179363 4294700460
-0.2393003106 -0.1053627580 0.5500136614 4294966973
-0.2332617491 -0.1585072428 0.5375066400 4290364107
-0.2333215922 -0.1579505354 0.5376445651 4289903044
-0.2333812565 -0.1573934108 0.5377820134 4289245113
-0.2334407270 -0.1568358690 0.5379191041 4288258218
-0.2335000336 -0.1562778801 0.5380557179 4287731102
-0.2335591465 -0.1557194740 0.5381919742 4286875793
-0.2336180806 -0.1551606506 0.5383277535 4286217863
-0.2336768359 -0.1546013951 0.5384631157 4285757312
-0.2337353975 -0.1540417373 0.5385981202 4285165429
-0.2337937951 -0.1534816325 0.5387326479 4284770671
-0.2338519841 -0.1529211253 0.5388667583 4284573292
-0.2339100093 -0.1523602009 0.5390004516 4284310120
-0.2339678407 -0.1517988592 0.5391337276 4284046948
-0.2340254933 -0.1512371004 0.5392665267 4284046948
-0.2340829521 -0.1506749243 0.5393989682 4283915362
-0.2341402322 -0.1501123309 0.5395309329 4283717983
-0.2341973186 -0.1495493203 0.5396624804 4283455325
-0.2342542261 -0.1489859074 0.5397936106 4283323739
-0.2343109399 -0.1484220922 0.5399243236 4283257946
-0.2343674749 -0.1478578597 0.5400545597 4283455325
-0.2344238162 -0.1472932249 0.5401843786 4283652704
-0.2344799638 -0.1467281729 0.5403137803 4283455325
-0.2345359176 -0.1461627185 0.5404427648 4283389016
-0.2345916927 -0.1455968618 0.5405712724 4283191637
-0.2350338548 -0.1452695429 0.5415900946 4282928465
-0.2350893319 -0.1447019428 0.5417179465 4282796879
-0.2351446301 -0.1441339403 0.5418453813 4282796879
-0.2351997197 -0.1435655504 0.5419723392 4282731086
-0.2352546304 -0.1429967582 0.5420988798 4282664780
-0.2349223346 -0.1421933025 0.5413331389 4282730573
-0.2349767685 -0.1416246593 0.5414585471 4282796621
-0.2350310087 -0.1410556138 0.5415835381 4282796621
-0.2350850552 -0.1404861659 0.5417081118 4282730828
-0.2351388931 -0.1399163455 0.5418322086 4282730828
-0.2351925522 -0.1393461078 0.5419558287 4282664265
-0.2352460176 -0.1387754977 0.5420790315 4282137921
-0.2352992892 -0.1382045001 0.5422017574 4283123001
-0.2353523672 -0.1376331151 0.5423240662 4285820514
-0.2354052365 -0.1370613426 0.5424458981 4288712760
-0.2354579121 -0.1364891827 0.5425673127 4288975932
-0.2355103940 -0.1359166354 0.5426882505 4289827617
-0.2355626822 -0.1353437155 0.5428087115 4289827617
-0.2360029370 -0.1349924356 0.5438231826 4289631261
-0.2360549122 -0.1344178021 0.5439429283 4289697054
-0.2364950180 -0.1340629309 0.5449571013 4289631772
-0.2365466803 -0.1334865987 0.5450761318 4289500186
-0.2365981340 -0.1329098791 0.5451947451 4289695518
-0.2366493940 -0.1323328018 0.5453128219 4289695518
-0.2367004603 -0.1317553371 0.5454304814 4289761301
-0.2363625616 -0.1309621036 0.5446518660 4289629715
-0.2364131361 -0.1303848475 0.5447683930 4289367060
-0.2364635020 -0.1298072189 0.5448845029 4289235474
-0.2365136743 -0.1292292327 0.5450000763 4289498642
-0.2365636379 -0.1286508739 0.5451152325 4289498642
-0.2362242341 -0.1278614998 0.5443331003 4289564439
-0.2366629541 -0.1274930537 0.5453440547 4289630232
-0.2367123067 -0.1269135922 0.5454577804 4289761564
-0.2367614657 -0.1263337731 0.5455710888 4289893150
-0.2368104011 -0.1257535964 0.5456838608 4290091040
-0.2368591428 -0.1251730621 0.5457961559 4290288419
-0.2372973263 -0.1247970909 0.5468058586 4290551585
-0.2373457402 -0.1242148876 0.5469174385 4290683171
-0.2373939455 -0.1236323267 0.5470284820 4291011875
-0.2374419272 -0.1230494082 0.5471391082 4291340840
-0.2374897152 -0.1224661395 0.5472491980 4291669035
-0.2375372946 -0.1218825206 0.5473588109 4291669035
-0.2375846654 -0.1212985516 0.5474680066 4291734826
-0.2376318276 -0.1207142323 0.5475766659 4291997998
-0.2376787812 -0.1201295629 0.5476848483 4292196147
-0.2377255261 -0.1195445508 0.5477925539 4292261940
-0.2377720475 -0.1189591959 0.5478997827 4292196658
-0.2378183752 -0.1183734909 0.5480065346 4292065072
-0.2378644794 -0.1177874506 0.5481127501 4292065072
-0.2379103899 -0.1172010750 0.5482185483 4292328244
-0.2379560769 -0.1166143492 0.5483238101 4292656698
-0.2380015403 -0.1160272956 0.5484285951 4292788284
-0.2384376973 -0.1156294569 0.5494335890 4292919102
-0.2384828180 -0.1150407642 0.5495375991 4293116481
-0.2385277301 -0.1144517437 0.5496410728 4293314630
-0.2385724336 -0.1138623804 0.5497440696 4293775181
-0.2386169136 -0.1132726967 0.5498465896 4294038099
-0.2386611849 -0.1126826778 0.5499485731 4294169685
-0.2387052327 -0.1120923311 0.5500500798 4294366297
-0.2383576781 -0.1113188714 0.5492492318 4294366297
-0.2384012341 -0.1107288450 0.5493496060 4294432087
-0.2384445667 -0.1101384908 0.5494494438 4294366294
-0.2384876907 -0.1095478237 0.5495488048 4294039641
-0.2385305911 -0.1089568287 0.5496476889 4294105434
-0.2385732681 -0.1083655208 0.5497460365 4294564192
-0.2386157513 -0.1077739000 0.5498439074 4294827364
-0.2386579961 -0.1071819589 0.5499412417 4294959732
-0.2387000322 -0.1065897048 0.5500380993 4294961017
-0.2387418449 -0.1059971377 0.5501344800 4294964158
-0.2383913547 -0.1052311808 0.5493268371 4294966985
-0.2325476110 -0.1566367149 0.5372360349 4290364107
-0.2326067239 -0.1560794711 0.5373725891 4290165444
-0.2326656729 -0.1555218101 0.5375087261 4289310134
-0.2327244133 -0.1549637169 0.5376445055 4288454825
-0.2327829897 -0.1544052064 0.5377798080 4287665309
-0.2328413874 -0.1538462788 0.5379146934 4286547598
-0.2328995913 -0.1532869190 0.5380491614 4285692289
-0.2329576164 -0.1527271569 0.5381832123 4285297531
-0.2330154479 -0.1521669626 0.5383168459 4285034359
-0.2330731153 -0.1516063511 0.5384500623 4284968566
-0.2331305742 -0.1510453373 0.5385828018 4284836980
-0.2331878692 -0.1504839063 0.5387151241 4284508015
-0.2332449704 -0.1499220580 0.5388470888 4284244843
-0.2333018780 -0.1493597925 0.5389785767 4283981671
-0.2333586067 -0.1487971246 0.5391095877 4283718499
-0.2334151566 -0.1482340395 0.5392402411 4283521120
-0.2330862433 -0.1474268734 0.5384804010 4283521120
-0.2331423163 -0.1468639076 0.5386099219 4283455325
-0.2331982106 -0.1463005245 0.5387390256 4283323739
-0.2332539111 -0.1457367539 0.5388677120 4283257946
-0.2333094180 -0.1451725811 0.5389959812 4283257946
-0.2333647311 -0.1446079910 0.5391237736 4283191639
-0.2334198654 -0.1440430135 0.5392511487 4283125846
-0.2338607162 -0.1437147856 0.5402696133 4283191637
-0.2339155674 -0.1431480646 0.5403962731 4283191637
-0.2339702100 -0.1425809413 0.5405225158 4282928465
-0.2340246737 -0.1420134306 0.5406483412 4283060051
-0.2340789437 -0.1414455324 0.5407736897 4282994000
-0.2341330051 -0.1408772320 0.5408986211 4282862414
-0.2341868877 -0.1403085291 0.5410231352 4282730828
-0.2342405766 -0.1397394389 0.5411471725 4282796621
-0.2342940718 -0.1391699612 0.5412707329 4282796621
-0.2343473732 -0.1386000961 0.5413938761 4282533449
-0.2344004810 -0.1380298436 0.5415165424 4283517244
-0.2344533950 -0.1374592036 0.5416387916 4285359448
-0.2345061004 -0.1368881762 0.5417605639 4288120626
-0.2345586270 -0.1363167614 0.5418819189 4289173314
-0.2349980921 -0.1359689683 0.5428971648 4290551594
-0.2350503057 -0.1353958398 0.5430178046 4290485801
-0.2351023257 -0.1348223388 0.5431379676 4290485537
-0.2351541370 -0.1342484504 0.5432576537 4290748709
-0.2355932444 -0.1338944137 0.5442720652 4290354464
-0.2356447428 -0.1333188266 0.5443910956 4290486050
-0.2356960475 -0.1327428669 0.5445095897 4290617386
-0.2357471585 -0.1321665198 0.5446276665 4290551593
-0.2357980609 -0.1315898150 0.5447452664 4290420259
-0.2358487546 -0.1310127228 0.5448623896 4290288673
-0.2358992547 -0.1304352731 0.5449790359 4290223145
-0.2359495610 -0.1298574358 0.5450952649 4290420524
-0.2359996587 -0.1292792410 0.5452110171 4290354202
-0.2360495478 -0.1287006736 0.5453262925 4290354202
-0.2357109189 -0.1279110163 0.5445439816 4290420256
-0.2357603312 -0.1273326874 0.5446581244 4290551842
-0.2361980230 -0.1269627959 0.5456692576 4290551845
-0.2362471074 -0.1263827682 0.5457826257 4290551845
-0.2362959832 -0.1258023977 0.5458955765 4290617638
-0.2363446504 -0.1252216548 0.5460079908 4290683431
-0.2367819250 -0.1248455495 0.5470181704 4291011883
-0.2368302643 -0.1242631376 0.5471298695 4291143469
-0.2368783951 -0.1236803681 0.5472410917 4291340846
-0.2369263172 -0.1230972484 0.5473517776 4291472432
-0.2369740456 -0.1225137711 0.5474620461 4291407151
-0.2370215505 -0.1219299436 0.5475717783 4291341358
-0.2370688468 -0.1213457659 0.5476810932 4291407919
-0.2371159494 -0.1207612380 0.5477898717 4291868470
-0.2371628284 -0.1201763600 0.5478981733 4292196149
-0.2372095138 -0.1195911393 0.5480060577 4292261942
-0.2372559756 -0.1190055683 0.5481134057 4292262199
-0.2376918942 -0.1186141074 0.5491204262 4292196406
-0.2377380133 -0.1180268973 0.5492269993 4292327992
-0.2377839237 -0.1174393445 0.5493330359 4292591164
-0.2378296256 -0.1168514490 0.5494386554 4292788286
-0.2378751189 -0.1162632108 0.5495437384 4292722493
-0.2379203886 -0.1156746447 0.5496482849 4292919102
-0.2379654497 -0.1150857359 0.5497524142 4293182274
-0.2380103022 -0.1144964993 0.5498560071 4293511239
-0.2380549312 -0.1139069274 0.5499591231 4293971790
-0.2380993515 -0.1133170202 0.5500617623 4294169167
-0.2381435633 -0.1127267927 0.5501639247 4294234960
-0.2381875515 -0.1121362299 0.5502655506 4294169937
-0.2378407866 -0.1113624796 0.5494644046 4294235730
-0.2378842831 -0.1107722372 0.5495648980 4294366294
-0.2379275560 -0.1101816744 0.5496648550 4294300501
-0.2379706204 -0.1095907912 0.5497643352 4294104664
-0.2380134612 -0.1089995801 0.5498633385 4294236250
-0.2380560935 -0.1084080562 0.5499618053 4294564192
-0.2380985022 -0.1078162119 0.5500597954 4294893157
-0.2381406873 -0.1072240546 0.5501572490 4294960243
-0.2381826639 -0.1066315845 0.5502542257 4294962042
-0.2382244319 -0.1060388014 0.5503507257 4294965194
-0.2378747165 -0.1052725539 0.5495428443 4294967250
-0.2315069586 -0.1539538354 0.5362077355 4290166215
-0.2315650731 -0.1533965766 0.5363423228 4289442492
-0.2316230088 -0.1528388858 0.5364764929 4288850355
-0.2316807508 -0.1522807777 0.5366103053 4288587183
-0.2317383289 -0.1517222524 0.5367436409 4288521390
-0.2317957133 -0.1511633247 0.5368764997 4288126632
-0.2318529040 -0.1506039649 0.5370090008 4287797667
-0.2319099307 -0.1500442028 0.5371410847 4287468700
-0.2319667637 -0.1494840235 0.5372726917 4287073942
-0.2320234030 -0.1489234269 0.5374038815 4286613904
-0.2320798635 -0.1483624279 0.5375346541 4286284939
-0.2321361452 -0.1478010267 0.5376650095 4286087560
-0.2318077981 -0.1469954252 0.5369045138 4285955974
-0.2318636179 -0.1464341432 0.5370337963 4285626494
-0.2319192439 -0.1458724439 0.5371626616 4285165943
-0.2319746763 -0.1453103423 0.5372910500 4284968564
-0.2324147075 -0.1449878812 0.5383102298 4284705392
-0.2324698716 -0.1444240510 0.5384379625 4284375913
-0.2325248271 -0.1438598037 0.5385652781 4284112741
-0.2325796038 -0.1432951689 0.5386921167 4284046946
-0.2326341867 -0.1427301317 0.5388185382 4283915360
-0.2326885760 -0.1421646923 0.5389445424 4283717981
-0.2327427715 -0.1415988654 0.5390700698 4283849567
-0.2327967882 -0.1410326511 0.5391951799 4283717468
-0.2328506112 -0.1404660195 0.5393198133 4283520089
-0.2329042405 -0.1398990154 0.5394440293 4283454551
-0.2329576761 -0.1393316090 0.5395678282 4283454551
-0.2330109179 -0.1387638152 0.5396911502 4283454551
-0.2330639660 -0.1381956488 0.5398139954 4283257172
-0.2331168205 -0.1376270801 0.5399364233 4284109383
-0.2331694812 -0.1370581239 0.5400583744 4284306762
-0.2332219481 -0.1364887804 0.5401799083 4285226787
-0.2336604297 -0.1361440867 0.5411955118 4285687338
-0.2337125987 -0.1355730444 0.5413163304 4286540564
-0.2337645590 -0.1350016147 0.5414366722 4286606357
-0.2338163257 -0.1344297975 0.5415565968 4286869778
-0.2338678986 -0.1338576078 0.5416760445 4287198743
-0.2343059182 -0.1335053444 0.5426905751 4287659546
-0.2347439080 -0.1331508160 0.5437050462 4288120097
-0.2347950488 -0.1325756013 0.5438234806 4288974115
-0.2344591022 -0.1317825466 0.5430454016 4289303080
-0.2345097661 -0.1312075257 0.5431627035 4289827868
-0.2345602363 -0.1306321472 0.5432795882 4289959454
-0.2349976450 -0.1302710027 0.5442927480 4290288160
-0.2350477874 -0.1296939254 0.5444088578 4290485539
-0.2350977361 -0.1291164756 0.5445245504 4290681639
-0.2351474762 -0.1285386533 0.5446397662 4290747432
-0.2355844975 -0.1281712800 0.5456519723 4290813993
-0.2352463603 -0.1273819357 0.5448687673 4290945579
-0.2356831282 -0.1270119250 0.5458804369 4291011368
-0.2357321382 -0.1264317036 0.5459939241 4291011368
-0.2357809544 -0.1258511096 0.5461069942 4291077416
-0.2358295470 -0.1252701730 0.5462195873 4291077416
-0.2362659127 -0.1248939410 0.5472302437 4291143209
-0.2363141775 -0.1243113205 0.5473420620 4291077416
-0.2363622487 -0.1237283498 0.5474533439 4291077929
-0.2364101112 -0.1231450215 0.5475642085 4291209515
-0.2364577502 -0.1225613356 0.5476745963 4291012393
-0.2365051955 -0.1219772995 0.5477844477 4290880807
-0.2365524322 -0.1213929132 0.5478938818 4291013161
-0.2365994602 -0.1208081767 0.5480027795 4291407919
-0.2366462946 -0.1202230901 0.5481112599 4291406880
-0.2366929054 -0.1196376607 0.5482192039 4291670052
-0.2367393076 -0.1190518811 0.5483266711 4291801640
-0.2371743023 -0.1186602861 0.5493342280 4291735847
-0.2368314713 -0.1178793013 0.5485401750 4291867693
-0.2368772477 -0.1172925010 0.5486462116 4292196658
-0.2373118401 -0.1168969944 0.5496527553 4292459319
-0.2369681597 -0.1161178723 0.5488567352 4292393526
-0.2370132953 -0.1155300587 0.5489612818 4292524344
-0.2370582223 -0.1149419025 0.5490653515 4292655930
-0.2371029258 -0.1143534184 0.5491688848 4292984384
-0.2371474355 -0.1137645990 0.5492720008 4293247556
-0.2371917218 -0.1131754518 0.5493745804 4293247813
-0.2372357845 -0.1125859767 0.5494766235 4293313606
-0.2372796535 -0.1119961664 0.5495782495 4293182790
-0.2373232991 -0.1114060357 0.5496793389 4293314376
-0.2373667210 -0.1108155772 0.5497798920 4293576267
-0.2374099493 -0.1102247983 0.5498800278 4293707853
-0.2370630354 -0.1094536707 0.5490764976 4293578061
-0.2371057421 -0.1088632196 0.5491754413 4293709647
-0.2371482402 -0.1082724482 0.5492738485 4294169432
-0.2371905297 -0.1076813638 0.5493717790 4294432604
-0.2372325957 -0.1070899591 0.5494692326 4294500717
-0.2372744381 -0.1064982414 0.5495661497 4294962810
-0.2373160720 -0.1059062108 0.5496625900 4294965714
-0.2373574823 -0.1053138748 0.5497584939 4294967257
-0.2306913286 -0.1490455270 0.5356966853 4290429900
-0.2307477146 -0.1484866142 0.5358275771 4290166728
-0.2308039069 -0.1479272842 0.5359581113 4290035142
-0.2308599204 -0.1473675519 0.5360881686 4290035142
-0.2309157401 -0.1468074024 0.5362178087 4289903556
-0.2305877060 -0.1460039318 0.5354560614 4289574074
-0.2306430638 -0.1454439014 0.5355845690 4289179316
-0.2306982279 -0.1448834836 0.5357127190 4288916144
-0.2311371714 -0.1445627958 0.5367319584 4288718765
-0.2311920524 -0.1440006346 0.5368594527 4288258214
-0.2312467545 -0.1434380710 0.5369864702 4288060835
-0.2313012779 -0.1428751200 0.5371130705 4288060319
-0.2317399085 -0.1425481588 0.5381315947 4287797147
-0.2317941338 -0.1419834793 0.5382575393 4287468182
-0.2318481654 -0.1414183974 0.5383830070 4287270803
-0.2319020182 -0.1408529133 0.5385080576 4286744201
-0.2319556624 -0.1402870417 0.5386326313 4286217857
-0.2320091277 -0.1397207826 0.5387567878 4286086271
-0.2320623994 -0.1391541213 0.5388804674 4285888892
-0.2321154773 -0.1385870874 0.5390037298 4285757306
-0.2321683615 -0.1380196512 0.5391265154 4285559927
-0.2322210521 -0.1374518275 0.5392488837 4285623157
-0.2322735488 -0.1368836164 0.5393708348 4285425778
-0.2323258519 -0.1363150328 0.5394922495 4285426019
-0.2327633351 -0.1359711736 0.5405081511 4285294433
-0.2328153402 -0.1354008764 0.5406289101 4285228375
-0.2328671515 -0.1348301917 0.5407491922 4284899410
-0.2329187542 -0.1342591345 0.5408690572 4284636238
-0.2329701632 -0.1336876899 0.5409884453 4284438859
-0.2330213785 -0.1331158727 0.5411073565 4284568901
-0.2334582806 -0.1327631176 0.5421219468 4284634694
-0.2335091978 -0.1321896017 0.5422401428 4285355572
-0.2335599065 -0.1316157132 0.5423578620 4285421365
-0.2336104065 -0.1310414523 0.5424751639 4286208543
-0.2336607128 -0.1304668039 0.5425919890 4286471715
-0.2340971231 -0.1301064938 0.5436053872 4287193880
-0.2341471165 -0.1295301616 0.5437214971 4287391259
-0.2341969162 -0.1289534718 0.5438371301 4287852305
-0.2346330434 -0.1285882443 0.5448498726 4288049684
-0.2346825153 -0.1280098706 0.5449647307 4288313616
-0.2347317934 -0.1274311244 0.5450791717 4288642581
-0.2347808480 -0.1268520057 0.5451930761 4289103888
-0.2352165878 -0.1264805645 0.5462049246 4289564439
-0.2352653295 -0.1258997619 0.5463181138 4289959446
-0.2357008904 -0.1255247295 0.5473295450 4290222618
-0.2357492894 -0.1249422655 0.5474419594 4290354456
-0.2357974946 -0.1243594438 0.5475538969 4290222870
-0.2358454913 -0.1237762570 0.5476653576 4290420249
-0.2358932942 -0.1231927201 0.5477763414 4290683421
-0.2359408736 -0.1226088330 0.5478868484 4290814494
-0.2359882444 -0.1220245883 0.5479968190 4290814494
-0.2360354215 -0.1214399934 0.5481063724 4291011873
-0.2364700437 -0.1210535020 0.5491155982 4291209252
-0.2361291349 -0.1202697605 0.5483239889 4291340840
-0.2361756861 -0.1196841151 0.5484321117 4291538219
-0.2366099060 -0.1192936972 0.5494403839 4291800621
-0.2362681478 -0.1185118034 0.5486468077 4291669035
-0.2363140583 -0.1179251298 0.5487534404 4291734828
-0.2363597751 -0.1173381135 0.5488595963 4292063793
-0.2364052683 -0.1167507619 0.5489652157 4292130352
-0.2364505529 -0.1161630675 0.5490703583 4292196145
-0.2364956290 -0.1155750453 0.5491750240 4292063789
-0.2365404963 -0.1149866804 0.5492792130 4292195375
-0.2365851402 -0.1143979803 0.5493829250 4292392245
-0.2366295755 -0.1138089448 0.5494861007 4292523831
-0.2366738021 -0.1132195890 0.5495887995 4292523831
-0.2367178202 -0.1126298904 0.5496909618 4292523831
-0.2367616147 -0.1120398715 0.5497927070 4292392758
-0.2368052006 -0.1114495248 0.5498939157 4292392758
-0.2368485630 -0.1108588576 0.5499945879 4292720958
-0.2368917167 -0.1102678627 0.5500948429 4292918337
-0.2365456074 -0.1094964445 0.5492910743 4292788545
-0.2365882546 -0.1089057773 0.5493901372 4292985924
-0.2366306931 -0.1083147973 0.5494886637 4293248843
-0.2366729230 -0.1077234894 0.5495867133 4293446222
-0.2367149293 -0.1071318686 0.5496842861 4293711714
-0.2363673151 -0.1063647121 0.5488770604 4294962295
-0.2364088148 -0.1057734340 0.5489734411 4294966234
-0.2364501059 -0.1051818505 0.5490693450 4294967262
-0.2304091156 -0.1426920593 0.5364248753 4290560969
-0.2304632813 -0.1421294510 0.5365509391 4290363590
-0.2305172384 -0.1415664405 0.5366765857 4290494662
-0.2305710167 -0.1410030425 0.5368017554 4290428869
-0.2306246012 -0.1404392570 0.5369265079 4290165697
-0.2306780070 -0.1398750693 0.5370508432 4290034111
-0.2307312191 -0.1393104941 0.5371747613 4290034111
-0.2307842374 -0.1387455314 0.5372981429 4289968318
-0.2308370620 -0.1381801665 0.5374211669 4289902010
-0.2308896929 -0.1376144290 0.5375437140 4289704631
-0.2309421301 -0.1370483041 0.5376657844 4289572782
-0.2309943885 -0.1364817917 0.5377874374 4289506989
-0.2310464382 -0.1359148920 0.5379086137 4289244331
-0.2314828187 -0.1355728060 0.5389245749 4289046952
-0.2315345854 -0.1350042075 0.5390450954 4288916130
-0.2315861434 -0.1344352216 0.5391651392 4288850337
-0.2316375077 -0.1338658482 0.5392847061 4288915099
-0.2316886783 -0.1332961023 0.5394038558 4288783513
-0.2321245968 -0.1329464614 0.5404187441 4288650130
-0.2321754694 -0.1323750168 0.5405371189 4288386958
-0.2326112539 -0.1320217848 0.5415517092 4288384899
-0.2326617986 -0.1314486414 0.5416694283 4287990141
-0.2327121496 -0.1308751255 0.5417866111 4288120175
-0.2327623069 -0.1303012371 0.5419033766 4287988589
-0.2331977189 -0.1299417615 0.5429170728 4287922271
-0.2332475483 -0.1293661743 0.5430331230 4287724892
-0.2336828113 -0.1290031075 0.5440464616 4287460940
-0.2337323278 -0.1284258366 0.5441617370 4287395147
-0.2341674268 -0.1280591786 0.5451747179 4287199045
-0.2342166156 -0.1274802387 0.5452892780 4287067459
-0.2342656106 -0.1269009113 0.5454033017 4287001919
-0.2343144119 -0.1263212413 0.5455169082 4287067712
-0.2347490937 -0.1259483546 0.5465289354 4287330366
-0.2347975671 -0.1253670007 0.5466417670 4287264573
-0.2352320850 -0.1249905229 0.5476533771 4287132727
-0.2356665581 -0.1246117726 0.5486649275 4287066934
-0.2357145697 -0.1240274236 0.5487766862 4287395119
-0.2357623726 -0.1234427243 0.5488879681 4287724084
-0.2358099669 -0.1228576675 0.5489987731 4288249130
-0.2358573526 -0.1222722605 0.5491091013 4288380716
-0.2359045297 -0.1216864958 0.5492189527 4288839719
-0.2359514982 -0.1211003810 0.5493283272 4289037098
-0.2356113940 -0.1203163564 0.5485364795 4289497127
-0.2356578708 -0.1197305098 0.5486446619 4289891885
-0.2357041389 -0.1191443130 0.5487523675 4290549297
-0.2357501984 -0.1185577735 0.5488596559 4290944055
-0.2357960492 -0.1179708913 0.5489664078 4291273525
-0.2358416915 -0.1173836663 0.5490726233 4291668283
-0.2358871251 -0.1167961061 0.5491784215 4291603505
-0.2359323502 -0.1162082031 0.5492836833 4291471919
-0.2359773517 -0.1156199649 0.5493884683 4291538217
-0.2360221595 -0.1150313839 0.5494927764 4291801389
-0.2360667437 -0.1144424751 0.5495966077 4292064561
-0.2361111194 -0.1138532311 0.5496999025 4292196147
-0.2361552715 -0.1132636592 0.5498027205 4292392754
-0.2361992300 -0.1126737520 0.5499050617 4292392754
-0.2362429649 -0.1120835170 0.5500068665 4292458802
-0.2362864912 -0.1114929542 0.5501081944 4292458802
-0.2363297939 -0.1109020710 0.5502089858 4292195128
-0.2363728881 -0.1103108600 0.5503093600 4292326714
-0.2360275686 -0.1095391661 0.5495053530 4292327996
-0.2360701561 -0.1089482829 0.5496045351 4292525375
-0.2361125350 -0.1083570793 0.5497031808 4292525383
-0.2361547053 -0.1077655628 0.5498013496 4292656969
-0.2361966521 -0.1071737260 0.5498990417 4293251171
-0.2358498275 -0.1064062789 0.5490915775 4294962046
-0.2358912677 -0.1058147848 0.5491880774 4294966759
-0.2359324992 -0.1052229851 0.5492840409 4294967273
-0.2319148034 -0.1295619160 0.5413300395 4290693311
-0.2323490828 -0.1292019486 0.5423437357 4290430139
-0.2323985696 -0.1286267638 0.5424592495 4290822085
