VERSION 0.7
FIELDS x y z rgba
SIZE 4 4 4 4
TYPE F F F U
COUNT 1 1 1 1
WIDTH 920
HEIGHT 1
VIEWPOINT 0.0 0.0 0.0 1.0 0.0 0.0 0.0
POINTS 920
DATA ascii
-0.2969952822 -0.0604778156 0.5704842210 4280625197
-0.2970224321 -0.0598494373 0.5705363750 4280559404
-0.2970492840 -0.0592208840 0.5705879331 4280559404
-0.2961561382 -0.0584107637 0.5688723326 4280559404
-0.2961823642 -0.0577838235 0.5689226985 4280625199
-0.2962082922 -0.0571567155 0.5689725280 4280756785
-0.2962339818 -0.0565294437 0.5690218210 4280822578
-0.2953392863 -0.0557284020 0.5673032999 4280822578
-0.2953643203 -0.0551027581 0.5673514009 4280822578
-0.2949289680 -0.0543920994 0.5665151477 4280822578
-0.2944932580 -0.0536832362 0.5656781793 4280757296
-0.2945173681 -0.0530590713 0.5657245517 4280757296
-0.2945412099 -0.0524347536 0.5657703280 4280823089
-0.2950250506 -0.0518912412 0.5666996837 4280823089
-0.2950483561 -0.0512656495 0.5667444468 4280888882
-0.2946110666 -0.0505609103 0.5659044981 4280888882
-0.2946338058 -0.0499360003 0.5659481883 4280954162
-0.2941958606 -0.0492338985 0.5651069283 4280954162
-0.2932971120 -0.0484575406 0.5633805990 4280954164
-0.2947002947 -0.0480604209 0.5660759211 4281019957
-0.2928799093 -0.0471384786 0.5625791550 4281085750
-0.2924405634 -0.0464436375 0.5617352724 4281151543
-0.2924614549 -0.0458227843 0.5617753863 4281151543
-0.2924820483 -0.0452017933 0.5618149638 4281151543
-0.2934236526 -0.0447210893 0.5636236072 4281085750
-0.3370057344 -0.2287844568 0.6487224102 4290757321
-0.3371003568 -0.2281277031 0.6489045620 4281085750
-0.3367545307 -0.2271734327 0.6482388377 4280888369
-0.3346469402 -0.2250359356 0.6441818476 4280690990
-0.3369424045 -0.2258588821 0.6486004591 4280493611
-0.3365954161 -0.2249063998 0.6479325891 4280230439
-0.3366886973 -0.2242486179 0.6481121182 4280427304
-0.3363409042 -0.2232976258 0.6474426389 4280361511
-0.3351107836 -0.2217642218 0.6450747252 4280361511
-0.3334386647 -0.2199445367 0.6418559551 4280295718
-0.3308829963 -0.2175510675 0.6369363666 4280427304
-0.3194997013 -0.2093833685 0.6150240302 4280624683
-0.2979573309 -0.1946283579 0.5735557675 4280822062
-0.2962721884 -0.1928939521 0.5703119636 4279966753
-0.2950275242 -0.1914526075 0.5679160357 4284638056
-0.2951073050 -0.1908732057 0.5680696368 4290822598
-0.2929773927 -0.1888689846 0.5639696121 4290362561
-0.2930561900 -0.1882929951 0.5641213059 4287730841
-0.2926926315 -0.1874334067 0.5634214878 4287138704
-0.2927708924 -0.1868573576 0.5635721087 4289704631
-0.2928489447 -0.1862808466 0.5637223721 4287862427
-0.2929268181 -0.1857038736 0.5638722777 4287072911
-0.2930044830 -0.1851264387 0.5640217662 4289902010
-0.2930819392 -0.1845485419 0.5641708970 4289244080
-0.2931592166 -0.1839701980 0.5643196106 4287138965
-0.2927933335 -0.1831143647 0.5636153221 4288586411
-0.2928700745 -0.1825359762 0.5637630224 4288718251
-0.2925034165 -0.1816818714 0.5630572438 4287599770
-0.2925796211 -0.1811034530 0.5632039309 4288849583
-0.2926556468 -0.1805245727 0.5633502603 4290297029
-0.2927314639 -0.1799452603 0.5634962320 4290362822
-0.2928070724 -0.1793654859 0.5636417866 4290428615
-0.2928824723 -0.1787852645 0.5637869239 4289310904
-0.2929576635 -0.1782046109 0.5639316440 4287863458
-0.2930326462 -0.1776234955 0.5640760064 4288915376
-0.2931074500 -0.1770419329 0.5642199516 4289704892
-0.2931820154 -0.1764599383 0.5643635392 4288587181
-0.2932564020 -0.1758774817 0.5645067096 4289245111
-0.2933305502 -0.1752945930 0.5646494627 4290034627
-0.2929599583 -0.1744465530 0.5639360547 4289376697
-0.2930335701 -0.1738636643 0.5640777946 4287533725
-0.2931070030 -0.1732803434 0.5642191172 4286678416
-0.2931801975 -0.1726965755 0.5643600225 4287402137
-0.2932532132 -0.1721123755 0.5645005703 4287073172
-0.2933259904 -0.1715277433 0.5646407008 4285230711
-0.2933985591 -0.1709426641 0.5647803545 4284638574
-0.2934709489 -0.1703571677 0.5649197102 4284901746
-0.2935431004 -0.1697712243 0.5650585890 4284967539
-0.2931694686 -0.1689281315 0.5643393993 4285296504
-0.2932410836 -0.1683422178 0.5644772649 4285362297
-0.2933124900 -0.1677558720 0.5646147132 4285559674
-0.2933836877 -0.1671691090 0.5647517443 4285691260
-0.2934546471 -0.1665819138 0.5648883581 4285690490
-0.2935253978 -0.1659943014 0.5650245547 4285690490
-0.2935959399 -0.1654062569 0.5651603341 4285690490
-0.2932199538 -0.1645673066 0.5644365549 4285690490
-0.2932899594 -0.1639793217 0.5645713210 4285428088
-0.2933597565 -0.1633909047 0.5647056699 4285757053
-0.2934293151 -0.1628020704 0.5648395419 4285954432
-0.2934986651 -0.1622128189 0.5649730563 4285559674
-0.2931209505 -0.1613771468 0.5642459989 4289836219
-0.2931897640 -0.1607879698 0.5643784404 4288783531
-0.2928113043 -0.1599541605 0.5636498928 4285954432
-0.2928795516 -0.1593650430 0.5637813210 4288257187
-0.2925003469 -0.1585331112 0.5630513430 4290559942
-0.2925680578 -0.1579440832 0.5631816983 4290296770
-0.2926355600 -0.1573546380 0.5633115768 4283980126
-0.2927028239 -0.1567647904 0.5634410977 4279769374
-0.2927698791 -0.1561745256 0.5635701418 4280624683
-0.2928366959 -0.1555838734 0.5636987686 4280295718
-0.2929033041 -0.1549928039 0.5638269782 4280032292
-0.2929696739 -0.1544013321 0.5639547706 4279769120
-0.2925877571 -0.1535742879 0.5632196069 4280295205
-0.2939980924 -0.1536857486 0.5659344792 4280360998
-0.2949605584 -0.1535580009 0.5677871108 4280229412
-0.2941296995 -0.1524963826 0.5661877394 4280163619
-0.2932982147 -0.1514379978 0.5645871758 4280229412
-0.2929146588 -0.1506134868 0.5638489127 4280229412
-0.2925307155 -0.1497904062 0.5631097555 4280229412
-0.2921463251 -0.1489687413 0.5623698235 4280295205
-0.2922103703 -0.1483764350 0.5624931455 4280164132
-0.2918252349 -0.1475567222 0.5617517829 4280164132
-0.2918887436 -0.1469645500 0.5618739724 4280164132
-0.2915028334 -0.1461468041 0.5611311793 4280164132
-0.2915657759 -0.1455547661 0.5612523556 4280164132
-0.2916285098 -0.1449623406 0.5613730550 4280098339
-0.2916910052 -0.1443695426 0.5614933372 4280098339
-0.2917532623 -0.1437763721 0.5616132021 4280032546
-0.2918152809 -0.1431828141 0.5617325902 4280097826
-0.2918770909 -0.1425888836 0.5618515611 4280097826
-0.2914888263 -0.1417757720 0.5611041784 4280097826
-0.2911001444 -0.1409641355 0.5603559613 4280163619
-0.2907110453 -0.1401539445 0.5596069694 4280229412
-0.2907716334 -0.1395612657 0.5597236156 4280229412
-0.2912821770 -0.1391833276 0.5607064366 4280229412
-0.2913424075 -0.1385889947 0.5608223677 4280163619
-0.2914023995 -0.1379942894 0.5609378219 4280295205
-0.2914621532 -0.1373992115 0.5610528588 4280229412
-0.2919722199 -0.1370152086 0.5620347261 4280229412
-0.2920316160 -0.1364184916 0.5621490479 4280163619
-0.2925415039 -0.1360310018 0.5631305575 4280163619
-0.2930513620 -0.1356413066 0.5641120076 4280163619
-0.2931101918 -0.1350416541 0.5642252564 4280163619
-0.2945218980 -0.1350621432 0.5669427514 4280229412
-0.2950316668 -0.1346649081 0.5679240227 4280360998
-0.2959925830 -0.1344704479 0.5697737336 4280163619
-0.2965022922 -0.1340678632 0.5707549453 4279900447
-0.2979147434 -0.1340693533 0.5734738111 4279637275
-0.2984245121 -0.1336604953 0.5744551420 4279374103
-0.2998373508 -0.1336520016 0.5771747828 4279242517
-0.3003471494 -0.1332368851 0.5781561136 4279242517
-0.3017603755 -0.1332184076 0.5808765292 4279308310
-0.3027220368 -0.1329955012 0.5827276707 4279374103
-0.3036838174 -0.1327685267 0.5845790505 4279308310
-0.3050976694 -0.1327341199 0.5873006582 4279374103
-0.3056076169 -0.1323023587 0.5882822871 4279374103
-0.3070218265 -0.1322579384 0.5910046101 4279308310
-0.3084363043 -0.1322075874 0.5937274098 4279308310
-0.3089463413 -0.1317654401 0.5947092175 4279308310
-0.3103611469 -0.1317050606 0.5974326134 4279242517
-0.3091181517 -0.1298553348 0.5950399637 4279177236
-0.3091749251 -0.1292179227 0.5951492190 4279177236
-0.3092314303 -0.1285801679 0.5952579975 4279243029
-0.3110990226 -0.1286913455 0.5988529921 4279177236
-0.3107024133 -0.1278627664 0.5980895758 4279243029
-0.3116643727 -0.1275920719 0.5999413133 4279243029
-0.3121733367 -0.1271327585 0.6009210348 4279243029
-0.3122290075 -0.1264876574 0.6010282040 4279374615
-0.3127376735 -0.1260248423 0.6020073891 4279374615
-0.3127929270 -0.1253781170 0.6021137238 4279308822
-0.3123944998 -0.1245502681 0.6013467312 4279308822
-0.3129025996 -0.1240836233 0.6023248434 4279374615
-0.3120499253 -0.1230780855 0.6006834507 4279308822
-0.3107430339 -0.1218980178 0.5981677175 4279243029
-0.3107965291 -0.1212542877 0.5982707739 4279308822
-0.3108497858 -0.1206102297 0.5983732939 4279177237
-0.3113566637 -0.1201409698 0.5993489623 4279177237
-0.3105015457 -0.1191469282 0.5977029204 4279243030
-0.3105539382 -0.1185028255 0.5978037715 4279308823
-0.3115142584 -0.1182030141 0.5996523499 4279308823
-0.3115662336 -0.1175563782 0.5997524261 4279308823
-0.3111637235 -0.1167389974 0.5989775658 4279308823
-0.3112151027 -0.1160926521 0.5990765095 4279308823
-0.3112662137 -0.1154459938 0.5991749167 4279440408
-0.3104081154 -0.1144638434 0.5975230932 4279374615
-0.3100039959 -0.1136517972 0.5967451334 4279308822
-0.3100540936 -0.1130070239 0.5968415737 4279308822
-0.3091945052 -0.1120324358 0.5951869488 4279308822
-0.3096987009 -0.1115527451 0.5961574316 4279374615
-0.3102027476 -0.1110708490 0.5971277356 4279440408
-0.3097968400 -0.1102629304 0.5963463783 4279440408
-0.3093905151 -0.1094565988 0.5955642462 4279440923
-0.3098939061 -0.1089718938 0.5965332389 4279440923
-0.3099420369 -0.1083259210 0.5966258645 4279440923
-0.3095346987 -0.1075215340 0.5958417654 4279440923
-0.3091269433 -0.1067187414 0.5950568318 4279440923
-0.3082634211 -0.1057613343 0.5933946371 4279440923
-0.3078548014 -0.1049627066 0.5926080346 4279506716
-0.3074457347 -0.1041656807 0.5918205976 4279506716
-0.3079473674 -0.1036770120 0.5927861929 4279506716
-0.3084488511 -0.1031861529 0.5937515497 4279506716
-0.3084945381 -0.1025416330 0.5938394666 4279441436
-0.3085399270 -0.1018968299 0.5939269066 4279507229
-0.3085850477 -0.1012517363 0.5940137506 4279507229
-0.3086299300 -0.1006063670 0.5941001177 4279573022
-0.3082185388 -0.0998130664 0.5933082700 4279573022
-0.3078067899 -0.0990213901 0.5925155878 4279573022
-0.3073946238 -0.0982313529 0.5917221904 4279572509
-0.3069820404 -0.0974429473 0.5909280181 4279572509
-0.3065690696 -0.0966561735 0.5901330113 4279572509
-0.3070681989 -0.0961568058 0.5910938978 4279638302
-0.3071108758 -0.0955133289 0.5911760330 4279638302
-0.3066968918 -0.0947286189 0.5903791189 4279704095
-0.3067389727 -0.0940855667 0.5904600620 4279704095
-0.3067807555 -0.0934422538 0.5905405283 4279769888
-0.3054525256 -0.0923843980 0.5879837275 4279769888
-0.3059502244 -0.0918805674 0.5889418125 4279704095
-0.3059910536 -0.0912383944 0.5890203714 4279769888
-0.3051180840 -0.0903255194 0.5873399973 4279769888
-0.3056150675 -0.0898190066 0.5882966518 4279769888
-0.3056550324 -0.0891770199 0.5883736014 4279835681
-0.3052377701 -0.0884024501 0.5875703692 4279901474
-0.3052771091 -0.0877609253 0.5876460671 4279901474
-0.3053161800 -0.0871191546 0.5877212882 4279901729
-0.3058120608 -0.0866065994 0.5886758566 4279901729
-0.3049362898 -0.0857063830 0.5869899988 4279901729
-0.3054316938 -0.0851923749 0.5879436731 4279901729
-0.3059269488 -0.0846762061 0.5888969898 4279967522
-0.3059646785 -0.0840322599 0.5889695883 4279967522
-0.3055447042 -0.0832634345 0.5881612301 4279967522
-0.3060393035 -0.0827436671 0.5891132355 4279967522
-0.3065336943 -0.0822217315 0.5900650024 4279967522
-0.3061127961 -0.0814541280 0.5892547369 4280033315
-0.3052338958 -0.0805674344 0.5875629187 4280033315
-0.3048121631 -0.0798041970 0.5867511034 4280033315
-0.3043900430 -0.0790426582 0.5859385133 4280099108
-0.3039675355 -0.0782828331 0.5851252079 4280099108
-0.3035446703 -0.0775247067 0.5843111873 4280099108
-0.3031213880 -0.0767683014 0.5834963918 4280164901
-0.3026977181 -0.0760136023 0.5826808810 4280164646
-0.3018156886 -0.0751466006 0.5809830427 4280098853
-0.3018492758 -0.0745093673 0.5810476542 4280098853
-0.3014244735 -0.0737598389 0.5802299380 4280164646
-0.3023737371 -0.0733454153 0.5820571780 4280230439
-0.3019483089 -0.0725964308 0.5812383294 4280230439
-0.3024390340 -0.0720675588 0.5821828842 4280230439
-0.3029295504 -0.0715365484 0.5831270814 4280230439
-0.3034198582 -0.0710033923 0.5840709805 4280296232
-0.3029932380 -0.0702555254 0.5832497478 4280296232
-0.3025662303 -0.0695093945 0.5824277997 4280296232
-0.3016803861 -0.0686606616 0.5807225108 4280362025
-0.3012525737 -0.0679189861 0.5798990130 4280427818
-0.2999072671 -0.0669742450 0.5773093700 4280493611
-0.2990199924 -0.0661365762 0.5756013989 4280559404
-0.2985909581 -0.0654030591 0.5747755170 4280559404
-0.2981615365 -0.0646713004 0.5739488602 4280559404
-0.2977317274 -0.0639412999 0.5731215477 4280559404
-0.2977603972 -0.0633106083 0.5731766820 4280625197
-0.2977887392 -0.0626797378 0.5732312799 4280625197
-0.2978168428 -0.0620486923 0.5732853413 4280625197
-0.2978446484 -0.0614174642 0.5733388662 4280625197
-0.2969542146 -0.0605987385 0.5716248751 4280559404
-0.2965223789 -0.0598764196 0.5707935691 4280493611
-0.2965492010 -0.0592475906 0.5708452463 4280493611
-0.2965757847 -0.0586185902 0.5708963871 4280559404
-0.2966020703 -0.0579894222 0.5709469914 4280625197
-0.2961688936 -0.0572712943 0.5701131225 4280690990
-0.2966538072 -0.0567305908 0.5710465312 4280756785
-0.2962199748 -0.0560140833 0.5702114701 4280756785
-0.2957858145 -0.0552993678 0.5693757534 4280756785
-0.2953512967 -0.0545864441 0.5685393214 4280756785
-0.2949164212 -0.0538753122 0.5677021742 4280757296
-0.2944811881 -0.0531659760 0.5668643713 4280757296
-0.2945050299 -0.0525404066 0.5669103265 4280823089
-0.2945286334 -0.0519146845 0.5669556856 4280823089
-0.2950114608 -0.0513688289 0.5678851008 4280954162
-0.2950344980 -0.0507418327 0.5679295063 4280954162
-0.2945976853 -0.0500366315 0.5670886636 4280954162
-0.2946201563 -0.0494103208 0.5671318769 4280954162
-0.2941826880 -0.0487077646 0.5662897825 4280954164
-0.2932851613 -0.0479318947 0.5645620823 4281019957
-0.2928469479 -0.0472339466 0.5637185574 4281085750
-0.2924084067 -0.0465378165 0.5628743768 4281151543
-0.2924292982 -0.0459157079 0.5629146099 4281217336
-0.2929097712 -0.0453646779 0.5638394356 4281151543
-0.2924702764 -0.0446710847 0.5629934669 4281085750
-0.2943299115 -0.0443256162 0.5665731430 4281085750
-0.2920502126 -0.0433576703 0.5621848106 4280954164
-0.3359851539 -0.2285802960 0.6481435299 4290296770
-0.3356402218 -0.2276262492 0.6474781632 4280756785
-0.3352948129 -0.2266733497 0.6468118429 4280822578
-0.3349489570 -0.2257216275 0.6461446881 4280625199
-0.3350423276 -0.2250664383 0.6463248134 4280559404
-0.3338160515 -0.2235271931 0.6439591646 4280296232
-0.3352284133 -0.2237544060 0.6466837525 4280427304
-0.3344410062 -0.2225120217 0.6451647878 4280361511
-0.3332127333 -0.2209806144 0.6427953243 4280361511
-0.3319835067 -0.2194538563 0.6404240131 4280229925
-0.3281108141 -0.2161906213 0.6329533458 4280427303
-0.3123412430 -0.2051306516 0.6025324464 4280558889
-0.2970034480 -0.1944209486 0.5729445219 4280690475
-0.2957619131 -0.1929743141 0.5705495477 4279966752
-0.2949603796 -0.1918191314 0.5690033436 4284901228
-0.2945991755 -0.1909528077 0.5683065653 4290888391
-0.2924730182 -0.1889477968 0.5642049909 4290296768
-0.2925517261 -0.1883716136 0.5643568039 4288257185
-0.2921888530 -0.1875116974 0.5636568069 4288388771
-0.2922670543 -0.1869354546 0.5638076663 4289704631
-0.2923450470 -0.1863587499 0.5639581680 4287204497
-0.2924228609 -0.1857815683 0.5641081929 4287072911
-0.2925004363 -0.1852039397 0.5642579198 4289836219
-0.2925778329 -0.1846258491 0.5644072294 4288980910
-0.2926550508 -0.1840472966 0.5645561218 4287599516
-0.2922898233 -0.1831911504 0.5638515949 4288849583
-0.2919242084 -0.1823362857 0.5631462932 4288520872
-0.2920005620 -0.1817581207 0.5632935762 4287007633
-0.2920767069 -0.1811795086 0.5634405017 4288454825
-0.2921526730 -0.1806004345 0.5635870099 4290297029
-0.2922284007 -0.1800209135 0.5637331009 4290494408
-0.2923039496 -0.1794409305 0.5638788342 4290691787
-0.2923792899 -0.1788605154 0.5640241504 4289310136
-0.2924544215 -0.1782796383 0.5641691089 4287665311
-0.2925293446 -0.1776983142 0.5643136501 4288717997
-0.2926040590 -0.1771165580 0.5644577742 4289573306
-0.2926785648 -0.1765343398 0.5646015406 4288060067
-0.2927528620 -0.1759516895 0.5647448897 4287994274
-0.2928269804 -0.1753685921 0.5648878217 4290099652
-0.2924570739 -0.1745202243 0.5641742349 4290428617
-0.2925306261 -0.1739371270 0.5643161535 4289046964
-0.2926039994 -0.1733535975 0.5644576550 4288717999
-0.2926771343 -0.1727696210 0.5645987391 4289375927
-0.2927500606 -0.1721852124 0.5647394657 4288257446
-0.2928228080 -0.1716003567 0.5648797154 4285822848
-0.2928953171 -0.1710150838 0.5650196075 4284506988
-0.2929676175 -0.1704293638 0.5651590824 4284243816
-0.2930397093 -0.1698432118 0.5652981400 4284309609
-0.2931115627 -0.1692566276 0.5654368401 4284243816
-0.2927383482 -0.1684136689 0.5647168159 4283980644
-0.2928096950 -0.1678271145 0.5648544431 4283717470
-0.2928808033 -0.1672401279 0.5649916530 4283651677
-0.2929517031 -0.1666527241 0.5651284456 4283848286
-0.2930224240 -0.1660648882 0.5652648211 4283848286
-0.2930928767 -0.1654766351 0.5654007792 4283782495
-0.2927176058 -0.1646373570 0.5646768212 4283716702
-0.2927875519 -0.1640491486 0.5648117661 4283980901
-0.2928572893 -0.1634605229 0.5649462342 4283783522
-0.2929267883 -0.1628714651 0.5650803447 4283520091
-0.2925501168 -0.1620350033 0.5643537045 4284638572
-0.2926190794 -0.1614460051 0.5644867420 4289836219
-0.2922416329 -0.1606113911 0.5637586117 4288651945
-0.2927563190 -0.1602667868 0.5647515059 4286809741
-0.2923782468 -0.1594331414 0.5640221834 4288059808
-0.2919997573 -0.1586008817 0.5632920265 4290625735
-0.2916208208 -0.1577700227 0.5625610352 4290165184
-0.2916881442 -0.1571812630 0.5626909137 4283453782
-0.2917552590 -0.1565920860 0.5628203750 4280032546
-0.2918221653 -0.1560025066 0.5629494190 4280624683
-0.2918888330 -0.1554125398 0.5630780458 4280295718
-0.2919552624 -0.1548221409 0.5632061958 4280098085
-0.2920214832 -0.1542313546 0.5633339286 4279769120
-0.2920874953 -0.1536401659 0.5634612441 4280295205
-0.2934954762 -0.1537517160 0.5661773682 4280360998
-0.2944563329 -0.1536239535 0.5680309534 4280295205
-0.2940745354 -0.1527944654 0.5672944784 4280163619
-0.2932446301 -0.1517347395 0.5656934977 4280229412
-0.2928619087 -0.1509089917 0.5649551749 4280229412
-0.2924787700 -0.1500846744 0.5642160773 4280164132
-0.2916471660 -0.1490328610 0.5626118779 4280229925
-0.2917111814 -0.1484403163 0.5627353191 4280164132
-0.2913267612 -0.1476202905 0.5619937778 4280164132
-0.2913902104 -0.1470278800 0.5621161461 4280229925
-0.2910050154 -0.1462098062 0.5613731146 4280229925
-0.2910679281 -0.1456175447 0.5614944100 4280164132
-0.2911305726 -0.1450248957 0.5616152883 4280164132
-0.2911930084 -0.1444318742 0.5617357492 4280098339
-0.2912552059 -0.1438384652 0.5618557334 4280098339
-0.2908683121 -0.1430239677 0.5611094236 4280097826
-0.2909299731 -0.1424307078 0.5612283349 4280163619
-0.2909913957 -0.1418370903 0.5613468289 4280163619
-0.2906034291 -0.1410251111 0.5605983734 4280229412
-0.2902150452 -0.1402146071 0.5598491430 4280360998
-0.2902755737 -0.1396216899 0.5599659681 4280295205
-0.2903358936 -0.1390284002 0.5600823164 4280163619
-0.2903959751 -0.1384347528 0.5601981878 4280163619
-0.2904558182 -0.1378407329 0.5603136420 4280229412
-0.2909651399 -0.1374588013 0.5612961650 4280229412
-0.2914744020 -0.1370746642 0.5622785687 4280229412
-0.2919836342 -0.1366883218 0.5632609129 4280229412
-0.2920428216 -0.1360900700 0.5633751154 4280163619
-0.2925518453 -0.1357002407 0.5643570423 4280163619
-0.2930608094 -0.1353081912 0.5653389096 4280163619
-0.2940199673 -0.1351208538 0.5671892166 4280163619
-0.2954296172 -0.1351354718 0.5699085593 4280032033
-0.2963891327 -0.1349391043 0.5717595220 4279900447
-0.2977992594 -0.1349428147 0.5744798183 4279637275
-0.2992097139 -0.1349406242 0.5772006512 4279374103
-0.3001697361 -0.1347302198 0.5790525675 4279242517
-0.3015806377 -0.1347171068 0.5817743540 4279176724
-0.3029918373 -0.1346980780 0.5844966769 4279176724
-0.3044033051 -0.1346731186 0.5872195363 4279176724
-0.3058150411 -0.1346422285 0.5899428725 4279242517
-0.3067759275 -0.1344077438 0.5917965174 4279242517
-0.3077368736 -0.1341691762 0.5936502814 4279308310
-0.3086979389 -0.1339265406 0.5955042243 4279374103
-0.3092076778 -0.1334849447 0.5964875221 4279308310
-0.3097173274 -0.1330411285 0.5974707007 4279242517
-0.3102268875 -0.1325950921 0.5984537005 4279308310
-0.3102847040 -0.1319547445 0.5985652208 4279242517
-0.3103422821 -0.1313140541 0.5986762643 4279242516
-0.3103995621 -0.1306730062 0.5987868309 4279242516
-0.3095528185 -0.1296530664 0.5971533656 4279242516
-0.3096094429 -0.1290131807 0.5972625613 4279308309
-0.3096657991 -0.1283729374 0.5973713398 4279308309
-0.3110783398 -0.1282917559 0.6000962257 4279308309
-0.3111344278 -0.1276480258 0.6002044082 4279243029
-0.3116425574 -0.1271885335 0.6011846662 4279243029
-0.3121505976 -0.1267268211 0.6021646857 4279308822
-0.3122060597 -0.1260801703 0.6022716761 4279308822
-0.3127138019 -0.1256149709 0.6032511592 4279308822
-0.3127688169 -0.1249666885 0.6033572555 4279308822
-0.3128235638 -0.1243180707 0.6034628749 4279308822
-0.3128780127 -0.1236691102 0.6035679579 4279243029
-0.3120265007 -0.1226637512 0.6019253135 4279243029
-0.3111743927 -0.1216618195 0.6002815366 4279308822
-0.3112277687 -0.1210156083 0.6003844738 4279243030
-0.3121870756 -0.1207194924 0.6022350192 4279243030
-0.3099741638 -0.1191994026 0.5979661345 4279243030
-0.3100264966 -0.1185550317 0.5980671048 4279243030
-0.3105318844 -0.1180827245 0.5990420580 4279243030
-0.3101303577 -0.1172653213 0.5982674956 4279308823
-0.3106353879 -0.1167904735 0.5992417336 4279308823
-0.3106867373 -0.1161438674 0.5993407965 4279308823
-0.3102841675 -0.1153283343 0.5985642076 4279440408
-0.3098812103 -0.1145143658 0.5977868438 4279374615
-0.3094778061 -0.1137019768 0.5970086455 4279374615
-0.3095278442 -0.1130569428 0.5971052051 4279374615
-0.3086697757 -0.1120819375 0.5954499245 4279374615
-0.3087191582 -0.1114381701 0.5955451727 4279374615
-0.3096763790 -0.1111199558 0.5973917246 4279374615
-0.3097253442 -0.1104736775 0.5974861979 4279440408
-0.3088656366 -0.1095050201 0.5958276987 4279506202
-0.3089139163 -0.1088600308 0.5959208608 4279506202
-0.3094162941 -0.1083738804 0.5968899727 4279506202
-0.3090096712 -0.1075691432 0.5961056352 4279571995
-0.3095116615 -0.1070804968 0.5970739722 4279440923
-0.3081952333 -0.1059644893 0.5945344567 4279440923
-0.3073327541 -0.1050092280 0.5928706527 4279440923
-0.3064697385 -0.1040574759 0.5912058353 4279440923
-0.3069704771 -0.1035695598 0.5921718478 4279440923
-0.3079259396 -0.1032319292 0.5940149426 4279440923
-0.3075166643 -0.1024356037 0.5932254791 4279506716
-0.3075619638 -0.1017914787 0.5933128595 4279506716
-0.3076069951 -0.1011470705 0.5933997035 4279507229
-0.3076517582 -0.1005023792 0.5934860110 4279573022
-0.3072410524 -0.0997096971 0.5926937461 4279573022
-0.3068299592 -0.0989186317 0.5919007063 4279573022
-0.3059631586 -0.0979833975 0.5902286172 4279572509
-0.3060065508 -0.0973414183 0.5903123021 4279572509
-0.3055942357 -0.0965552703 0.5895169377 4279572509
-0.3060925305 -0.0960566401 0.5904781818 4279638302
-0.3061351180 -0.0954138488 0.5905603170 4279638302
-0.3057217896 -0.0946297646 0.5897629857 4279638302
-0.3057637513 -0.0939873904 0.5898439288 4279704095
-0.3062612116 -0.0934838727 0.5908035636 4279704095
-0.3058468699 -0.0927018672 0.5900042653 4279704095
-0.3049762845 -0.0917843208 0.5883248448 4279704095
-0.3050170243 -0.0911428258 0.5884034634 4279769888
-0.3050574958 -0.0905010700 0.5884814858 4279704095
-0.3050976992 -0.0898590684 0.5885590315 4279769888
-0.3046815097 -0.0890834481 0.5877561569 4279835681
-0.3051772416 -0.0885742977 0.5887125134 4279835681
-0.3047603965 -0.0878001004 0.5879083872 4279835681
-0.3043431342 -0.0870275721 0.5871034265 4279835936
-0.3048381805 -0.0865157545 0.5880584121 4279901729
-0.3048766553 -0.0858732164 0.5881326795 4279901729
-0.3044584095 -0.0851028487 0.5873258114 4279901729
-0.3040397465 -0.0843341649 0.5865181684 4279967522
-0.3045338392 -0.0838184953 0.5874713659 4279967522
-0.3050277829 -0.0833006650 0.5884242058 4279967522
-0.3046081960 -0.0825331956 0.5876147747 4280033315
-0.3051016927 -0.0820129663 0.5885667801 4280033315
-0.3051382303 -0.0813687667 0.5886372328 4280033315
-0.3051744699 -0.0807243362 0.5887071490 4280033060
-0.3042966425 -0.0798399225 0.5870137215 4280033060
-0.3038752675 -0.0790780559 0.5862008929 4280033060
-0.3034535050 -0.0783178881 0.5853872895 4280033060
-0.3034884334 -0.0776764229 0.5854546428 4280033060
-0.3030659556 -0.0769187137 0.5846396685 4280098853
-0.3026430905 -0.0761627257 0.5838239193 4280033060
-0.3022198677 -0.0754084513 0.5830074549 4280033060
-0.3017962575 -0.0746558905 0.5821902752 4280033060
-0.3018295765 -0.0740172118 0.5822545290 4280098853
-0.3023199737 -0.0734894946 0.5832005739 4280164646
-0.3032676280 -0.0730698407 0.5850286484 4280230439
-0.3023853004 -0.0722091421 0.5833266377 4280230439
-0.3028750718 -0.0716769323 0.5842714310 4280230439
-0.3029070795 -0.0710352734 0.5843331814 4280296232
-0.3024812043 -0.0702870712 0.5835116506 4280296232
-0.3025126159 -0.0696459785 0.5835722089 4280296232
-0.3020860553 -0.0689002946 0.5827493072 4280296232
-0.3007435799 -0.0679495037 0.5801596045 4280362025
-0.2998583615 -0.0671067983 0.5784519315 4280427818
-0.2989726663 -0.0662677810 0.5767433643 4280493611
-0.2985444069 -0.0655329749 0.5759172440 4280493611
-0.2985737324 -0.0648994595 0.5759737492 4280559404
-0.2972288132 -0.0639700592 0.5733793378 4280559404
-0.2972574234 -0.0633390918 0.5734345317 4280559404
-0.2972857654 -0.0627079457 0.5734891891 4280625197
-0.2968557179 -0.0619809665 0.5726596117 4280625197
-0.2968834639 -0.0613504313 0.5727131367 4280559404
-0.2969109416 -0.0607197247 0.5727661252 4280559404
-0.2960216403 -0.0599033795 0.5710505843 4280493611
-0.2960484624 -0.0592742711 0.5711023211 4280427818
-0.2960750163 -0.0586449951 0.5711535215 4280559404
-0.2965596318 -0.0581053570 0.5720884204 4280559404
-0.2961272597 -0.0573859364 0.5712543130 4280625197
-0.2961529493 -0.0567561574 0.5713039041 4280756785
-0.2961784005 -0.0561262146 0.5713529587 4280756785
-0.2957450151 -0.0554102063 0.5705169439 4280756785
-0.2957698405 -0.0547809191 0.5705648661 4280822578
-0.2953357995 -0.0540675186 0.5697275400 4280823089
-0.2944427729 -0.0532729365 0.5680047870 4280823089
-0.2944666445 -0.0526461117 0.5680508614 4280888369
-0.2944902480 -0.0520191342 0.5680963993 4280888369
-0.2949723005 -0.0514720604 0.5690263510 4280954162
-0.2954541743 -0.0509228818 0.5699558854 4280954162
-0.2950181663 -0.0502154082 0.5691148043 4280954164
-0.2950406969 -0.0495868661 0.5691582561 4280954164
-0.2941451669 -0.0488058999 0.5674307346 4281019957
-0.2937081456 -0.0481038652 0.5665876269 4281019957
-0.2941886485 -0.0475520194 0.5675145984 4281085750
-0.2932920158 -0.0467784591 0.5657849312 4281151543
-0.2928539813 -0.0460809059 0.5649399161 4281151543
-0.2928746641 -0.0454564244 0.5649797916 4281151543
-0.2924359739 -0.0447615460 0.5641335249 4281217338
-0.2929151654 -0.0442070737 0.5650579333 4281151545
-0.2929349840 -0.0435822047 0.5650961995 4281085752
-0.3340884447 -0.2277779579 0.6458684802 4289967803
-0.3337438405 -0.2268261313 0.6452022791 4280493611
-0.3333987594 -0.2258754820 0.6445351243 4280690990
-0.3326143920 -0.2246296406 0.6430187821 4280493611
-0.3331461251 -0.2242731601 0.6440467238 4280559404
-0.3323607147 -0.2230305374 0.6425284147 4280296232
-0.3315746188 -0.2217908204 0.6410086751 4280427304
-0.3285913467 -0.2190894932 0.6352413297 4280361511
-0.3300002813 -0.2193200886 0.6379651427 4280427304
-0.3261353076 -0.2160508931 0.6304932833 4280361511
-0.3073196411 -0.2029261887 0.5941183567 4280624682
-0.2959696054 -0.1947959214 0.5721761584 4280690475
-0.2947307527 -0.1933474839 0.5697811246 4280756268
-0.2943709791 -0.1924791783 0.5690856576 4279966752
-0.2931305468 -0.1910384595 0.5666875839 4285098607
-0.2940904498 -0.1910323501 0.5685432553 4290954184
-0.2919679880 -0.1890265495 0.5644401312 4290296770
-0.2920466363 -0.1884501576 0.5645921230 4287796636
-0.2916844785 -0.1875899285 0.5638920069 4288257185
-0.2917625904 -0.1870134920 0.5640430450 4289244080
-0.2918405235 -0.1864365786 0.5641936660 4287862427
-0.2919182479 -0.1858592033 0.5643439293 4288388771
-0.2919957638 -0.1852813661 0.5644938350 4289638840
-0.2920731008 -0.1847030818 0.5646433234 4289244082
-0.2921502292 -0.1841243356 0.5647923946 4287994274
-0.2922271490 -0.1835451126 0.5649411082 4289310134
-0.2918623388 -0.1826890707 0.5642358661 4288915376
-0.2914970815 -0.1818343252 0.5635297298 4287665309
-0.2915731668 -0.1812554896 0.5636768341 4289178548
-0.2920909226 -0.1809499711 0.5646777749 4290428615
-0.2921667397 -0.1803693622 0.5648242831 4290231236
-0.2918002009 -0.1795163155 0.5641157031 4290428615
-0.2918754518 -0.1789356768 0.5642612576 4289441722
-0.2919505239 -0.1783546060 0.5644063354 4288125862
-0.2920253873 -0.1777730882 0.5645510554 4288717740
-0.2921000421 -0.1771911085 0.5646953583 4289704635
-0.2921744883 -0.1766086966 0.5648393035 4289112498
-0.2922487259 -0.1760258228 0.5649828315 4288783533
-0.2923227549 -0.1754425317 0.5651259422 4290231238
-0.2923965752 -0.1748587787 0.5652686357 4289704894
-0.2924701869 -0.1742745787 0.5654109716 4287599518
-0.2921003401 -0.1734267920 0.5646959543 4287270553
-0.2921734154 -0.1728426069 0.5648372769 4288651947
-0.2922462821 -0.1722579747 0.5649781227 4287204501
-0.2923189700 -0.1716729254 0.5651186109 4285296504
-0.2923914194 -0.1710874289 0.5652586818 4285888641
-0.2924636304 -0.1705015004 0.5653983355 4286678157
-0.2925356627 -0.1699151397 0.5655375719 4287007122
-0.2926074862 -0.1693283468 0.5656763911 4287533466
-0.2922349572 -0.1684850603 0.5649561882 4287401880
-0.2923062444 -0.1678982973 0.5650939941 4287401108
-0.2919329405 -0.1670568287 0.5643723607 4287269522
-0.2924481332 -0.1667234749 0.5653683543 4287137936
-0.2920742035 -0.1658829451 0.5646454692 4286808971
-0.2921445370 -0.1652953625 0.5647813678 4286348420
-0.2922146320 -0.1647073478 0.5649169087 4286019455
-0.2922844887 -0.1641189307 0.5650519729 4284704624
-0.2923541665 -0.1635300815 0.5651866794 4284507245
-0.2924236059 -0.1629408151 0.5653209090 4284178534
-0.2924928367 -0.1623511314 0.5654547215 4284441706
-0.2921165228 -0.1615148038 0.5647273064 4289638840
-0.2917398214 -0.1606798768 0.5639989972 4288717738
-0.2918081582 -0.1600907296 0.5641311407 4286809741
-0.2914307117 -0.1592576653 0.5634014010 4288849324
-0.2914985120 -0.1586685926 0.5635325313 4290822344
-0.2911202908 -0.1578374058 0.5628013015 4290164414
-0.2911875546 -0.1572484225 0.5629313588 4282993231
-0.2912546098 -0.1566590369 0.5630609989 4280164132
-0.2913214564 -0.1560692340 0.5631902218 4280558890
-0.2913880646 -0.1554790288 0.5633189678 4280164132
-0.2914544344 -0.1548884213 0.5634472966 4280098339
-0.2915206254 -0.1542974114 0.5635752082 4279966753
-0.2915865481 -0.1537059993 0.5637027025 4280295718
-0.2929921746 -0.1538176239 0.5664200783 4280295718
-0.2939514518 -0.1536898315 0.5682745576 4280295718
-0.2935703695 -0.1528600305 0.5675379038 4280164132
-0.2927419543 -0.1517998725 0.5659363270 4280164132
-0.2923599482 -0.1509738117 0.5651978254 4280164132
-0.2919774950 -0.1501491666 0.5644584894 4280229925
-0.2911474109 -0.1490969211 0.5628536940 4280229925
-0.2907640040 -0.1482760310 0.5621125698 4280164132
-0.2908276320 -0.1476837993 0.5622355342 4280164132
-0.2904434800 -0.1468648612 0.5614929199 4280229925
-0.2905065715 -0.1462727636 0.5616148114 4280229925
-0.2905693948 -0.1456802785 0.5617362857 4280229925
-0.2906320095 -0.1450874060 0.5618573427 4280164132
-0.2906943858 -0.1444941461 0.5619779229 4280098339
-0.2907565534 -0.1439005136 0.5620980859 4280098339
-0.2908184528 -0.1433064938 0.5622178316 4280097826
-0.2908801436 -0.1427120864 0.5623371005 4280229412
-0.2904933393 -0.1418983340 0.5615892410 4280295205
-0.2901060879 -0.1410860419 0.5608406067 4280295205
-0.2897184193 -0.1402752101 0.5600911379 4280295205
-0.2897788882 -0.1396820694 0.5602080822 4280229412
-0.2902878225 -0.1393038630 0.5611919761 4280163619
-0.2903479338 -0.1387090534 0.5613082051 4280229412
-0.2904078364 -0.1381138861 0.5614239573 4280163619
-0.2904674709 -0.1375183463 0.5615392923 4280229412
-0.2905268967 -0.1369224340 0.5616541505 4280229412
-0.2914843261 -0.1367475688 0.5635051131 4280229412
-0.2919926941 -0.1363588721 0.5644878745 4280229412
-0.2925009727 -0.1359679699 0.5654705167 4280229412
-0.2930092216 -0.1355748475 0.5664530396 4280097826
-0.2939668894 -0.1353865415 0.5683044791 4280032033
-0.2953742743 -0.1354002506 0.5710252523 4279637275
-0.2967819571 -0.1354080588 0.5737465620 4279505689
-0.2981899083 -0.1354099512 0.5764684677 4279374103
-0.2995981574 -0.1354059279 0.5791909695 4279176724
-0.3014566302 -0.1355983764 0.5827838182 4279176724
-0.3024155200 -0.1353801191 0.5846375823 4279176724
-0.3038246334 -0.1353583187 0.5873616934 4279242517
-0.3052339852 -0.1353305727 0.5900862813 4279242517
-0.3066436350 -0.1352969110 0.5928114653 4279242517
-0.3076031804 -0.1350595653 0.5946664810 4279176724
-0.3085628152 -0.1348181218 0.5965216160 4279308310
-0.3095225096 -0.1345726103 0.5983769894 4279374103
-0.3091304302 -0.1337381452 0.5976189971 4279308310
-0.3096393645 -0.1332932264 0.5986028314 4279242517
-0.3101481795 -0.1328460872 0.5995865464 4279242517
-0.3102060556 -0.1322045624 0.5996983647 4279176724
-0.3102636337 -0.1315626800 0.5998097658 4279176723
-0.3103209734 -0.1309204400 0.5999205709 4279176723
-0.3099269271 -0.1300884783 0.5991588235 4279242516
-0.3099836707 -0.1294464618 0.5992684960 4279242516
-0.3095888495 -0.1286166161 0.5985051990 4279308309
-0.3109991252 -0.1285344809 0.6012315750 4279308309
-0.3110552430 -0.1278895438 0.6013400555 4279177236
-0.3115626276 -0.1274289489 0.6023209691 4279243029
-0.3120699525 -0.1269661188 0.6033017039 4279308822
-0.3121254444 -0.1263182610 0.6034089923 4279243029
-0.3126324415 -0.1258519292 0.6043891311 4279308822
-0.3126874864 -0.1252024472 0.6044955850 4279308822
-0.3127422631 -0.1245526224 0.6046014428 4279243029
-0.3127967715 -0.1239024624 0.6047068238 4279243029
-0.3123989105 -0.1230738536 0.6039376855 4279178006
-0.3115484715 -0.1220696121 0.6022936106 4279178006
-0.3106974363 -0.1210688055 0.6006483436 4279308823
-0.3107504845 -0.1204219982 0.6007509232 4279308823
-0.3098984659 -0.1194261760 0.5991037488 4279243030
-0.3099508286 -0.1187805980 0.5992050171 4279243030
-0.3104555011 -0.1183071509 0.6001806259 4279243030
-0.3096021414 -0.1173169464 0.5985308886 4279243030
-0.3096536398 -0.1166713387 0.5986304283 4279243030
-0.3097048700 -0.1160254106 0.5987294912 4279308823
-0.3097558320 -0.1153791621 0.5988280177 4279374616
-0.3093535900 -0.1145648509 0.5980503559 4279374616
-0.3089509308 -0.1137521267 0.5972719789 4279374615
-0.3085478544 -0.1129409671 0.5964927077 4279374615
-0.3085975051 -0.1122962981 0.5965887308 4279440408
-0.3081936836 -0.1114873588 0.5958080292 4279440408
-0.3086960316 -0.1110060215 0.5967792273 4279440408
-0.3091982603 -0.1105224788 0.5977501273 4279440408
-0.3083400428 -0.1095534042 0.5960909724 4279506202
-0.3088417947 -0.1090683043 0.5970609784 4279506202
-0.3093434274 -0.1085810065 0.5980307460 4279506202
-0.3084839880 -0.1076167226 0.5963692665 4279506202
-0.3089851439 -0.1071278676 0.5973380804 4279506202
-0.3085785806 -0.1063240990 0.5965521336 4279571995
-0.3072638810 -0.1052111238 0.5940105319 4279440923
-0.3073103130 -0.1045669243 0.5941002965 4279440923
-0.3073564470 -0.1039224416 0.5941894650 4279440923
-0.3074023128 -0.1032776684 0.5942781568 4279506716
-0.3069937825 -0.1024810001 0.5934883952 4279506716
-0.3065848649 -0.1016859636 0.5926977992 4279572509
-0.3066297770 -0.1010422334 0.5927846432 4279572509
-0.3062200844 -0.1002494842 0.5919926763 4279572509
-0.3053556085 -0.0993105844 0.5903214216 4279638302
-0.3053995073 -0.0986688808 0.5904062986 4279638302
-0.3054431677 -0.0980269015 0.5904906392 4279638302
-0.3054865301 -0.0973846465 0.5905745029 4279638302
-0.3055296242 -0.0967421234 0.5906577706 4279638302
-0.3060271442 -0.0962423310 0.5916196108 4279638302
-0.3060697615 -0.0955983102 0.5917019844 4279638302
-0.3056572378 -0.0948129222 0.5909045339 4279638302
-0.3056992292 -0.0941693261 0.5909857154 4279638302
-0.3057409525 -0.0935254619 0.5910663605 4279638302
-0.3057824075 -0.0928813294 0.5911464691 4279638302
-0.3053684831 -0.0920996889 0.5903462768 4279769888
-0.3049541712 -0.0913196951 0.5895453095 4279769888
-0.3049946725 -0.0906767100 0.5896236300 4279704095
-0.3050348759 -0.0900334716 0.5897013545 4279769888
-0.3046194911 -0.0892565548 0.5888983011 4279835681
-0.3042037189 -0.0884813145 0.5880945325 4279835681
-0.3037875295 -0.0877077430 0.5872899294 4279769888
-0.3033709526 -0.0869358480 0.5864846110 4279770141
-0.3034095764 -0.0862952024 0.5865592360 4279835934
-0.3039035201 -0.0857829228 0.5875142217 4279835934
-0.3034859598 -0.0850131810 0.5867069364 4279901727
-0.3030679822 -0.0842451230 0.5858989358 4279967522
-0.3026496470 -0.0834787562 0.5850901604 4279967522
-0.3031426072 -0.0829635933 0.5860431790 4279967522
-0.3031795025 -0.0823224708 0.5861144662 4280033315
-0.3032161295 -0.0816811249 0.5861852765 4280099108
-0.3041644990 -0.0812832639 0.5880187154 4280033315
-0.3032885194 -0.0803977251 0.5863252282 4280033060
-0.3028681576 -0.0796357542 0.5855126381 4280033060
-0.3024474382 -0.0788754821 0.5846992731 4280033060
-0.3024825454 -0.0782349184 0.5847671628 4280033060
-0.3020611107 -0.0774771050 0.5839523673 4280033060
-0.3016392887 -0.0767209977 0.5831369162 4280033060
-0.3012170792 -0.0759666115 0.5823206902 4280033060
-0.3012509048 -0.0753280744 0.5823860765 4280033060
-0.3012844920 -0.0746893287 0.5824509859 4280098853
-0.3013177812 -0.0740503594 0.5825153589 4280098853
-0.3018073738 -0.0735224187 0.5834618807 4280164646
-0.3027534485 -0.0731025860 0.5852908492 4280230439
-0.3023293614 -0.0723508000 0.5844709873 4280230439
-0.3032751083 -0.0719257072 0.5862993002 4280296232
-0.3033072054 -0.0712818280 0.5863613486 4280296232
-0.3028821647 -0.0705313608 0.5855396986 4280296232
-0.3024567664 -0.0697826371 0.5847172737 4280296232
-0.3020309806 -0.0690356493 0.5838941336 4280296232
-0.3006908596 -0.0680834725 0.5813034177 4280296232
-0.2998072207 -0.0672394186 0.5795950890 4280362025
-0.2989231050 -0.0663990602 0.5778859258 4280427818
-0.2984956503 -0.0656629577 0.5770595670 4280493611
-0.2980678082 -0.0649286062 0.5762324333 4280493611
-0.2971824110 -0.0640974045 0.5745207667 4280493611
-0.2967538238 -0.0633675531 0.5736922026 4280559404
-0.2967821360 -0.0627361238 0.5737469196 4280625197
-0.2963528335 -0.0620088242 0.5729169846 4280625197
-0.2963805497 -0.0613780133 0.5729705691 4280559404
-0.2959505916 -0.0606532805 0.5721393228 4280559404
-0.2955202460 -0.0599303208 0.5713074207 4280559404
-0.2955470383 -0.0593009330 0.5713592172 4280427818
-0.2955735624 -0.0586713776 0.5714104772 4280493611
-0.2960573733 -0.0581315011 0.5723458529 4280559404
-0.2960833907 -0.0575006343 0.5723960996 4280625197
-0.2961091101 -0.0568696000 0.5724458694 4280756783
-0.2956768572 -0.0561514832 0.5716102123 4280822576
-0.2957019806 -0.0555211008 0.5716587901 4280756783
-0.2952690423 -0.0548055917 0.5708218217 4280822576
-0.2952935696 -0.0541758649 0.5708692074 4280888371
-0.2948599756 -0.0534629710 0.5700309873 4280888371
-0.2944260240 -0.0527518727 0.5691920519 4280888369
-0.2944496274 -0.0521236397 0.5692377090 4280888369
-0.2949309349 -0.0515753441 0.5701681376 4280954162
-0.2954120338 -0.0510249436 0.5710982084 4280954162
-0.2954348922 -0.0503943115 0.5711423755 4280954164
-0.2954574525 -0.0497635305 0.5711860061 4280954164
-0.2950216234 -0.0490564331 0.5703434944 4281151545
-0.2936691940 -0.0482007600 0.5677288771 4281019959
-0.2936907709 -0.0475734696 0.5677706599 4281085750
-0.2941702902 -0.0470192805 0.5686976314 4281151543
-0.2932748795 -0.0462462194 0.5669665933 4281085750
-0.2932955921 -0.0456195027 0.5670066476 4281151543
-0.2937743366 -0.0450629517 0.5679321885 4281217338
-0.2937945426 -0.0444349945 0.5679712296 4281151545
-0.2933560610 -0.0437385626 0.5671235919 4281085752
-0.3313202560 -0.2263767123 0.6418952346 4289376181
-0.3301001191 -0.2248324603 0.6395313144 4280625712
-0.3315065205 -0.2250767946 0.6422560811 4280822576
-0.3315993249 -0.2244260013 0.6424358487 4280427818
-0.3312537670 -0.2234790772 0.6417663693 4280559659
-0.3313460052 -0.2228280604 0.6419450641 4280164901
-0.3305612206 -0.2215887308 0.6404246092 4280624682
-0.3293371797 -0.2200593054 0.6380532384 4280493096
-0.3281122148 -0.2185344994 0.6356799603 4280426790
-0.3242536485 -0.2152665854 0.6282044649 4280295204
-0.3067870140 -0.2030103803 0.5943648219 4280493097
-0.2950176895 -0.1945872158 0.5715631247 4280624683
-0.2937809229 -0.1931390762 0.5691670179 4281019441
-0.2934217453 -0.1922713369 0.5684711337 4279769374
-0.2930621207 -0.1914048493 0.5677744150 4285427572
-0.2913835943 -0.1896813363 0.5645224452 4291019977
-0.2923415899 -0.1896756738 0.5663784146 4290756805
-0.2911011875 -0.1882442832 0.5639753342 4287927706
-0.2911794484 -0.1876681000 0.5641269684 4286480776
-0.2912575006 -0.1870914549 0.5642781854 4289638840
-0.2913353443 -0.1865143478 0.5644289851 4288651945
-0.2914130092 -0.1859367639 0.5645794868 4288980910
-0.2914904654 -0.1853587329 0.5647295117 4289770426
-0.2915677428 -0.1847802401 0.5648791790 4289244082
-0.2916447818 -0.1842012852 0.5650284886 4287862690
-0.2917216420 -0.1836218834 0.5651773810 4289375929
-0.2913575172 -0.1827655137 0.5644719601 4289244084
-0.2914338410 -0.1821860671 0.5646198392 4287928224
-0.2910689712 -0.1813314110 0.5639129281 4289310134
-0.2915859222 -0.1810258031 0.5649144053 4290362822
-0.2916616499 -0.1804450005 0.5650611520 4290560203
-0.2917371690 -0.1798637360 0.5652074814 4290297031
-0.2913710177 -0.1790107936 0.5644980669 4289245111
-0.2914460003 -0.1784295142 0.5646433830 4288784560
-0.2915208042 -0.1778477728 0.5647882819 4288915376
-0.2915953696 -0.1772655994 0.5649327636 4289046962
-0.2916697562 -0.1766829789 0.5650768876 4287139219
-0.2917439342 -0.1760999113 0.5652205944 4288455079
-0.2918179035 -0.1755163968 0.5653638840 4290297799
-0.2914493978 -0.1746673882 0.5646499395 4289771455
-0.2919651866 -0.1743480414 0.5656492710 4288849326
-0.2920385301 -0.1737632006 0.5657913685 4288586154
-0.2916690707 -0.1729155183 0.5650755763 4289046705
-0.2917418778 -0.1723306924 0.5652166009 4287072915
-0.2918144763 -0.1717454195 0.5653572679 4283849058
-0.2918868661 -0.1711597145 0.5654975176 4283256921
-0.2919590473 -0.1705735773 0.5656372905 4282993749
-0.2920309901 -0.1699869931 0.5657767653 4283059542
-0.2921027541 -0.1693999916 0.5659157634 4282796370
-0.2917309105 -0.1685563773 0.5651953816 4283059542
-0.2913586795 -0.1677141339 0.5644741654 4283388507
-0.2914295495 -0.1671276093 0.5646114945 4283651679
-0.2915002406 -0.1665406674 0.5647484660 4283914851
-0.2915706933 -0.1659532934 0.5648849607 4284375402
-0.2916409373 -0.1653655022 0.5650210381 4284901746
-0.2917109728 -0.1647772789 0.5651567578 4285230711
-0.2917807996 -0.1641886383 0.5652920008 4285625978
-0.2918503881 -0.1635995805 0.5654268265 4285625978
-0.2919197977 -0.1630100906 0.5655612946 4285757566
-0.2919889390 -0.1624201834 0.5656952858 4286020738
-0.2916133702 -0.1615835428 0.5649676323 4290362565
-0.2916819751 -0.1609936953 0.5651005507 4288849326
-0.2913056612 -0.1601589322 0.5643714666 4286414731
-0.2909288704 -0.1593255401 0.5636414886 4288914865
-0.2909966409 -0.1587362438 0.5637727976 4290494151
-0.2906191349 -0.1579047441 0.5630413890 4289902014
-0.2906863391 -0.1573155373 0.5631716251 4282598989
-0.2907533348 -0.1567259282 0.5633013844 4280033062
-0.2908201218 -0.1561359018 0.5634307861 4280558889
-0.2908866704 -0.1555454880 0.5635597110 4280361510
-0.2909529805 -0.1549546570 0.5636882186 4279966750
-0.2910191119 -0.1543634236 0.5638163090 4280032543
-0.2910849750 -0.1537717879 0.5639439225 4280360998
-0.2920423746 -0.1536488980 0.5657987595 4280295205
-0.2934459150 -0.1537556648 0.5685179830 4280360998
-0.2930655479 -0.1529255360 0.5677810907 4280360998
-0.2922386229 -0.1518649459 0.5661789775 4280229412
-0.2923035622 -0.1512695104 0.5663048029 4280229412
-0.2914755940 -0.1502135843 0.5647006631 4280229925
-0.2906469703 -0.1491609216 0.5630953312 4280164132
-0.2902643085 -0.1483397186 0.5623539686 4280164132
-0.2898811996 -0.1475199461 0.5616117716 4280164132
-0.2899444401 -0.1469279975 0.5617342591 4280164132
-0.2900074422 -0.1463356614 0.5618563294 4280164132
-0.2900702357 -0.1457429528 0.5619779825 4280033060
-0.2901327908 -0.1451498419 0.5620991588 4280033060
-0.2901951075 -0.1445563585 0.5622199178 4280033060
-0.2902572155 -0.1439625025 0.5623402596 4280033060
-0.2903190851 -0.1433682442 0.5624601245 4280164132
-0.2903807163 -0.1427736282 0.5625795126 4280164132
-0.2904421389 -0.1421786249 0.5626984835 4280164132
-0.2900556922 -0.1413650811 0.5619498491 4280164132
-0.2896688581 -0.1405529976 0.5612003207 4280164132
-0.2892815769 -0.1397423893 0.5604500175 4280098339
-0.2897896767 -0.1393640488 0.5614344478 4280098339
-0.2898497283 -0.1387690008 0.5615507960 4280098339
-0.2899095714 -0.1381735951 0.5616667271 4280229412
-0.2899691761 -0.1375778317 0.5617821813 4280229412
-0.2900285423 -0.1369816810 0.5618972182 4280229412
-0.2905360162 -0.1365959793 0.5628803968 4280163619
-0.2914919257 -0.1364179254 0.5647323132 4280163619
-0.2919993997 -0.1360268742 0.5657154918 4280229412
-0.2925068140 -0.1356336176 0.5666986108 4280163619
-0.2939116359 -0.1356523484 0.5694202185 4280032033
-0.2953167260 -0.1356651783 0.5721424818 4279637275
-0.2971710265 -0.1358773261 0.5757349730 4279505689
-0.2985768020 -0.1358774006 0.5784584880 4279308310
-0.3004319370 -0.1360749453 0.5820526481 4279176724
-0.3018383980 -0.1360622346 0.5847774148 4279176724
-0.3036943674 -0.1362451464 0.5883731842 4279242517
-0.3051014543 -0.1362196356 0.5910992622 4279242517
-0.3060593903 -0.1359885186 0.5929551125 4279308310
-0.3070174158 -0.1357533038 0.5948112011 4279176724
-0.3084251285 -0.1357118487 0.5975384712 4279176724
-0.3089337349 -0.1352706403 0.5985238552 4279308310
-0.3098920286 -0.1350231767 0.6003804207 4279374103
-0.3099506795 -0.1343815476 0.6004940867 4279374103
-0.3100090921 -0.1337395608 0.6006072760 4279308310
-0.3096172214 -0.1329040229 0.5998480320 4279242517
-0.3096750379 -0.1322622448 0.5999600291 4279242517
-0.3097325861 -0.1316200942 0.6000715494 4279111443
-0.3097898960 -0.1309776008 0.6001825333 4279111443
-0.3098469079 -0.1303347498 0.6002930403 4279243029
-0.3094532490 -0.1295030266 0.5995303392 4279243029
-0.3104107380 -0.1292355359 0.6013853550 4279177236
-0.3109176755 -0.1287773252 0.6023675203 4279243029
-0.3100724518 -0.1277597994 0.6007300019 4279243029
-0.3114804924 -0.1276694685 0.6034578681 4279177236
-0.3119870424 -0.1272055209 0.6044392586 4279308823
-0.3120425642 -0.1265564561 0.6045468450 4279308823
-0.3120978177 -0.1259070635 0.6046538949 4279177237
-0.3121528327 -0.1252573133 0.6047604680 4279177237
-0.3126587272 -0.1247872934 0.6057406068 4279243030
-0.3127132654 -0.1241359264 0.6058462858 4279243030
-0.3123162091 -0.1233060285 0.6050770283 4279243030
-0.3119187355 -0.1224776730 0.6043069959 4279308823
-0.3106178939 -0.1212982535 0.6017867327 4279243029
-0.3097678721 -0.1202995181 0.6001399159 4279308822
-0.3098205328 -0.1196530610 0.6002419591 4279112213
-0.3103246391 -0.1191797480 0.6012185812 4279112213
-0.3094732761 -0.1181866229 0.5995692015 4279178006
-0.3086213470 -0.1171969473 0.5979186893 4279178006
-0.3091246784 -0.1167226583 0.5988937616 4279112213
-0.3091758490 -0.1160764620 0.5989929438 4279178006
-0.3083226085 -0.1150924340 0.5973398685 4279178006
-0.3083730936 -0.1144474894 0.5974376798 4279243799
-0.3084233403 -0.1138022244 0.5975350142 4279243799
-0.3080210090 -0.1129907295 0.5967555046 4279243799
-0.3076182306 -0.1121808216 0.5959752202 4279243799
