VERSION 0.7
FIELDS x y z rgba
SIZE 4 4 4 4
TYPE F F F U
COUNT 1 1 1 1
WIDTH 920
HEIGHT 1
VIEWPOINT 0.0 0.0 0.0 1.0 0.0 0.0 0.0
POINTS 920
DATA ascii
-0.3199690282 -0.1137676388 0.5377478600 4279966752
-0.3190163076 -0.1128331944 0.5361467004 4279966752
-0.3195728064 -0.1124332845 0.5370818973 4279900959
-0.3196258545 -0.1118551046 0.5371710658 4279835166
-0.3196786344 -0.1112766489 0.5372597575 4279966752
-0.3197311759 -0.1106979027 0.5373480916 4279900959
-0.3197834492 -0.1101188734 0.5374359488 4279440408
-0.3198354840 -0.1095395610 0.5375233293 4279374615
-0.3198872209 -0.1089599654 0.5376103520 4279769373
-0.3199387491 -0.1083800867 0.5376968980 4280756266
-0.3199899793 -0.1077999324 0.5377830267 4280756266
-0.3200409710 -0.1072194949 0.5378687382 4280229924
-0.3190835416 -0.1063029170 0.5362596512 4279506201
-0.3186296821 -0.1055567414 0.5354968905 4279177236
-0.3186796606 -0.1049782261 0.5355808735 4278782478
-0.3182250559 -0.1042342484 0.5348168612 4278650890
-0.3187788129 -0.1038203835 0.5357475281 4278914062
-0.3188280165 -0.1032410562 0.5358301997 4279045650
-0.3193814754 -0.1028239056 0.5367603898 4279440408
-0.3194302320 -0.1022431254 0.5368422866 4279966753
-0.3199834228 -0.1018226892 0.5377719998 4280427304
-0.3210412860 -0.1015598401 0.5395498872 4280888369
-0.3231089115 -0.1016105786 0.5430247784 4281283127
-0.3246719539 -0.1014958620 0.5456516743 4281480761
-0.3262351453 -0.1013753563 0.5482788086 4281546554
-0.3283036351 -0.1014050841 0.5517551303 4281414715
-0.3303724229 -0.1014271826 0.5552319884 4281414715
-0.3324415386 -0.1014416516 0.5587094426 4281480506
-0.3345109522 -0.1014484912 0.5621873736 4281546299
-0.3360753357 -0.1012953669 0.5648164749 4281480506
-0.3381452858 -0.1012878492 0.5682953000 4281480506
-0.3402155638 -0.1012726948 0.5717746019 4281546299
-0.3412749171 -0.1009507775 0.5735550523 4281612092
-0.3433456123 -0.1009221748 0.5770350695 4281612092
-0.3449108601 -0.1007382125 0.5796656609 4281612092
-0.3449588418 -0.1001080796 0.5797463059 4281612092
-0.3455123901 -0.0996235535 0.5806766152 4281612092
-0.3465717435 -0.0992818475 0.5824570060 4281677885
-0.3471250534 -0.0987921730 0.5833868980 4281612092
-0.3461599946 -0.0978711322 0.5817649961 4281612092
-0.3457005024 -0.0970956907 0.5809927583 4281612092
-0.3457468152 -0.0964630842 0.5810706019 4281612092
-0.3457928300 -0.0958302245 0.5811479092 4281612092
-0.3458385468 -0.0951971114 0.5812247396 4281677885
-0.3453775644 -0.0944252983 0.5804499984 4281677885
-0.3449161351 -0.0936550945 0.5796745420 4281677885
-0.3449608684 -0.0930230916 0.5797497034 4281743678
-0.3450052738 -0.0923908427 0.5798243880 4281809471
-0.3450494111 -0.0917583555 0.5798985362 4281743678
-0.3456000090 -0.0912594348 0.5808238387 4281677887
-0.3461504281 -0.0907584131 0.5817489028 4281743680
-0.3461937904 -0.0901233405 0.5818217993 4281677887
-0.3457299471 -0.0893570110 0.5810422897 4281677887
-0.3452656865 -0.0885923058 0.5802620053 4281743680
-0.3448010087 -0.0878292248 0.5794810653 4281743680
-0.3448430300 -0.0871960074 0.5795516968 4281677887
-0.3443775773 -0.0864352584 0.5787693858 4281743680
-0.3439117074 -0.0856761411 0.5779864788 4281743678
-0.3434454203 -0.0849186629 0.5772027969 4281743678
-0.3429787159 -0.0841628313 0.5764184594 4281809471
-0.3420041502 -0.0832850635 0.5747805834 4281809471
-0.3420440555 -0.0826560855 0.5748476386 4281743678
-0.3425911963 -0.0821485892 0.5757672191 4281743678
-0.3426305652 -0.0815182328 0.5758333802 4281743680
-0.3421619833 -0.0807678327 0.5750458241 4281677887
-0.3422006965 -0.0801379830 0.5751109123 4281348922
-0.3417313695 -0.0793899596 0.5743221045 4281283129
-0.3412615955 -0.0786435902 0.5735326409 4281348152
-0.3407914340 -0.0778988823 0.5727424622 4281282359
-0.3403208852 -0.0771558359 0.5719516277 4281348154
-0.3398499191 -0.0764144659 0.5711601377 4281413947
-0.3383624256 -0.0754481852 0.5686601996 4281413947
-0.3389067650 -0.0749367177 0.5695750117 4281348154
-0.3389427364 -0.0743117705 0.5696355104 4281348154
-0.3379620016 -0.0734656677 0.5679872036 4281216568
-0.3374890089 -0.0727326646 0.5671923161 4281085752
-0.3380322754 -0.0722185373 0.5681053400 4281217338
-0.3380669653 -0.0715946779 0.5681636333 4281151543
-0.3375929296 -0.0708639100 0.5673670173 4281151543
-0.3376269937 -0.0702406093 0.5674242377 4281085234
-0.3371522427 -0.0695122778 0.5666263700 4280361511
-0.3356599212 -0.0685778186 0.5641183257 4280032545
-0.3356929123 -0.0679577217 0.5641737580 4279835166
-0.3362342715 -0.0674394667 0.5650835633 4279900959
-0.3362666965 -0.0668180659 0.5651381016 4279966752
-0.3368076086 -0.0662966296 0.5660471320 4279835164
-0.3363306820 -0.0655747205 0.5652456284 4279769371
-0.3348356485 -0.0646579936 0.5627329946 4279966491
-0.3353756666 -0.0641360283 0.5636405945 4279900698
-0.3348975778 -0.0634192526 0.5628371239 4279900698
-0.3339100778 -0.0626087412 0.5611774921 4279900698
-0.3324130774 -0.0617073327 0.5586615801 4279966491
-0.3293881714 -0.0605307445 0.5535778403 4279966491
-0.3268716037 -0.0594579168 0.5493484735 4279966750
-0.3263910413 -0.0587610342 0.5485408306 4279966750
-0.3264193535 -0.0581566095 0.5485883951 4279966750
-0.3264473677 -0.0575520284 0.5486354828 4280032543
-0.3264750838 -0.0569472909 0.5486820936 4279835164
-0.3265025318 -0.0563424006 0.5487281680 4279308820
-0.3265296817 -0.0557373613 0.5487738252 4284046688
-0.3497396708 -0.1671141237 0.5888803005 4284573292
-0.3498165011 -0.1664963961 0.5890096426 4281349435
-0.3498930633 -0.1658782512 0.5891385674 4281743680
-0.3504657745 -0.1654941291 0.5901029110 4281743680
-0.3510384560 -0.1651078463 0.5910671949 4281743680
-0.3511144817 -0.1644867361 0.5911951661 4281809473
-0.3516869843 -0.1640970111 0.5921591520 4281742910
-0.3537499607 -0.1643978059 0.5956327319 4281808703
-0.3563104868 -0.1649211645 0.5999440551 4281742910
-0.3578777015 -0.1649770588 0.6025828719 4280953394
-0.3604396284 -0.1654837579 0.6068965197 4279571735
-0.3615105450 -0.1652991176 0.6086996794 4279176977
-0.3640737236 -0.1657900214 0.6130154729 4278914064
-0.3646477759 -0.1653692573 0.6139820814 4278979857
-0.3637290597 -0.1642721593 0.6124351621 4279177236
-0.3643026948 -0.1638496965 0.6134010553 4279440408
-0.3658718169 -0.1638709605 0.6160430908 4279111443
-0.3659476638 -0.1632203162 0.6161707640 4279243029
-0.3650272489 -0.1621268988 0.6146209836 4279703580
-0.3636080325 -0.1608163267 0.6122314334 4280427303
-0.3582023978 -0.1577554047 0.6031295657 4280822576
-0.3587737978 -0.1573358774 0.6040917039 4281217334
-0.3523675799 -0.1538673043 0.5933051109 4281677885
-0.3514419496 -0.1528056413 0.5917465687 4281809471
-0.3515128493 -0.1521788538 0.5918659568 4281743678
-0.3500874043 -0.1509068012 0.5894657969 4282006850
-0.3491598964 -0.1498537958 0.5879040956 4282401094
-0.3482317030 -0.1488039643 0.5863412619 4282466887
-0.3483008742 -0.1481819153 0.5864576697 4282335301
-0.3478706777 -0.1473481059 0.5857333541 4281940543
-0.3474400043 -0.1465156972 0.5850082040 4281743164
-0.3460102975 -0.1452654749 0.5826008916 4281282613
-0.3450791240 -0.1442289799 0.5810330510 4280493097
-0.3446468115 -0.1434035301 0.5803050995 4279900960
-0.3447135985 -0.1427864283 0.5804175735 4279703581
-0.3442804515 -0.1419629455 0.5796882510 4279703581
-0.3418477476 -0.1403203011 0.5755921602 4279966753
-0.3374143243 -0.1378692538 0.5681273341 4280164132
-0.3374786675 -0.1372641921 0.5682355762 4279966753
-0.3340422809 -0.1352415681 0.5624495149 4279966753
-0.3281035125 -0.1322233677 0.5524500608 4279966753
-0.3271647692 -0.1312330067 0.5508694053 4279835167
-0.3257250488 -0.1300461441 0.5484452248 4279900959
-0.3242844939 -0.1288643330 0.5460197330 4279900959
-0.3233436942 -0.1278855652 0.5444356203 4279900959
-0.3224022686 -0.1269100755 0.5428504348 4279900959
-0.3199580610 -0.1253493726 0.5387349725 4279835167
-0.3205175400 -0.1249689385 0.5396770239 4279835167
-0.3200751543 -0.1241976619 0.5389321446 4279835167
-0.3191313446 -0.1232344061 0.5373429656 4279835167
-0.3191890717 -0.1226595715 0.5374401808 4279900960
-0.3192465603 -0.1220844239 0.5375369787 4279900960
-0.3193038106 -0.1215089634 0.5376333594 4279900960
-0.3193607926 -0.1209331974 0.5377293229 4279900960
-0.3199189901 -0.1205460653 0.5386691689 4279966753
-0.3204770982 -0.1201568171 0.5396088958 4279966753
-0.3210351169 -0.1197654530 0.5405485034 4279966753
-0.3205896616 -0.1189995110 0.5397984385 4279966753
-0.3206455708 -0.1184204072 0.5398926139 4279966753
-0.3212031126 -0.1180254146 0.5408313870 4279966753
-0.3202546537 -0.1170777828 0.5392343998 4279900960
-0.3213138282 -0.1168638766 0.5410177708 4279835167
-0.3213688135 -0.1162826642 0.5411103964 4279835166
-0.3209213018 -0.1155203655 0.5403568745 4279900959
-0.3204733729 -0.1147595942 0.5396026969 4279966752
-0.3190202415 -0.1136424094 0.5371559262 4279966752
-0.3200787306 -0.1134206727 0.5389381647 4279966752
-0.3191270530 -0.1124864221 0.5373357534 4279900959
-0.3191800714 -0.1119079962 0.5374250412 4279900959
-0.3192328513 -0.1113292798 0.5375139117 4279966752
-0.3192853630 -0.1107502803 0.5376023054 4279966752
-0.3193376064 -0.1101709902 0.5376902819 4279571994
-0.3193896115 -0.1095914170 0.5377778411 4279308822
-0.3194413483 -0.1090115681 0.5378649831 4279440408
-0.3194928169 -0.1084314287 0.5379516482 4280690473
-0.3195440471 -0.1078510135 0.5380378962 4280953645
-0.3185884058 -0.1069324613 0.5364288092 4280624682
-0.3181355596 -0.1061853096 0.5356663465 4279900959
-0.3181857765 -0.1056068093 0.5357508659 4279440408
-0.3182357252 -0.1050280333 0.5358349681 4278979857
-0.3182854056 -0.1044489890 0.5359186530 4278716685
-0.3183348477 -0.1038696766 0.5360018611 4278914064
-0.3188878000 -0.1034535244 0.5369328856 4278979857
-0.3189367652 -0.1028727517 0.5370153785 4279177236
-0.3194894195 -0.1024533138 0.5379459262 4279506202
-0.3205459714 -0.1021924540 0.5397248864 4280032546
-0.3221066594 -0.1020874158 0.5423527360 4280493611
-0.3232116401 -0.1012283042 0.5442132354 4281414713
-0.3242682517 -0.1009526029 0.5459923744 4281480506
-0.3258292973 -0.1008290350 0.5486208200 4281348922
-0.3278949559 -0.1008548364 0.5520988703 4281348922
-0.3294564188 -0.1007187739 0.5547280312 4281480508
-0.3315226436 -0.1007302403 0.5582070947 4281546301
-0.3335891962 -0.1007340625 0.5616866350 4281480508
-0.3356560469 -0.1007302478 0.5651667118 4281480508
-0.3382279873 -0.1008693427 0.5694973469 4281612092
-0.3402954936 -0.1008493081 0.5729784966 4281612092
-0.3423632979 -0.1008216292 0.5764601827 4281612092
-0.3444313705 -0.1007862911 0.5799423456 4281612092
-0.3449844122 -0.1003027335 0.5808735490 4281612092
-0.3450321555 -0.0996711254 0.5809539557 4281612092
-0.3465953171 -0.0994742811 0.5835859179 4281612092
-0.3471479714 -0.0989834592 0.5845165253 4281612092
-0.3456789851 -0.0979179069 0.5820430517 4281546299
-0.3452201784 -0.0971421152 0.5812705159 4281612092
-0.3447609544 -0.0963679180 0.5804973245 4281612092
-0.3448068798 -0.0957356915 0.5805746317 4281546299
-0.3448525071 -0.0951032192 0.5806514621 4281612092
-0.3448978662 -0.0944704935 0.5807278156 4281677885
-0.3444371223 -0.0936999246 0.5799520612 4281677885
-0.3444818258 -0.0930676311 0.5800273418 4281743678
-0.3440203071 -0.0922993645 0.5792502761 4281743678
-0.3440643549 -0.0916675106 0.5793244243 4281743678
-0.3446141779 -0.0911692902 0.5802501440 4281677887
-0.3451637924 -0.0906689689 0.5811756253 4281677887
-0.3457132578 -0.0901665539 0.5821008086 4281677887
-0.3447438776 -0.0892687812 0.5804685354 4281677887
-0.3447865248 -0.0886348039 0.5805403590 4281743680
-0.3443225324 -0.0878713652 0.5797591209 4281743680
-0.3438581228 -0.0871095657 0.5789771080 4281743680
-0.3433932960 -0.0863493904 0.5781944394 4281743680
-0.3434345722 -0.0857172832 0.5782639980 4281678140
-0.3429689705 -0.0849594548 0.5774800181 4281612347
-0.3425029516 -0.0842032582 0.5766953826 4281743678
-0.3420365155 -0.0834487155 0.5759099722 4281743678
-0.3415696919 -0.0826958120 0.5751239657 4281677885
-0.3421161175 -0.0821880773 0.5760440230 4281677885
-0.3416485488 -0.0814366043 0.5752567649 4281743678
-0.3416875601 -0.0808066800 0.5753224492 4281677885
-0.3417262733 -0.0801765323 0.5753875971 4281348922
-0.3417646885 -0.0795461759 0.5754522681 4281283129
-0.3407885432 -0.0786814392 0.5738086700 4281282359
-0.3408262432 -0.0780525282 0.5738721490 4281282359
-0.3403564095 -0.0773082003 0.5730810761 4281348154
-0.3393788934 -0.0764512643 0.5714351535 4281413947
-0.3384008706 -0.0755978674 0.5697883964 4281348154
-0.3384371102 -0.0749728233 0.5698494315 4281348154
-0.3384730816 -0.0743475780 0.5699099898 4281151545
-0.3380012512 -0.0736116096 0.5691155195 4281085752
-0.3375290036 -0.0728773177 0.5683203936 4281085752
-0.3370563686 -0.0721447095 0.5675245523 4281151545
-0.3375986814 -0.0716292113 0.5684376955 4281151543
-0.3376330435 -0.0710048676 0.5684955716 4281151543
-0.3371593952 -0.0702745020 0.5676980019 4281151027
-0.3366852999 -0.0695458204 0.5668997765 4280493097
-0.3357029855 -0.0687148795 0.5652457476 4280032545
-0.3352280557 -0.0679905340 0.5644461513 4279835166
-0.3357686996 -0.0674720332 0.5653564334 4279900957
-0.3358011246 -0.0668503344 0.5654110312 4279966750
-0.3358332515 -0.0662284568 0.5654651523 4279835418
-0.3353569806 -0.0655071512 0.5646631718 4279769625
-0.3338639736 -0.0645909309 0.5621493459 4279900698
-0.3338950276 -0.0639722869 0.5622016191 4279900698
-0.3334175348 -0.0632570535 0.5613976121 4279966491
-0.3324313462 -0.0624480434 0.5597371459 4279966491
-0.3309363425 -0.0615480877 0.5572198629 4279966491
-0.3268987834 -0.0601856187 0.5504215360 4279966491
-0.3279446065 -0.0597646534 0.5521824956 4279966750
-0.3259957433 -0.0575798862 0.5489010215 4279966750
-0.3260234594 -0.0569748618 0.5489476919 4279769371
-0.3265595436 -0.0564576238 0.5498503447 4279308820
-0.3260780275 -0.0557643510 0.5490396023 4282467656
-0.3497416377 -0.1674281657 0.5899869204 4286152324
-0.3493995368 -0.1659546494 0.5894098878 4281743680
-0.3499715328 -0.1655703783 0.5903747678 4281809473
-0.3500476778 -0.1649502963 0.5905032158 4281809473
-0.3506194651 -0.1645625830 0.5914677978 4281809473
-0.3506951928 -0.1639408171 0.5915955305 4281874496
-0.3532513678 -0.1644736677 0.5959076285 4281874496
-0.3558083475 -0.1649973094 0.6002210379 4281874496
-0.3573734462 -0.1650532633 0.6028612256 4281216566
-0.3574495316 -0.1644184291 0.6029895544 4279900700
-0.3585184813 -0.1642381549 0.6047927737 4279242770
-0.3615742624 -0.1649603248 0.6099476814 4278979855
-0.3611536324 -0.1640915126 0.6092380881 4278979855
-0.3647075295 -0.1650226712 0.6152332425 4279177236
-0.3642867804 -0.1641495079 0.6145234704 4279440408
-0.3648597002 -0.1637238264 0.6154899597 4279111443
-0.3649353981 -0.1630737931 0.6156176329 4279111443
-0.3650108278 -0.1624233574 0.6157448888 4279506202
-0.3635937870 -0.1611113250 0.6133544445 4280229925
-0.3621758819 -0.1598042101 0.6109625697 4280690990
-0.3602595031 -0.1582834125 0.6077297330 4281151541
-0.3538627625 -0.1548096985 0.5969389677 4281612092
-0.3524411023 -0.1535271704 0.5945407152 4281809471
-0.3495951891 -0.1509769708 0.5897399187 4282006850
-0.3486690521 -0.1499235034 0.5881775618 4282072129
-0.3477422297 -0.1488732100 0.5866141319 4282006336
-0.3473130465 -0.1480385065 0.5858901143 4281677371
-0.3468834162 -0.1472052187 0.5851653814 4281019441
-0.3464533389 -0.1463733613 0.5844398141 4280361511
-0.3455241919 -0.1453331858 0.5828724504 4279900960
-0.3440957069 -0.1440874040 0.5804626942 4279835167
-0.3436639607 -0.1432624906 0.5797343850 4279900960
-0.3427328467 -0.1422319710 0.5781636834 4279966753
-0.3427990675 -0.1416169405 0.5782753825 4279900960
-0.3398705721 -0.1397701055 0.5733352304 4279966753
-0.3339456320 -0.1367075890 0.5633403659 4279966753
-0.3335101008 -0.1359041929 0.5626056194 4279769374
-0.3295785785 -0.1336843818 0.5559734106 4279900960
-0.3246463537 -0.1310752928 0.5476531982 4279966753
-0.3242079616 -0.1302906275 0.5469136238 4279769374
-0.3232695162 -0.1293075830 0.5453305244 4279835166
-0.3218306601 -0.1281288415 0.5429033041 4279900959
-0.3218905330 -0.1275493652 0.5430042744 4279900959
-0.3209502697 -0.1265752316 0.5414181948 4279835166
-0.3200094104 -0.1256043911 0.5398309827 4279835166
-0.3195680380 -0.1248321831 0.5390864611 4279835166
-0.3191262484 -0.1240614653 0.5383411646 4279835167
-0.3186840117 -0.1232922375 0.5375951529 4279835167
-0.3187417090 -0.1227171496 0.5376924872 4279900960
-0.3182986975 -0.1219500080 0.5369451642 4279900960
-0.3188563883 -0.1215660423 0.5378859639 4279900960
-0.3189133704 -0.1209900305 0.5379820466 4279900960
-0.3199715614 -0.1207917631 0.5397671461 4279966753
-0.3205290139 -0.1204014495 0.5407075286 4279966753
-0.3210864067 -0.1200090125 0.5416477919 4279966753
-0.3206417263 -0.1192418337 0.5408976674 4279966753
-0.3206976950 -0.1186615676 0.5409920812 4279966753
-0.3202522397 -0.1178964972 0.5402406454 4279966753
-0.3208088577 -0.1175001264 0.5411795974 4279900960
-0.3208640814 -0.1169189513 0.5412727594 4279835167
-0.3214204609 -0.1165192574 0.5422113538 4279835167
-0.3209737241 -0.1157557145 0.5414577127 4279835167
-0.3210281730 -0.1151736453 0.5415495634 4279900959
-0.3200789690 -0.1142331883 0.5399483442 4279900959
-0.3206345141 -0.1138304919 0.5408855081 4279900959
-0.3196843863 -0.1128939986 0.5392826796 4279900959
-0.3192355931 -0.1121371761 0.5385256410 4279900959
-0.3192884326 -0.1115572900 0.5386147499 4279900959
-0.3188388944 -0.1108026281 0.5378564000 4279966752
-0.3188911378 -0.1102230847 0.5379445553 4279769373
-0.3189430833 -0.1096432582 0.5380322337 4279440406
-0.3189948201 -0.1090631410 0.5381194353 4279308820
-0.3190462589 -0.1084827557 0.5382062793 4279966750
-0.3190974593 -0.1079020798 0.5382926464 4280558887
-0.3191484213 -0.1073211282 0.5383785367 4280756266
-0.3186964095 -0.1065718010 0.5376160741 4280295715
-0.3177412450 -0.1056568548 0.5360047817 4279835166
-0.3177911639 -0.1050778255 0.5360890031 4279243029
-0.3178408444 -0.1044985205 0.5361728072 4278848271
-0.3178902566 -0.1039189473 0.5362561345 4278848271
-0.3179394007 -0.1033391058 0.5363390446 4278914064
-0.3179882765 -0.1027589887 0.5364215374 4278979857
-0.3180369139 -0.1021786109 0.5365035534 4279243029
-0.3185885847 -0.1017587185 0.5374341607 4279703580
-0.3196434975 -0.1014965698 0.5392137766 4280098853
-0.3206984699 -0.1012304723 0.5409933925 4280690990
-0.3212499619 -0.1008024365 0.5419237018 4281151541
-0.3223049343 -0.1005293727 0.5437033772 4281348920
-0.3238636255 -0.1004085243 0.5463327765 4281283129
-0.3254224956 -0.1002818868 0.5489624143 4281283129
-0.3274853528 -0.1003037691 0.5524423122 4281414715
-0.3290446103 -0.1001646295 0.5550726652 4281480508
-0.3316119909 -0.1003246233 0.5594036579 4281414715
-0.3341798186 -0.1004751399 0.5637353659 4281414715
-0.3362439871 -0.1004655361 0.5672174692 4281546301
-0.3383084536 -0.1004482806 0.5707000494 4281677887
-0.3403731883 -0.1004233658 0.5741831064 4281612092
-0.3424382210 -0.1003908068 0.5776666403 4281612092
-0.3429903388 -0.0999097973 0.5785980225 4281546299
-0.3430378139 -0.0992806852 0.5786781311 4281546299
-0.3445986509 -0.0990865305 0.5813111067 4281546299
-0.3451503813 -0.0985982642 0.5822418928 4281546299
-0.3451972902 -0.0979646668 0.5823209882 4281480506
-0.3447391689 -0.0971885175 0.5815482140 4281480506
-0.3442806304 -0.0964139551 0.5807746649 4281546299
-0.3443265259 -0.0957814455 0.5808520913 4281546299
-0.3438672125 -0.0950091705 0.5800772309 4281612092
-0.3439124525 -0.0943770781 0.5801535845 4281612092
-0.3439574242 -0.0937447399 0.5802294612 4281677885
-0.3434969783 -0.0929754302 0.5794526935 4281677885
-0.3435412943 -0.0923435315 0.5795274377 4281743678
-0.3430800438 -0.0915765166 0.5787493587 4281743678
-0.3436290622 -0.0910790041 0.5796754956 4281677887
-0.3441779017 -0.0905793831 0.5806013942 4281743680
-0.3442211151 -0.0899455845 0.5806742907 4281677887
-0.3442640603 -0.0893115550 0.5807467103 4281677887
-0.3443066776 -0.0886772797 0.5808185935 4281743680
-0.3438433707 -0.0879134908 0.5800370574 4281677887
-0.3433796465 -0.0871513337 0.5792547464 4281677887
-0.3429154754 -0.0863908082 0.5784717798 4281677887
-0.3424509168 -0.0856319144 0.5776880980 4281546811
-0.3419859409 -0.0848746672 0.5769037008 4281546811
-0.3415205777 -0.0841190517 0.5761186481 4281678140
-0.3415607810 -0.0834887773 0.5761864781 4281678140
-0.3410946131 -0.0827355236 0.5754001141 4281677885
-0.3416403234 -0.0822275504 0.5763206482 4281677885
-0.3416796625 -0.0815966129 0.5763870478 4281677885
-0.3401999474 -0.0806056112 0.5738908648 4281612092
-0.3407448232 -0.0800960585 0.5748100281 4281348922
-0.3412895203 -0.0795844197 0.5757288933 4281217336
-0.3403147757 -0.0787192732 0.5740845799 4281216566
-0.3398460150 -0.0779738650 0.5732938051 4281216566
-0.3393768072 -0.0772301257 0.5725023150 4281348154
-0.3389072120 -0.0764880478 0.5717101097 4281282361
-0.3379305899 -0.0756342486 0.5700626373 4281282361
-0.3384735286 -0.0751213729 0.5709785223 4281282361
-0.3385095298 -0.0744948983 0.5710392594 4281085752
-0.3380384147 -0.0737576410 0.5702445507 4281085752
-0.3375669122 -0.0730220675 0.5694491863 4281151545
-0.3370950222 -0.0722881705 0.5686531067 4281151545
-0.3371297121 -0.0716637224 0.5687115788 4281085750
-0.3371640742 -0.0710390881 0.5687695742 4281217336
-0.3366910815 -0.0703083724 0.5679717064 4281216820
-0.3362177014 -0.0695793554 0.5671731234 4280624683
-0.3352367580 -0.0687480196 0.5655183792 4280098338
-0.3347625434 -0.0680233240 0.5647183657 4279835166
-0.3353024721 -0.0675045848 0.5656291842 4279835164
-0.3353348672 -0.0668825954 0.5656838417 4279966750
-0.3353669941 -0.0662604198 0.5657380223 4279835418
-0.3348914087 -0.0655387715 0.5649357438 4279835418
-0.3334005177 -0.0646221116 0.5624207258 4279900696
-0.3334315419 -0.0640031844 0.5624731183 4279834903
-0.3329547346 -0.0632876083 0.5616687536 4279966491
-0.3314623535 -0.0623826757 0.5591512322 4279966491
-0.3294617534 -0.0613886490 0.5557763577 4279966491
-0.3279681802 -0.0604956448 0.5532568693 4279966491
-0.3249508739 -0.0593300276 0.5481668711 4279900957
-0.3259949386 -0.0589096472 0.5499281287 4279900957
-0.3244997859 -0.0580312572 0.5474059582 4279966750
-0.3250355721 -0.0575178601 0.5483097434 4279966750
-0.3255711496 -0.0570024177 0.5492132306 4279571992
-0.3255985677 -0.0563969500 0.5492594838 4279440406
-0.3256256878 -0.0557913333 0.5493052006 4281283382
-0.3493236601 -0.1668860167 0.5903880596 4281744193
-0.3494002521 -0.1662665009 0.5905174613 4281809473
-0.3494766057 -0.1656465828 0.5906465054 4281941059
-0.3500478268 -0.1652600020 0.5916119218 4282006082
-0.3501237631 -0.1646384001 0.5917402506 4282006082
-0.3501994610 -0.1640163809 0.5918682218 4281940289
-0.3522566557 -0.1643183976 0.5953450203 4282006082
-0.3548099995 -0.1648432016 0.5996603966 4282137668
-0.3548858762 -0.1642120481 0.5997886658 4281742910
-0.3579360247 -0.1649512798 0.6049436927 4280229922
-0.3590037525 -0.1647691876 0.6067482233 4279177234
-0.3621318042 -0.1648448110 0.6120349169 4278979855
-0.3632001877 -0.1646491289 0.6138405800 4279111443
-0.3637724519 -0.1642254591 0.6148077846 4279374615
-0.3638482690 -0.1635764390 0.6149359345 4279243029
-0.3644203246 -0.1631493121 0.6159027219 4279177236
-0.3649922907 -0.1627199948 0.6168693900 4279375130
-0.3640741110 -0.1616269946 0.6153175831 4279901474
-0.3626584709 -0.1603175253 0.6129250526 4280559404
-0.3552792370 -0.1563882977 0.6004534960 4281151541
-0.3538606167 -0.1550993621 0.5980558991 4281677885
-0.3514469564 -0.1533814818 0.5939765573 4281809471
-0.3505235910 -0.1523202956 0.5924159884 4281677885
-0.3481076956 -0.1506167799 0.5883328915 4281612092
-0.3491722941 -0.1504217237 0.5901321769 4281216820
-0.3472520709 -0.1489424258 0.5868868232 4280558890
-0.3463259637 -0.1478948742 0.5853216648 4279966753
-0.3458968997 -0.1470621228 0.5845965147 4279900960
-0.3454673886 -0.1462307870 0.5838705897 4280032546
-0.3445395231 -0.1451910436 0.5823023915 4280098339
-0.3431130052 -0.1439456046 0.5798915029 4279966753
-0.3416856527 -0.1427051723 0.5774791241 4279769374
-0.3407556415 -0.1416768879 0.5759073496 4279900960
-0.3393267095 -0.1404455751 0.5734922886 4279900960
-0.3364018202 -0.1386032850 0.5685489774 4279900959
-0.3299862444 -0.1353403032 0.5577060580 4279900959
-0.3295507133 -0.1345428377 0.5569700003 4279835166
-0.3256241083 -0.1323283017 0.5503336787 4280032545
-0.3231920004 -0.1307330430 0.5462232232 4280032545
-0.3222552538 -0.1297489852 0.5446400046 4279769373
-0.3208189309 -0.1285682470 0.5422124863 4279835166
-0.3198808432 -0.1275916398 0.5406270623 4279835166
-0.3204395175 -0.1272127479 0.5415712595 4279835166
-0.3180028200 -0.1256482452 0.5374529958 4279835166
-0.3180615008 -0.1250741631 0.5375521779 4279900959
-0.3176205158 -0.1243043244 0.5368068814 4279900959
-0.3176786005 -0.1237305179 0.5369050503 4279900959
-0.3177364469 -0.1231563985 0.5370028615 4279900959
-0.3182937205 -0.1227747053 0.5379446745 4279966753
-0.3188509345 -0.1223908961 0.5388864279 4279966753
-0.3184083402 -0.1216230989 0.5381383896 4279966753
-0.3194651902 -0.1214268878 0.5399245620 4279900960
-0.3205221295 -0.1212267429 0.5417108536 4279900960
-0.3190785348 -0.1200815886 0.5392710567 4279900960
-0.3206354380 -0.1200654209 0.5419023633 4279900960
-0.3206917346 -0.1194842979 0.5419974923 4279900960
-0.3212481439 -0.1190883666 0.5429379344 4279900960
-0.3208035529 -0.1183211431 0.5421864986 4279900960
-0.3208590746 -0.1177391112 0.5422803164 4279900960
-0.3214149773 -0.1173395440 0.5432198644 4279835167
-0.3209693432 -0.1165741384 0.5424667001 4279835167
-0.3210241199 -0.1159912050 0.5425592661 4279835167
-0.3200768232 -0.1150478870 0.5409582257 4279900960
-0.3201308846 -0.1144661754 0.5410496593 4279900960
-0.3201847076 -0.1138841733 0.5411406159 4279966752
-0.3197371066 -0.1131245717 0.5403841138 4279835166
-0.3192890882 -0.1123664975 0.5396269560 4279835166
-0.3198433220 -0.1119609326 0.5405635834 4279900959
-0.3188931942 -0.1110295281 0.5389578342 4279900959
-0.3189454973 -0.1104488149 0.5390462279 4279835166
-0.3189975321 -0.1098678187 0.5391341448 4279703580
-0.3185476363 -0.1091146991 0.5383738279 4279440408
-0.3185990751 -0.1085340530 0.5384607315 4279308820
-0.3186502457 -0.1079531163 0.5385472178 4280032543
-0.3187011778 -0.1073719114 0.5386332870 4280624680
-0.3182498515 -0.1066222489 0.5378705263 4280690473
-0.3177981377 -0.1058741435 0.5371070504 4280229922
-0.3173459768 -0.1051275954 0.5363429189 4279506199
-0.3173956275 -0.1045480296 0.5364267826 4278979857
-0.3174450099 -0.1039681956 0.5365102887 4278848271
-0.3174941540 -0.1033880934 0.5365933180 4278782478
-0.3175430000 -0.1028077155 0.5366758704 4278848271
-0.3175916076 -0.1022270769 0.5367580652 4279111443
-0.3176399469 -0.1016461700 0.5368397236 4279440408
-0.3181907237 -0.1012249142 0.5377705693 4279835936
-0.3192441165 -0.1009605452 0.5395509005 4280362280
-0.3202975392 -0.1006922349 0.5413312912 4280822831
-0.3203451931 -0.1001056731 0.5414118767 4281086003
-0.3219015300 -0.0999875441 0.5440421700 4281217336
-0.3234580457 -0.0998636261 0.5466728210 4281348922
-0.3250147104 -0.0997339115 0.5493037105 4281480508
-0.3270747364 -0.0997518748 0.5527853966 4281414715
-0.3291350901 -0.0997621939 0.5562675595 4281414715
-0.3316991031 -0.0999164805 0.5606009364 4281414715
-0.3342635334 -0.1000612751 0.5649350882 4281480508
-0.3363249302 -0.1000467986 0.5684190392 4281546301
-0.3388901651 -0.1001735106 0.5727545023 4281480508
-0.3404485881 -0.0999948680 0.5753883719 4281480508
-0.3409997821 -0.0995164290 0.5763199329 4281480506
-0.3415507972 -0.0990358666 0.5772511959 4281480506
-0.3426055312 -0.0986983478 0.5790337324 4281480506
-0.3436602354 -0.0983568579 0.5808163285 4281480506
-0.3437069654 -0.0977248251 0.5808953047 4281546299
-0.3442574739 -0.0972348973 0.5818257332 4281480506
-0.3437996209 -0.0964599848 0.5810518861 4281546299
-0.3438454866 -0.0958271772 0.5811294317 4281546299
-0.3433868587 -0.0950545445 0.5803542733 4281546299
-0.3434320986 -0.0944221690 0.5804307461 4281612092
-0.3434770405 -0.0937895402 0.5805067420 4281677885
-0.3435217142 -0.0931566656 0.5805822015 4281677885
-0.3430615664 -0.0923876837 0.5798045397 4281743678
-0.3426010013 -0.0916203111 0.5790261626 4281743678
-0.3426446617 -0.0909885690 0.5790998936 4281743680
-0.3431927264 -0.0904896483 0.5800262094 4281743680
-0.3432358503 -0.0898564905 0.5800991058 4281743680
-0.3427738845 -0.0890918896 0.5793182850 4281677887
-0.3433212638 -0.0885894671 0.5802434087 4281677887
-0.3433635235 -0.0879556015 0.5803148150 4281677887
-0.3429004550 -0.0871930867 0.5795322657 4281677887
-0.3424369991 -0.0864322037 0.5787489414 4281612094
-0.3419731259 -0.0856729597 0.5779649615 4281546811
-0.3415088356 -0.0849153548 0.5771802664 4281612604
-0.3410441577 -0.0841593891 0.5763949156 4281612604
-0.3405790329 -0.0834050700 0.5756088495 4281612604
-0.3406188786 -0.0827752128 0.5756761432 4281678140
-0.3411638439 -0.0822670087 0.5765972137 4281612347
-0.3412031829 -0.0816357806 0.5766636729 4281546299
-0.3402311206 -0.0807643160 0.5750207901 4281546299
-0.3402697146 -0.0801345184 0.5750860572 4281348920
-0.3403080404 -0.0795045048 0.5751508474 4281151541
-0.3398403525 -0.0787570849 0.5743603706 4281085750
-0.3388665020 -0.0778950676 0.5727144480 4281085750
-0.3383979201 -0.0771519169 0.5719225407 4281282359
-0.3384348452 -0.0765248165 0.5719849467 4281282359
-0.3374595940 -0.0756706148 0.5703366995 4281282361
-0.3374958336 -0.0750449896 0.5703979135 4281216568
-0.3380378187 -0.0745307282 0.5713139176 4281085498
-0.3370613158 -0.0736824945 0.5696635246 4281085498
-0.3370966017 -0.0730572045 0.5697231889 4281085752
-0.3371315897 -0.0724317208 0.5697823763 4281151545
-0.3371663094 -0.0718060434 0.5698410273 4281085750
-0.3366944194 -0.0710732937 0.5690434575 4281151543
-0.3367284834 -0.0704481751 0.5691010356 4281085748
-0.3362558484 -0.0697178692 0.5683022141 4280690990
-0.3352763355 -0.0688851997 0.5666468143 4280229924
-0.3348028660 -0.0681592226 0.5658465624 4279900959
-0.3348355591 -0.0675371215 0.5659018159 4279835164
-0.3348679543 -0.0669148341 0.5659565926 4279966750
-0.3349000514 -0.0662923753 0.5660108328 4279901211
-0.3344251513 -0.0655703843 0.5652081966 4279835418
-0.3334431052 -0.0647516921 0.5635485053 4279901211
-0.3334741890 -0.0641315281 0.5636010170 4279835418
-0.3324912786 -0.0633181483 0.5619398355 4279900698
-0.3320147991 -0.0626039430 0.5611345172 4279966491
-0.3290032148 -0.0614182837 0.5560446978 4279966491
-0.3244698644 -0.0599627011 0.5483828783 4279966491
-0.3255127072 -0.0595441721 0.5501453876 4279900957
-0.3245271742 -0.0587544926 0.5484797359 4279966750
-0.3235411644 -0.0579684302 0.5468133092 4279966750
-0.3240761757 -0.0574557334 0.5477175117 4279966750
-0.3246109784 -0.0569409952 0.5486214161 4279571992
-0.3251456022 -0.0564242080 0.5495249629 4279506199
-0.3256799877 -0.0559053831 0.5504281521 4280428073
-0.3488281369 -0.1669626981 0.5906592607 4282928467
-0.3493988812 -0.1665785462 0.5916257501 4281546301
-0.3494752944 -0.1659574956 0.5917550921 4281875266
-0.3495514691 -0.1653360277 0.5918840766 4282006082
-0.3496273756 -0.1647141725 0.5920126438 4282006082
-0.3497030437 -0.1640919000 0.5921407342 4281940289
-0.3517573774 -0.1643940955 0.5956192613 4281940289
-0.3557916880 -0.1656101644 0.6024504304 4282137668
-0.3533931077 -0.1638288498 0.5983890295 4282006082
-0.3589140773 -0.1657130569 0.6077374816 4280493094
-0.3575048745 -0.1643898338 0.6053513288 4279177234
-0.3600569069 -0.1648859233 0.6096726060 4278914064
-0.3606282175 -0.1644690931 0.6106399894 4278914064
-0.3621904552 -0.1645001620 0.6132852435 4279111443
-0.3627618551 -0.1640772074 0.6142528057 4279308822
-0.3633332253 -0.1636520773 0.6152202487 4279308822
-0.3634087443 -0.1630024016 0.6153481007 4279177236
-0.3644757569 -0.1627952904 0.6171548367 4279178006
-0.3640549481 -0.1619224250 0.6164423227 4279638557
-0.3626414835 -0.1606114954 0.6140489578 4280362025
-0.3602347374 -0.1588678509 0.6099737287 4281217334
-0.3543526828 -0.1556071341 0.6000138521 4281677885
-0.3514463007 -0.1536696553 0.5950925350 4281612092
-0.3495314419 -0.1521748006 0.5918501616 4281085748
-0.3481121063 -0.1509019434 0.5894468427 4280690990
-0.3471885920 -0.1498484462 0.5878831148 4280098339
-0.3462644219 -0.1487981230 0.5863182545 4279900960
-0.3453395963 -0.1477510035 0.5847522616 4279835167
-0.3444141150 -0.1467070878 0.5831851959 4279835167
-0.3439850807 -0.1458771676 0.5824586749 4279769374
-0.3425612152 -0.1446288675 0.5800476670 4279769374
-0.3411364853 -0.1433855593 0.5776352286 4279900960
-0.3392135501 -0.1419391334 0.5743792057 4279966753
-0.3377870321 -0.1407067329 0.5719637275 4280032545
-0.3353645504 -0.1390667111 0.5678618550 4280032545
-0.3324431777 -0.1372298598 0.5629152060 4280032545
-0.3265338242 -0.1341761947 0.5529090166 4280032545
-0.3265962303 -0.1335874051 0.5530147552 4279900959
-0.3236706853 -0.1317818314 0.5480609536 4280032545
-0.3222378790 -0.1305922270 0.5456348658 4280098338
-0.3213024139 -0.1296086311 0.5440508723 4279900959
-0.3203663230 -0.1286283135 0.5424658060 4279900959
-0.3194296062 -0.1276512593 0.5408797264 4279835166
-0.3194891214 -0.1270739734 0.5409805179 4279835166
-0.3185513616 -0.1261016876 0.5393925905 4279900959
-0.3171143830 -0.1249362454 0.5369594097 4279900959
-0.3171726763 -0.1243625060 0.5370581746 4279900959
-0.3172307611 -0.1237884536 0.5371564627 4279900959
-0.3172885776 -0.1232140884 0.5372543931 4279900959
-0.3179025352 -0.1222563386 0.5382939577 4279966752
-0.3174605370 -0.1214891076 0.5375455618 4279966752
-0.3200705647 -0.1212836280 0.5419650674 4279900960
-0.3191285133 -0.1203262582 0.5403698683 4279900960
-0.3191848397 -0.1197470054 0.5404652357 4279835167
-0.3202401102 -0.1195404232 0.5422521234 4279835167
-0.3197964430 -0.1187731624 0.5415008664 4279900960
-0.3203518689 -0.1183767617 0.5424413681 4279835167
-0.3204073608 -0.1177944764 0.5425353050 4279835167
-0.3204626143 -0.1172118858 0.5426288843 4279900960
-0.3205175996 -0.1166289896 0.5427219868 4279900960
-0.3200722337 -0.1158647612 0.5419678092 4279900960
-0.3206268251 -0.1154623181 0.5429068804 4279966753
-0.3191801906 -0.1143408790 0.5404573679 4279966753
-0.3192338943 -0.1137595326 0.5405483246 4280032545
-0.3187868893 -0.1130004972 0.5397914648 4279835166
-0.3188400269 -0.1124194786 0.5398814082 4279900959
-0.3188928664 -0.1118381694 0.5399708748 4279900959
-0.3184447885 -0.1110819131 0.5392121673 4279835166
-0.3179962635 -0.1103271991 0.5384526849 4279835166
-0.3180481791 -0.1097468585 0.5385406017 4279835166
-0.3175989091 -0.1089943200 0.5377798676 4279637787
-0.3181512654 -0.1085853279 0.5387151241 4279111441
-0.3182024062 -0.1080041379 0.5388017297 4279637785
-0.3177521229 -0.1072534993 0.5380392671 4280361508
-0.3173014224 -0.1065044105 0.5372760892 4280822059
-0.3173516393 -0.1059242189 0.5373611450 4280558887
-0.3174015880 -0.1053437591 0.5374457240 4279769371
-0.3174512982 -0.1047630161 0.5375298858 4279177234
-0.3175007403 -0.1041820049 0.5376136303 4278979855
-0.3170482516 -0.1034370586 0.5368474722 4278782478
-0.3165953755 -0.1026936769 0.5360805988 4278782478
-0.3166438639 -0.1021136940 0.5361627340 4278914064
-0.3171940148 -0.1016943604 0.5370942354 4279243029
-0.3177440166 -0.1012729183 0.5380255580 4279572764
-0.3182939589 -0.1008493677 0.5389567614 4280099108
-0.3188437521 -0.1004237160 0.5398877263 4280559659
-0.3193934560 -0.0999959633 0.5408185124 4280954417
-0.3209475577 -0.0998787135 0.5434499979 4281217336
-0.3225490749 -0.0991634503 0.5461617708 4281414715
-0.3246059716 -0.0991851240 0.5496447086 4281348922
-0.3271657526 -0.0993517712 0.5539790392 4281480508
-0.3297259808 -0.0995089188 0.5583142042 4281414715
-0.3317839503 -0.0995057970 0.5617989302 4281348922
-0.3343449831 -0.0996448696 0.5661354065 4281414715
-0.3369064629 -0.0997744277 0.5704727173 4281414715
-0.3384625316 -0.0995984897 0.5731075406 4281414715
-0.3395157456 -0.0992696732 0.5748909116 4281414715
-0.3400659263 -0.0987907574 0.5758225322 4281480508
-0.3411190510 -0.0984549373 0.5776057839 4281480506
-0.3416689932 -0.0979708657 0.5785369277 4281546299
-0.3427220583 -0.0976280421 0.5803200603 4281546299
-0.3432717621 -0.0971388221 0.5812508464 4281546299
-0.3433179259 -0.0965059847 0.5813289881 4281546299
-0.3433637917 -0.0958728939 0.5814066529 4281546299
-0.3429058194 -0.0950999036 0.5806311965 4281546299
-0.3424474299 -0.0943285152 0.5798550248 4281612092
-0.3424923122 -0.0936965272 0.5799310207 4281677885
-0.3435443342 -0.0933380127 0.5817123652 4281677885
-0.3430849612 -0.0925677419 0.5809345245 4281677885
-0.3426251411 -0.0917990878 0.5801559687 4281743678
-0.3426688313 -0.0911661163 0.5802299380 4281743680
-0.3427122533 -0.0905329064 0.5803034306 4281677887
-0.3422513306 -0.0897672549 0.5795229673 4281743680
-0.3417899609 -0.0890032202 0.5787417889 4281677887
-0.3428407311 -0.0886318460 0.5805209875 4281612094
-0.3428829610 -0.0879976824 0.5805925131 4281612094
-0.3424206078 -0.0872348174 0.5798096061 4281612094
-0.3419578373 -0.0864735842 0.5790260434 4281612094
-0.3414946496 -0.0857139826 0.5782417655 4281481018
-0.3410310447 -0.0849560276 0.5774567723 4281612604
-0.3410715759 -0.0843244493 0.5775253773 4281546811
-0.3406072259 -0.0835688487 0.5767390728 4281546811
-0.3401424587 -0.0828148872 0.5759521127 4281612604
-0.3406867087 -0.0823064521 0.5768736601 4281546811
-0.3407259881 -0.0816749260 0.5769401789 4281480506
-0.3402601779 -0.0809231177 0.5761514306 4281480506
-0.3397939205 -0.0801729634 0.5753619671 4281348920
-0.3393272758 -0.0794244707 0.5745717883 4281151541
-0.3388602138 -0.0786776319 0.5737809539 4281085750
-0.3388978243 -0.0780487806 0.5738446116 4281151543
-0.3379248977 -0.0771889612 0.5721971989 4281085750
-0.3374566436 -0.0764471292 0.5714042783 4281151543
-0.3369879723 -0.0757069662 0.5706107020 4281282359
-0.3375294507 -0.0751936138 0.5715276003 4281216566
-0.3375654221 -0.0745665506 0.5715885162 4281085752
-0.3370957077 -0.0738286003 0.5707931519 4281085752
-0.3361201584 -0.0729825795 0.5691412687 4281085752
-0.3366605937 -0.0724665523 0.5700563788 4281151545
-0.3372008204 -0.0719484538 0.5709711313 4281085750
-0.3367296755 -0.0712144151 0.5701733232 4281151543
-0.3362581134 -0.0704820752 0.5693748593 4281151541
-0.3362918794 -0.0698564723 0.5694320202 4280756783
-0.3353138268 -0.0690224692 0.5677759647 4280427303
-0.3348411024 -0.0682952031 0.5669754744 4279966752
-0.3348738253 -0.0676718652 0.5670309067 4279835164
-0.3349062502 -0.0670483485 0.5670858026 4279900957
-0.3344324529 -0.0663243085 0.5662835240 4279835418
-0.3339582384 -0.0656019747 0.5654805899 4279835418
-0.3334836364 -0.0648813546 0.5646769404 4279901211
-0.3325025737 -0.0640649274 0.5630157590 4279835418
-0.3320271671 -0.0633486733 0.5622107387 4279900698
-0.3315513730 -0.0626341328 0.5614050627 4279966491
-0.3285440207 -0.0614479035 0.5563128591 4279966491
-0.3260421157 -0.0603665747 0.5520764589 4279966491
-0.3240458071 -0.0593873151 0.5486961603 4279900957
-0.3230615556 -0.0585991479 0.5470296144 4279966750
-0.3235960901 -0.0580873117 0.5479347110 4279966750
-0.3241304457 -0.0575734265 0.5488394499 4279966750
-0.3246645629 -0.0570574962 0.5497438908 4279637785
-0.3251985013 -0.0565395243 0.5506479740 4279440406
-0.3257322311 -0.0560195073 0.5515517592 4279770143
-0.3498120904 -0.1677491367 0.5934414268 4284573292
-0.3489019275 -0.1666550338 0.5918974280 4281480508
-0.3494719267 -0.1662685722 0.5928643346 4281875266
-0.3495481610 -0.1656459868 0.5929936767 4281941059
-0.3496241271 -0.1650229841 0.5931225419 4281875266
-0.3511816263 -0.1650961936 0.5957648158 4281809473
-0.3502693474 -0.1640070975 0.5942171812 4281809473
-0.3548679650 -0.1648225337 0.6020184755 4282006082
-0.3564267755 -0.1648747176 0.6046629548 4280887854
-0.3579859436 -0.1649212092 0.6073080301 4279243029
-0.3600400686 -0.1651888788 0.6107927561 4278914064
-0.3611054122 -0.1649970263 0.6126000881 4278979857
-0.3606866002 -0.1641258150 0.6118896008 4279111443
-0.3632365763 -0.1646014899 0.6162155271 4279243029
-0.3628174365 -0.1637276858 0.6155044436 4279243799
-0.3628929257 -0.1630777270 0.6156325340 4279046420
-0.3634633124 -0.1626489609 0.6166001558 4279046420
-0.3630430698 -0.1617766172 0.6158872247 4279506971
-0.3616315722 -0.1604660004 0.6134926677 4280230439
-0.3592282236 -0.1587224603 0.6094155312 4280888369
-0.3498853445 -0.1539348960 0.5935657620 4281283127
-0.3469823599 -0.1520036757 0.5886409283 4280954162
-0.3480442166 -0.1518128216 0.5904422998 4280362025
-0.3471226394 -0.1507565528 0.5888788700 4280033060
-0.3457044065 -0.1494890004 0.5864729285 4279966753
-0.3447814286 -0.1484400034 0.5849071145 4279966753
-0.3443539739 -0.1476068944 0.5841819644 4280098339
-0.3434297442 -0.1465634108 0.5826140642 4280032546
-0.3425048888 -0.1455231458 0.5810450912 4279769374
-0.3405864239 -0.1440660506 0.5777904987 4279703581
-0.3376737535 -0.1421975344 0.5728492737 4279835167
-0.3352563381 -0.1405476183 0.5687482357 4279900960
-0.3338312507 -0.1393209547 0.5663306117 4279966752
-0.3314115703 -0.1376864612 0.5622257590 4279900959
-0.3284937441 -0.1358550489 0.5572757721 4279900959
-0.3240832984 -0.1334201694 0.5497936606 4279900959
-0.3236481547 -0.1326309890 0.5490554571 4279769373
-0.3222180903 -0.1314375997 0.5466293693 4279900959
-0.3212845325 -0.1304512024 0.5450456142 4280032545
-0.3213452101 -0.1298701465 0.5451486111 4280032545
-0.3204106092 -0.1288884878 0.5435630679 4279900959
-0.3199729919 -0.1281093359 0.5428206921 4279900959
-0.3195349574 -0.1273316741 0.5420775414 4279900959
-0.3181008399 -0.1261606067 0.5396446586 4279900959
-0.3166659474 -0.1249946430 0.5372104049 4279966752
-0.3167242408 -0.1244206578 0.5373092890 4279966752
-0.3162841797 -0.1236516312 0.5365627408 4279966752
-0.3163418770 -0.1230779216 0.5366606116 4279900959
-0.3168976009 -0.1226968169 0.5376033783 4279900960
-0.3179515898 -0.1225056052 0.5393914580 4279966753
-0.3180088401 -0.1219282448 0.5394885540 4279900960
-0.3170687258 -0.1209701598 0.5378937125 4279900960
-0.3176239133 -0.1205832884 0.5388355255 4279900960
-0.3181789815 -0.1201942936 0.5397772193 4279900960
-0.3197316229 -0.1201781556 0.5424112082 4279835167
-0.3192889690 -0.1194099486 0.5416602492 4279835167
-0.3193448484 -0.1188289225 0.5417550802 4279900960
-0.3194004893 -0.1182475910 0.5418494344 4279900960
-0.3194558918 -0.1176659614 0.5419434309 4279835167
-0.3200102448 -0.1172669679 0.5428838730 4279835167
-0.3200652003 -0.1166838184 0.5429770947 4279900960
-0.3196205199 -0.1159192547 0.5422226787 4279966753
-0.3191753924 -0.1151562035 0.5414675474 4279966753
-0.3197290003 -0.1147532910 0.5424067378 4280032546
-0.3192831874 -0.1139914691 0.5416504145 4280032546
-0.3188369572 -0.1132311895 0.5408934355 4279835167
-0.3183903098 -0.1124724373 0.5401356816 4279835166
-0.3184431195 -0.1118908674 0.5402253270 4279900959
-0.3179957271 -0.1111342758 0.5394663215 4279835166
-0.3180479705 -0.1105530486 0.5395549536 4279835166
-0.3175997734 -0.1097986251 0.5387946367 4279835166
-0.3171511889 -0.1090457439 0.5380336046 4279703580
-0.3167021871 -0.1082944125 0.5372718573 4279506199
-0.3172535300 -0.1078849658 0.5382072330 4279374613
-0.3178048134 -0.1074734032 0.5391424298 4279835164
-0.3173548579 -0.1067230627 0.5383791327 4280624680
-0.3169044852 -0.1059742793 0.5376151204 4280822059
-0.3169544339 -0.1053935587 0.5376998186 4280164129
-0.3170041144 -0.1048125550 0.5377840996 4279440408
-0.3170535266 -0.1042312905 0.5378679037 4279177236
-0.3171026707 -0.1036497429 0.5379512906 4278848271
-0.3171515763 -0.1030679345 0.5380342603 4278716685
-0.3166991174 -0.1023239493 0.5372666717 4278782478
-0.3162462413 -0.1015815362 0.5364983678 4278979857
-0.3162941933 -0.1010007635 0.5365797281 4279243799
-0.3168432415 -0.1005788743 0.5375111699 4279704350
-0.3168907464 -0.0999966562 0.5375917554 4280296232
-0.3174394965 -0.0995714739 0.5385227203 4280625197
-0.3184896708 -0.0993005708 0.5403043032 4280954164
-0.3190382719 -0.0988702625 0.5412349105 4281217336
-0.3205901384 -0.0987469181 0.5438676476 4281348922
-0.3226439655 -0.0987713784 0.5473518968 4281414715
-0.3246981204 -0.0987882018 0.5508366823 4281480508
-0.3272545040 -0.0989491343 0.5551734567 4281480508
-0.3298113346 -0.0991005674 0.5595110059 4281348922
-0.3323686123 -0.0992424861 0.5638493299 4281348922
-0.3349263072 -0.0993748978 0.5681883693 4281414715
-0.3364800215 -0.0992016718 0.5708241463 4281414715
-0.3375315964 -0.0988754928 0.5726081133 4281480508
-0.3385831714 -0.0985453427 0.5743920803 4281480508
-0.3396347463 -0.0982112288 0.5761759877 4281480508
-0.3401838243 -0.0977287963 0.5771074891 4281546301
-0.3412353098 -0.0973876789 0.5788912773 4281612092
-0.3427893817 -0.0971850976 0.5815277100 4281546299
-0.3428355157 -0.0965519696 0.5816059709 4281480506
-0.3423786163 -0.0957779437 0.5808308721 4281546299
-0.3424240947 -0.0951452404 0.5809080005 4281546299
-0.3424693048 -0.0945122838 0.5809847116 4281546299
-0.3420112431 -0.0937412158 0.5802076459 4281612092
-0.3425588310 -0.0932456180 0.5811365843 4281677885
-0.3426031470 -0.0926119164 0.5812117457 4281677885
-0.3421440423 -0.0918429047 0.5804328918 4281677885
-0.3421877027 -0.0912096500 0.5805069804 4281677887
-0.3422310948 -0.0905761421 0.5805805922 4281612094
-0.3417708576 -0.0898101330 0.5797998309 4281677887
-0.3413101733 -0.0890457556 0.5790182948 4281677887
-0.3418560326 -0.0885438025 0.5799443126 4281612094
-0.3418982029 -0.0879102871 0.5800158381 4281612094
-0.3419400752 -0.0872765332 0.5800868869 4281612094
-0.3409743309 -0.0863873363 0.5784485340 4281546301
-0.3405117691 -0.0856283233 0.5776638389 4281481018
-0.3400488198 -0.0848709494 0.5768784285 4281546811
-0.3400892615 -0.0842400119 0.5769470930 4281546811
-0.3396255374 -0.0834849924 0.5761603713 4281546811
-0.3396653235 -0.0828545466 0.5762279034 4281546811
-0.3397048414 -0.0822238773 0.5762949586 4281481018
-0.3397440612 -0.0815929919 0.5763614774 4281480506
-0.3392788768 -0.0808417723 0.5755723119 4281480506
-0.3388132751 -0.0800922066 0.5747823715 4281348920
-0.3388515115 -0.0794625431 0.5748472810 4281283127
-0.3383851349 -0.0787153617 0.5740560889 4281151541
-0.3384227157 -0.0780862197 0.5741198659 4281151541
-0.3384599984 -0.0774568617 0.5741831064 4281151541
-0.3374880850 -0.0765983090 0.5725342631 4281217334
-0.3370201588 -0.0758568645 0.5717404485 4281151543
-0.3370563984 -0.0752297044 0.5718019605 4281085750
-0.3375969827 -0.0747140348 0.5727190375 4281085752
-0.3376327157 -0.0740855411 0.5727795959 4281085752
-0.3366586566 -0.0732372403 0.5711271763 4281085750
-0.3366936743 -0.0726102293 0.5711866021 4281151543
-0.3367283940 -0.0719830245 0.5712454915 4281085748
-0.3367628157 -0.0713556260 0.5713039041 4281085748
-0.3362920284 -0.0706219971 0.5705052018 4281085748
-0.3363258243 -0.0699951574 0.5705625415 4280888369
-0.3353492320 -0.0691598207 0.5689058304 4280493866
-0.3348772526 -0.0684312731 0.5681051016 4279967522
-0.3349100053 -0.0678066984 0.5681606531 4279835164
-0.3344372809 -0.0670806170 0.5673587322 4279900957
-0.3339641392 -0.0663562343 0.5665560961 4279835418
-0.3334906399 -0.0656335577 0.5657528043 4279835418
-0.3330167532 -0.0649125949 0.5649488568 4279835418
-0.3320370913 -0.0640957803 0.5632869005 4279835418
-0.3305515051 -0.0631859526 0.5607666373 4279966491
-0.3300763071 -0.0624729656 0.5599604845 4279966491
-0.3270730972 -0.0612880588 0.5548657179 4279966491
-0.3250802159 -0.0603018850 0.5514848232 4280032284
-0.3246034980 -0.0596016161 0.5506761670 4279966750
-0.3231151104 -0.0587192923 0.5481511354 4279966750
-0.3231432736 -0.0581153184 0.5481988788 4279966750
-0.3236768842 -0.0576011948 0.5491041541 4279966750
-0.3242102861 -0.0570850186 0.5500090718 4279637785
-0.3242376745 -0.0564786904 0.5500555038 4279571992
-0.3247706592 -0.0559593737 0.5509597063 4279375385
-0.3253034055 -0.0554380082 0.5518634915 4284901997
-0.3488203883 -0.1675893515 0.5928761363 4285823359
-0.3488970995 -0.1669673175 0.5930065513 4281809986
-0.3494664431 -0.1665798426 0.5939742327 4282138951
-0.3495427370 -0.1659561098 0.5941038728 4282007365
-0.3507567644 -0.1645453572 0.5961673260 4281875266
-0.3523125648 -0.1646098942 0.5988116860 4282072645
-0.3543623090 -0.1648983806 0.6022955179 4282006852
