VERSION 0.7
FIELDS x y z rgba
SIZE 4 4 4 4
TYPE F F F U
COUNT 1 1 1 1
WIDTH 920
HEIGHT 1
VIEWPOINT 0.0 0.0 0.0 1.0 0.0 0.0 0.0
POINTS 920
DATA ascii
-0.2924161255 -0.0978247151 0.5665228367 4288447343
-0.2929126918 -0.0973603204 0.5674849153 4288513136
-0.2929556370 -0.0967439935 0.5675681233 4288578929
-0.2934519053 -0.0962761939 0.5685295463 4288578929
-0.2934944034 -0.0956583694 0.5686119199 4288513134
-0.2939903438 -0.0951871723 0.5695727468 4288447341
-0.2940323651 -0.0945678577 0.5696541667 4288118378
-0.2945279777 -0.0940932631 0.5706143379 4287986792
-0.2945695519 -0.0934724584 0.5706949234 4288118378
-0.2946108878 -0.0928514004 0.5707749724 4288118378
-0.2946519256 -0.0922300816 0.5708544850 4288118378
-0.2951467931 -0.0917496532 0.5718132257 4288052585
-0.2951873839 -0.0911268592 0.5718918443 4287789413
-0.2956818938 -0.0906430408 0.5728499293 4288052585
-0.2957220078 -0.0900187790 0.5729276538 4287921769
-0.2962161899 -0.0895315781 0.5738850832 4288053355
-0.2967102230 -0.0890422091 0.5748421550 4287921769
-0.2967496514 -0.0884152651 0.5749185681 4288053355
-0.2976978123 -0.0880569518 0.5767555833 4288250734
-0.2977368534 -0.0874275938 0.5768311620 4288250734
-0.2977755964 -0.0867979899 0.5769062638 4288250734
-0.2978140712 -0.0861681402 0.5769807696 4287921769
-0.2983070314 -0.0856686383 0.5779358149 4287855976
-0.2983450294 -0.0850373358 0.5780094266 4287855976
-0.2983827293 -0.0844058022 0.5780825019 4287986790
-0.2984201908 -0.0837740228 0.5781551003 4287986790
-0.2989123464 -0.0832687542 0.5791085362 4287986532
-0.2989493012 -0.0826355368 0.5791801810 4288052325
-0.2994410694 -0.0821269006 0.5801329017 4287920737
-0.2994775474 -0.0814922601 0.5802035928 4287723358
-0.2995137572 -0.0808573812 0.5802737474 4287394908
-0.3000049293 -0.0803442001 0.5812252760 4287394908
-0.3004959226 -0.0798288509 0.5821765661 4287461218
-0.3005314171 -0.0791913643 0.5822452903 4287066460
-0.3005666137 -0.0785536468 0.5823135376 4286541145
-0.3006015420 -0.0779157132 0.5823811889 4286277973
-0.3006362021 -0.0772775486 0.5824483037 4285686095
-0.3011261225 -0.0767552927 0.5833975077 4284567614
-0.3011602759 -0.0761157274 0.5834636688 4283449913
-0.3011941612 -0.0754759461 0.5835292935 4282660397
-0.3012277484 -0.0748359486 0.5835943818 4281019939
-0.3012610674 -0.0741957352 0.5836589336 4280296216
-0.3012941182 -0.0735553131 0.5837229490 4280228632
-0.3017827272 -0.0730249956 0.5846695900 4280097046
-0.3018152416 -0.0723831877 0.5847325921 4279900185
-0.3018474877 -0.0717411712 0.5847950578 4280294943
-0.3018794656 -0.0710989460 0.5848569870 4280494123
-0.3014550805 -0.0703500956 0.5840348601 4280625709
-0.3010303378 -0.0696029812 0.5832119584 4280559404
-0.3006052077 -0.0688576102 0.5823882818 4280559404
-0.2988111079 -0.0678034350 0.5789124370 4280625710
-0.3290306628 -0.2380733490 0.6388339996 4289836729
-0.3291275799 -0.2374334782 0.6390221715 4282402120
-0.3292243183 -0.2367930412 0.6392099857 4282402120
-0.3293208182 -0.2361520380 0.6393973827 4282402120
-0.3294171393 -0.2355104834 0.6395843625 4282204229
-0.3290779591 -0.2345580906 0.6389257908 4282138436
-0.3291737139 -0.2339162529 0.6391117573 4282204229
-0.3288337290 -0.2329653054 0.6384516954 4281875264
-0.3289289773 -0.2323231995 0.6386365891 4281085748
-0.3281524181 -0.2310668081 0.6371288300 4280296232
-0.3291188180 -0.2310373187 0.6390051246 4280493096
-0.3292134106 -0.2303935438 0.6391888261 4280822061
-0.3293077946 -0.2297492176 0.6393721104 4280756268
-0.3285293877 -0.2284974307 0.6378607750 4280690475
-0.3286231160 -0.2278537005 0.6380427480 4280756268
-0.3282800913 -0.2269076854 0.6373767257 4280756268
-0.3270632625 -0.2253610790 0.6350141764 4280756268
-0.3254086971 -0.2235190272 0.6318017244 4280822061
-0.2595266402 -0.1777056307 0.5038875341 4280756783
-0.2574145496 -0.1757041216 0.4997867644 4280690990
-0.2561753988 -0.1743056774 0.4973808527 4280625197
-0.2558098733 -0.1735051423 0.4966711998 4280625197
-0.2563187778 -0.1732973754 0.4976592362 4280625197
-0.2559526861 -0.1724977195 0.4969484508 4280625197
-0.2560238242 -0.1719933748 0.4970865846 4280690990
-0.2565325797 -0.1717817485 0.4980743527 4280690990
-0.2566035092 -0.1712756902 0.4982120693 4280691245
-0.2566742897 -0.1707692146 0.4983494580 4280691245
-0.2567448616 -0.1702623367 0.4984865189 4280625197
-0.2572535276 -0.1700447053 0.4994741380 4280625197
-0.2577622831 -0.1698249429 0.5004618764 4280690990
-0.2587095797 -0.1698909700 0.5023010969 4280690990
-0.2587799430 -0.1693789363 0.5024377704 4280822059
-0.2592888772 -0.1691527069 0.5034258962 4280756266
-0.2597978711 -0.1689243168 0.5044141412 4280756266
-0.2603069544 -0.1686937809 0.5054025054 4280756266
-0.2608160675 -0.1684610844 0.5063909888 4280690475
-0.2608860433 -0.1679434925 0.5065268874 4280887854
-0.2613951564 -0.1677073389 0.5075153708 4280953645
-0.2619043291 -0.1674690396 0.5085039139 4280822059
-0.2628530860 -0.1675086766 0.5103460550 4281546036
-0.2633624971 -0.1672651768 0.5113350749 4284967272
-0.2643117309 -0.1672978699 0.5131780505 4286673249
-0.2639415264 -0.1664941758 0.5124593377 4287002214
-0.2640109360 -0.1659684330 0.5125941038 4287461995
-0.2636400461 -0.1651665419 0.5118739605 4287198823
-0.2637089789 -0.1646408439 0.5120077729 4287788650
-0.2637777328 -0.1641147435 0.5121412277 4288183408
-0.2638462782 -0.1635882258 0.5122743845 4288183149
-0.2639146447 -0.1630612910 0.5124071240 4287854184
-0.2644235492 -0.1628053039 0.5133951902 4287591782
-0.2640508413 -0.1620062143 0.5126715899 4287854954
-0.2645595968 -0.1617476344 0.5136593580 4287789929
-0.2646273375 -0.1612181962 0.5137908459 4287460964
-0.2651360631 -0.1609561741 0.5147785544 4287263585
-0.2647622824 -0.1601580977 0.5140528083 4287460964
-0.2652708292 -0.1598934978 0.5150402188 4287920488
-0.2653379440 -0.1593615413 0.5151705146 4287788902
-0.2654048502 -0.1588291973 0.5153004527 4287723366
-0.2659133077 -0.1585598439 0.5162876248 4287789159
-0.2659799457 -0.1580258012 0.5164170265 4287854952
-0.2664883137 -0.1577529758 0.5174040794 4287920745
-0.2665546834 -0.1572172493 0.5175329447 4287920745
-0.2666208744 -0.1566811204 0.5176613927 4287920745
-0.2671291232 -0.1564035416 0.5186482072 4287986538
-0.2671950161 -0.1558657289 0.5187761784 4287789159
-0.2672607303 -0.1553275138 0.5189037323 4287854952
-0.2668836415 -0.1545326263 0.5181716084 4287854952
-0.2673915327 -0.1542499065 0.5191577077 4287855206
-0.2674566507 -0.1537104994 0.5192841291 4287789413
-0.2675215602 -0.1531707048 0.5194101930 4287855206
-0.2675862908 -0.1526305228 0.5195358396 4287789413
-0.2680939436 -0.1523417532 0.5205215216 4287723620
-0.2681583762 -0.1517998874 0.5206465721 4287789413
-0.2686659694 -0.1515076458 0.5216320753 4287986792
-0.2687301040 -0.1509641111 0.5217566490 4287855206
-0.2687940300 -0.1504201889 0.5218807459 4287920999
-0.2693014443 -0.1501231939 0.5228658915 4288052585
-0.2693650723 -0.1495775878 0.5229894519 4288118378
-0.2698723972 -0.1492771208 0.5239744782 4288118378
-0.2699357271 -0.1487298459 0.5240974426 4288249964
-0.2704429626 -0.1484259218 0.5250822306 4288315757
-0.2705059946 -0.1478769779 0.5252046585 4288184171
-0.2705688179 -0.1473276466 0.5253266096 4288052585
-0.2710758448 -0.1470189542 0.5263110399 4287986790
-0.2711383700 -0.1464679688 0.5264324546 4287920997
-0.2712006867 -0.1459165961 0.5265534520 4287986790
-0.2712628245 -0.1453648359 0.5266740322 4288052583
-0.2717695236 -0.1450501084 0.5276578665 4288052583
-0.2718313336 -0.1444966942 0.5277778506 4287986790
-0.2718929052 -0.1439429075 0.5278974175 4287986792
-0.2719542980 -0.1433887333 0.5280166268 4288052585
-0.2724606693 -0.1430679709 0.5289997458 4288184171
-0.2729670405 -0.1427450031 0.5299828649 4288184171
-0.2730279863 -0.1421878934 0.5301012397 4287986792
-0.2730887234 -0.1416304260 0.5302191973 4287920999
-0.2731492519 -0.1410725713 0.5303366780 4287986792
-0.2736552656 -0.1407435834 0.5313191414 4288118378
-0.2737154663 -0.1401840746 0.5314360261 4288052585
-0.2737754583 -0.1396242082 0.5315524936 4288052585
-0.2738352418 -0.1390639693 0.5316686034 4288118378
-0.2743408978 -0.1387289464 0.5326502919 4288118378
-0.2744003236 -0.1381670684 0.5327657461 4288118378
-0.2749058306 -0.1378285736 0.5337471962 4288184171
-0.2749649286 -0.1372650415 0.5338619351 4288184171
-0.2754702866 -0.1369230747 0.5348431468 4288249964
-0.2755290568 -0.1363579035 0.5349572301 4288249962
-0.2755876184 -0.1357923746 0.5350708961 4288184169
-0.2760927081 -0.1354456693 0.5360515714 4288052583
-0.2761509120 -0.1348785013 0.5361645818 4288052583
-0.2762089074 -0.1343109757 0.5362771749 4288052583
-0.2762666643 -0.1337431073 0.5363893509 4287920997
-0.2767713368 -0.1333903670 0.5373691916 4287855204
-0.2768287361 -0.1328208596 0.5374806523 4287920997
-0.2768859565 -0.1322509944 0.5375916958 4287658597
-0.2773903310 -0.1318935156 0.5385710001 4287790183
-0.2774471641 -0.1313220263 0.5386813283 4287790183
-0.2779513597 -0.1309610754 0.5396602750 4287790183
-0.2780078650 -0.1303879619 0.5397699475 4287855976
-0.2780641019 -0.1298145056 0.5398792028 4287790183
-0.2781201303 -0.1292407066 0.5399879813 4287658597
-0.2781759501 -0.1286665499 0.5400963426 4287724390
-0.2782315314 -0.1280920506 0.5402042270 4287855974
-0.2787350118 -0.1277225614 0.5411818027 4287855974
-0.2792384624 -0.1273508668 0.5421592593 4287855974
-0.2792935371 -0.1267734915 0.5422661901 4287790181
-0.2793483734 -0.1261957586 0.5423726439 4287986790
-0.2794030011 -0.1256177127 0.5424787402 4288118376
-0.2799059451 -0.1252400130 0.5434552431 4288249962
-0.2799601853 -0.1246603504 0.5435605645 4288184169
-0.2804629505 -0.1242792010 0.5445367098 4287986790
-0.2805168331 -0.1236979365 0.5446413159 4287986790
-0.2805704474 -0.1231163368 0.5447454453 4288052583
-0.2806238532 -0.1225344092 0.5448490977 4287986790
-0.2811261117 -0.1221472621 0.5458242893 4287986790
-0.2816283107 -0.1217579320 0.5467993021 4288052583
-0.2816811800 -0.1211731434 0.5469020009 4287986790
-0.2817338407 -0.1205880269 0.5470041633 4287986790
-0.2817862332 -0.1200025827 0.5471059084 4288052585
-0.2822878957 -0.1196072698 0.5480799675 4287986792
-0.2823399305 -0.1190202460 0.5481809378 4288052585
-0.2832910419 -0.1188100651 0.5500276089 4288118378
-0.2837924957 -0.1184081659 0.5510011911 4288184171
-0.2838440239 -0.1178173646 0.5511012673 4288184171
-0.2838953435 -0.1172262356 0.5512009263 4288118378
-0.2839464247 -0.1166347936 0.5513000488 4288118378
-0.2844473124 -0.1162269264 0.5522726178 4288315757
-0.2844979763 -0.1156339124 0.5523709655 4288249964
-0.2845484018 -0.1150405705 0.5524688959 4288052585
-0.2845985889 -0.1144469231 0.5525663495 4287986792
-0.2846485376 -0.1138529554 0.5526632667 4288118378
-0.2846982479 -0.1132586822 0.5527597666 4288184171
-0.2851982415 -0.1128423586 0.5537306070 4288184171
-0.2852475345 -0.1122465208 0.5538262725 4288249964
-0.2857472897 -0.1118267626 0.5547965765 4288184169
-0.2857961655 -0.1112293676 0.5548914671 4288052583
-0.2862956822 -0.1108061597 0.5558612943 4287987045
-0.2867950797 -0.1103807688 0.5568309426 4288118631
-0.2868433595 -0.1097805724 0.5569247007 4288381803
-0.2873425186 -0.1093517393 0.5578938127 4288381803
-0.2873903811 -0.1087500006 0.5579867363 4288118376
-0.2878892422 -0.1083177328 0.5589553118 4287986790
-0.2879366875 -0.1077144444 0.5590474606 4287986790
-0.2879838943 -0.1071108580 0.5591390729 4287526239
-0.2880308628 -0.1065069810 0.5592302680 4287723618
-0.2885290980 -0.1060687900 0.5601975918 4288118376
-0.2890272141 -0.1056284234 0.5611647964 4287920997
-0.2890735567 -0.1050217673 0.5612547398 4287789411
-0.2891196609 -0.1044148207 0.5613442659 4287790183
-0.2891654968 -0.1038075835 0.5614332557 4287724390
-0.2896629870 -0.1033613086 0.5623991489 4287854691
-0.2897083759 -0.1027525440 0.5624873042 4287986277
-0.2897535264 -0.1021434963 0.5625749826 4287855204
-0.2897984385 -0.1015341654 0.5626621246 4287789411
-0.2902952433 -0.1010820046 0.5636267066 4287789411
-0.2903397083 -0.1004711539 0.5637130737 4287855204
-0.2908362150 -0.1000155732 0.5646770597 4287986790
-0.2908802330 -0.0994032174 0.5647625327 4288052583
-0.2913764417 -0.0989442244 0.5657259226 4288184169
-0.2914200127 -0.0983303636 0.5658105016 4288381548
-0.2919158936 -0.0978679582 0.5667732954 4288316527
-0.2924116552 -0.0974033773 0.5677358508 4288382320
-0.2929072976 -0.0969366059 0.5686981678 4288513906
-0.2929500043 -0.0963187963 0.5687811375 4288513906
-0.2938981950 -0.0959965363 0.5706220269 4288513134
-0.2939405143 -0.0953762680 0.5707042217 4288513134
-0.2935295999 -0.0946097374 0.5699064732 4288513136
-0.2940244079 -0.0941349417 0.5708671212 4288184171
-0.2940659523 -0.0935138762 0.5709477663 4287986792
-0.2941072285 -0.0928925574 0.5710279346 4287920999
-0.2941482663 -0.0922709703 0.5711075664 4288052585
-0.2946422994 -0.0917903408 0.5720668435 4287986792
-0.2946828604 -0.0911672786 0.5721455812 4287920999
-0.2947231531 -0.0905439630 0.5722237825 4288118378
-0.2952166498 -0.0900587291 0.5731819272 4288118378
-0.2957100272 -0.0895713270 0.5741398335 4288249964
-0.2962032259 -0.0890817493 0.5750974417 4288052585
-0.2962426543 -0.0884545371 0.5751739740 4288118378
-0.2971892357 -0.0880960748 0.5770118237 4288249964
-0.2972282171 -0.0874664485 0.5770875216 4288118378
-0.2972669303 -0.0868365765 0.5771626830 4287987562
-0.2973053753 -0.0862064511 0.5772373676 4287855976
-0.2977975309 -0.0857067406 0.5781928897 4287658597
-0.2978354990 -0.0850751698 0.5782665610 4287790183
-0.2978731692 -0.0844433606 0.5783397555 4287986790
-0.2979106009 -0.0838113129 0.5784124136 4287855204
-0.2984019518 -0.0833058208 0.5793663859 4287789153
-0.2984388769 -0.0826723352 0.5794380903 4287789153
-0.2984755337 -0.0820386186 0.5795093179 4287789153
-0.2989662886 -0.0815285668 0.5804620981 4287789153
-0.2994568646 -0.0810163543 0.5814145803 4287658080
-0.2999472916 -0.0805019885 0.5823667645 4287460701
-0.2999830246 -0.0798644498 0.5824361444 4287263839
-0.3000184596 -0.0792266801 0.5825049877 4286803288
-0.3000536561 -0.0785886869 0.5825732946 4286409559
-0.3000885546 -0.0779504776 0.5826410651 4286146387
-0.3001231849 -0.0773120373 0.5827082992 4285554511
-0.3006123006 -0.0767895579 0.5836579800 4284501823
-0.3006464243 -0.0761497095 0.5837242007 4283515706
-0.3006802797 -0.0755096525 0.5837899446 4282660397
-0.3007138371 -0.0748693794 0.5838550925 4281019939
-0.3007471263 -0.0742288902 0.5839197040 4280362009
-0.3007801473 -0.0735881850 0.5839837790 4280228632
-0.3012679517 -0.0730576366 0.5849309564 4280031253
-0.3013004661 -0.0724155456 0.5849940181 4279768599
-0.3013326824 -0.0717732534 0.5850566030 4280097564
-0.3013646007 -0.0711307526 0.5851185918 4280428330
-0.3013962805 -0.0704880431 0.5851801038 4280691502
-0.3009723127 -0.0697396323 0.5843569636 4280756783
-0.3000926077 -0.0688884258 0.5826489329 4280625197
-0.2996678650 -0.0681444779 0.5818243027 4280625710
-0.3006091714 -0.0677100495 0.5836518407 4280494124
-0.3271531463 -0.2372264117 0.6365613937 4290692038
-0.3272496164 -0.2365888804 0.6367490888 4282994257
-0.3273458481 -0.2359507829 0.6369363666 4282270534
-0.3274419010 -0.2353121191 0.6371232271 4282402120
-0.3275377452 -0.2346729040 0.6373097301 4282270022
-0.3276333809 -0.2340331078 0.6374958158 4282138436
-0.3272941411 -0.2330832332 0.6368357539 4282204229
-0.3265196681 -0.2318257987 0.6353288293 4282006850
-0.3274841309 -0.2318025678 0.6372054219 4281283127
-0.3275788128 -0.2311614007 0.6373896003 4280164646
-0.3263678253 -0.2296012640 0.6350333095 4280427303
-0.3273322582 -0.2295721173 0.6369099021 4280822061
-0.3274261951 -0.2289301306 0.6370926499 4280822061
-0.3270843923 -0.2279840261 0.6364275813 4280690475
-0.3267421126 -0.2270390838 0.6357616186 4280822061
-0.3255278170 -0.2254915833 0.6333988905 4280756268
-0.3234407902 -0.2233466506 0.6293380260 4280756268
-0.2590003610 -0.1782884598 0.5039524436 4280822061
-0.2568928003 -0.1762823015 0.4998516142 4280690990
-0.2556563914 -0.1748811752 0.4974458814 4280690990
-0.2561646402 -0.1746750474 0.4984348416 4280625197
-0.2557999790 -0.1738733649 0.4977252483 4280625197
-0.2554348707 -0.1730729789 0.4970148504 4280625197
-0.2555061281 -0.1725688875 0.4971534908 4280625197
-0.2555772066 -0.1720643789 0.4972918034 4280690990
-0.2556481063 -0.1715594381 0.4974297881 4280690990
-0.2561559975 -0.1713464856 0.4984180033 4280691245
-0.2562266886 -0.1708398312 0.4985555410 4280691245
-0.2568050623 -0.1701150984 0.4996809065 4280625197
-0.2573129535 -0.1698952764 0.5006691813 4280625197
-0.2582586706 -0.1699613780 0.5025092959 4280625197
-0.2587668300 -0.1697363704 0.5034980774 4280756266
-0.2588371038 -0.1692228913 0.5036347508 4280690473
-0.2593452632 -0.1689944416 0.5046235323 4280822059
-0.2598534822 -0.1687638462 0.5056124330 4280822059
-0.2603617907 -0.1685310900 0.5066014528 4280690473
-0.2608701289 -0.1682961732 0.5075905323 4280822059
-0.2613785267 -0.1680590957 0.5085797906 4280953645
-0.2618869841 -0.1678198427 0.5095691085 4280822059
-0.2623955011 -0.1675784439 0.5105586052 4281019692
-0.2629040778 -0.1673348695 0.5115481019 4284572514
-0.2638517022 -0.1673676074 0.5133920312 4286673249
-0.2639213502 -0.1668412238 0.5135275126 4287068007
-0.2635515630 -0.1660376936 0.5128080249 4287527788
-0.2631813586 -0.1652355045 0.5120877028 4287264616
-0.2632502317 -0.1647096276 0.5122216940 4287657577
-0.2633189261 -0.1641833335 0.5123553276 4288315507
-0.2633874118 -0.1636566371 0.5124886036 4288183408
-0.2634557188 -0.1631295234 0.5126215219 4287722857
-0.2639637887 -0.1628734618 0.5136101246 4287723368
-0.2640318573 -0.1623446494 0.5137425065 4287986540
-0.2636595666 -0.1615457386 0.5130181313 4287724651
-0.2641674280 -0.1612858027 0.5140063167 4287527272
-0.2642349005 -0.1607557684 0.5141376257 4287329380
-0.2647427320 -0.1604923606 0.5151256919 4287395173
-0.2648099661 -0.1599606425 0.5152565241 4287854952
-0.2648769915 -0.1594285071 0.5153869987 4287723366
-0.2649438381 -0.1588959694 0.5155170560 4287657575
-0.2654514611 -0.1586265266 0.5165047646 4287789161
-0.2655180395 -0.1580922902 0.5166342854 4287789159
-0.2660256028 -0.1578193903 0.5176218748 4287854952
-0.2660919130 -0.1572834700 0.5177509189 4287854952
-0.2661580443 -0.1567471474 0.5178795457 4287920745
-0.2666654587 -0.1564694792 0.5188668966 4287986538
-0.2667312920 -0.1559314728 0.5189949870 4287723366
-0.2667969465 -0.1553930640 0.5191227198 4287525987
-0.2668623924 -0.1548542529 0.5192500353 4287789159
-0.2669276297 -0.1543150544 0.5193770528 4287855206
-0.2669926882 -0.1537754685 0.5195035934 4287855206
-0.2670575678 -0.1532354802 0.5196298361 4287855206
-0.2671222091 -0.1526950896 0.5197556615 4287789413
-0.2676290572 -0.1524062306 0.5207418203 4287657827
-0.2681359053 -0.1521151811 0.5217279792 4287723620
-0.2682001889 -0.1515718400 0.5218530893 4288052331
-0.2682642639 -0.1510280967 0.5219777822 4287920745
-0.2683281600 -0.1504839659 0.5221020579 4287920999
-0.2688347101 -0.1501868814 0.5230877399 4287986792
-0.2688983083 -0.1496410817 0.5232114792 4287920999
-0.2694047987 -0.1493405253 0.5241969824 4288052585
-0.2699112892 -0.1490377635 0.5251824856 4288184171
-0.2695311606 -0.1482451856 0.5244428515 4288184171
-0.2700374722 -0.1479398608 0.5254279971 4288118378
-0.2705437541 -0.1476323456 0.5264131427 4288052585
-0.2701628208 -0.1468404233 0.5256718993 4287986790
-0.2706688941 -0.1465303451 0.5266566277 4287920997
-0.2707311809 -0.1459787637 0.5267778039 4287986790
-0.2707932293 -0.1454267949 0.5268985629 4288052583
-0.2712991238 -0.1451119632 0.5278828740 4288052583
-0.2713608444 -0.1445583403 0.5280029774 4287986790
-0.2714223862 -0.1440043449 0.5281227231 4287986792
-0.2714837193 -0.1434499621 0.5282420516 4288052585
-0.2719892859 -0.1431290805 0.5292257667 4288118378
-0.2720502913 -0.1425730586 0.5293444395 4288052585
-0.2725557089 -0.1422487050 0.5303279161 4287986792
-0.2726164162 -0.1416910142 0.5304459929 4287855206
-0.2726768851 -0.1411329508 0.5305636525 4287789413
-0.2731820643 -0.1408038437 0.5315466523 4287789413
-0.2732422352 -0.1402441263 0.5316636562 4287789413
-0.2733021677 -0.1396840513 0.5317803025 4287920999
-0.2733618915 -0.1391235888 0.5318965316 4288052585
-0.2738667130 -0.1387884468 0.5328787565 4288118378
-0.2739261091 -0.1382263601 0.5329943299 4288118378
-0.2744307816 -0.1378877312 0.5339763165 4288118378
-0.2744898200 -0.1373239905 0.5340912342 4288249964
-0.2749943733 -0.1369819045 0.5350729227 4288315757
-0.2750530839 -0.1364165246 0.5351871848 4288249962
-0.2751115859 -0.1358507723 0.5353010297 4288184169
-0.2756158412 -0.1355039328 0.5362821817 4288052583
-0.2756740153 -0.1349365562 0.5363953710 4287986790
-0.2757319510 -0.1343688071 0.5365080833 4287986790
-0.2757896483 -0.1338007152 0.5366203785 4287986790
-0.2762935162 -0.1334478408 0.5376007557 4287986790
-0.2763508856 -0.1328781247 0.5377123952 4287920997
-0.2764080167 -0.1323080361 0.5378235579 4287724390
-0.2769115865 -0.1319504231 0.5388033390 4287855976
-0.2769683599 -0.1313787103 0.5389138460 4287855976
-0.2770249248 -0.1308066547 0.5390239358 4287724390
-0.2775281966 -0.1304442883 0.5400031209 4287790183
-0.2775844038 -0.1298706084 0.5401124954 4287724390
-0.2776403725 -0.1292965859 0.5402214527 4287724390
-0.2776961327 -0.1287222058 0.5403299332 4287790183
-0.2777516842 -0.1281474829 0.5404379964 4287790183
-0.2782543302 -0.1277778447 0.5414160490 4287790183
-0.2783094943 -0.1272015125 0.5415233970 4287790183
-0.2788119912 -0.1268284023 0.5425010920 4287855976
-0.2793143988 -0.1264531016 0.5434786677 4287921769
-0.2793690562 -0.1258738935 0.5435850620 4288053355
-0.2794234753 -0.1252943277 0.5436909199 4288119148
-0.2794776857 -0.1247144416 0.5437964201 4288184941
-0.2799796164 -0.1243331432 0.5447730422 4288118378
-0.2800334394 -0.1237516478 0.5448777676 4288052585
-0.2800870538 -0.1231698170 0.5449820757 4287986790
-0.2801403999 -0.1225876510 0.5450859070 4287986790
-0.2806418240 -0.1222003624 0.5460615754 4287986790
-0.2806948125 -0.1216166094 0.5461646318 4288052583
-0.2811960280 -0.1212258562 0.5471398830 4288249962
-0.2816971838 -0.1208329201 0.5481150150 4288184169
-0.2817496359 -0.1202463061 0.5482170582 4288249964
-0.2818018496 -0.1196593642 0.5483186841 4288118378
-0.2823026180 -0.1192617044 0.5492930412 4287920999
-0.2828033268 -0.1188618466 0.5502673388 4287986792
-0.2828550041 -0.1182720661 0.5503678322 4288184171
-0.2833554745 -0.1178687513 0.5513416529 4288184171
-0.2834067345 -0.1172773838 0.5514414310 4288118378
-0.2834577858 -0.1166856959 0.5515406728 4288184171
-0.2835085690 -0.1160936952 0.5516394973 4288184171
-0.2840084732 -0.1156844199 0.5526122451 4288184171
-0.2840588689 -0.1150908396 0.5527102947 4288118378
-0.2841090262 -0.1144969463 0.5528078675 4288118378
-0.2841589153 -0.1139027402 0.5529049635 4288249964
-0.2842085660 -0.1133082211 0.5530015826 4288315757
-0.2847077549 -0.1128917336 0.5539728999 4288249964
-0.2847570181 -0.1122956499 0.5540686846 4288184171
-0.2852559388 -0.1118757203 0.5550395250 4288184939
-0.2853047848 -0.1112780869 0.5551345348 4287987560
-0.2858034670 -0.1108547151 0.5561048388 4287920997
-0.2858518958 -0.1102555171 0.5561990738 4287986790
-0.2863503098 -0.1098287106 0.5571689010 4288315755
-0.2868486345 -0.1093997061 0.5581384897 4288249962
-0.2868964672 -0.1087977141 0.5582315326 4287921769
-0.2869440615 -0.1081954241 0.5583241582 4287790183
-0.2874419391 -0.1077617332 0.5592929125 4287921769
-0.2874890864 -0.1071579009 0.5593846440 4287395425
-0.2875359952 -0.1065537706 0.5594759583 4287789411
-0.2875826657 -0.1059493423 0.5595667362 4288184169
-0.2885307372 -0.1056748554 0.5614114404 4287920997
-0.2885770500 -0.1050679460 0.5615015626 4287789411
-0.2886230946 -0.1044607460 0.5615912080 4287986792
-0.2886689007 -0.1038532630 0.5616803169 4287986792
-0.2891655564 -0.1034068018 0.5626466870 4287855204
-0.2892109454 -0.1027977839 0.5627349615 4287657825
-0.2892560661 -0.1021884829 0.5628227592 4287657825
-0.2893009186 -0.1015788987 0.5629100204 4287789411
-0.2897969186 -0.1011265516 0.5638751388 4287723620
-0.2898413241 -0.1005154476 0.5639615655 4287657827
-0.2903370261 -0.1000596806 0.5649260879 4287920997
-0.2903810143 -0.0994470716 0.5650116205 4288118376
-0.2908763885 -0.0989878848 0.5659755468 4288315757
-0.2909199297 -0.0983737633 0.5660602450 4288381550
-0.2914150059 -0.0979111716 0.5670235157 4288184941
-0.2919099629 -0.0974463895 0.5679866076 4288184941
-0.2924047709 -0.0969794318 0.5689494014 4288250734
-0.2924474776 -0.0963613540 0.5690324903 4288184941
-0.2933940291 -0.0960389674 0.5708742738 4288249964
-0.2934363484 -0.0954184458 0.5709565878 4288381550
-0.2934783697 -0.0947976485 0.5710383654 4288513136
-0.2935201526 -0.0941765904 0.5711196661 4288118378
-0.2935616672 -0.0935552642 0.5712004304 4287723620
-0.2936029136 -0.0929336771 0.5712807178 4287789413
-0.2936439216 -0.0923118293 0.5713604689 4287855206
-0.2941371500 -0.0918309987 0.5723202229 4287723620
-0.2941776812 -0.0912076682 0.5723990202 4287723620
-0.2942179143 -0.0905840918 0.5724773407 4287855206
-0.2942579091 -0.0899602547 0.5725551844 4288052585
-0.2947503924 -0.0894735977 0.5735134482 4288118378
-0.2952427566 -0.0889847800 0.5744714141 4288052585
-0.2957349420 -0.0884937793 0.5754291415 4288118378
-0.2957740724 -0.0878660530 0.5755051970 4288184171
-0.2967188954 -0.0875052735 0.5773437023 4288052585
-0.2967576087 -0.0868751258 0.5774189234 4287920999
-0.2967960238 -0.0862447396 0.5774937272 4287920999
-0.2972873449 -0.0857448131 0.5784497261 4287592550
-0.2973252833 -0.0851129740 0.5785235167 4287789929
-0.2973629534 -0.0844808891 0.5785968304 4287790183
-0.2974003255 -0.0838485733 0.5786695480 4287527011
-0.2978908718 -0.0833428651 0.5796239972 4287460446
-0.2979277670 -0.0827091113 0.5796958208 4287394653
-0.2979643941 -0.0820751190 0.5797671080 4287460188
-0.2980007529 -0.0814408883 0.5798378587 4287657567
-0.2989441156 -0.0810524151 0.5816733837 4287657825
-0.2989800274 -0.0804158002 0.5817433000 4287394653
-0.2994694114 -0.0799000114 0.5826954842 4287066460
-0.2995048463 -0.0792619735 0.5827644467 4286540116
-0.2995399833 -0.0786237046 0.5828328133 4286277719
-0.3000287712 -0.0781033710 0.5837838650 4286014547
-0.3000634313 -0.0774636939 0.5838512778 4285357132
-0.3000977933 -0.0768237934 0.5839181542 4284436030
-0.3001318872 -0.0761836693 0.5839844942 4283712315
-0.3001657128 -0.0755433291 0.5840502977 4282725420
-0.3001992404 -0.0749027804 0.5841155648 4281085475
-0.3006867170 -0.0743743554 0.5850640535 4280493338
-0.3007197380 -0.0737324134 0.5851283073 4280294168
-0.3007524908 -0.0730902478 0.5851920843 4280030996
-0.3007849753 -0.0724478811 0.5852552652 4279768085
-0.3008171618 -0.0718053058 0.5853179097 4280031257
-0.3008490801 -0.0711625218 0.5853799582 4280362280
-0.3004262149 -0.0704130158 0.5845571756 4280822831
-0.3004575074 -0.0697707981 0.5846180916 4280953648
-0.3004885316 -0.0691283867 0.5846784711 4280822062
-0.2996099889 -0.0682785511 0.5829690099 4280690990
-0.2991856635 -0.0675350502 0.5821434259 4280625197
-0.3252795041 -0.2363786399 0.6342865229 4291349968
-0.3253754973 -0.2357434332 0.6344736814 4283717980
-0.3254712522 -0.2351076752 0.6346604228 4282073156
-0.3255668283 -0.2344713509 0.6348467469 4282402121
-0.3256621957 -0.2338344604 0.6350327134 4282335815
-0.3257573545 -0.2331970185 0.6352183223 4282204229
-0.3249845505 -0.2319396883 0.6337113380 4282204231
-0.3255130649 -0.2316116393 0.6347419024 4282072645
-0.3256074786 -0.2309733778 0.6349260211 4281414715
-0.3257016838 -0.2303345501 0.6351097226 4280164648
-0.3253613114 -0.2293889225 0.6344460249 4280427303
-0.3254549801 -0.2287498564 0.6346286535 4280822061
-0.3251138031 -0.2278056741 0.6339634061 4280822061
-0.3221635818 -0.2250404656 0.6282104850 4280756268
-0.3248649836 -0.2262236327 0.6334781647 4280887854
-0.3236525357 -0.2246781141 0.6311139464 4280822061
-0.3215688467 -0.2225349396 0.6270507574 4280756268
-0.2568057179 -0.1771605909 0.5007643700 4280822061
-0.2590552866 -0.1781512201 0.5051509738 4280625197
-0.2552087605 -0.1749530733 0.4976503849 4280625197
-0.2557162046 -0.1747469157 0.4986398816 4280625197
-0.2553522289 -0.1739449352 0.4979301095 4280625197
-0.2549878061 -0.1731442660 0.4972195327 4280625197
-0.2546229959 -0.1723448932 0.4965081811 4280625197
-0.2551300228 -0.1721353084 0.4974968433 4280690990
-0.2552008629 -0.1716302037 0.4976350069 4280756783
-0.2557079196 -0.1714172065 0.4986236989 4280625197
-0.2557785511 -0.1709103882 0.4987614453 4280625197
-0.2567927539 -0.1704753637 0.5007390976 4280625197
-0.2568630874 -0.1699655652 0.5008763075 4280625197
-0.2578071952 -0.1700317115 0.5027172565 4280625197
-0.2583145499 -0.1698066592 0.5037065744 4280625452
-0.2583847344 -0.1692930013 0.5038434267 4280625452
-0.2588920593 -0.1690645069 0.5048327446 4280756266
-0.2593994737 -0.1688338518 0.5058221221 4280822059
-0.2594693899 -0.1683171839 0.5059584379 4280756266
-0.2599767745 -0.1680830866 0.5069478750 4280822059
-0.2604842484 -0.1678468138 0.5079374313 4280822059
-0.2614296377 -0.1678896099 0.5097809434 4280887852
-0.2623753548 -0.1679284871 0.5116250515 4280756520
-0.2624450624 -0.1674045026 0.5117610097 4284309342
-0.2629528642 -0.1671586931 0.5127511621 4286804835
-0.2634606957 -0.1669107229 0.5137414336 4287068007
-0.2635301054 -0.1663837433 0.5138767958 4287396202
-0.2627221048 -0.1653044075 0.5123012066 4287198823
-0.2627909184 -0.1647783369 0.5124353766 4287460198
-0.2628595531 -0.1642518640 0.5125691891 4288183921
-0.2629279792 -0.1637249887 0.5127026439 4287854441
-0.2629962265 -0.1631976813 0.5128357410 4287591269
-0.2635034621 -0.1629415452 0.5138248205 4287789161
-0.2635714710 -0.1624125540 0.5139574409 4287986540
-0.2631998658 -0.1616133451 0.5132328272 4287789931
-0.2637068927 -0.1613533348 0.5142215490 4287658345
-0.2642139494 -0.1610911489 0.5152102709 4287460964
-0.2642813325 -0.1605596393 0.5153416395 4287395171
-0.2643484771 -0.1600277126 0.5154725909 4287920745
-0.2648554444 -0.1597607732 0.5164611340 4287854952
-0.2649223208 -0.1592271626 0.5165916085 4287723368
-0.2649890482 -0.1586931497 0.5167216659 4287789161
-0.2650555670 -0.1581587195 0.5168513656 4287723366
-0.2655622959 -0.1578857303 0.5178394914 4287789159
-0.2656285465 -0.1573496312 0.5179687142 4287854952
-0.2661352158 -0.1570731699 0.5189567208 4287986538
-0.2662011981 -0.1565353572 0.5190853477 4288052331
-0.2662669718 -0.1559971571 0.5192136168 4287723366
-0.2667735219 -0.1557159424 0.5202013254 4287328608
-0.2668390274 -0.1551760435 0.5203290582 4287723366
-0.2664631605 -0.1543801576 0.5195961595 4287920745
-0.2665281594 -0.1538403779 0.5197228789 4287920745
-0.2665929496 -0.1533001810 0.5198492408 4287855206
-0.2666575611 -0.1527596116 0.5199752450 4287723620
-0.2671635747 -0.1524706483 0.5209619403 4287657827
-0.2672278881 -0.1519283950 0.5210873485 4287855206
-0.2677338123 -0.1516359746 0.5220738649 4287920745
-0.2682397366 -0.1513413638 0.5230604410 4287854952
-0.2683036625 -0.1507961303 0.5231851339 4287986792
-0.2683674097 -0.1502505243 0.5233094096 4288052585
-0.2688731551 -0.1499511451 0.5242956281 4287986792
-0.2689366043 -0.1494038552 0.5244193077 4288052585
-0.2689998150 -0.1488561779 0.5245425701 4288118378
-0.2695053816 -0.1485520452 0.5255284309 4287986792
-0.2695683241 -0.1480026990 0.5256511569 4288118378
-0.2696310580 -0.1474529654 0.5257734656 4288118378
-0.2696935534 -0.1469028443 0.5258953571 4288052585
-0.2701988220 -0.1465926617 0.5268806219 4287986792
-0.2702610493 -0.1460408717 0.5270019174 4288052583
-0.2703230381 -0.1454887092 0.5271228552 4288118376
-0.2708280981 -0.1451737583 0.5281077027 4288052583
-0.2708897889 -0.1446199417 0.5282279849 4288052583
-0.2713947296 -0.1443015188 0.5292125940 4287986792
-0.2714561224 -0.1437460184 0.5293322802 4288118378
-0.2715172768 -0.1431901604 0.5294515491 4288118378
-0.2715782225 -0.1426339149 0.5295704007 4287986792
-0.2720828354 -0.1423094422 0.5305543542 4287920999
-0.2721434832 -0.1417515427 0.5306726098 4287855206
-0.2726479471 -0.1414235979 0.5316563249 4287789413
-0.2727082670 -0.1408640444 0.5317739248 4287789413
-0.2727683485 -0.1403041184 0.5318911076 4287789413
-0.2732726038 -0.1399714202 0.5328743458 4287855206
-0.2733323574 -0.1394098401 0.5329909325 4287986792
-0.2733919024 -0.1388479024 0.5331070423 4288118378
-0.2734512389 -0.1382855922 0.5332227349 4288118378
-0.2739551067 -0.1379468590 0.5342052579 4288118378
-0.2740141153 -0.1373828948 0.5343202949 4288118378
-0.2740729153 -0.1368185729 0.5344349742 4288184171
-0.2745764852 -0.1364750862 0.5354169607 4288118376
-0.2746349275 -0.1359091252 0.5355309248 4288118376
-0.2751383781 -0.1355621517 0.5365126133 4288052583
-0.2751964927 -0.1349945515 0.5366259217 4287986790
-0.2752543688 -0.1344265938 0.5367388129 4287986790
-0.2757575214 -0.1340748668 0.5377199054 4288052583
-0.2753694952 -0.1332896054 0.5369632244 4287986790
-0.2758723795 -0.1329353303 0.5379438996 4287920997
-0.2759294808 -0.1323650181 0.5380552411 4287986790
-0.2759863436 -0.1317943633 0.5381661057 4288052583
-0.2764889598 -0.1314353496 0.5391461849 4287921769
-0.2765454650 -0.1308630556 0.5392563939 4287790183
-0.2766017616 -0.1302904338 0.5393661857 4287790183
-0.2766578496 -0.1297174394 0.5394755006 4287790183
-0.2767136693 -0.1291441172 0.5395843983 4287724390
-0.2772157192 -0.1287778020 0.5405633450 4287724390
-0.2772711813 -0.1282028556 0.5406715274 4287855976
-0.2777730227 -0.1278330833 0.5416501164 4287790183
-0.2778281569 -0.1272565126 0.5417575836 4287790183
-0.2783298194 -0.1268832684 0.5427358150 4287855976
-0.2788313925 -0.1265078336 0.5437139273 4287921769
-0.2788860202 -0.1259283870 0.5438203812 4287921769
-0.2789404094 -0.1253486127 0.5439264178 4287921769
-0.2789945602 -0.1247684807 0.5440320373 4287987562
-0.2794956565 -0.1243870407 0.5450091958 4288118376
-0.2795494497 -0.1238053143 0.5451141000 4288052583
-0.2796030045 -0.1232232526 0.5452184677 4287920997
-0.2796563208 -0.1226408556 0.5453224182 4287920997
-0.2801569104 -0.1222534180 0.5462986231 4287986790
-0.2802098691 -0.1216694266 0.5464018583 4288052583
-0.2807102501 -0.1212785318 0.5473776460 4288315755
-0.2812106013 -0.1208854392 0.5483532548 4288249962
-0.2812629938 -0.1202985868 0.5484554768 4288249964
-0.2813151479 -0.1197114140 0.5485571623 4288184171
-0.2818151116 -0.1193135977 0.5495320559 4288052585
-0.2823150158 -0.1189135835 0.5505068302 4288118378
-0.2823666334 -0.1183235645 0.5506075025 4288184171
-0.2828662992 -0.1179200932 0.5515818000 4288118378
-0.2829174995 -0.1173284873 0.5516816974 4288184171
-0.2829684913 -0.1167365685 0.5517811179 4288315757
-0.2830192447 -0.1161443219 0.5518800616 4287986792
-0.2830697298 -0.1155517548 0.5519785285 4288052585
-0.2835686803 -0.1151410639 0.5529514551 4288118378
-0.2836187780 -0.1145469323 0.5530491471 4288249964
-0.2836686373 -0.1139524803 0.5531464219 4288315757
-0.2837182581 -0.1133577228 0.5532431602 4288315757
-0.2842166424 -0.1129410714 0.5542149544 4288249964
-0.2842658460 -0.1123447418 0.5543109179 4288184171
-0.2847639620 -0.1119246483 0.5552822351 4288119148
-0.2848127484 -0.1113267615 0.5553773642 4288119148
-0.2853106260 -0.1109032258 0.5563482046 4287855974
-0.2853589952 -0.1103037819 0.5564425588 4287921767
-0.2858566046 -0.1098768041 0.5574128628 4287987560
-0.2859045565 -0.1092758104 0.5575063825 4287790181
-0.2864018977 -0.1088453829 0.5584761500 4287790181
-0.2864494324 -0.1082428470 0.5585688949 4287658595
-0.2864967287 -0.1076400056 0.5586611032 4287920997
-0.2865437865 -0.1070368662 0.5587528348 4287723618
-0.2865906060 -0.1064334363 0.5588441491 4287920997
-0.2875370979 -0.1061619818 0.5606898069 4288118376
-0.2875835598 -0.1055560634 0.5607803464 4287855204
-0.2876297534 -0.1049498543 0.5608704686 4287723618
-0.2876756787 -0.1043433473 0.5609600544 4287920997
-0.2881716490 -0.1038988978 0.5619271398 4287986790
-0.2882171571 -0.1032908708 0.5620158911 4287789411
-0.2887128294 -0.1028429940 0.5629824400 4287657825
-0.2887579203 -0.1022334397 0.5630703568 4287592032
-0.2888027430 -0.1016235948 0.5631577373 4287789411
-0.2892979085 -0.1011710614 0.5641233325 4287789411
-0.2893422842 -0.1005597040 0.5642098784 4287723618
-0.2898371816 -0.1001037508 0.5651748776 4287855204
-0.2898811102 -0.0994908810 0.5652605891 4287920997
-0.2903756797 -0.0990315080 0.5662249923 4287986790
-0.2904191911 -0.0984171331 0.5663097501 4287986790
-0.2909134626 -0.0979543477 0.5672735572 4287986792
-0.2914075851 -0.0974893719 0.5682371259 4287986792
-0.2919015884 -0.0970222205 0.5692004561 4287921769
-0.2919442654 -0.0964038894 0.5692836046 4287987562
-0.2928892374 -0.0960813686 0.5711263418 4288184171
-0.2929314971 -0.0954605788 0.5712087154 4288315757
-0.2929735184 -0.0948395208 0.5712906122 4288315757
-0.2930152416 -0.0942182019 0.5713720322 4288118378
-0.2930567265 -0.0935966149 0.5714529157 4287920999
-0.2930979431 -0.0929747596 0.5715332627 4288118378
-0.2931388915 -0.0923526511 0.5716131330 4288118378
-0.2936313152 -0.0918716192 0.5725733638 4287789413
-0.2936718166 -0.0912480280 0.5726522803 4287789413
-0.2937120199 -0.0906241834 0.5727307200 4287789413
-0.2937519848 -0.0900000781 0.5728086829 4287855206
-0.2942436635 -0.0895132199 0.5737674236 4287789413
-0.2942831516 -0.0888876542 0.5738444328 4287855206
-0.2952266037 -0.0885329917 0.5756840706 4288052585
-0.2957178354 -0.0880396143 0.5766419768 4288118378
-0.2962089181 -0.0875440612 0.5775995851 4287986792
-0.2962475717 -0.0869136527 0.5776749849 4287723620
-0.2962859571 -0.0862829909 0.5777498484 4287789413
-0.2967764735 -0.0857828557 0.5787063241 4287658343
-0.2968143821 -0.0851507410 0.5787802339 4287789929
-0.2968520224 -0.0845183879 0.5788536072 4287724390
-0.2968893647 -0.0838857964 0.5789265037 4287461218
-0.2973791063 -0.0833798796 0.5798814297 4287328860
-0.2974159718 -0.0827458501 0.5799533129 4287197274
-0.2974525690 -0.0821115822 0.5800247192 4287262809
-0.2974888980 -0.0814770833 0.5800955296 4287394395
-0.2984306812 -0.0810884461 0.5819319487 4287460446
-0.2984665632 -0.0804515556 0.5820019245 4287197274
-0.2985021770 -0.0798144341 0.5820714235 4286934874
-0.2989905179 -0.0792972296 0.5830236673 4286540116
-0.2990256548 -0.0786586851 0.5830921531 4286277973
-0.2995136082 -0.0781381354 0.5840436816 4285949008
-0.2995482385 -0.0774981752 0.5841112137 4285291337
-0.2995825708 -0.0768579990 0.5841781497 4284436028
-0.2996166348 -0.0762175992 0.5842446089 4283515706
-0.2996504307 -0.0755769834 0.5843104720 4282528811
-0.2996839583 -0.0749361515 0.5843757987 4280954146
-0.3001706004 -0.0744075030 0.5853248239 4280427802
-0.3002036214 -0.0737652779 0.5853891373 4280294167
-0.3002363443 -0.0731228366 0.5854529738 4280030995
-0.3002687991 -0.0724801868 0.5855162740 4279768085
-0.3003009558 -0.0718373358 0.5855789781 4280031257
-0.3003328443 -0.0711942762 0.5856411457 4280362280
-0.3003644645 -0.0705510080 0.5857027769 4280822831
-0.3003957868 -0.0699075386 0.5857638717 4280756783
-0.3004268110 -0.0692638755 0.5858244300 4280690990
-0.3009114563 -0.0687236637 0.5867694020 4280756783
-0.3238421082 -0.2358448654 0.6328542233 4292007898
-0.3239377439 -0.2352111638 0.6330410838 4284704875
-0.3240331709 -0.2345768809 0.6332275867 4281875777
-0.3241283894 -0.2339420617 0.6334136724 4282402121
-0.3242234290 -0.2333066612 0.6335994005 4282401608
-0.3243182302 -0.2326707095 0.6337846518 4282270022
-0.3244128525 -0.2320342064 0.6339696050 4282270022
-0.3240740001 -0.2310882062 0.6333073974 4282138436
-0.3237347007 -0.2301433533 0.6326443553 4281480508
-0.3242619634 -0.2298141122 0.6336747408 4280296234
-0.3243556321 -0.2291762382 0.6338577867 4280493096
-0.3240153491 -0.2282322794 0.6331927776 4280822061
-0.3236745894 -0.2272894830 0.6325268745 4280887854
-0.3228994012 -0.2260440141 0.6310119629 4280822061
-0.3225575984 -0.2251043916 0.6303440332 4280887854
-0.3217810988 -0.2238638252 0.6288266182 4280822061
-0.3192664087 -0.2214211375 0.6239123940 4280822061
-0.2593961060 -0.1793360114 0.5069134831 4280822061
-0.2572964132 -0.1773257107 0.5028102398 4280690990
-0.2551953495 -0.1753235757 0.4987042844 4280690990
-0.2552672029 -0.1748186946 0.4988447428 4280625197
-0.2557739019 -0.1746103466 0.4998349249 4280625197
-0.2549753189 -0.1735115647 0.4982743263 4280625197
-0.2546113431 -0.1727110445 0.4975630343 4280625197
-0.2546823025 -0.1722061932 0.4977016747 4280690990
-0.2547530830 -0.1717009097 0.4978400171 4280690990
-0.2548236847 -0.1711952239 0.4979780018 4280625199
-0.2553298473 -0.1709808856 0.4989671409 4280625199
-0.2562719285 -0.1710553020 0.5008081198 4280690992
-0.2563423812 -0.1705457419 0.5009458661 4280690992
-0.2572848201 -0.1706141233 0.5027875900 4280690990
-0.2577913702 -0.1703903079 0.5037775040 4280625197
-0.2582980096 -0.1701643318 0.5047675371 4280690990
-0.2583682537 -0.1696496159 0.5049048066 4280690990
-0.2593114376 -0.1697058976 0.5067479610 4280690475
-0.2589448988 -0.1689037830 0.5060316920 4280756268
-0.2594515085 -0.1686709076 0.5070217252 4280756268
-0.2595213056 -0.1681527793 0.5071581006 4280887854
-0.2600279152 -0.1679164469 0.5081481338 4280822059
-0.2605346143 -0.1676779538 0.5091382861 4281019438
-0.2614786029 -0.1677177697 0.5109830499 4280756266
-0.2619855106 -0.1674740613 0.5119736791 4283848537
-0.2629299462 -0.1675069183 0.5138192773 4286804835
-0.2625618577 -0.1667023301 0.5130999684 4286804835
-0.2630687952 -0.1664529890 0.5140906572 4287198053
-0.2622622848 -0.1653732508 0.5125145912 4287198053
-0.2627689838 -0.1651221961 0.5135047436 4287393890
-0.2623995841 -0.1643203497 0.5127828717 4287854441
-0.2624679804 -0.1637932658 0.5129165053 4287393890
-0.2625361681 -0.1632657945 0.5130497813 4287393890
-0.2630425692 -0.1630095840 0.5140393972 4287591782
-0.2626719773 -0.1622096002 0.5133152008 4287854954
-0.2631782591 -0.1619508117 0.5143045187 4287526757
-0.2628070712 -0.1611517668 0.5135791898 4287592550
-0.2637520432 -0.1611585468 0.5154258013 4287592550
-0.2638193369 -0.1606268436 0.5155573487 4287460964
-0.2638864517 -0.1600947380 0.5156884789 4287789159
-0.2643925548 -0.1598277241 0.5166775584 4287723366
-0.2644594014 -0.1592939198 0.5168081522 4287854954
-0.2645260394 -0.1587597132 0.5169383883 4287789161
-0.2645924985 -0.1582251042 0.5170682669 4287723368
-0.2650984228 -0.1579520255 0.5180569291 4287789161
-0.2651646137 -0.1574157178 0.5181862712 4287789161
-0.2656704485 -0.1571391821 0.5191748142 4287986540
-0.2657363713 -0.1566011906 0.5193036199 4288052331
-0.2658020854 -0.1560627818 0.5194320679 4287525987
-0.2663078010 -0.1557814777 0.5204203129 4287394401
-0.2663732171 -0.1552414000 0.5205481648 4287789159
-0.2664384842 -0.1547009051 0.5206756592 4287986538
-0.2665035129 -0.1541600376 0.5208027959 4287854952
-0.2661277652 -0.1533648372 0.5200684667 4287854952
-0.2666330338 -0.1530770808 0.5210558772 4287723366
-0.2666974962 -0.1525350213 0.5211818218 4287657827
-0.2667617500 -0.1519925594 0.5213074088 4287855206
-0.2672668397 -0.1517000496 0.5222944617 4287789159
-0.2673307955 -0.1511559039 0.5224195123 4287789159
-0.2678358257 -0.1508599073 0.5234063864 4287986538
-0.2678995132 -0.1503140926 0.5235308409 4288118124
-0.2684044242 -0.1500146240 0.5245175362 4287986538
-0.2684678137 -0.1494671404 0.5246413946 4288052331
-0.2685309649 -0.1489192545 0.5247648954 4288118378
-0.2685939372 -0.1483709961 0.5248879194 4287920999
-0.2690985799 -0.1480654627 0.5258740783 4287986792
-0.2691612542 -0.1475155354 0.5259965658 4288118378
-0.2692237198 -0.1469652057 0.5261186361 4287986792
-0.2697281539 -0.1466549188 0.5271043777 4287855206
-0.2697903216 -0.1461029351 0.5272258520 4288052585
-0.2698522508 -0.1455505639 0.5273469090 4288052585
-0.2703564763 -0.1452355087 0.5283322930 4287855204
-0.2704181373 -0.1446814686 0.5284527540 4287920997
-0.2709222436 -0.1443629414 0.5294378996 4287986792
-0.2709835768 -0.1438072473 0.5295577049 4288052585
-0.2710446715 -0.1432511657 0.5296771526 4288052585
-0.2711055875 -0.1426947117 0.5297961831 4287920999
-0.2716093659 -0.1423701346 0.5307806730 4287789413
-0.2716699243 -0.1418120265 0.5308990479 4287789413
-0.2721735835 -0.1414839774 0.5318832994 4287855206
-0.2722338438 -0.1409242004 0.5320010185 4287855206
-0.2722938955 -0.1403640658 0.5321183801 4287920999
-0.2723537087 -0.1398035586 0.5322353244 4287920999
-0.2728570104 -0.1394694597 0.5332188010 4287920999
-0.2729165256 -0.1389072984 0.5333350897 4287986792
-0.2729758024 -0.1383447796 0.5334509611 4288052585
-0.2734788358 -0.1380059123 0.5344340205 4288052585
-0.2735377848 -0.1374417394 0.5345491767 4288052585
-0.2735965252 -0.1368772089 0.5346639752 4287986792
-0.2736550272 -0.1363123059 0.5347783566 4287920997
-0.2741576731 -0.1359674186 0.5357605815 4288118376
-0.2746602893 -0.1356203258 0.5367428064 4288184169
-0.2747183442 -0.1350525022 0.5368562937 4288118376
-0.2747761905 -0.1344843209 0.5369693041 4288052583
-0.2748337984 -0.1339157820 0.5370818973 4288052583
-0.2748911977 -0.1333468854 0.5371940136 4287986790
-0.2753932774 -0.1329924911 0.5381752253 4287855204
-0.2754503191 -0.1324219704 0.5382866859 4288052583
-0.2755071521 -0.1318510771 0.5383977294 4287986790
-0.2760089040 -0.1314919293 0.5393782854 4287986790
-0.2760653794 -0.1309194267 0.5394886732 4287986790
-0.2761216164 -0.1303465664 0.5395985842 4287920997
-0.2761776447 -0.1297733635 0.5397080779 4287986790
-0.2762334645 -0.1291998029 0.5398170948 4287986792
-0.2767346501 -0.1288333535 0.5407965183 4287855206
-0.2767900825 -0.1282581836 0.5409048796 4287790183
-0.2772911191 -0.1278882772 0.5418839455 4287724390
-0.2773461938 -0.1273114830 0.5419915915 4287724390
-0.2778470218 -0.1269381046 0.5429702997 4287790183
-0.2779017091 -0.1263597012 0.5430772305 4287920999
-0.2784023583 -0.1259828508 0.5440555811 4287789413
-0.2784566879 -0.1254028231 0.5441617370 4287789411
-0.2785107791 -0.1248224750 0.5442674756 4287855204
-0.2790110707 -0.1244408935 0.5452451706 4287855204
-0.2790648043 -0.1238589361 0.5453501344 4287920997
-0.2791182995 -0.1232766360 0.5454546809 4287789411
-0.2791715860 -0.1226940081 0.5455588102 4287855204
-0.2796713710 -0.1223064288 0.5465354919 4288052325
-0.2797242701 -0.1217221990 0.5466388464 4287986532
-0.2802238464 -0.1213311553 0.5476151705 4288183911
-0.2807233632 -0.1209379137 0.5485913157 4288118118
-0.2812228203 -0.1205424666 0.5495673418 4288118378
-0.2812750041 -0.1199541241 0.5496693254 4288184171
-0.2813269794 -0.1193654463 0.5497708917 4288315757
-0.2818260491 -0.1189652830 0.5507461429 4288381550
-0.2818776071 -0.1183750182 0.5508469343 4288249964
-0.2819289565 -0.1177844331 0.5509472489 4288118378
-0.2824276388 -0.1173795536 0.5519217849 4288118378
-0.2824785709 -0.1167873889 0.5520213246 4288118378
-0.2825292647 -0.1161949039 0.5521204472 4288118378
-0.2825797200 -0.1156020984 0.5522190332 4287986792
-0.2826299369 -0.1150089800 0.5523171425 4287920999
-0.2831279039 -0.1145968661 0.5532903075 4287986792
-0.2831777334 -0.1140021756 0.5533876419 4288052585
-0.2832272947 -0.1134071723 0.5534844995 4288118378
-0.2837248445 -0.1129903570 0.5544568300 4288184171
-0.2837740183 -0.1123937890 0.5545529127 4288118378
-0.2842713296 -0.1119735315 0.5555247664 4288052583
-0.2843200862 -0.1113753989 0.5556200147 4288118376
-0.2848171294 -0.1109516919 0.5565913320 4287921767
-0.2848654687 -0.1103520021 0.5566858053 4287987560
-0.2853622437 -0.1099248528 0.5576566458 4287986790
-0.2854101658 -0.1093236133 0.5577502847 4287789411
-0.2854578495 -0.1087220758 0.5578434467 4287789411
-0.2859541774 -0.1082902327 0.5588133931 4287657825
-0.2860014439 -0.1076871455 0.5589057803 4287657825
-0.2860484421 -0.1070837602 0.5589976311 4287789411
-0.2860952020 -0.1064800769 0.5590890050 4287920997
-0.2865909338 -0.1060423106 0.5600577593 4287855204
-0.2870865464 -0.1056023464 0.5610262752 4287657825
-0.2871326804 -0.1049958840 0.5611164570 4287657825
-0.2871786058 -0.1043891311 0.5612061620 4287723618
-0.2876737416 -0.1039445028 0.5621737838 4287657825
-0.2877192199 -0.1033362150 0.5622626543 4287657825
-0.2882140577 -0.1028881595 0.5632296801 4287723618
-0.2882591188 -0.1022783518 0.5633177161 4287723105
-0.2883038819 -0.1016682535 0.5634052157 4287854691
-0.2887982726 -0.1012155339 0.5643712878 4287986277
-0.2888425887 -0.1006039232 0.5644579530 4287986277
