VERSION 0.7
FIELDS x y z rgba
SIZE 4 4 4 4
TYPE F F F U
COUNT 1 1 1 1
WIDTH 920
HEIGHT 1
VIEWPOINT 0.0 0.0 0.0 1.0 0.0 0.0 0.0
POINTS 920
DATA ascii
-0.2568895221 -0.1647607982 0.5177477002 4280756783
-0.2565293014 -0.1639553010 0.5170216560 4280625199
-0.2561686635 -0.1631511748 0.5162947774 4280822578
-0.2566631436 -0.1628913581 0.5172914267 4281481021
-0.2563019097 -0.1620881706 0.5165634155 4283060053
-0.2576522529 -0.1623651832 0.5192849636 4284046948
-0.2568625510 -0.1612923443 0.5176933408 4284178534
-0.2586415112 -0.1618302315 0.5212787390 4284178280
-0.2595645189 -0.1618265063 0.5231389999 4284178280
-0.2669143081 -0.1658110321 0.5379521251 4284507247
-0.2626969218 -0.1626028866 0.5294522047 4284770419
-0.2713367343 -0.1673431098 0.5468652844 4284704624
-0.2692616880 -0.1654603928 0.5426831245 4284638831
-0.2749742270 -0.1677392274 0.5541964769 4284507245
-0.2771886587 -0.1684693694 0.5586595535 4284112230
-0.2819791436 -0.1707494706 0.5683144927 4283717472
-0.2829080522 -0.1706784517 0.5701867342 4283519321
-0.2834078074 -0.1703453064 0.5711939335 4282927184
-0.2847665846 -0.1705243289 0.5739324689 4282269254
-0.2856961489 -0.1704412252 0.5758059621 4281545531
-0.2861962020 -0.1700986624 0.5768138170 4280953648
-0.2862664461 -0.1694993675 0.5769553781 4281282613
-0.2863364518 -0.1688996255 0.5770964622 4282400581
-0.2868362963 -0.1685521603 0.5781039000 4282926925
-0.2864758670 -0.1676988453 0.5773774385 4282663753
-0.2852544785 -0.1663450897 0.5749158263 4282137409
-0.2866143882 -0.1664963067 0.5776566267 4282006336
-0.2871137857 -0.1661434621 0.5786631107 4282401094
-0.2880437374 -0.1660365760 0.5805373788 4282400840
-0.2876818776 -0.1651837975 0.5798081160 4282335047
-0.2894734442 -0.1655642539 0.5834189057 4283256921
-0.2908347249 -0.1656915843 0.5861625075 4284835953
-0.2926273644 -0.1660575867 0.5897754431 4285822594
-0.2939895391 -0.1661722362 0.5925208330 4286151559
-0.2962144017 -0.1667664945 0.5970050097 4285954693
-0.2980087996 -0.1671094000 0.6006215215 4285823107
-0.2998037934 -0.1674445868 0.6042391658 4285954694
-0.3015993237 -0.1677720547 0.6078580022 4286086280
-0.3029638827 -0.1678526849 0.6106082201 4286152589
-0.3047604561 -0.1681655943 0.6142290831 4286086796
-0.3052622974 -0.1677589267 0.6152405143 4286217866
-0.3057640791 -0.1673499793 0.6162518263 4286481038
-0.3062658012 -0.1669387817 0.6172630787 4285888901
-0.3067675233 -0.1665252894 0.6182742119 4287073175
-0.3120886683 -0.1400616020 0.6289987564 4288521640
-0.3117121756 -0.1391946077 0.6282399297 4288653226
-0.3113352358 -0.1383291036 0.6274802089 4288126882
-0.3109578788 -0.1374651194 0.6267196536 4288324524
-0.3097076714 -0.1362189054 0.6241999269 4287995559
-0.3102018535 -0.1357416362 0.6251959801 4287732387
-0.3093868494 -0.1346921772 0.6235533357 4287469215
-0.3085712492 -0.1336461157 0.6219095588 4287205528
-0.3055723906 -0.1316630095 0.6158655286 4286942356
-0.3065016866 -0.1313770562 0.6177384257 4286679184
-0.3048108518 -0.1299697459 0.6143307090 4286481805
-0.3048662245 -0.1293106675 0.6144422889 4286679184
-0.3040476441 -0.1282826066 0.6127924919 4286350219
-0.3045392632 -0.1278080642 0.6137832999 4286481035
-0.3032827377 -0.1266015917 0.6112508774 4286020484
-0.3028996885 -0.1257634014 0.6104788184 4283125592
-0.3020790219 -0.1247462183 0.6088247895 4281414974
-0.3016950488 -0.1239120662 0.6080508828 4281086009
-0.2999987006 -0.1225435510 0.6046320200 4284770417
-0.3034130335 -0.2086552829 0.6128854156 4287204760
-0.3026483357 -0.2074501514 0.6113407016 4280691505
-0.3027321100 -0.2068281472 0.6115099192 4280757298
-0.3028156757 -0.2062056363 0.6116787791 4280493611
-0.3028990626 -0.2055826038 0.6118471622 4280362025
-0.3034071624 -0.2052465081 0.6128735542 4280822831
-0.3034902513 -0.2046215832 0.6130413413 4280822831
-0.3035731018 -0.2039961368 0.6132087111 4280822831
-0.3040810525 -0.2036550045 0.6142347455 4280822831
-0.3037382066 -0.2027437091 0.6135422587 4280953648
-0.3033949435 -0.2018336505 0.6128488183 4280953648
-0.3030512333 -0.2009248435 0.6121545434 4280953394
-0.3018555641 -0.1994546503 0.6097393632 4280953394
-0.3006590009 -0.1979892403 0.6073223352 4280887854
-0.2986096144 -0.1959694922 0.6031826138 4280953647
-0.2628977299 -0.1719427109 0.5310456753 4280822831
-0.2591318488 -0.1688981503 0.5234386921 4280757038
-0.2579216659 -0.1675305068 0.5209941864 4280691245
-0.2571370602 -0.1664437652 0.5194092989 4280757038
-0.2563518286 -0.1653601378 0.5178231001 4280822576
-0.2568458915 -0.1651023924 0.5188211203 4280756783
-0.2564865053 -0.1642957330 0.5180951357 4280690992
-0.2561266720 -0.1634904146 0.5173683763 4280888371
-0.2566204369 -0.1632296443 0.5183657408 4281941572
-0.2566871345 -0.1626959890 0.5185004473 4283454811
-0.2576080859 -0.1627015471 0.5203607082 4283849315
-0.2568199933 -0.1616274118 0.5187687874 4284178280
-0.2607330084 -0.1635048687 0.5266730189 4284112487
-0.2629376650 -0.1642972827 0.5311263204 4284375659
-0.2672814727 -0.1664116532 0.5399007201 4284638831
-0.2652108967 -0.1645272672 0.5357182026 4284704624
-0.2704127729 -0.1671474278 0.5462258458 4284507245
-0.2700533867 -0.1663191915 0.5454998612 4284244073
-0.2722620666 -0.1670684218 0.5499613881 4284112487
-0.2766126096 -0.1691172421 0.5587493181 4283849315
-0.2775387168 -0.1690605581 0.5606200099 4283520091
-0.2810354829 -0.1705598384 0.5676833391 4283059540
-0.2798200846 -0.1691942066 0.5652282834 4282795598
-0.2828900516 -0.1704155803 0.5714295506 4282269254
-0.2842463851 -0.1705947220 0.5741693377 4281282613
-0.2847454846 -0.1702551991 0.5751774907 4280756269
-0.2839577794 -0.1691469103 0.5735863447 4281216820
-0.2844565809 -0.1688056141 0.5745939016 4282335301
-0.2849553525 -0.1684620678 0.5756013989 4283190096
-0.2845956087 -0.1676106751 0.5748747587 4282663752
-0.2838061154 -0.1665087342 0.5732799768 4281940030
-0.2838748991 -0.1659119874 0.5734189153 4282071616
-0.2856617272 -0.1663151979 0.5770282745 4282072129
-0.2861601710 -0.1659631580 0.5780351162 4282203715
-0.2862288356 -0.1653605700 0.5781738162 4282598219
-0.2884466350 -0.1659944952 0.5826537013 4283453528
-0.2898053229 -0.1661259532 0.5853981972 4284638574
-0.2911643684 -0.1662515402 0.5881434679 4285822848
-0.2929540277 -0.1666159183 0.5917584896 4285823107
-0.2943139374 -0.1667288393 0.5945054889 4285823107
-0.2961046696 -0.1670787185 0.5981226563 4285559936
-0.2978959382 -0.1674208790 0.6017410159 4285559936
-0.2992572188 -0.1675142944 0.6044907570 4285757829
-0.3006188571 -0.1676018089 0.6072412729 4285823622
-0.3024116755 -0.1679226309 0.6108626723 4285823624
-0.3029123843 -0.1675208211 0.6118740439 4286021003
-0.3038440347 -0.1673541367 0.6137560010 4286152589
-0.3043447733 -0.1669468880 0.6147674322 4285889417
-0.3048454523 -0.1665373594 0.6157788038 4286810517
-0.3102171719 -0.1395340264 0.6266295314 4288521640
-0.3098411560 -0.1386695206 0.6258699894 4288784812
-0.3094646931 -0.1378064901 0.6251095533 4288126882
-0.3090878129 -0.1369449794 0.6243482828 4288324524
-0.3087105155 -0.1360849589 0.6235861778 4288061352
-0.3078972995 -0.1350354552 0.6219434738 4287798180
-0.3070834875 -0.1339893341 0.6202995777 4287535008
-0.3062690794 -0.1329466254 0.6186545491 4287271834
-0.3058898449 -0.1320954859 0.6178885102 4287074455
-0.3050743639 -0.1310586333 0.6162412167 4286876563
-0.3046942055 -0.1302114874 0.6154733300 4286679184
-0.3025697172 -0.1286245137 0.6111819148 4286876563
-0.3021883965 -0.1277842075 0.6104116440 4286481805
-0.3026789427 -0.1273123175 0.6114025116 4286349449
-0.3022969365 -0.1264731884 0.6106308699 4286283656
-0.3014782369 -0.1254540533 0.6089771390 4283783522
-0.3010953367 -0.1246189550 0.6082037091 4281546560
-0.3007120192 -0.1237854064 0.6074293852 4281612096
-0.3007647991 -0.1231321171 0.6075360179 4283125335
-0.2999441326 -0.1221229658 0.6058782935 4289902265
-0.3011602759 -0.2075717598 0.6097027659 4284638833
-0.3012439311 -0.2069518119 0.6098721623 4280362540
-0.3013274074 -0.2063313574 0.6100411415 4280757298
-0.3014106750 -0.2057103813 0.6102097034 4280559659
-0.3019177616 -0.2053773403 0.6112362742 4280493866
-0.3020007312 -0.2047544718 0.6114042401 4280822831
-0.3020834923 -0.2041310817 0.6115717888 4280822831
-0.3021660447 -0.2035071701 0.6117389202 4280822831
-0.3018238842 -0.2025978118 0.6110461950 4280822831
-0.3019059002 -0.2019737661 0.6112122536 4280953648
-0.3015629649 -0.2010660172 0.6105179787 4280887855
-0.3007947505 -0.1998772174 0.6089627147 4280887601
-0.3000258505 -0.1986914277 0.6074061394 4280887601
-0.2979810834 -0.1966669858 0.6032664180 4280887852
-0.2955097556 -0.1943712085 0.5982632041 4280953645
-0.2615640759 -0.1714551300 0.5295397639 4280887854
-0.2586558163 -0.1689669341 0.5236519575 4280822061
-0.2570223808 -0.1673217565 0.5203450322 4280822061
-0.2566647828 -0.1665116251 0.5196210742 4280887854
-0.2563067973 -0.1657028496 0.5188963413 4280822576
-0.2559483945 -0.1648954302 0.5181707144 4280822576
-0.2560155690 -0.1643628329 0.5183067322 4280625199
-0.2560825646 -0.1638298184 0.5184423923 4281085750
-0.2561493814 -0.1632963866 0.5185776353 4282533196
-0.2566423416 -0.1630333513 0.5195756555 4283914849
-0.2571353316 -0.1627681255 0.5205736756 4283914851
-0.2584814131 -0.1630387902 0.5232988596 4284243816
-0.2598280013 -0.1633037031 0.5260249972 4284112487
-0.2611750364 -0.1635628492 0.5287520885 4284375659
-0.2629494071 -0.1640825868 0.5323443413 4284507245
-0.2651514411 -0.1648602486 0.5368024111 4284441452
-0.2677814364 -0.1658931375 0.5421268940 4284178280
-0.2708397508 -0.1671785712 0.5483185053 4283849315
-0.2726174891 -0.1676626652 0.5519174933 4283520604
-0.2731136382 -0.1673534811 0.5529220104 4283191639
-0.2748923898 -0.1678250730 0.5565230846 4282862161
-0.2800927460 -0.1703699231 0.5670512915 4282270024
-0.2793072462 -0.1692638844 0.5654610395 4282137922
-0.2815159857 -0.1699691713 0.5699326396 4281611578
-0.2807299793 -0.1688631326 0.5683413744 4281085234
-0.2829396725 -0.1695558578 0.5728149414 4281677371
-0.2830094695 -0.1689610779 0.5729562044 4282795851
-0.2826507688 -0.1681111455 0.5722300410 4283387988
-0.2818632722 -0.1670087576 0.5706357360 4283190096
-0.2836459875 -0.1674270183 0.5742448568 4282137408
-0.2811435759 -0.1653175354 0.5691787004 4281414199
-0.2846411765 -0.1667339206 0.5762596726 4281808957
-0.2859963477 -0.1668844074 0.5790031552 4282006336
-0.2869230211 -0.1667797416 0.5808792710 4282466887
-0.2874208987 -0.1664226353 0.5818872452 4283519321
-0.2883478701 -0.1663107574 0.5837638378 4284637802
-0.2897042036 -0.1664414108 0.5865097642 4285296504
-0.2910609245 -0.1665661782 0.5892565250 4285757055
-0.2928474545 -0.1669298261 0.5928733349 4285362556
-0.2946345508 -0.1672857702 0.5964913368 4285428349
-0.2959926426 -0.1673910618 0.5992408395 4285559936
-0.2977808118 -0.1677324921 0.6028609872 4285494143
-0.2991397679 -0.1678250730 0.6056122184 4285494657
-0.3004990816 -0.1679117531 0.6083641648 4285757829
-0.3014287651 -0.1677532047 0.6102463007 4285889417
-0.3019285202 -0.1673521698 0.6112580895 4285955210
-0.3028584123 -0.1671863645 0.6131407022 4285626245
-0.3029279113 -0.1665433198 0.6132813692 4286810519
-0.3092182875 -0.1393974870 0.6260163188 4289178800
-0.3088429272 -0.1385335624 0.6252563596 4288849835
-0.3080326617 -0.1374772340 0.6236159801 4288455077
-0.3076563478 -0.1366172433 0.6228541732 4288258988
-0.3077142537 -0.1359507889 0.6229713559 4288127402
-0.3073371947 -0.1350928843 0.6222079992 4287929766
-0.3065249026 -0.1340463459 0.6205635071 4287666594
-0.3048422933 -0.1326248199 0.6171570420 4287403420
-0.3031587899 -0.1312104762 0.6137487888 4287140248
-0.3040845394 -0.1309271604 0.6156229973 4286942356
-0.3028348386 -0.1297078878 0.6130928993 4286744977
-0.3011491895 -0.1283085048 0.6096802950 4286810770
-0.3020742536 -0.1280231625 0.6115531325 4286613391
-0.3008226454 -0.1268160492 0.6090192199 4286546828
-0.3013119996 -0.1263445765 0.6100099087 4286612621
-0.3009302616 -0.1255075932 0.6092370749 4284704624
-0.3005481064 -0.1246721670 0.6084634066 4282072904
-0.2992942035 -0.1234788075 0.6059249043 4282204490
-0.2993468046 -0.1228271574 0.6060313582 4282138697
-0.2989633083 -0.1219973266 0.6052549481 4288059289
-0.2993358970 -0.2067792714 0.6073749661 4282336076
-0.2994191051 -0.2061617374 0.6075438261 4280230954
-0.2995021343 -0.2055436969 0.6077123284 4280494126
-0.3000081182 -0.2052145749 0.6087389588 4280428073
-0.3000908494 -0.2045946419 0.6089068055 4280230694
-0.3001733720 -0.2039741725 0.6090742946 4280822831
-0.3002556860 -0.2033532113 0.6092413068 4280822831
-0.2999142110 -0.2024457902 0.6085484028 4280822829
-0.3004197180 -0.2021097392 0.6095741391 4280757036
-0.3000775874 -0.2012030482 0.6088799238 4280887854
-0.2997350097 -0.2002976239 0.6081848145 4280887854
-0.2989679277 -0.1991110146 0.6066283584 4280887855
-0.2977760136 -0.1976458728 0.6042098403 4280887855
-0.2961588800 -0.1959048510 0.6009286046 4280887854
-0.2690760493 -0.1773833334 0.5459755063 4280887854
-0.2610820234 -0.1715248227 0.5297550559 4280822061
-0.2581791878 -0.1690356731 0.5238649249 4280822061
-0.2569735646 -0.1676669866 0.5214186311 4280887855
-0.2561919391 -0.1665794253 0.5198326707 4280887855
-0.2558346689 -0.1657703519 0.5191076994 4280756783
-0.2559020519 -0.1652371138 0.5192444921 4280822576
-0.2559692860 -0.1647034585 0.5193808675 4280559404
-0.2560363114 -0.1641693711 0.5195168853 4281414713
-0.2556777596 -0.1633630544 0.5187893510 4283125333
-0.2561698556 -0.1630999446 0.5197878480 4284046435
-0.2570876181 -0.1631046832 0.5216500759 4283980644
-0.2584314048 -0.1633746028 0.5243766904 4284178023
-0.2602015138 -0.1639070213 0.5279684067 4283980901
-0.2615463734 -0.1641645283 0.5306971669 4284112487
-0.2633177340 -0.1646827310 0.5342914462 4284112741
-0.2655159831 -0.1654589623 0.5387519002 4283981155
-0.2677151561 -0.1662258357 0.5432141423 4283717983
-0.2729000151 -0.1688299179 0.5537346005 4283520604
-0.2751016915 -0.1695717871 0.5582019687 4283191126
-0.2768776417 -0.1700422466 0.5618054867 4282796368
-0.2769472897 -0.1694606841 0.5619468689 4282204229
-0.2787241042 -0.1699195206 0.5655521154 4281414713
-0.2796476781 -0.1698521078 0.5674261451 4280887855
-0.2805714905 -0.1697806716 0.5693005919 4280756269
-0.2819226384 -0.1699627191 0.5720422268 4281545784
-0.2811379433 -0.1688558161 0.5704499483 4283124816
-0.2816346884 -0.1685192436 0.5714579225 4283651160
-0.2812764943 -0.1676708013 0.5707311630 4282795851
-0.2804903090 -0.1665697992 0.5691359043 4281742650
-0.2818419039 -0.1667370498 0.5718783736 4281084720
-0.2819105685 -0.1661421061 0.5720176697 4281282613
-0.2841184437 -0.1668027788 0.5764976740 4281479992
-0.2829032242 -0.1654515415 0.5740318298 4282071875
-0.2872523963 -0.1673474908 0.5828566551 4283453528
-0.2886060178 -0.1674854457 0.5856032968 4284835951
-0.2882468402 -0.1666271687 0.5848744512 4285230709
-0.2896008492 -0.1667569876 0.5876218677 4285164918
-0.2913837731 -0.1671267152 0.5912395120 4285362297
-0.2927386463 -0.1672438681 0.5939887166 4285230970
-0.2945226431 -0.1675990820 0.5976085067 4285033591
-0.2958784103 -0.1677035391 0.6003594995 4285362557
-0.2972345352 -0.1678020954 0.6031111479 4285230971
-0.2985910475 -0.1678947508 0.6058636308 4285297278
-0.2995188236 -0.1677411646 0.6077461243 4285823622
-0.3004467487 -0.1675835103 0.6096289754 4285494657
-0.3009455502 -0.1671832651 0.6106410623 4285034106
-0.3014442921 -0.1667807400 0.6116530895 4286481554
-0.3069783747 -0.1380075216 0.6228821874 4288718249
-0.3070367277 -0.1373415738 0.6230005622 4288586663
-0.3057935834 -0.1360960901 0.6204781532 4288521903
-0.3062850237 -0.1356243044 0.6214752793 4288390317
-0.3059085310 -0.1347679347 0.6207113266 4288127145
-0.3055315912 -0.1339130849 0.6199465394 4287798180
-0.3047201931 -0.1328704655 0.6183001399 4287535006
-0.3026057184 -0.1312662661 0.6140097380 4287206041
-0.3030956089 -0.1307954490 0.6150037646 4286942356
-0.3005451858 -0.1290173084 0.6098287702 4286810770
-0.3019031286 -0.1289196014 0.6125840545 4286876563
-0.3010888696 -0.1278931201 0.6109319329 4286876563
-0.3002740741 -0.1268700659 0.6092786193 4286547598
-0.3003279567 -0.1262157559 0.6093879938 4286679184
-0.2999468744 -0.1253793836 0.6086147428 4285296761
-0.2991305888 -0.1243638024 0.6069584489 4282467662
-0.2965742946 -0.1226324141 0.6017715335 4282336076
-0.2961915135 -0.1218063906 0.6009948254 4281743939
-0.2958083451 -0.1209819168 0.6002172828 4286282878
-0.2978544235 -0.2068936527 0.6057340503 4288060067
-0.2979375422 -0.2062781751 0.6059030890 4281217595
-0.2980204225 -0.2056621909 0.6060717106 4280691503
-0.2981031239 -0.2050456852 0.6062398553 4280625710
-0.2986080050 -0.2047182322 0.6072666049 4280559659
-0.2986904085 -0.2040998191 0.6074342132 4280164901
-0.2987726331 -0.2034809142 0.6076014042 4280757036
-0.2988546193 -0.2028614879 0.6077681780 4280757036
-0.2985135913 -0.2019554973 0.6070746183 4280757036
-0.2985950708 -0.2013359368 0.6072403193 4280757036
-0.2982532978 -0.2004315704 0.6065452695 4280887854
-0.2979110777 -0.1995284408 0.6058493257 4280887854
-0.2971451581 -0.1983440369 0.6042916775 4280887855
-0.2955317497 -0.1965993345 0.6010105610 4280887855
-0.2934937179 -0.1945803910 0.5968658924 4280953647
-0.2630714476 -0.1738166213 0.5349974036 4280887854
-0.2601756454 -0.1713154465 0.5291083455 4280691245
-0.2585496604 -0.1696605831 0.5258016586 4280691245
-0.2569225729 -0.1680123657 0.5224927068 4280756783
-0.2561425865 -0.1669235229 0.5209064484 4280690990
-0.2557861209 -0.1661132723 0.5201815367 4280690990
-0.2554292679 -0.1653043777 0.5194558501 4280756783
-0.2554964125 -0.1647705287 0.5195924044 4280756783
-0.2551388741 -0.1639634371 0.5188652277 4281875264
-0.2556301951 -0.1637015790 0.5198643804 4283389018
-0.2561215460 -0.1634375155 0.5208636522 4283783776
-0.2570377886 -0.1634414047 0.5227269530 4283849315
-0.2583792508 -0.1637105793 0.5254550576 4283980901
-0.2601462603 -0.1642423570 0.5290485620 4283981155
-0.2619139552 -0.1647665799 0.5326434374 4284046948
-0.2641076446 -0.1655498296 0.5371046662 4283849569
-0.2658767998 -0.1660580337 0.5407025218 4283652190
-0.2684976757 -0.1670882702 0.5460324883 4283322712
-0.2745246291 -0.1702185869 0.5582892299 4282993747
-0.2699111998 -0.1667481512 0.5489071012 4282598987
-0.2738119066 -0.1685392857 0.5568398237 4282072643
-0.2764365077 -0.1695301831 0.5621773601 4281545785
-0.2786361575 -0.1702495664 0.5666506886 4280756269
-0.2782797217 -0.1694030017 0.5659258366 4280887855
-0.2796279192 -0.1695918888 0.5686675906 4281414199
-0.2801238000 -0.1692596972 0.5696760416 4282926924
-0.2801932395 -0.1686685234 0.5698172450 4283519061
-0.2808270156 -0.1671464443 0.5711061358 4280887341
-0.2813225985 -0.1668057442 0.5721139908 4280821548
-0.2809641957 -0.1659583747 0.5713850856 4281348152
-0.2835950553 -0.1668715775 0.5767353773 4282071875
-0.2823821306 -0.1655198038 0.5742686987 4283059540
-0.2850141227 -0.1664185673 0.5796212554 4284441193
-0.2867923081 -0.1668088287 0.5832375288 4285362297
-0.2911361754 -0.1686775386 0.5920714736 4285362297
-0.2894952595 -0.1670727134 0.5887343884 4285033332
-0.2899919152 -0.1667040735 0.5897443891 4285164918
-0.2926276028 -0.1675580293 0.5951045156 4285165177
-0.2939805388 -0.1676684618 0.5978559256 4285165177
-0.2953338623 -0.1677729934 0.6006081104 4285099385
-0.2966875732 -0.1678716242 0.6033610702 4284836213
-0.2976134121 -0.1677230150 0.6052439809 4285363073
-0.2985394299 -0.1675703228 0.6071271896 4285363073
-0.2994656265 -0.1674135476 0.6090106964 4284902520
-0.2999634445 -0.1670140773 0.6100231409 4286284173
-0.3055506945 -0.1376759559 0.6213856339 4288521640
-0.3051759601 -0.1368175447 0.6206235290 4288521640
-0.3048007786 -0.1359606385 0.6198605895 4288719282
-0.3044252098 -0.1351052523 0.6190968156 4288521903
-0.3040491939 -0.1342513710 0.6183321476 4288258731
-0.3032395840 -0.1332087070 0.6166856289 4287863973
-0.3032959402 -0.1325481534 0.6168002486 4287600801
-0.3024853170 -0.1315104067 0.6151517034 4287271836
-0.3016740978 -0.1304760724 0.6135020256 4287008151
-0.3008623421 -0.1294451654 0.6118511558 4286810772
-0.2987491786 -0.1278609484 0.6075537205 4287008151
-0.2992370427 -0.1273936182 0.6085458398 4286876565
-0.2988573015 -0.1265566647 0.6077736020 4286481807
-0.2984771430 -0.1257212609 0.6070004702 4286481807
-0.2980965674 -0.1248873994 0.6062265038 4285100154
-0.2972815931 -0.1238742471 0.6045691371 4281942090
-0.2973341644 -0.1232243180 0.6046760678 4281678146
-0.2969523668 -0.1223951131 0.6038995981 4281086009
-0.2948332727 -0.1208554953 0.5995901227 4284769641
-0.2964588404 -0.2063904405 0.6042608023 4286086277
-0.2965416312 -0.2057765126 0.6044295430 4280493872
-0.2966242135 -0.2051620632 0.6045978665 4280691505
-0.2967066169 -0.2045471072 0.6047657728 4280428333
-0.2967887819 -0.2039316446 0.6049333215 4280428073
-0.2972924411 -0.2036044598 0.6059598923 4280164901
-0.2973743379 -0.2029871047 0.6061268449 4280757036
-0.2970341146 -0.2020821720 0.6054333448 4280757036
-0.2971154749 -0.2014646679 0.6055991650 4280757036
-0.2967744768 -0.2005613595 0.6049041748 4280757036
-0.2960107923 -0.1993748844 0.6033475399 4280887852
-0.2965135872 -0.1990420371 0.6043723822 4280887852
-0.2953264117 -0.1975762993 0.6019526124 4280887855
-0.2937157154 -0.1958335787 0.5986695886 4280887855
-0.2908357382 -0.1932547241 0.5927994251 4280888624
-0.2604693770 -0.1724869907 0.5309048295 4280822831
-0.2592702806 -0.1711057574 0.5284607410 4280690990
-0.2580702901 -0.1697293967 0.5260148644 4280690990
-0.2568694651 -0.1683579087 0.5235672593 4280690990
-0.2556677759 -0.1669912934 0.5211179256 4280625197
-0.2553120553 -0.1661807448 0.5203928351 4280625197
-0.2553794384 -0.1656462550 0.5205301642 4280822576
-0.2550230026 -0.1648375243 0.5198037028 4280888882
-0.2550898790 -0.1643030792 0.5199400187 4282204742
-0.2547327578 -0.1634961665 0.5192121267 4283586397
-0.2556470931 -0.1635040790 0.5210757852 4283454811
-0.2569857836 -0.1637782604 0.5238043666 4283783776
-0.2583249211 -0.1640466899 0.5265339017 4283849569
-0.2600888312 -0.1645778269 0.5301291943 4283981155
-0.2622778118 -0.1653690040 0.5345908999 4284112741
-0.2644677162 -0.1661508232 0.5390544534 4283651675
-0.2666584849 -0.1669232845 0.5435198545 4283256917
-0.2688501775 -0.1676863879 0.5479871035 4282664780
-0.2710427344 -0.1684401035 0.5524561405 4282204229
-0.2745110095 -0.1699737906 0.5595253706 4281875264
-0.2754305005 -0.1699193865 0.5613995194 4281414713
-0.2763502300 -0.1698609442 0.5632742047 4281085234
-0.2776954472 -0.1700589061 0.5660160780 4280558890
-0.2773396373 -0.1692129225 0.5652908087 4281611065
-0.2786852717 -0.1694028229 0.5680336356 4282663753
-0.2787546217 -0.1688136905 0.5681749582 4283716440
-0.2788237631 -0.1682241261 0.5683158636 4282400580
-0.2788926959 -0.1676341146 0.5684564114 4280689962
-0.2789614201 -0.1670436710 0.5685964823 4280624169
-0.2794559300 -0.1667069197 0.5696043968 4280887084
-0.2790982425 -0.1658614725 0.5688753128 4280952877
-0.2821497917 -0.1670359671 0.5750951767 4281480508
-0.2817920744 -0.1661860496 0.5743660927 4283125333
-0.2831396163 -0.1663395315 0.5771127343 4284572781
-0.2849140763 -0.1667367667 0.5807295442 4284967539
-0.2879690230 -0.1678724140 0.5869563222 4285033078
-0.2893182635 -0.1680037677 0.5897064209 4284967285
-0.2910947502 -0.1683761030 0.5933273435 4284967285
-0.2907371819 -0.1675108671 0.5925984979 4285098871
-0.2925143242 -0.1678723395 0.5962207913 4284770419
-0.2938649058 -0.1679819375 0.5989736915 4284770419
-0.2947886586 -0.1678423882 0.6008565426 4285099385
-0.2957125902 -0.1676987559 0.6027397513 4284902006
-0.2966367006 -0.1675510257 0.6046233177 4285033338
-0.2975609601 -0.1673992127 0.6065071821 4284835959
-0.2984853983 -0.1672433168 0.6083914638 4285823624
-0.3036934435 -0.1371489018 0.6190068126 4288653226
-0.3037512898 -0.1364871264 0.6191247106 4288653226
-0.3038088679 -0.1358249784 0.6192420721 4288850613
-0.3034339547 -0.1349701881 0.6184778810 4288587441
-0.3030585945 -0.1341169029 0.6177128553 4288258476
-0.3026828468 -0.1332651377 0.6169469357 4287929511
-0.3018741608 -0.1322254539 0.6152986288 4287600801
-0.3010649085 -0.1311891824 0.6136491895 4287337629
-0.3002550900 -0.1301563233 0.6119985580 4287139737
-0.2994446754 -0.1291268915 0.6103467345 4286810772
-0.2977681160 -0.1277295649 0.6069294214 4287008151
-0.2973892689 -0.1268935800 0.6061572433 4286744979
-0.2974430025 -0.1262429059 0.6062667370 4286416014
-0.2974964678 -0.1255918741 0.6063757539 4286547600
-0.2971165478 -0.1247586161 0.6056013703 4285297533
-0.2967362404 -0.1239269152 0.6048262119 4281942090
-0.2959222496 -0.1229168028 0.6031670570 4281152574
-0.2955410182 -0.1220891550 0.6023900509 4280757816
-0.2951593995 -0.1212630719 0.6016121507 4283717723
-0.2926098704 -0.1195529699 0.5964155793 4291415504
-0.2950657606 -0.2058866769 0.6027859449 4283520350
-0.2947277725 -0.2049818784 0.6020954847 4280888630
-0.2948099375 -0.2043698579 0.6022632718 4280888884
-0.2953125536 -0.2040479928 0.6032900810 4280954677
-0.2958151996 -0.2037238628 0.6043169498 4280954164
-0.2958969772 -0.2031085491 0.6044840217 4280756785
-0.2955575287 -0.2022046894 0.6037905216 4280822576
-0.2956387699 -0.2015892416 0.6039565206 4280756783
-0.2957198322 -0.2009732872 0.6041221023 4280822576
-0.2958006561 -0.2003568262 0.6042872667 4280822576
-0.2954598367 -0.1994553208 0.6035909653 4280691245
-0.2951185405 -0.1985550821 0.6028937697 4280757038
-0.2947768569 -0.1976560950 0.6021957397 4280953647
-0.2935910523 -0.1961946040 0.5997732878 4280887854
-0.2915605009 -0.1941758841 0.5956250429 4280822576
-0.2595627904 -0.1722766459 0.5302574039 4280756783
-0.2583658695 -0.1708957702 0.5278121829 4280625452
-0.2571680546 -0.1695197672 0.5253652334 4280625452
-0.2559694052 -0.1681486517 0.5229164958 4280625452
-0.2551923990 -0.1670589894 0.5213291645 4280625452
-0.2548373938 -0.1662481576 0.5206039548 4280756783
-0.2549046874 -0.1657134891 0.5207414031 4280954162
-0.2541261315 -0.1646305323 0.5191509128 4281415228
-0.2546158135 -0.1643698364 0.5201512575 4282665295
-0.2542594075 -0.1635626256 0.5194231868 4283586395
-0.2555952668 -0.1638418287 0.5221521854 4283586395
-0.2569316030 -0.1641152799 0.5248821974 4283520604
-0.2582684457 -0.1643829495 0.5276131630 4283849569
-0.2604527175 -0.1651820391 0.5320754051 4283915108
-0.2626379132 -0.1659717858 0.5365395546 4283586143
-0.2644003034 -0.1664853692 0.5401399136 4283519323
-0.2665871978 -0.1672572941 0.5446074605 4282927186
-0.2687749565 -0.1680198461 0.5490767956 4282532680
-0.2709636092 -0.1687730104 0.5535479784 4281808957
-0.2727290094 -0.1692535728 0.5571544766 4281348403
-0.2732222676 -0.1689395308 0.5581621528 4281151024
-0.2767556906 -0.1698679626 0.5653805733 4281348657
-0.2768250704 -0.1692821980 0.5655222535 4282532677
-0.2777436078 -0.1692134738 0.5673987269 4283716951
-0.2773879766 -0.1683672071 0.5666722059 4282400580
-0.2774568200 -0.1677792221 0.5668128729 4280689962
-0.2779504657 -0.1674468517 0.5678213239 4280492583
-0.2780190110 -0.1668570936 0.5679613948 4280360997
-0.2789377868 -0.1667753756 0.5698382854 4280690476
-0.2785808146 -0.1659296155 0.5691090226 4281611578
-0.2803505063 -0.1663473547 0.5727243423 4282993495
-0.2829718590 -0.1672604680 0.5780794621 4284111976
-0.2843173742 -0.1674104333 0.5808281898 4284769906
-0.2860890031 -0.1678042412 0.5844474435 4284572527
-0.2848804295 -0.1664487422 0.5819784999 4284572527
-0.2875044346 -0.1673292965 0.5873389840 4284638320
-0.2901294231 -0.1681985259 0.5927015543 4284572527
-0.2914770246 -0.1683181822 0.5954545736 4284572527
-0.2936774790 -0.1689222902 0.5999498367 4284111976
-0.2928943336 -0.1678070128 0.5983499885 4284440941
-0.2925370336 -0.1669383049 0.5976200104 4284573040
-0.2947385013 -0.1675256044 0.6021174192 4285033591
-0.2952342331 -0.1671372354 0.6031301022 4284046696
-0.2961566448 -0.1669872105 0.6050145030 4285691521
-0.3022714853 -0.1368164718 0.6175064445 4289048496
-0.3023290932 -0.1361563206 0.6176241040 4288456359
-0.3023864627 -0.1354957968 0.6177412868 4288916398
-0.3024435639 -0.1348349005 0.6178579330 4288719019
-0.3012058139 -0.1335994154 0.6153293848 4288521388
-0.3003989458 -0.1325596869 0.6136810184 4288192423
-0.2995914817 -0.1315233558 0.6120315194 4287929253
-0.2992152274 -0.1306790113 0.6112627983 4287534495
-0.2988385558 -0.1298362017 0.6104933023 4287205277
-0.2980295122 -0.1288082451 0.6088405848 4286942105
-0.2972199321 -0.1277837157 0.6071866751 4286942105
-0.2959776819 -0.1265778244 0.6046488881 4286678933
-0.2960311770 -0.1259287745 0.6047582030 4286678933
-0.2956522107 -0.1250964850 0.6039839983 4286415761
-0.2952727973 -0.1242657527 0.6032088995 4285955463
-0.2948929965 -0.1234365627 0.6024330258 4282665813
-0.2940803170 -0.1224288866 0.6007727981 4280889402
-0.2936996222 -0.1216037571 0.5999950767 4280823609
-0.2924532592 -0.1204239056 0.5974488854 4282665035
-0.2925042808 -0.1197809950 0.5975531340 4291020746
-0.2935928106 -0.2059926987 0.6011407971 4289178802
-0.2936751246 -0.2053823620 0.6013094187 4282007365
-0.2937572896 -0.2047715187 0.6014775634 4281152056
-0.2934194505 -0.2038685083 0.6007858515 4281086263
-0.2939209640 -0.2035483122 0.6018127203 4281020470
-0.2940025032 -0.2029359341 0.6019796729 4280756783
-0.2945039570 -0.2026120871 0.6030064225 4280690990
-0.2945851982 -0.2019978166 0.6031727791 4280822576
-0.2942458987 -0.2010957599 0.6024780869 4280756783
-0.2943266332 -0.2004813552 0.6026433706 4280822576
-0.2939865887 -0.1995809227 0.6019471288 4280822576
-0.2936460972 -0.1986817420 0.6012499928 4280757038
-0.2928843796 -0.1975000650 0.5996903181 4280822831
-0.2917010784 -0.1960385144 0.5972674489 4280953647
-0.2888327241 -0.1934537441 0.5913943648 4280953647
-0.2632203400 -0.1757003218 0.5389521718 4280954162
-0.2586572170 -0.1720659882 0.5296090245 4280888369
-0.2574624419 -0.1706854850 0.5271627307 4280757038
-0.2562668324 -0.1693098545 0.5247146487 4280691245
-0.2554919422 -0.1682166755 0.5231280923 4280756783
-0.2547164559 -0.1671266258 0.5215402246 4280756783
-0.2543621659 -0.1663154960 0.5208147764 4280822578
-0.2544294000 -0.1657806337 0.5209524632 4281085750
-0.2536523342 -0.1646972895 0.5193614364 4281678400
-0.2541411519 -0.1644365042 0.5203622580 4282862674
-0.2537854612 -0.1636290103 0.5196340084 4283586397
-0.2551189065 -0.1639083624 0.5223642588 4283717983
-0.2568753064 -0.1644524336 0.5259605050 4283586397
-0.2582097948 -0.1647193730 0.5286929607 4283849569
-0.2603901625 -0.1655179262 0.5331573486 4283586143
-0.2646855712 -0.1676461548 0.5419523120 4283257178
-0.2626390159 -0.1657524258 0.5377619267 4282992977
-0.2669367492 -0.1678574681 0.5465616584 4282532426
-0.2686975598 -0.1683534384 0.5501670241 4281940543
-0.2708823085 -0.1691060662 0.5546403527 4281414199
-0.2743380070 -0.1706392765 0.5617160201 4280822061
-0.2727136314 -0.1690084934 0.5583900213 4280756268
-0.2753239274 -0.1699998230 0.5637347102 4281677622
-0.2766642570 -0.1701980084 0.5664790869 4282796103
-0.2767336667 -0.1696111411 0.5666211843 4283256400
-0.2763789594 -0.1687650084 0.5658949018 4282269505
-0.2764478326 -0.1681781560 0.5660359263 4280098336
-0.2765165269 -0.1675908715 0.5661765933 4280032543
-0.2765849829 -0.1670031548 0.5663167834 4280427304
-0.2770775855 -0.1666702479 0.5673253536 4279966753
-0.2775701582 -0.1663350910 0.5683339238 4281414199
-0.2789117694 -0.1665045470 0.5710809231 4283059024
-0.2798292041 -0.1664156318 0.5729593635 4284309355
-0.2811715305 -0.1665742695 0.5757079124 4284506734
-0.2829391360 -0.1669777781 0.5793271065 4284309355
-0.2859821320 -0.1681230217 0.5855577588 4284111976
-0.2852010131 -0.1670149863 0.5839583874 4284243562
-0.2873952389 -0.1676461399 0.5884511471 4284309355
-0.2887398005 -0.1677735895 0.5912041664 4284309868
-0.2905100882 -0.1681413203 0.5948288441 4284375661
-0.2927064002 -0.1687466055 0.5993258953 4284178282
-0.2914991379 -0.1673874706 0.5968539715 4284178282
-0.2924192846 -0.1672506034 0.5987380147 4284046696
-0.2933396101 -0.1671096385 0.6006223559 4284244075
-0.2942600846 -0.1669646055 0.6025071144 4285559935
-0.2947548032 -0.1665747464 0.6035200357 4289178550
-0.3009094000 -0.1358251274 0.6161217690 4288653225
-0.3009665310 -0.1351662278 0.6162387729 4288850605
-0.3010234237 -0.1345069557 0.6163552403 4288653226
-0.3006493151 -0.1336558312 0.6155892611 4288521386
-0.2998439670 -0.1326156855 0.6139402986 4288324007
-0.2994689345 -0.1317685395 0.6131724119 4287995046
-0.2986625433 -0.1307342649 0.6115212440 4287666081
-0.2978555560 -0.1297034174 0.6098689437 4287336861
-0.2974791229 -0.1288627386 0.6090981364 4287073689
-0.2962398529 -0.1276519746 0.6065607071 4286942105
-0.2954311371 -0.1266314089 0.6049048901 4286876312
-0.2950532436 -0.1257981956 0.6041311026 4286876310
-0.2946749330 -0.1249665245 0.6033564806 4286613138
-0.2938646674 -0.1239543855 0.6016975045 4286218635
-0.2926222682 -0.1227646247 0.5991536379 4283192157
-0.2939691842 -0.1226609349 0.6019114852 4280889400
-0.2935892940 -0.1218345240 0.6011336446 4280889400
-0.2923453748 -0.1206532419 0.5985866785 4282138691
-0.2928283215 -0.1201863885 0.5995755196 4290297023
-0.2917863429 -0.2051918805 0.5988038182 4286810254
-0.2922869921 -0.2048774809 0.5998312235 4280954677
-0.2923688293 -0.2042681873 0.5999991298 4281349435
-0.2924504280 -0.2036583871 0.6001666188 4281086261
-0.2925318480 -0.2030480802 0.6003337502 4280954675
-0.2926130891 -0.2024372518 0.6005004048 4280690990
-0.2931134403 -0.2021150738 0.6015272141 4280625197
-0.2931943536 -0.2015023530 0.6016933322 4280822576
-0.2928555310 -0.2006017417 0.6009979844 4280822576
-0.2929359376 -0.1999888867 0.6011630297 4280822831
-0.2930161655 -0.1993755251 0.6013276577 4280757038
-0.2926762700 -0.1984769106 0.6006301045 4280822831
-0.2923359275 -0.1975795478 0.5999316573 4280822831
-0.2915750444 -0.1964004636 0.5983701944 4281019440
-0.2895527482 -0.1943780482 0.5942199826 4281019440
-0.2597850561 -0.1738025248 0.5331307650 4280888369
-0.2573321164 -0.1715746969 0.5280968547 4280888369
-0.2557188570 -0.1699159741 0.5247861147 4280756783
-0.2549458742 -0.1688210517 0.5231997967 4280756783
-0.2541722953 -0.1677292436 0.5216122270 4280888369
-0.2533980608 -0.1666405499 0.5200234056 4280756783
-0.2538863420 -0.1663827598 0.5210254192 4280822578
-0.2539535165 -0.1658477187 0.5211632848 4281217336
-0.2531779706 -0.1647639722 0.5195717216 4282073158
-0.2536659241 -0.1645031273 0.5205730796 4283191639
-0.2545754015 -0.1645124555 0.5224394798 4283586397
-0.2567498982 -0.1653322428 0.5269020200 4283717983
-0.2555516958 -0.1639779806 0.5244430900 4283717729
-0.2585707903 -0.1653256267 0.5306388736 4283849315
-0.2607473731 -0.1661227643 0.5351056457 4283191385
-0.2629248500 -0.1669105440 0.5395742655 4282730834
-0.2651032507 -0.1676889509 0.5440447330 4282335047
-0.2668602765 -0.1681918651 0.5476505160 4282006082
-0.2690403163 -0.1689524204 0.5521244407 4281282100
-0.2707988024 -0.1694392562 0.5557331443 4281018928
-0.2738256454 -0.1707087904 0.5619448423 4281216819
-0.2726270258 -0.1693399101 0.5594850183 4282072128
-0.2748098075 -0.1700691432 0.5639646053 4283519572
-0.2757248282 -0.1700067073 0.5658423305 4283848537
-0.2762170434 -0.1696803868 0.5668524504 4282664263
-0.2762861550 -0.1690928787 0.5669943094 4279571992
-0.2759318650 -0.1682468802 0.5662672520 4280098336
-0.2760004699 -0.1676593870 0.5664080381 4280427301
-0.2756454647 -0.1668152213 0.5656794906 4280361511
-0.2769841254 -0.1669937819 0.5684266686 4281677371
-0.2778995633 -0.1669120640 0.5703053474 4282598989
-0.2788152099 -0.1668262929 0.5721844435 4284243814
-0.2801549137 -0.1669890881 0.5749337673 4284506735
-0.2814950347 -0.1671460271 0.5776839852 4284309356
-0.2828355432 -0.1672970951 0.5804349780 4284112490
-0.2854488790 -0.1681920141 0.5857980847 4284178283
-0.2863662541 -0.1680795997 0.5876806974 4284309869
-0.2872838378 -0.1679631025 0.5895637274 4284244076
-0.2882015705 -0.1678425372 0.5914471745 4284244075
-0.2891195118 -0.1677179039 0.5933309197 4284244075
-0.2900376320 -0.1675891727 0.5952151418 4284178282
-0.2896817029 -0.1667229831 0.5944846272 4284244075
-0.2922992706 -0.1675630212 0.5998564363 4283323743
-0.2932180464 -0.1674211323 0.6017419100 4284968568
-0.2937119305 -0.1670334190 0.6027554870 4288258218
-0.2999218702 -0.1356879473 0.6154994965 4288719018
-0.2999788523 -0.1350297332 0.6156165004 4288850351
-0.2991758883 -0.1339861304 0.6139686704 4288587179
-0.2992322147 -0.1333290637 0.6140842438 4288455595
-0.2988582850 -0.1324810088 0.6133168340 4288324009
-0.2980538309 -0.1314447969 0.6116659045 4287995046
-0.2972487807 -0.1304119974 0.6100138426 4287666081
-0.2960129380 -0.1291948408 0.6074776053 4287402654
-0.2952066660 -0.1281698346 0.6058229804 4287139482
-0.2943998575 -0.1271482706 0.6041672230 4287139482
-0.2940229475 -0.1263150722 0.6033937335 4287139482
-0.2936456203 -0.1254834086 0.6026194096 4286942103
-0.2936985493 -0.1248363554 0.6027280092 4286678931
-0.2928897738 -0.1238247529 0.6010682583 4286416012
-0.2929420173 -0.1231788918 0.6011754870 4283981671
-0.2925631404 -0.1223524958 0.6003979445 4280955193
-0.2921838462 -0.1215276569 0.5996195674 4280955193
-0.2913731337 -0.1205260828 0.5979558229 4281678140
-0.2905618548 -0.1195279807 0.5962909460 4289507507
-0.2908196747 -0.2049792856 0.5981834531 4284507497
-0.2909013629 -0.2043720484 0.5983514786 4280823089
-0.2909828424 -0.2037643045 0.5985190868 4281283640
-0.2906459570 -0.2028641552 0.5978261232 4280823089
-0.2911452353 -0.2025472969 0.5988531113 4280888882
-0.2912261486 -0.2019380182 0.5990195274 4280888369
-0.2913068533 -0.2013282329 0.5991855264 4280559404
-0.2913873494 -0.2007179558 0.5993511081 4280888369
-0.2914676368 -0.2001071572 0.5995162725 4280888369
-0.2911288440 -0.1992092282 0.5988193750 4280822576
-0.2912086546 -0.1985983104 0.5989835262 4280756783
-0.2904499769 -0.1974171400 0.5974230170 4280822831
-0.2850790918 -0.1931150705 0.5863757133 4280822831
-0.2897693813 -0.1956301033 0.5960231423 4281019440
-0.2877506018 -0.1936095506 0.5918707252 4281085233
-0.2685278952 -0.1800621152 0.5523318052 4280822576
-0.2572686970 -0.1719242632 0.5291728377 4280822576
-0.2560783923 -0.1705436110 0.5267245173 4280756783
-0.2548872530 -0.1691678166 0.5242744684 4280822576
-0.2541152835 -0.1680747271 0.5226866007 4280954162
-0.2533426881 -0.1669847369 0.5210974813 4280822576
-0.2525694668 -0.1658978760 0.5195070505 4280954164
-0.2530566752 -0.1656395942 0.5205091834 4281480508
-0.2535439432 -0.1653790921 0.5215114951 4282533196
-0.2531901002 -0.1645696610 0.5207836628 4283520091
-0.2532565296 -0.1640340686 0.5209202766 4283586397
-0.2541643977 -0.1640412360 0.5227876306 4283652190
-0.2554934323 -0.1643151045 0.5255213380 4283717983
-0.2572439611 -0.1648530215 0.5291219354 4283849569
-0.2585740387 -0.1651144624 0.5318577886 4282862420
-0.2607470453 -0.1659061760 0.5363274217 4282204490
-0.2633423209 -0.1669556350 0.5416656137 4282203202
-0.2655172348 -0.1677277088 0.5461391807 4281282100
-0.2672714889 -0.1682250649 0.5497474670 4280755756
-0.2690263987 -0.1687148213 0.5533571243 4280953135
-0.2707819641 -0.1691969633 0.5569681525 4281743163
-0.2738038599 -0.1704594344 0.5631838441 4283387988
-0.2742950916 -0.1701383889 0.5641942024 4283848537
-0.2752084434 -0.1700759679 0.5660728812 4282269505
-0.2752775848 -0.1694895923 0.5662150979 4279637785
-0.2757688463 -0.1691618413 0.5672255754 4280690473
-0.2754152715 -0.1683155298 0.5664982796 4280756268
-0.2759063244 -0.1679850817 0.5675083399 4280690475
-0.2763973773 -0.1676523983 0.5685184002 4281612094
-0.2768884301 -0.1673174798 0.5695284605 4282927954
-0.2778023481 -0.1672348529 0.5714082122 4283980644
-0.2791393697 -0.1674018055 0.5741583705 4284506988
-0.2804768384 -0.1675629020 0.5769093633 4284243563
-0.2818146944 -0.1677181125 0.5796611905 4284177770
-0.2831529677 -0.1678674668 0.5824138522 4284112490
-0.2844916284 -0.1680109352 0.5851673484 4284046697
-0.2866775990 -0.1686467379 0.5896636844 4283849318
-0.2875937223 -0.1685284078 0.5915480256 4283915111
-0.2885099947 -0.1684060097 0.5934327245 4284112489
-0.2877314687 -0.1672939956 0.5918313265 4284178282
-0.2894954383 -0.1676580161 0.5954596400 4284046696
-0.2904120684 -0.1675251871 0.5973450541 4283915110
-0.2913289070 -0.1673882753 0.5992308855 4285100154
-0.2909734249 -0.1665190458 0.5984996557 4288521390
-0.2985063493 -0.1353560686 0.6139940619 4288850604
-0.2981341481 -0.1345059574 0.6132284999 4288850351
-0.2977615297 -0.1336573511 0.6124620438 4288652972
-0.2973884940 -0.1328102797 0.6116948128 4288455595
-0.2974442542 -0.1321554184 0.6118094921 4288324009
-0.2966412008 -0.1311206818 0.6101576686 4288060584
-0.2962669134 -0.1302781701 0.6093878150 4287731619
-0.2958922386 -0.1294371933 0.6086171269 4287468449
-0.2950876057 -0.1284108311 0.6069620848 4287271070
-0.2942824066 -0.1273878962 0.6053058505 4287402656
-0.2930469215 -0.1261833757 0.6027646661 4287271070
-0.2926702797 -0.1253523380 0.6019899249 4286942103
-0.2918633819 -0.1243397295 0.6003302336 4286547345
-0.2919157743 -0.1236949116 0.6004379988 4286481807
-0.2911078930 -0.1226873100 0.5987762809 4284705396
-0.2907295227 -0.1218634322 0.5979980230 4281020986
-0.2899206281 -0.1208617911 0.5963341594 4280955193
-0.2895413637 -0.1200419888 0.5955541134 4281480761
-0.2900223136 -0.1195785850 0.5965433717 4288652198
-0.2890197933 -0.2041771114 0.5958424807 4282336330
-0.2895182073 -0.2038660645 0.5968700051 4281151543
-0.2895993888 -0.2032598704 0.5970373750 4281019957
-0.2900977731 -0.2029451728 0.5980648398 4280954162
-0.2897611260 -0.2020459473 0.5973708630 4280888369
-0.2898417115 -0.2014382333 0.5975369811 4281019955
-0.2899220884 -0.2008299977 0.5977026820 4280559404
-0.2900022864 -0.2002212703 0.5978679657 4281019955
-0.2896642685 -0.1993244141 0.5971711278 4280954162
-0.2893258333 -0.1984288096 0.5964734554 4281019441
-0.2885687649 -0.1972485930 0.5949126482 4280953648
-0.2894843519 -0.1972113401 0.5968002081 4280887855
-0.2874710858 -0.1951813251 0.5926496983 4280953648
-0.2850379050 -0.1928763986 0.5876334906 4281019441
-0.2612509429 -0.1761820614 0.5385943055 4281085234
-0.2558773756 -0.1719721556 0.5275161862 4281151026
-0.2546896935 -0.1705905199 0.5250676274 4281085233
-0.2539201379 -0.1694934666 0.5234811306 4280822576
-0.2535690963 -0.1686783135 0.5227574110 4280888369
-0.2527984083 -0.1675865799 0.5211685896 4280888369
-0.2520270944 -0.1664979756 0.5195784569 4280822576
-0.2525135279 -0.1662409306 0.5205813050 4281217334
-0.2521608770 -0.1654311568 0.5198542476 4281941057
-0.2526471615 -0.1651714891 0.5208567977 4282862159
-0.2531335056 -0.1649096161 0.5218594074 4283651675
-0.2540397942 -0.1649181247 0.5237277746 4283586397
-0.2553663254 -0.1651943624 0.5264626145 4283586397
-0.2571134567 -0.1657356322 0.5300645232 4283783776
-0.2588613033 -0.1662693322 0.5336678028 4283717983
-0.2610301375 -0.1670645028 0.5381391048 4282467916
-0.2631998956 -0.1678503156 0.5426122546 4281546814
-0.2653705478 -0.1686267406 0.5470872521 4281545272
-0.2671214342 -0.1691274494 0.5506968498 4281018928
-0.2688729763 -0.1696205586 0.5543078780 4280953647
-0.2706251740 -0.1701060683 0.5579202175 4281743163
-0.2719570398 -0.1703203022 0.5606660247 4283453781
-0.2732893825 -0.1705287099 0.5634127259 4283980125
-0.2737797201 -0.1702075750 0.5644236207 4281940540
-0.2742701173 -0.1698841900 0.5654345751 4279506199
-0.2747604847 -0.1695585847 0.5664455295 4280229922
-0.2752508819 -0.1692307144 0.5674565434 4279900957
-0.2753196359 -0.1686423570 0.5675983429 4280428073
-0.2758099437 -0.1683109105 0.5686091185 4281414968
-0.2767220736 -0.1682336777 0.5704895258 4282862163
-0.2772124708 -0.1678968519 0.5715005398 4283849058
-0.2785469592 -0.1680670530 0.5742517114 4283848805
-0.2794597149 -0.1679776609 0.5761334896 4284111977
-0.2807949185 -0.1681370437 0.5788861513 4284046184
-0.2821305394 -0.1682905555 0.5816396475 4284111977
-0.2834665477 -0.1684381813 0.5843939781 4284177770
-0.2848029733 -0.1685799211 0.5871490836 4284111977
-0.2857171297 -0.1684665680 0.5890337229 4284046184
-0.2866314650 -0.1683491468 0.5909187198 4284309356
-0.2875460088 -0.1682276279 0.5928041339 4284309868
-0.2876147926 -0.1676090807 0.5929459929 4284046696
-0.2893756330 -0.1679723710 0.5965760946 4283257180
-0.2881748974 -0.1666152924 0.5941006541 4284309868
-0.2899361849 -0.1669695079 0.5977317095 4287928483
-0.2966652215 -0.1348292381 0.6116042733 4289113776
-0.2967216969 -0.1341752410 0.6117207408 4288916146
-0.2963496745 -0.1333281845 0.6109537482 4288850353
-0.2964055538 -0.1326743960 0.6110689640 4288652976
-0.2960327566 -0.1318294406 0.6103004217 4288521390
-0.2956595719 -0.1309860200 0.6095310450 4288323756
-0.2948573828 -0.1299552321 0.6078772545 4287994791
-0.2944832742 -0.1291158050 0.6071060300 4287665828
-0.2923938334 -0.1275299489 0.6027984619 4287468449
-0.2915897965 -0.1265113503 0.6011407971 4287468449
-0.2912140787 -0.1256812811 0.6003662348 4287336863
-0.2912668884 -0.1250369102 0.6004751325 4286942103
-0.2908904254 -0.1242089868 0.5996990204 4286613138
-0.2892262042 -0.1228358746 0.5962679982 4286416014
-0.2905654609 -0.1227391064 0.5990290642 4285165947
-0.2901878655 -0.1219149008 0.5982505679 4281349951
-0.2893804908 -0.1209128574 0.5965861082 4280955193
-0.2902902663 -0.1206280589 0.5984617472 4281349175
-0.2894820869 -0.1196291447 0.5967956185 4287862682
-0.2871429920 -0.2039760351 0.5933318734 4288060321
-0.2876402438 -0.2036688924 0.5943593979 4281217849
-0.2877211869 -0.2030656338 0.5945265889 4281217336
-0.2882184088 -0.2027548701 0.5955540538 4280954164
-0.2882990539 -0.2021497190 0.5957207084 4281085750
-0.2887962461 -0.2018353045 0.5967480540 4280756785
-0.2888766229 -0.2012282610 0.5969141126 4280888369
-0.2885398269 -0.2003312260 0.5962182283 4280625197
-0.2886196971 -0.1997240484 0.5963832736 4281019955
-0.2882821560 -0.1988286227 0.5956857800 4280954162
-0.2883615196 -0.1982213259 0.5958497524 4281019441
-0.2880232632 -0.1973275393 0.5951507688 4280953648
-0.2876845598 -0.1964350194 0.5944508910 4280887854
-0.2869277596 -0.1952595264 0.5928871632 4280953647
-0.2853347957 -0.1935203969 0.5895955563 4281019440
-0.2574142516 -0.1739930958 0.5319025517 4281019440
-0.2549759746 -0.1717596054 0.5268642306 4281085233
-0.2537904382 -0.1703783423 0.5244145393 4281019440
-0.2526040971 -0.1690019518 0.5219631195 4280953647
-0.2530902028 -0.1687461287 0.5229675770 4281019440
-0.2519025803 -0.1673759520 0.5205135942 4280822576
-0.2511326671 -0.1662878245 0.5189226866 4280690990
-0.2516181171 -0.1660315990 0.5199257731 4281283127
-0.2516848445 -0.1654978096 0.5200636983 4282204229
-0.2517513931 -0.1649635732 0.5202011466 4283059538
-0.2526557446 -0.1649761200 0.5220698714 4283651675
-0.2539794743 -0.1652573794 0.5248051286 4283717470
-0.2553036809 -0.1655328572 0.5275413990 4283717470
-0.2570476830 -0.1660734862 0.5311450958 4283981155
-0.2587923706 -0.1666065603 0.5347501636 4283257432
-0.2609573007 -0.1674011946 0.5392236114 4281744193
-0.2631231248 -0.1681864560 0.5436989665 4280757298
-0.2652898431 -0.1689623445 0.5481761098 4280953647
-0.2670375705 -0.1694623977 0.5517874956 4280887854
-0.2687859833 -0.1699548364 0.5554002523 4282203714
-0.2705350518 -0.1704396755 0.5590143800 4283716953
-0.2714443803 -0.1703893840 0.5608934164 4283716951
-0.2727742493 -0.1705979109 0.5636413097 4281545782
-0.2732637525 -0.1702766716 0.5646528006 4279835164
-0.2741737664 -0.1702142656 0.5665332079 4280493094
-0.2742427588 -0.1696274877 0.5666757822 4280493096
-0.2747322917 -0.1692995280 0.5676872730 4280953647
-0.2752218246 -0.1689693332 0.5686988235 4281546301
-0.2757113278 -0.1686368883 0.5697103143 4282927954
-0.2766219079 -0.1685587466 0.5715918541 4284046183
-0.2775326967 -0.1684765667 0.5734738708 4284309355
-0.2788649201 -0.1686450690 0.5762267113 4284309358
-0.2797762454 -0.1685538590 0.5781097412 4284309358
-0.2811091840 -0.1687115282 0.5808640718 4284177770
-0.2824425399 -0.1688633263 0.5836192369 4284177770
-0.2833546400 -0.1687581092 0.5855039358 4284046184
-0.2846887112 -0.1688990295 0.5882605314 4284111977
-0.2856013179 -0.1687847525 0.5901462436 4284309356
-0.2860921323 -0.1684180051 0.5911604166 4284243563
-0.2865829170 -0.1680489779 0.5921745896 4283980903
-0.2870737016 -0.1676777005 0.5931887031 4283783524
