VERSION 0.7
FIELDS x y z rgba
SIZE 4 4 4 4
TYPE F F F U
COUNT 1 1 1 1
WIDTH 920
HEIGHT 1
VIEWPOINT 0.0 0.0 0.0 1.0 0.0 0.0 0.0
POINTS 920
DATA ascii
-0.2296586484 -0.1016364992 0.5305619240 4281678146
-0.2300897986 -0.1012367010 0.5315579176 4282007111
-0.2297381014 -0.1004922614 0.5307454467 4282007111
-0.2301689535 -0.1000899225 0.5317407846 4281546560
-0.2294251919 -0.0991776064 0.5300225616 4281151802
-0.2294640988 -0.0986054316 0.5301124454 4280888630
-0.2298944443 -0.0982002616 0.5311066508 4280888630
-0.2303247154 -0.0977928489 0.5321006179 4280165424
-0.2303631157 -0.0972178578 0.5321893692 4281218112
-0.2307931483 -0.0968069360 0.5331828594 4281480770
-0.2323988080 -0.0968839079 0.5368922353 4282138700
-0.2320449352 -0.0961407647 0.5360746980 4287797412
-0.2328667939 -0.0958835557 0.5379734039 4290297546
-0.2332966179 -0.0954617038 0.5389663577 4289902788
-0.2341184914 -0.0951970592 0.5408651233 4289508030
-0.2341559529 -0.0946112648 0.5409516692 4288060584
-0.2357623428 -0.0946551636 0.5446627736 4286481552
-0.2373690009 -0.0946909338 0.5483744740 4284770934
-0.2370139062 -0.0939409062 0.5475541353 4283455074
-0.2374433875 -0.0935016572 0.5485463142 4282336593
-0.2370877117 -0.0927530378 0.5477246642 4281547077
-0.2375168800 -0.0923112705 0.5487161279 4281218112
-0.2371606380 -0.0915640667 0.5478931069 4281086526
-0.2375894636 -0.0911197811 0.5488837957 4280691251
-0.2388037294 -0.0909725130 0.5516890287 4279967528
-0.2384468168 -0.0902244896 0.5508644581 4279901735
-0.2388753295 -0.0897734836 0.5518544316 4280230700
-0.2393037230 -0.0893202350 0.5528441072 4280559408
-0.2393390089 -0.0887190625 0.5529256463 4280756787
-0.2393740714 -0.0881176293 0.5530066490 4280822580
-0.2394088954 -0.0875159353 0.5530871153 4280954166
-0.2394434959 -0.0869139731 0.5531670451 4280888373
-0.2394778728 -0.0863117576 0.5532464385 4280822580
-0.2391187251 -0.0855685398 0.5524167418 4280954166
-0.2387592494 -0.0848270431 0.5515862703 4281019959
-0.2387928218 -0.0842260346 0.5516638160 4281150775
-0.2392196208 -0.0837625414 0.5526497960 4281282361
-0.2392527908 -0.0831600353 0.5527264476 4281413947
-0.2388921529 -0.0824214965 0.5518932939 4281216568
-0.2385312021 -0.0816846937 0.5510594249 4281348154
-0.2389572412 -0.0812172294 0.5520436764 4281348154
-0.2385957092 -0.0804819167 0.5512084365 4281348154
-0.2386276126 -0.0798801705 0.5512821674 4281348154
-0.2386592925 -0.0792781785 0.5513553619 4281348154
-0.2386907339 -0.0786759481 0.5514279604 4281216568
-0.2387219518 -0.0780734792 0.5515000820 4281019959
-0.2383589596 -0.0773429349 0.5506615043 4281019959
-0.2383896559 -0.0767409950 0.5507324338 4281085752
-0.2384201139 -0.0761388242 0.5508028269 4281019959
-0.2380562276 -0.0754115656 0.5499621034 4280888373
-0.2380861789 -0.0748099312 0.5500313044 4280822580
-0.2377216667 -0.0740852058 0.5491892099 4280822580
-0.2377510965 -0.0734841153 0.5492572188 4280756787
-0.2381746322 -0.0730036721 0.5502356887 4280756787
-0.2378092855 -0.0722812712 0.5493916273 4280822580
-0.2378380150 -0.0716795176 0.5494580269 4280887601
-0.2378665209 -0.0710775480 0.5495238900 4280821808
-0.2378948033 -0.0704753622 0.5495892167 4280625199
-0.2379228324 -0.0698729679 0.5496539474 4280756785
-0.2379506379 -0.0692703575 0.5497182012 4280954164
-0.2375835627 -0.0685536563 0.5488701463 4281085750
-0.2376108468 -0.0679516271 0.5489332080 4281151543
-0.2376379073 -0.0673493966 0.5489957333 4281217336
-0.2384543121 -0.0669687018 0.5508818030 4281085750
-0.2376913130 -0.0661443099 0.5491191149 4281085750
-0.2381125391 -0.0656503364 0.5500922203 4281151545
-0.2385336161 -0.0651541576 0.5510650277 4281348924
-0.2385595888 -0.0645489097 0.5511249900 4281480510
-0.2385853082 -0.0639434680 0.5511844158 4281612096
-0.2390058488 -0.0634426922 0.5521559715 4281677887
-0.2394262403 -0.0629397184 0.5531271696 4281677887
-0.2390562147 -0.0622288324 0.5522723198 4281481286
-0.2394762039 -0.0617234670 0.5532425642 4281744458
-0.2398960441 -0.0612159111 0.5542125106 4282205007
-0.2399204671 -0.0606063083 0.5542689562 4282731351
-0.2407352477 -0.0601942055 0.5561512113 4283520352
-0.2407592684 -0.0595822260 0.5562067628 4284309868
-0.2411784232 -0.0590668954 0.5571750998 4284836464
-0.2419928312 -0.0586452000 0.5590565205 4288060321
-0.2424116880 -0.0581244826 0.5600242019 4292270558
-0.2314244062 -0.1425834447 0.5360165238 4292337382
-0.2318638712 -0.1422575116 0.5370343924 4291547866
-0.2319180816 -0.1416939497 0.5371599793 4290889936
-0.2323574424 -0.1413644403 0.5381776094 4289245111
-0.2324113697 -0.1407991499 0.5383024812 4287533725
-0.2324650884 -0.1402334720 0.5384269357 4285691521
-0.2325186282 -0.1396673918 0.5385509133 4284836212
-0.2325719744 -0.1391009390 0.5386744738 4284112489
-0.2326251268 -0.1385340840 0.5387976170 4283257180
-0.2326781005 -0.1379668415 0.5389202833 4282665043
-0.2327308655 -0.1373992115 0.5390424728 4282928983
-0.2327834368 -0.1368312091 0.5391642451 4282797397
-0.2328358144 -0.1362628043 0.5392856002 4282665041
-0.2325017899 -0.1354689896 0.5385119319 4282467662
-0.2325536907 -0.1349007785 0.5386320949 4282138697
-0.2326053977 -0.1343321800 0.5387519002 4281875525
-0.2326569110 -0.1337632090 0.5388711691 4281743939
-0.2323216647 -0.1329725981 0.5380946994 4281349181
-0.2323727012 -0.1324038208 0.5382129550 4281414974
-0.2320368141 -0.1316153109 0.5374349356 4281217595
-0.2320873737 -0.1310467273 0.5375520587 4281085752
-0.2317508310 -0.1302603036 0.5367726088 4280822580
-0.2318009138 -0.1296919286 0.5368885994 4280690992
-0.2314637303 -0.1289076209 0.5361075997 4280559406
-0.2311261892 -0.1281248629 0.5353258252 4280559406
-0.2307882756 -0.1273436248 0.5345431566 4280625199
-0.2304500043 -0.1265639216 0.5337596536 4280362286
-0.2297239751 -0.1255740076 0.5320780873 4280493872
-0.2301598489 -0.1252199709 0.5330876112 4280493872
-0.2298205793 -0.1244439632 0.5323017836 4280493872
-0.2294809371 -0.1236695051 0.5315151215 4280691251
-0.2287532240 -0.1226886585 0.5298296213 4280822837
-0.2288005948 -0.1221252605 0.5299393535 4280823091
-0.2284598798 -0.1213554740 0.5291501880 4280691505
-0.2277308553 -0.1203821748 0.5274616480 4280625199
-0.2277773768 -0.1198206022 0.5275694132 4280822578
-0.2282118201 -0.1194618568 0.5285756588 4280888371
-0.2282580286 -0.1188986376 0.5286827087 4280888371
-0.2283040434 -0.1183350831 0.5287892818 4281085750
-0.2283498496 -0.1177711859 0.5288953781 4281283129
-0.2276186049 -0.1168082878 0.5272016525 4281414715
-0.2288293689 -0.1168407500 0.5300059915 4281480508
-0.2288746536 -0.1162748784 0.5301108956 4281480508
-0.2277537584 -0.1151193231 0.5275146961 4281941059
-0.2289646119 -0.1151421368 0.5303192139 4282204231
-0.2290092856 -0.1145752594 0.5304226875 4282204231
-0.2278870940 -0.1134273708 0.5278235674 4282335817
-0.2287090719 -0.1132479310 0.5297273397 4282533196
-0.2287530601 -0.1126810312 0.5298292637 4282796368
-0.2280186266 -0.1117324680 0.5281281471 4282927954
-0.2292295992 -0.1117359698 0.5309330225 4283585884
-0.2292730510 -0.1111671329 0.5310336351 4283980642
-0.2293162942 -0.1105979681 0.5311338305 4283783263
-0.2297487408 -0.1102152988 0.5321354270 4283980642
-0.2297916412 -0.1096445248 0.5322347879 4284112228
-0.2298343480 -0.1090734378 0.5323336720 4283454298
-0.2302664667 -0.1086859331 0.5333345532 4282664782
-0.2287500352 -0.1073815152 0.5298222899 4282335817
-0.2307407260 -0.1077222005 0.5344330072 4281809732
-0.2307827324 -0.1071479172 0.5345302820 4281809732
-0.2288749963 -0.1056732014 0.5301116705 4281349181
-0.2308661193 -0.1059983969 0.5347234607 4281086009
-0.2301274091 -0.1050670147 0.5330124497 4280954423
-0.2289980948 -0.1039621085 0.5303968191 4280888630
-0.2290387005 -0.1033911258 0.5304908752 4281020216
-0.2302498668 -0.1033453345 0.5332961082 4280954423
-0.2291193008 -0.1022482663 0.5306774974 4281020216
-0.2299400717 -0.1020228192 0.5325785279 4281283388
-0.2299799770 -0.1014486849 0.5326709747 4281480767
-0.2292386144 -0.1005317345 0.5309538841 4281414974
-0.2292779684 -0.0999589637 0.5310450196 4281283388
-0.2293171138 -0.0993858948 0.5311356783 4281217595
-0.2293560356 -0.0988125354 0.5312258601 4281086009
-0.2293947488 -0.0982388854 0.5313155055 4281086009
-0.2298241109 -0.0978313237 0.5323099494 4281086528
-0.2310352325 -0.0977523252 0.5351151228 4281612872
-0.2306825817 -0.0970094725 0.5342983603 4282402388
-0.2307206392 -0.0964317322 0.5343864560 4284639350
-0.2315407097 -0.0961786360 0.5362858772 4290165962
-0.2327519953 -0.0960828215 0.5390914679 4291152857
-0.2327897251 -0.0954993293 0.5391788483 4290692304
-0.2343924642 -0.0955536440 0.5428910255 4290692304
-0.2336472720 -0.0946485847 0.5411650538 4290429132
-0.2356416285 -0.0948500708 0.5457842946 4289508030
-0.2364618927 -0.0945717320 0.5476841927 4288455342
-0.2357159853 -0.0936668068 0.5459564924 4287402654
-0.2353612036 -0.0929201469 0.5451347828 4286021514
-0.2361811250 -0.0926360562 0.5470338464 4284639861
-0.2362175882 -0.0920424685 0.5471183062 4283323488
-0.2374292165 -0.0919035748 0.5499246120 4282270800
-0.2366816849 -0.0910051465 0.5481932759 4282138697
-0.2378932834 -0.0908588096 0.5509995222 4281809732
-0.2379290909 -0.0902601928 0.5510824323 4281414974
-0.2371805906 -0.0893658772 0.5493487716 4280493872
-0.2376079261 -0.0889154226 0.5503385663 4279967528
-0.2384272814 -0.0886084661 0.5522363186 4280230700
-0.2376778275 -0.0877182931 0.5505004525 4280625458
-0.2384969592 -0.0874068514 0.5523977280 4280822837
-0.2385314554 -0.0868056491 0.5524775982 4280822580
-0.2385657281 -0.0862041935 0.5525569916 4280822580
-0.2378149033 -0.0853208899 0.5508179665 4280954166
-0.2374561131 -0.0845810920 0.5499869585 4281085752
-0.2374895364 -0.0839818344 0.5500643253 4281019959
-0.2375227213 -0.0833823234 0.5501412153 4281217338
-0.2375556827 -0.0827825591 0.5502175689 4281283131
-0.2379811108 -0.0823183879 0.5512029529 4281217338
-0.2380136698 -0.0817171410 0.5512783527 4281413947
-0.2380459905 -0.0811156482 0.5513532162 4281348154
-0.2380780876 -0.0805139095 0.5514275432 4281217338
-0.2377170324 -0.0797800571 0.5505912900 4281283131
-0.2377486229 -0.0791788325 0.5506644249 4281283131
-0.2377799600 -0.0785773620 0.5507370234 4281217338
-0.2378110886 -0.0779756606 0.5508091450 4281217338
-0.2378419787 -0.0773737207 0.5508806705 4281151545
-0.2374794483 -0.0766446516 0.5500410199 4281151545
-0.2379030585 -0.0761691406 0.5510221124 4281085752
-0.2375399768 -0.0754415989 0.5501811504 4281019959
-0.2375698835 -0.0748397335 0.5502504706 4281019959
-0.2372061908 -0.0741147324 0.5494080782 4281019959
-0.2376290113 -0.0736353174 0.5503873825 4280954166
-0.2372647524 -0.0729118660 0.5495437384 4281019959
-0.2372936904 -0.0723100975 0.5496107340 4281085752
-0.2373223901 -0.0717081130 0.5496771932 4281019957
-0.2373508513 -0.0711059123 0.5497431159 4280888371
-0.2369854301 -0.0703865737 0.5488967299 4280822578
-0.2374070883 -0.0699008629 0.5498734117 4280954164
-0.2370411009 -0.0691830963 0.5490257144 4281085750
-0.2370685786 -0.0685810372 0.5490893722 4281217336
-0.2370958328 -0.0679787770 0.5491524935 4281217336
-0.2371228635 -0.0673763007 0.5492150784 4281217336
-0.2371496409 -0.0667736307 0.5492771268 4281414715
-0.2375701666 -0.0662806630 0.5502511263 4281348922
-0.2379905581 -0.0657854974 0.5512247682 4281414715
-0.2380167246 -0.0651802123 0.5512853861 4281480508
-0.2380426526 -0.0645747334 0.5513454676 4281612094
-0.2384624928 -0.0640749633 0.5523178577 4281612094
-0.2380937934 -0.0633631721 0.5514639020 4281678400
-0.2389074862 -0.0629649088 0.5533485413 4281809986
-0.2393268347 -0.0624595433 0.5543198586 4281744458
-0.2385630608 -0.0616462901 0.5525507927 4282073423
-0.2385876030 -0.0610386468 0.5526076555 4282402386
-0.2397951186 -0.0607304722 0.5554044843 4283126109
-0.2398193032 -0.0601194426 0.5554605126 4283718501
-0.2406322211 -0.0597039796 0.5573433042 4284310638
-0.2402614951 -0.0589937046 0.5564846396 4285691773
-0.2402849942 -0.0583811216 0.5565391183 4290034111
-0.2305328250 -0.1424004585 0.5353286266 4292337382
-0.2305869758 -0.1418389678 0.5354543328 4291482073
-0.2310253233 -0.1415125579 0.5364722610 4290824143
-0.2310791910 -0.1409493387 0.5365973115 4289442490
-0.2311328501 -0.1403857470 0.5367219448 4287533725
-0.2311863303 -0.1398217529 0.5368461013 4285428349
-0.2312396169 -0.1392573565 0.5369698405 4284704626
-0.2312927097 -0.1386925876 0.5370931625 4284309868
-0.2313456088 -0.1381274164 0.5372160077 4283388766
-0.2313983142 -0.1375618726 0.5373383760 4282270285
-0.2314508408 -0.1369959414 0.5374603271 4282336076
-0.2315031588 -0.1364296079 0.5375818610 4282599248
-0.2315552831 -0.1358629167 0.5377029181 4282599248
-0.2316072285 -0.1352958232 0.5378234982 4282204490
-0.2312735170 -0.1345041841 0.5370485783 4282007111
-0.2313249707 -0.1339372844 0.5371680856 4282007111
-0.2313762456 -0.1333699971 0.5372871161 4281875525
-0.2314273268 -0.1328023374 0.5374057293 4281414974
-0.2314781994 -0.1322343051 0.5375238657 4281678146
-0.2311429977 -0.1314464658 0.5367454886 4281480767
-0.2311933935 -0.1308786273 0.5368625522 4281283131
-0.2308575511 -0.1300928891 0.5360826850 4281085752
-0.2305213511 -0.1293086708 0.5353019238 4280888371
-0.2305709869 -0.1287416220 0.5354172587 4280756785
-0.2302341461 -0.1279595196 0.5346350074 4280690992
-0.2291241586 -0.1267514676 0.5320575237 4280756785
-0.2291728854 -0.1261871457 0.5321706533 4280559919
-0.2288348675 -0.1254106164 0.5313857198 4280494126
-0.2288831174 -0.1248465255 0.5314977765 4280362286
-0.2289311737 -0.1242820770 0.5316093564 4280362286
-0.2289790213 -0.1237172782 0.5317204595 4280362286
-0.2290266752 -0.1231521219 0.5318311453 4280296493
-0.2279132754 -0.1219654009 0.5292456746 4280230954
-0.2271862328 -0.1209901795 0.5275573730 4280362540
-0.2268457860 -0.1202235892 0.5267668366 4280230954
-0.2268921733 -0.1196627766 0.5268745422 4280230954
-0.2273256332 -0.1193048656 0.5278810263 4280296236
-0.2269843519 -0.1185401231 0.5270885825 4280427822
-0.2270301282 -0.1179782823 0.5271948576 4280493613
-0.2263007164 -0.1170153692 0.5255010724 4280427820
-0.2271211147 -0.1168535873 0.5274061561 4280296234
-0.2271662951 -0.1162907407 0.5275110602 4280362027
-0.2264358252 -0.1153325737 0.5258148313 4280427820
-0.2272560745 -0.1151640266 0.5277195573 4280625199
-0.2269127816 -0.1144046113 0.5269223452 4280625199
-0.2265691310 -0.1136467829 0.5261243582 4280493613
-0.2270011902 -0.1132778376 0.5271276832 4280625199
-0.2270451039 -0.1127139553 0.5272296071 4280756785
-0.2263124287 -0.1117663309 0.5255282521 4280756785
-0.2275205702 -0.1117759570 0.5283337235 4280822578
-0.2275639325 -0.1112101376 0.5284344554 4281151543
-0.2276071012 -0.1106439978 0.5285347104 4281217336
-0.2276500612 -0.1100775301 0.5286344290 4280822578
-0.2280813754 -0.1096976250 0.5296360254 4280690992
-0.2281240076 -0.1091295481 0.5297350287 4280822578
-0.2281664312 -0.1085611656 0.5298334956 4280625199
-0.2270423323 -0.1074405387 0.5272232294 4280362027
-0.2282506526 -0.1074234322 0.5300291181 4280362027
-0.2286813706 -0.1070361361 0.5310292840 4280362286
-0.2271670997 -0.1057412624 0.5275129080 4280362286
-0.2287645042 -0.1058945879 0.5312222838 4280230700
-0.2280274928 -0.1049651131 0.5295109153 4280362286
-0.2280683964 -0.1043955088 0.5296058655 4280691251
-0.2284983546 -0.1040027812 0.5306043029 4280822837
-0.2277602404 -0.1030791849 0.5288903117 4280888630
-0.2281898558 -0.1026848778 0.5298879147 4280888630
-0.2286193967 -0.1022883132 0.5308853388 4281217595
-0.2282697856 -0.1015429422 0.5300735235 4281151802
-0.2283094376 -0.1009715274 0.5301656127 4281151804
-0.2291282266 -0.1007424816 0.5320669413 4281217597
-0.2291675806 -0.1001685187 0.5321583152 4281349183
-0.2292067409 -0.0995942652 0.5322492123 4281414976
-0.2300254256 -0.0993565172 0.5341503620 4281678148
-0.2300642729 -0.0987797230 0.5342406034 4282336078
-0.2304929346 -0.0983690843 0.5352359414 4282665558
-0.2305697054 -0.0972120836 0.5354142785 4284376691
-0.2313881665 -0.0969601646 0.5373148322 4288324271
-0.2318164110 -0.0965415165 0.5383092761 4292008679
-0.2318542451 -0.0959590748 0.5383971334 4291811300
-0.2338438034 -0.0961791724 0.5430171490 4291547613
-0.2334910631 -0.0954316705 0.5421980619 4291416027
-0.2343095243 -0.0951616541 0.5440986156 4291219161
-0.2339562774 -0.0944145694 0.5432783365 4290955989
-0.2347746044 -0.0941390842 0.5451785922 4290758610
-0.2352022678 -0.0937037244 0.5461716652 4290363852
-0.2352756262 -0.0925189033 0.5463420749 4288521648
-0.2353119850 -0.0919260755 0.5464264750 4287008409
-0.2353481054 -0.0913329795 0.5465103388 4285758342
-0.2365570217 -0.0911917984 0.5493175983 4284244843
-0.2358107567 -0.0902957097 0.5475846529 4283192155
-0.2362373918 -0.0898495689 0.5485754013 4282599248
-0.2370550931 -0.0895489603 0.5504742265 4282138697
-0.2363078594 -0.0886569992 0.5487390161 4281546560
-0.2363427728 -0.0880603120 0.5488200784 4281020216
-0.2371601462 -0.0877529755 0.5507181287 4280625458
-0.2371947169 -0.0871537924 0.5507984161 4280428079
-0.2372290492 -0.0865543410 0.5508781672 4280428079
-0.2364801019 -0.0856709555 0.5491390228 4280493872
-0.2361222953 -0.0849321187 0.5483081341 4280690994
-0.2365474254 -0.0844747275 0.5492953062 4281019959
-0.2365807295 -0.0838762298 0.5493726730 4280954166
-0.2366138250 -0.0832774863 0.5494495034 4281151545
-0.2370384783 -0.0828153715 0.5504356027 4281151545
-0.2374630123 -0.0823510289 0.5514214635 4281151545
-0.2367117107 -0.0814797506 0.5496768355 4281217336
-0.2371358424 -0.0810139179 0.5506617427 4281151543
-0.2367758304 -0.0802800283 0.5498257279 4281217336
-0.2368075550 -0.0796798021 0.5498993397 4281283129
-0.2364469171 -0.0789484084 0.5490619540 4281283131
-0.2364781201 -0.0783487037 0.5491343737 4281283131
-0.2369013131 -0.0778776929 0.5501171350 4281283131
-0.2373243868 -0.0774044618 0.5510995388 4281151545
-0.2365703583 -0.0765481666 0.5493485928 4281283131
-0.2369930148 -0.0760734677 0.5503300428 4281217338
-0.2370231152 -0.0754715949 0.5503999591 4281217338
-0.2370529771 -0.0748694986 0.5504692793 4281348924
-0.2366901040 -0.0741442144 0.5496266484 4281348924
-0.2371120304 -0.0736646205 0.5506064296 4281283131
-0.2371411920 -0.0730618462 0.5506741405 4281283131
-0.2367774695 -0.0723388866 0.5498295426 4281283131
-0.2368061393 -0.0717366636 0.5498960614 4281151543
-0.2364418060 -0.0710162669 0.5490500331 4281019957
-0.2364699543 -0.0704146102 0.5491154194 4281085750
-0.2368907183 -0.0699287131 0.5500925183 4281217336
-0.2365255505 -0.0692106709 0.5492445230 4281348922
-0.2365529984 -0.0686083809 0.5493082404 4281480508
-0.2365802079 -0.0680058822 0.5493714809 4281480510
-0.2366071939 -0.0674031749 0.5494341254 4281414717
-0.2362408638 -0.0666893050 0.5485834479 4281480510
-0.2366604507 -0.0661971495 0.5495578051 4281414717
-0.2370799035 -0.0657027960 0.5505318046 4281414717
-0.2371059805 -0.0650982782 0.5505923629 4281546303
-0.2371318340 -0.0644935593 0.5506523848 4281612096
-0.2375507504 -0.0639946014 0.5516251922 4281743682
-0.2375761718 -0.0633884892 0.5516842008 4281941318
-0.2379947305 -0.0628861263 0.5526561737 4282138697
-0.2380197197 -0.0622786246 0.5527141690 4282205009
-0.2384379357 -0.0617728643 0.5536853671 4282599767
-0.2384624928 -0.0611639805 0.5537423491 4282928730
-0.2384868115 -0.0605549067 0.5537988544 4283586660
-0.2385108769 -0.0599456467 0.5538547635 4284113259
-0.2389283478 -0.0594341196 0.5548241735 4284902775
-0.2389519811 -0.0588234887 0.5548790097 4287599770
-0.2393690795 -0.0583085828 0.5558475852 4292007901
-0.2292589843 -0.1419797838 0.5337471962 4292403175
-0.2293128818 -0.1414199769 0.5338726640 4291679452
-0.2297501266 -0.1410953403 0.5348906517 4290889936
-0.2298037261 -0.1405338198 0.5350154042 4289705662
-0.2298571318 -0.1399718970 0.5351397395 4287862690
-0.2299103588 -0.1394095868 0.5352636576 4285823107
-0.2299633920 -0.1388469040 0.5353871584 4284836213
-0.2300162315 -0.1382838041 0.5355101228 4284309869
-0.2300688773 -0.1377203315 0.5356327295 4283651939
-0.2305055112 -0.1373854578 0.5366492867 4282467665
-0.2305578738 -0.1368202716 0.5367711782 4282204490
-0.2302256823 -0.1360276043 0.5359978080 4282007111
-0.2302775681 -0.1354625970 0.5361185670 4282072904
-0.2303292602 -0.1348972023 0.5362389088 4282007111
-0.2303807586 -0.1343314350 0.5363588333 4281875525
-0.2304320633 -0.1337652802 0.5364782810 4281941318
-0.2304831743 -0.1331987530 0.5365972519 4281809732
-0.2301492244 -0.1324104220 0.5358197689 4281480767
-0.2301998585 -0.1318440884 0.5359376669 4281546560
-0.2302502990 -0.1312773824 0.5360550880 4281480767
-0.2299154252 -0.1304917186 0.5352754593 4281414974
-0.2295801789 -0.1297075897 0.5344949961 4281283388
-0.2292445898 -0.1289249957 0.5337136388 4281152056
-0.2292939872 -0.1283596605 0.5338286757 4281086263
-0.2293432057 -0.1277939528 0.5339432359 4281086263
-0.2290066928 -0.1270140707 0.5331597924 4280954677
-0.2282841951 -0.1260228455 0.5314777493 4280494126
-0.2287182659 -0.1256708354 0.5324882865 4280362540
-0.2283807546 -0.1248946190 0.5317025185 4280428079
-0.2284287363 -0.1243299767 0.5318142176 4280559665
-0.2284765095 -0.1237649769 0.5319254994 4280493615
-0.2277520597 -0.1227834150 0.5302388668 4280362029
-0.2274131924 -0.1220124662 0.5294498801 4280427820
-0.2270739526 -0.1212430820 0.5286601186 4280559406
-0.2267343700 -0.1204752624 0.5278695226 4280098855
-0.2263944298 -0.1197090149 0.5270780921 4280098855
-0.2264405489 -0.1191476583 0.5271854401 4279967271
-0.2264864743 -0.1185859591 0.5272923708 4279967271
-0.2261456251 -0.1178225204 0.5264988542 4280033064
-0.2261910737 -0.1172611043 0.5266046524 4280033064
-0.2262363136 -0.1166993454 0.5267099738 4279901476
-0.2262813598 -0.1161372513 0.5268148184 4279967269
-0.2263262123 -0.1155748293 0.5269192457 4279967269
-0.2259839028 -0.1148154661 0.5261223316 4280098855
-0.2260282636 -0.1142533347 0.5262256265 4280164650
-0.2256853282 -0.1134961918 0.5254272223 4280164650
-0.2257292271 -0.1129343659 0.5255293846 4280296236
-0.2261601835 -0.1125649661 0.5265327096 4280296236
-0.2262037396 -0.1120015159 0.5266341567 4280164648
-0.2262471169 -0.1114377528 0.5267351270 4280098855
-0.2262902707 -0.1108736619 0.5268356204 4280362027
-0.2259456813 -0.1101203561 0.5260333419 4280625199
-0.2259883583 -0.1095565930 0.5261327028 4280888371
-0.2264185399 -0.1091794521 0.5271342397 4280822578
-0.2260731161 -0.1084280983 0.5263299942 4280756785
-0.2265030295 -0.1080483943 0.5273309350 4280756785
-0.2265449762 -0.1074823886 0.5274285674 4280756783
-0.2265867144 -0.1069160700 0.5275257230 4280822576
-0.2270163000 -0.1065315455 0.5285258889 4280625712
-0.2262814343 -0.1056013629 0.5268149972 4280559919
-0.2267106920 -0.1052152514 0.5278143883 4280625712
-0.2267515957 -0.1046476886 0.5279096365 4280757298
-0.2267923057 -0.1040798277 0.5280044079 4280954423
-0.2272212207 -0.1036889032 0.5290029645 4281086009
-0.2272615731 -0.1031194553 0.5290969014 4281020216
-0.2276902795 -0.1027250066 0.5300949812 4280888630
-0.2285075188 -0.1025026292 0.5319976807 4281283388
-0.2281587720 -0.1017560065 0.5311857462 4281349181
-0.2285871953 -0.1013557762 0.5321831703 4281743941
-0.2286267132 -0.1007819027 0.5322751403 4281941320
-0.2286660224 -0.1002077311 0.5323666334 4281875527
-0.2294830233 -0.0999721587 0.5342687368 4281678148
-0.2287440002 -0.0990585089 0.5325481892 4281876297
-0.2299499214 -0.0989859253 0.5353558064 4282600020
-0.2299885899 -0.0984076411 0.5354458094 4283192415
-0.2300270200 -0.0978290737 0.5355352759 4283324001
-0.2304545343 -0.0974147692 0.5365306139 4286943129
-0.2308819592 -0.0969982147 0.5375257134 4291088088
-0.2321636975 -0.0957350656 0.5405097604 4292469228
-0.2325907648 -0.0953095257 0.5415040255 4292337642
-0.2326280773 -0.0947230682 0.5415909290 4292008932
-0.2338343561 -0.0946093723 0.5443992615 4291614174
-0.2342611998 -0.0941761062 0.5453930497 4291351260
-0.2331285626 -0.0931177288 0.5427560806 4291153881
-0.2343347818 -0.0929933637 0.5455643535 4290824403
-0.2343712449 -0.0924015790 0.5456492305 4290495438
-0.2347975075 -0.0919622779 0.5466416478 4290100935
-0.2352236658 -0.0915207341 0.5476338267 4289574591
-0.2348694354 -0.0907753631 0.5468090773 4288126632
-0.2352952659 -0.0903313011 0.5478004813 4287073944
-0.2353307456 -0.0897361785 0.5478830934 4285823877
-0.2353659868 -0.0891407877 0.5479651093 4284639603
-0.2354010046 -0.0885451287 0.5480466485 4283586145
-0.2354357988 -0.0879492089 0.5481276512 4282994008
-0.2362513542 -0.0876427516 0.5500264168 4282401871
-0.2362858206 -0.0870443285 0.5501066446 4281414976
-0.2363200486 -0.0864456445 0.5501863360 4281086009
-0.2363540530 -0.0858466998 0.5502654910 4280757044
-0.2363878340 -0.0852474943 0.5503441095 4280691251
-0.2356398255 -0.0843682066 0.5486026406 4280888630
-0.2352821976 -0.0836315528 0.5477700830 4280625201
-0.2353151292 -0.0830345601 0.5478467345 4280888373
-0.2357387841 -0.0825742558 0.5488330722 4281085752
-0.2357713133 -0.0819757804 0.5489087701 4281085752
-0.2358036190 -0.0813770518 0.5489839911 4281151543
-0.2358356863 -0.0807780772 0.5490586758 4281217336
-0.2358675450 -0.0801788568 0.5491328239 4281217338
-0.2358991653 -0.0795793980 0.5492064357 4281151545
-0.2355392873 -0.0788487196 0.5483685732 4281217338
-0.2363530248 -0.0785097405 0.5502631068 4281283131
-0.2352099121 -0.0775216073 0.5476017594 4281283131
-0.2360233366 -0.0771791711 0.5494955778 4281217338
-0.2356623411 -0.0764515325 0.5486550927 4281348924
-0.2360840589 -0.0759776533 0.5496369004 4281217338
-0.2357224971 -0.0752515495 0.5487951636 4281283131
-0.2353606075 -0.0745272040 0.5479526520 4281348924
-0.2365650535 -0.0742966607 0.5507567525 4281217338
-0.2358109951 -0.0734498575 0.5490011573 4281217338
-0.2358400375 -0.0728488490 0.5490688086 4281151291
-0.2362606525 -0.0723676309 0.5500480533 4281085498
-0.2358974069 -0.0716461688 0.5492023826 4281283131
-0.2359257489 -0.0710444972 0.5492683649 4281283131
-0.2359538674 -0.0704426169 0.5493338108 4281479740
-0.2363737375 -0.0699565262 0.5503113270 4281545533
-0.2356173396 -0.0691231936 0.5485503078 4281611326
-0.2356446981 -0.0685216710 0.5486140251 4281742912
-0.2356718332 -0.0679199398 0.5486772060 4281677635
-0.2356987298 -0.0673179999 0.5487398505 4281611842
-0.2357254028 -0.0667158589 0.5488018990 4281743428
-0.2361440957 -0.0662235171 0.5497766733 4281677635
-0.2361703366 -0.0656199679 0.5498377681 4281743428
-0.2361963540 -0.0650162175 0.5498983264 4281809221
-0.2362221181 -0.0644122735 0.5499583483 4281940807
-0.2366400957 -0.0639141202 0.5509314537 4282072393
-0.2374504060 -0.0635187551 0.5528179407 4282269773
-0.2374755889 -0.0629112050 0.5528765917 4282401359
-0.2375005484 -0.0623034686 0.5529347062 4282336595
-0.2375252694 -0.0616955385 0.5529922247 4282862939
-0.2379423827 -0.0611883886 0.5539633632 4283191904
-0.2375739813 -0.0604791120 0.5531056523 4283915627
-0.2379907072 -0.0599695817 0.5540758967 4284508017
-0.2380145192 -0.0593599007 0.5541312695 4286087049
-0.2380380929 -0.0587500371 0.5541861653 4289770939
-0.2283704877 -0.1417961866 0.5330569744 4292600554
-0.2284242064 -0.1412371397 0.5331823826 4291876831
-0.2284777313 -0.1406776905 0.5333073139 4291350489
-0.2289138734 -0.1403525621 0.5343253613 4290100422
-0.2289671153 -0.1397913992 0.5344496369 4288520620
-0.2290201783 -0.1392298341 0.5345734954 4286744209
-0.2290730476 -0.1386678964 0.5346968770 4285428350
-0.2291257232 -0.1381055564 0.5348198414 4284507248
-0.2291782051 -0.1375428289 0.5349423289 4284112490
-0.2292304933 -0.1369797140 0.5350643992 4283322974
-0.2292826027 -0.1364162266 0.5351860523 4282599248
-0.2293345183 -0.1358523518 0.5353072286 4281414974
-0.2293862402 -0.1352880895 0.5354279280 4281349181
-0.2294377685 -0.1347234547 0.5355482101 4281743939
-0.2294891030 -0.1341584325 0.5356680751 4281743939
-0.2295402437 -0.1335930228 0.5357874632 4281678146
-0.2292072624 -0.1328047961 0.5350102186 4281612353
-0.2292579412 -0.1322395951 0.5351284742 4281678146
-0.2293084264 -0.1316740066 0.5352463126 4281743939
-0.2289745212 -0.1308884472 0.5344669223 4281612353
-0.2290245295 -0.1303230673 0.5345836282 4281546560
-0.2286899835 -0.1295396090 0.5338027477 4281349181
-0.2283550799 -0.1287576854 0.5330210328 4281152056
-0.2284043282 -0.1281930953 0.5331360102 4281152056
-0.2284533828 -0.1276281625 0.5332505107 4281283642
-0.2273481935 -0.1264211088 0.5306708217 4281152056
-0.2273966223 -0.1258583069 0.5307838321 4280888371
-0.2274448425 -0.1252951324 0.5308963656 4280690992
-0.2274928689 -0.1247316003 0.5310084820 4280625201
-0.2275407016 -0.1241677105 0.5311201215 4280493615
-0.2275883406 -0.1236034706 0.5312313437 4280427822
-0.2272506058 -0.1228306890 0.5304430127 4280559408
-0.2272977680 -0.1222666949 0.5305531025 4280690992
-0.2269594073 -0.1214960814 0.5297632813 4280493613
-0.2266206741 -0.1207270250 0.5289726257 4280164648
-0.2258961052 -0.1197551861 0.5272813439 4280230441
-0.2259421647 -0.1191936284 0.5273888707 4280098857
-0.2259880155 -0.1186317354 0.5274959207 4280033064
-0.2252622247 -0.1176665276 0.5258017778 4280164650
-0.2260791361 -0.1175069213 0.5277085900 4280230443
-0.2257385105 -0.1167444438 0.5269135237 4280098857
-0.2253975421 -0.1159835532 0.5261176229 4280033064
-0.2262143195 -0.1158171669 0.5280241370 4280163880
-0.2258728743 -0.1150565669 0.5272271037 4280295466
-0.2259172499 -0.1144932732 0.5273306966 4280295466
-0.2259614319 -0.1139296442 0.5274338722 4280295466
-0.2256190777 -0.1131719053 0.5266347528 4280229673
-0.2260491997 -0.1128014103 0.5276387334 4280229673
-0.2257062942 -0.1120449379 0.5268383026 4280229671
-0.2257495970 -0.1114809662 0.5269393921 4280295464
-0.2254060656 -0.1107267439 0.5261375308 4280756015
-0.2258355916 -0.1103520542 0.5271401405 4280624429
-0.2254915088 -0.1095991284 0.5263369679 4280887601
-0.2255339324 -0.1090348363 0.5264359713 4280821808
-0.2251892239 -0.1082841754 0.5256313682 4280690222
-0.2256181687 -0.1079053059 0.5266326070 4280887601
-0.2256599665 -0.1073400676 0.5267301798 4280822062
-0.2253144383 -0.1065913662 0.5259236693 4280690476
-0.2257429808 -0.1062086448 0.5269239545 4281151543
-0.2253968865 -0.1054612696 0.5261161327 4280888371
-0.2258251607 -0.1050759852 0.5271157622 4281085750
-0.2262533605 -0.1046884581 0.5281152725 4281151543
-0.2262940109 -0.1041203886 0.5282101631 4281020470
-0.2267220169 -0.1037293226 0.5292091966 4281283642
-0.2267623246 -0.1031596661 0.5293032527 4281349435
-0.2271901071 -0.1027650759 0.5303018093 4281349435
-0.2276178300 -0.1023682356 0.5313001871 4281546560
-0.2276576459 -0.1017957255 0.5313931108 4281546560
-0.2280851454 -0.1013953611 0.5323909521 4281678916
-0.2289005518 -0.1011642069 0.5342942476 4281810502
-0.2285518944 -0.1004173830 0.5334804654 4281876297
-0.2289790958 -0.1000112370 0.5344775915 4282007883
-0.2294062227 -0.0996028408 0.5354745984 4282402641
-0.2290568054 -0.0988570899 0.5346590281 4282994778
-0.2294836491 -0.0984461531 0.5356553197 4283850857
-0.2299103886 -0.0980329663 0.5366514325 4285232510
-0.2299486399 -0.0974529162 0.5367406607 4289641412
-0.2333212346 -0.0946465060 0.5446129441 4292403947
-0.2329693139 -0.0938995555 0.5437914729 4292206569
-0.2330060452 -0.0933100730 0.5438771844 4291943397
-0.2334316075 -0.0928751007 0.5448705554 4291351260
-0.2330788374 -0.0921302736 0.5440471172 4291088088
-0.2335040718 -0.0916927829 0.5450397134 4291153623
-0.2339292169 -0.0912530497 0.5460320711 4291022037
-0.2339649647 -0.0906602144 0.5461154580 4290955731
-0.2336111218 -0.0899172500 0.5452895761 4290429387
-0.2336463630 -0.0893248692 0.5453718305 4289837250
-0.2340708524 -0.0888801068 0.5463626385 4289113527
-0.2337161750 -0.0881393030 0.5455347896 4287468702
-0.2349195033 -0.0879838541 0.5483435392 4286021256
-0.2349540293 -0.0873874426 0.5484241247 4285165177
-0.2342089266 -0.0865029097 0.5466849208 4284046696
-0.2350223958 -0.0861938372 0.5485837460 4283059801
-0.2342766076 -0.0853127465 0.5468429327 4282138699
-0.2343101203 -0.0847172812 0.5469211340 4281414976
-0.2343434095 -0.0841215551 0.5469988585 4281086011
-0.2343764603 -0.0835255831 0.5470759869 4280230702
-0.2344092876 -0.0829293579 0.5471526384 4280362288
-0.2348319888 -0.0824698731 0.5481392741 4280757046
-0.2348644137 -0.0818721578 0.5482149720 4280822839
-0.2348966151 -0.0812741965 0.5482901335 4281085752
-0.2349285930 -0.0806759894 0.5483647585 4281283131
-0.2349603474 -0.0800775364 0.5484389067 4281217338
-0.2349918634 -0.0794788450 0.5485124588 4281019959
-0.2350231558 -0.0788799077 0.5485855341 4281019959
-0.2350542247 -0.0782807395 0.5486580133 4281151545
-0.2350850701 -0.0776813254 0.5487300158 4281217338
-0.2351156771 -0.0770816877 0.5488014817 4281283131
-0.2351460457 -0.0764818117 0.5488723516 4281282877
-0.2347855419 -0.0757556483 0.5480308533 4281282877
-0.2352061123 -0.0752813593 0.5490125418 4281414463
-0.2356265634 -0.0748048499 0.5499939322 4281414463
-0.2356560677 -0.0742030591 0.5500628352 4281348670
-0.2356853485 -0.0736010373 0.5501311421 4281348670
-0.2353234887 -0.0728777424 0.5492865443 4281414463
-0.2353522480 -0.0722762793 0.5493536592 4281414463
-0.2353807837 -0.0716745928 0.5494202971 4281413949
-0.2354090810 -0.0710726902 0.5494863391 4281413949
-0.2354371548 -0.0704705790 0.5495518446 4281479740
-0.2354649901 -0.0698682442 0.5496168137 4281545533
-0.2354926020 -0.0692657009 0.5496812463 4281611326
-0.2355199754 -0.0686629489 0.5497451425 4281742912
-0.2351558357 -0.0679469258 0.5488951802 4281677636
-0.2351827025 -0.0673447549 0.5489578843 4281611843
-0.2356006950 -0.0668534338 0.5499335527 4281809222
-0.2360185385 -0.0663598999 0.5509089231 4281743429
-0.2360447794 -0.0657551140 0.5509701371 4281874245
-0.2360707968 -0.0651501268 0.5510308743 4282005831
-0.2360965759 -0.0645449385 0.5510910749 4282137417
-0.2365137041 -0.0640455857 0.5520647168 4282269003
-0.2365390509 -0.0634390041 0.5521238446 4282335568
-0.2361724973 -0.0627281964 0.5512682796 4282467154
-0.2365890443 -0.0622252561 0.5522405505 4282666073
-0.2370054275 -0.0617201105 0.5532124639 4283192417
-0.2374216616 -0.0612127669 0.5541840196 4283586662
-0.2370540798 -0.0605032109 0.5533260703 4284376178
-0.2370780557 -0.0598944835 0.5533819795 4285297278
-0.2371017933 -0.0592855699 0.5534374118 4287468447
-0.2371252924 -0.0586764738 0.5534922481 4291613143
-0.2275366485 -0.1410540342 0.5324911475 4292272102
-0.2275900096 -0.1404953450 0.5326160192 4291614174
-0.2276431918 -0.1399362534 0.5327404737 4290232521
-0.2276961803 -0.1393767744 0.5328645110 4289048247
-0.2277489752 -0.1388169080 0.5329880714 4287798180
-0.2281838059 -0.1384886354 0.5340056419 4286284686
-0.2278540134 -0.1376960129 0.5332338810 4285100412
-0.2279062420 -0.1371349841 0.5333561301 4284245105
-0.2283407748 -0.1368027180 0.5343729854 4283916140
-0.2283927202 -0.1362399757 0.5344945788 4283388764
-0.2280618101 -0.1354495883 0.5337201953 4281809732
-0.2281132936 -0.1348870248 0.5338406563 4281086009
-0.2281645685 -0.1343240738 0.5339606404 4281020216
-0.2282156646 -0.1337607503 0.5340802073 4281085752
-0.2282665670 -0.1331970543 0.5341993570 4280888373
-0.2283172607 -0.1326329708 0.5343179703 4281085752
-0.2283677757 -0.1320685148 0.5344362259 4281019959
-0.2280348539 -0.1312830448 0.5336570740 4281677889
-0.2280848920 -0.1307187974 0.5337741971 4281283131
-0.2277513295 -0.1299354285 0.5329935551 4281217336
-0.2274173945 -0.1291535944 0.5322120786 4281217336
-0.2274666876 -0.1285901368 0.5323274136 4281151543
-0.2275157869 -0.1280263066 0.5324423313 4281085750
-0.2275646925 -0.1274621189 0.5325567722 4281019959
-0.2272295654 -0.1266835779 0.5317724943 4281151545
-0.2268940806 -0.1259065717 0.5309873819 4281217595
-0.2269422412 -0.1253432035 0.5311000943 4281217595
-0.2266061157 -0.1245683432 0.5303134918 4281217595
-0.2266537994 -0.1240052134 0.5304250717 4281151802
-0.2267012894 -0.1234417334 0.5305362344 4281151802
-0.2267485708 -0.1228778958 0.5306468606 4281086009
-0.2264112681 -0.1221063957 0.5298575163 4281019957
-0.2264580876 -0.1215428114 0.5299670696 4280888371
-0.2257355899 -0.1205680892 0.5282762647 4280954164
-0.2253972143 -0.1198012829 0.5274843574 4280954164
-0.2254431993 -0.1192395315 0.5275920033 4280954164
-0.2258737832 -0.1188799664 0.5285996199 4280822578
-0.2259194553 -0.1183165684 0.5287065506 4280953394
-0.2255799770 -0.1175522357 0.5279120803 4281019187
-0.2260101885 -0.1171887591 0.5289188623 4281019187
-0.2256701589 -0.1164256632 0.5281231403 4281019187
-0.2257149667 -0.1158618778 0.5282279849 4280822578
-0.2257595509 -0.1152977571 0.5283323526 4280822578
-0.2258039564 -0.1147332937 0.5284362435 4280953394
-0.2258481532 -0.1141685098 0.5285396576 4281019187
-0.2258921415 -0.1136033908 0.5286425948 4281019187
-0.2255503833 -0.1128450409 0.5278428197 4281019187
-0.2259795219 -0.1124721617 0.5288470984 4280822578
-0.2252515107 -0.1115241200 0.5271433592 4280822578
-0.2252945453 -0.1109596267 0.5272440910 4280822578
-0.2249515355 -0.1102057770 0.5264413357 4280888371
-0.2249940932 -0.1096416041 0.5265409350 4281019187
-0.2250364572 -0.1090771109 0.5266400576 4281084980
-0.2246925384 -0.1083261669 0.5258352160 4281150773
-0.2251205593 -0.1079471707 0.5268369317 4281150773
-0.2247760892 -0.1071975380 0.5260307789 4281085750
-0.2252038568 -0.1068159714 0.5270318389 4281085750
-0.2252451926 -0.1062498987 0.5271285772 4281151545
-0.2252863348 -0.1056835204 0.5272248387 4281151545
-0.2257137597 -0.1052971333 0.5282251239 4281348924
-0.2257545590 -0.1047291607 0.5283206105 4281480510
-0.2257951498 -0.1041608825 0.5284156203 4281414717
-0.2258355319 -0.1035923064 0.5285100937 4281480510
-0.2258757055 -0.1030234173 0.5286041498 4281546560
-0.2266893536 -0.1028050929 0.5305082798 4281546560
-0.2267292589 -0.1022336558 0.5306016803 4281151802
-0.2267689407 -0.1016619056 0.5306945443 4281283388
-0.2279695570 -0.1016073897 0.5335043073 4281218365
-0.2280090302 -0.1010321230 0.5335966349 4281744709
-0.2284354717 -0.1006271094 0.5345946550 4281942088
-0.2284745872 -0.1000502631 0.5346861482 4282205260
-0.2289008051 -0.0996417254 0.5356836319 4282665811
-0.2289395630 -0.0990633145 0.5357743502 4283323741
-0.2293655574 -0.0986512452 0.5367712379 4283653481
-0.2294421345 -0.0974910036 0.5369504690 4290890709
-0.2309041023 -0.0933090672 0.5403718352 4292469740
-0.2324930727 -0.0933466554 0.5440903902 4292140775
-0.2329177260 -0.0929115266 0.5450841784 4291746017
-0.2329540253 -0.0923202783 0.5451691151 4291417052
-0.2329901010 -0.0917287618 0.5452535748 4291153880
-0.2330259532 -0.0911369696 0.5453374982 4291022294
-0.2338384539 -0.0908467174 0.5472389460 4290890451
-0.2338739932 -0.0902524069 0.5473220944 4290758865
-0.2331321836 -0.0893599615 0.5455861092 4290693072
-0.2339443862 -0.0890629813 0.5474868417 4290561486
-0.2339792401 -0.0884678662 0.5475683808 4290363594
-0.2336251587 -0.0877265111 0.5467397571 4289771457
-0.2332707196 -0.0869868770 0.5459102988 4288850355
-0.2333047986 -0.0863929540 0.5459900498 4287995046
-0.2337275594 -0.0859417617 0.5469793677 4286613393
-0.2333722860 -0.0852043256 0.5461479425 4285626498
-0.2334056944 -0.0846096203 0.5462261438 4284112489
-0.2334388644 -0.0840146691 0.5463038087 4283257180
-0.2334718257 -0.0834194571 0.5463809371 4281612356
-0.2338937223 -0.0829620436 0.5473682880 4281349184
-0.2339262813 -0.0823653415 0.5474444628 4280428082
-0.2339586169 -0.0817683935 0.5475201607 4280230703
-0.2339907289 -0.0811711922 0.5475952625 4279769639
-0.2344119996 -0.0807078183 0.5485811234 4280295983
-0.2340542525 -0.0799760669 0.5477439761 4280756534
-0.2340856791 -0.0793781430 0.5478174686 4280493362
-0.2341168821 -0.0787799731 0.5478904843 4280493362
-0.2337582558 -0.0780514851 0.5470512509 4280559155
-0.2345682383 -0.0777120218 0.5489467978 4280690741
-0.2338194102 -0.0768559575 0.5471943617 4280427569
-0.2342393845 -0.0763849393 0.5481771827 4280888120
-0.2338796407 -0.0756595060 0.5473353267 4280888120
-0.2339094281 -0.0750609264 0.5474050045 4280756534
-0.2343288660 -0.0745862350 0.5483866334 4280822327
-0.2347481847 -0.0741093084 0.5493679047 4280756534
-0.2343873829 -0.0733859539 0.5485235453 4280822327
-0.2344162762 -0.0727854818 0.5485911965 4280953913
-0.2344449610 -0.0721847862 0.5486583114 4280822327
-0.2344734073 -0.0715838745 0.5487248302 4280888120
-0.2345016152 -0.0709827393 0.5487908721 4280888120
-0.2345295995 -0.0703813955 0.5488563776 4280953913
-0.2337768078 -0.0695476159 0.5470946431 4280953913
-0.2345848829 -0.0691780597 0.5489857197 4280953913
-0.2342218012 -0.0684619695 0.5481360555 4280953913
-0.2338583916 -0.0677476749 0.5472855568 4281151292
-0.2342755944 -0.0672593713 0.5482619405 4281282878
-0.2346926332 -0.0667688623 0.5492379069 4281151292
-0.2347189933 -0.0661660507 0.5492995977 4281348671
-0.2351357043 -0.0656721294 0.5502747893 4281414464
-0.2351616472 -0.0650679097 0.5503355265 4281480257
-0.2351873517 -0.0644634888 0.5503956676 4281809222
-0.2359942496 -0.0640710294 0.5522840023 4282006601
-0.2356287986 -0.0633591339 0.5514287949 4282007114
-0.2356538475 -0.0627531260 0.5514873862 4282401872
-0.2360694855 -0.0622499883 0.5524600744 4282534487
-0.2360941023 -0.0616425909 0.5525176525 4283126624
-0.2361184657 -0.0610350035 0.5525746942 4283389796
-0.2361426055 -0.0604272299 0.5526311994 4284245105
-0.2361664921 -0.0598192699 0.5526871085 4286744724
-0.2361901551 -0.0592111275 0.5527424812 4289771202
-0.2362135798 -0.0586028025 0.5527973175 4292008415
-0.2262692899 -0.1406339258 0.5309051871 4292600554
-0.2267034054 -0.1403127313 0.5319237709 4292008932
-0.2263753116 -0.1395195127 0.5311539769 4291022037
-0.2264280468 -0.1389617324 0.5312776566 4290232521
-0.2264806032 -0.1384035498 0.5314009786 4289245626
-0.2269143313 -0.1380770504 0.5324186683 4287863718
-0.2269665897 -0.1375171542 0.5325412750 4286613651
-0.2266371101 -0.1367267072 0.5317682028 4285297793
-0.2270705402 -0.1363962144 0.5327851772 4284179312
-0.2271222323 -0.1358351707 0.5329064727 4284244845
-0.2271737307 -0.1352737397 0.5330272913 4282928985
-0.2272250503 -0.1347119361 0.5331476927 4282007111
-0.2272761613 -0.1341497451 0.5332676768 4281217595
-0.2273270935 -0.1335871816 0.5333871841 4280822837
-0.2273778319 -0.1330242306 0.5335062146 4280757044
-0.2274283916 -0.1324609071 0.5336248279 4281086009
-0.2270964235 -0.1316755265 0.5328459144 4280888630
-0.2271465063 -0.1311124116 0.5329633951 4281480767
-0.2268138975 -0.1303291321 0.5321830511 4281349181
-0.2268635184 -0.1297662109 0.5322993994 4281414715
-0.2265302688 -0.1289850473 0.5315175653 4281348922
-0.2265794128 -0.1284223497 0.5316328406 4281217336
-0.2266283631 -0.1278592795 0.5317476988 4281151543
-0.2266771048 -0.1272958517 0.5318620801 4281019959
-0.2263426781 -0.1265179813 0.5310773849 4281019959
-0.2260079086 -0.1257416457 0.5302918553 4281086009
-0.2256727666 -0.1249668747 0.5295054913 4281151802
-0.2257204801 -0.1244048625 0.5296174884 4281151802
-0.2257680148 -0.1238424927 0.5297290087 4281151802
-0.2258153558 -0.1232797652 0.5298401117 4281086009
-0.2258625031 -0.1227166876 0.5299506783 4281151802
-0.2262929827 -0.1223606542 0.5309607983 4281217338
-0.2259561867 -0.1215894818 0.5301705599 4281151545
-0.2256190330 -0.1208198741 0.5293794274 4281085750
-0.2252815217 -0.1200518385 0.5285875201 4281085750
-0.2257113904 -0.1196924895 0.5295961499 4281151543
-0.2253733277 -0.1189256832 0.5288029313 4281151543
-0.2254189253 -0.1183620915 0.5289099216 4281151543
-0.2254643291 -0.1177981570 0.5290164948 4281085750
-0.2255095392 -0.1172338799 0.5291225314 4281085750
-0.2255545408 -0.1166692674 0.5292281508 4281019957
-0.2255993485 -0.1161043197 0.5293332934 4281086263
-0.2252595574 -0.1153421998 0.5285360217 4281086263
-0.2253038883 -0.1147775427 0.5286400318 4281151543
-0.2253480256 -0.1142125577 0.5287435651 4281085750
-0.2253919542 -0.1136472374 0.5288466215 4281085750
-0.2254356891 -0.1130815819 0.5289492607 4281085750
-0.2250944376 -0.1123235971 0.5281485915 4281085750
-0.2247528434 -0.1115672141 0.5273470283 4281085750
-0.2247958183 -0.1110025197 0.5274478793 4281085750
-0.2248385847 -0.1104374975 0.5275482535 4281151543
-0.2248811573 -0.1098721549 0.5276481509 4281282359
-0.2245383859 -0.1091193184 0.5268439054 4281348152
-0.2245804816 -0.1085543036 0.5269426703 4281348152
-0.2250076681 -0.1081742048 0.5279449821 4281413945
-0.2250494212 -0.1076075882 0.5280429721 4281283129
-0.2247055471 -0.1068573669 0.5272361040 4281348922
-0.2251323313 -0.1064734161 0.5282374620 4281414717
-0.2251734883 -0.1059058532 0.5283340216 4281480510
-0.2256000638 -0.1055183634 0.5293349624 4281546303
-0.2256408781 -0.1049492136 0.5294306874 4281612096
-0.2256814688 -0.1043797582 0.5295259356 4281546560
-0.2261077166 -0.1039874479 0.5305260420 4281678146
-0.2265338898 -0.1035928801 0.5315260291 4281809732
-0.2261880189 -0.1028450504 0.5307145119 4281809732
-0.2273860276 -0.1027969867 0.5335254073 4281086779
-0.2270397395 -0.1020485535 0.5327129364 4281415744
-0.2274654806 -0.1016469300 0.5337118506 4281613123
-0.2275049090 -0.1010714471 0.5338043571 4282205260
-0.2275441140 -0.1004956663 0.5338963270 4282468947
-0.2279694974 -0.1000892296 0.5348944068 4282732119
-0.2280083448 -0.0995118842 0.5349856019 4283192670
-0.2280469835 -0.0989342406 0.5350762606 4284311151
-0.2280854136 -0.0983562991 0.5351663828 4285495683
-0.2281236202 -0.0977780670 0.5352560878 4288851126
-0.2285483330 -0.0973642990 0.5362526178 4291811811
-0.2316647023 -0.0920485705 0.5435646772 4292272361
-0.2320880592 -0.0916117430 0.5445579886 4292009189
-0.2325113267 -0.0911726728 0.5455511212 4291811810
-0.2321593314 -0.0904294178 0.5447252393 4291482588
-0.2321946323 -0.0898378491 0.5448080301 4291285209
-0.2322297096 -0.0892460123 0.5448903441 4291153623
-0.2322645783 -0.0886539072 0.5449721813 4291022037
-0.2326870263 -0.0882085487 0.5459633470 4290890451
-0.2323336303 -0.0874688923 0.5451341867 4290824658
-0.2323678136 -0.0868759975 0.5452144146 4290692559
-0.2327897698 -0.0864268839 0.5462044477 4290429387
-0.2324355394 -0.0856894180 0.5453733206 4289968836
-0.2324690670 -0.0850957409 0.5454519391 4289442492
-0.2325023711 -0.0845018104 0.5455300808 4288520620
-0.2325354367 -0.0839076191 0.5456076860 4287862690
-0.2325682938 -0.0833131820 0.5456848145 4286283659
-0.2329892367 -0.0828565806 0.5466724634 4285362557
-0.2330217063 -0.0822606534 0.5467486382 4283586146
-0.2330539376 -0.0816644654 0.5468242764 4282862423
-0.2334744185 -0.0812031552 0.5478108525 4281678148
-0.2335062474 -0.0806054845 0.5478855371 4281151804
-0.2331492752 -0.0798744485 0.5470479727 4280691254
-0.2331805974 -0.0792772919 0.5471214652 4280296496
-0.2332117110 -0.0786798894 0.5471944809 4280230703
-0.2332425863 -0.0780822560 0.5472669005 4280033324
-0.2336620092 -0.0776135251 0.5482510328 4280361776
-0.2329148054 -0.0767581314 0.5464978218 4280559155
-0.2329449505 -0.0761607885 0.5465685725 4280624948
-0.2329748571 -0.0755632147 0.5466387272 4280822327
-0.2333935350 -0.0750905573 0.5476210713 4281019706
-0.2330339998 -0.0743673742 0.5467774868 4281085499
-0.2338414043 -0.0740154311 0.5486719608 4281019706
-0.2330922335 -0.0731706396 0.5469141603 4280888120
-0.2331210077 -0.0725719333 0.5469816327 4280888120
-0.2335387766 -0.0720931664 0.5479618907 4280822327
-0.2335671335 -0.0714930221 0.5480284095 4281019708
-0.2335952669 -0.0708926544 0.5480943918 4281019708
-0.2336231619 -0.0702920780 0.5481598973 4281085501
-0.2336508334 -0.0696912855 0.5482248068 4281151294
-0.2336782664 -0.0690902844 0.5482891798 4281151551
-0.2337054610 -0.0684890673 0.5483530164 4281151551
-0.2341219932 -0.0680007860 0.5493302941 4281283391
-0.2341487855 -0.0673981532 0.5493931770 4281480770
-0.2341753393 -0.0667953119 0.5494554639 4281217598
-0.2342016548 -0.0661922619 0.5495172143 4281414977
-0.2342277467 -0.0655890182 0.5495784283 4281546563
-0.2342536002 -0.0649855658 0.5496391058 4281678149
-0.2346690297 -0.0644890442 0.5506138206 4282007114
-0.2346944660 -0.0638841987 0.5506734848 4282138700
-0.2351095527 -0.0633842647 0.5516474843 4282205007
-0.2347446233 -0.0626739115 0.5507912040 4282665558
-0.2355493158 -0.0622746870 0.5526793003 4282797659
-0.2347938418 -0.0614628606 0.5509066582 4283060831
-0.2352081537 -0.0609581396 0.5518788099 4284113004
-0.2352322191 -0.0603511371 0.5519352555 4286547345
-0.2356461883 -0.0598430261 0.5529065728 4289705664
