VERSION 0.7
FIELDS x y z rgba
SIZE 4 4 4 4
TYPE F F F U
COUNT 1 1 1 1
WIDTH 920
HEIGHT 1
VIEWPOINT 0.0 0.0 0.0 1.0 0.0 0.0 0.0
POINTS 920
DATA ascii
-0.2756347060 -0.0904014558 0.5445567966 4289821788
-0.2756741941 -0.0898092762 0.5446347594 4290282339
-0.2757134140 -0.0892168432 0.5447122455 4290085730
-0.2757523954 -0.0886241570 0.5447893143 4289756765
-0.2757911384 -0.0880312175 0.5448657870 4289692000
-0.2758296132 -0.0874380320 0.5449418426 4289955172
-0.2758678496 -0.0868446007 0.5450173616 4289955429
-0.2759058475 -0.0862509236 0.5450924039 4290218601
-0.2759435773 -0.0856570005 0.5451669693 4290218601
-0.2764283419 -0.0852006972 0.5461246967 4290810738
-0.2764656544 -0.0846053287 0.5461983681 4290482288
-0.2769500911 -0.0841456503 0.5471554995 4289561186
-0.2769869566 -0.0835488364 0.5472283363 4289431660
-0.2774710655 -0.0830857977 0.5481847525 4290155383
-0.2775074840 -0.0824875459 0.5482566953 4289960322
-0.2779912949 -0.0820211321 0.5492125154 4290486666
-0.2780272365 -0.0814214498 0.5492835641 4291082158
-0.3133243918 -0.2132745087 0.6203795671 4289831842
-0.3034960926 -0.2059168816 0.6009196043 4287200122
-0.3122046292 -0.2111386508 0.6181623936 4288251260
-0.3097028434 -0.2087654173 0.6132088900 4287724916
-0.3054735959 -0.2052425295 0.6048350334 4288051559
-0.2990838587 -0.2002914250 0.5921834111 4287854180
-0.2913952768 -0.1945014745 0.5769600868 4288641380
-0.2871567905 -0.1910406351 0.5685679317 4288378208
-0.2850753963 -0.1890287697 0.5644467473 4288310616
-0.2829926312 -0.1870251596 0.5603228807 4288244823
-0.2817728221 -0.1855991483 0.5579077005 4288244312
-0.2805521488 -0.1841779053 0.5554907918 4288178519
-0.2797629535 -0.1830443740 0.5539281964 4288178517
-0.2789731324 -0.1819138676 0.5523643494 4288046931
-0.2786152661 -0.1810675859 0.5516557693 4287981392
-0.2778242230 -0.1799423248 0.5500894785 4287981392
-0.2774654031 -0.1790995151 0.5493790507 4288178517
-0.2771061361 -0.1782580167 0.5486677289 4288178517
-0.2767464817 -0.1774178296 0.5479555726 4288046931
-0.2759531736 -0.1763021797 0.5463848114 4287915345
-0.2755925357 -0.1754654944 0.5456708074 4287915345
-0.2752314806 -0.1746301353 0.5449559093 4287915345
-0.2748700082 -0.1737960875 0.5442401767 4287849552
-0.2745081186 -0.1729633808 0.5435236692 4287915345
-0.2741458118 -0.1721320003 0.5428062677 4287849295
-0.2742169499 -0.1715734154 0.5429471731 4287783502
-0.2742879093 -0.1710144132 0.5430876613 4287651916
-0.2743586898 -0.1704549640 0.5432277918 4287520330
-0.2748634815 -0.1701639146 0.5442272425 4287520330
-0.2740652859 -0.1690668464 0.5426468849 4287520330
-0.2737009227 -0.1682399511 0.5419253707 4287454537
-0.2737706602 -0.1676805615 0.5420635343 4287454537
-0.2734055519 -0.1668554693 0.5413405895 4287586123
-0.2734748125 -0.1662961096 0.5414777398 4287586123
-0.2731089890 -0.1654728353 0.5407533646 4287586121
-0.2731777430 -0.1649135202 0.5408895016 4287586121
-0.2728111744 -0.1640920788 0.5401637554 4287651914
-0.2728794217 -0.1635328084 0.5402988195 4287651914
-0.2729474604 -0.1629731357 0.5404335856 4287651914
-0.2725798786 -0.1621540040 0.5397057533 4287717707
-0.2726474106 -0.1615943760 0.5398394465 4287651914
-0.2727147341 -0.1610343307 0.5399727821 4287520328
-0.2727818787 -0.1604738832 0.5401057005 4287454535
-0.2724129558 -0.1596575528 0.5393752456 4287454535
-0.2724795640 -0.1590971798 0.5395071507 4287520328
-0.2725459933 -0.1585363746 0.5396386981 4287586121
-0.2721760273 -0.1577224135 0.5389061570 4287717707
-0.2722419500 -0.1571616977 0.5390366316 4287717707
-0.2723076642 -0.1566005796 0.5391667485 4287652173
-0.2723731697 -0.1560390592 0.5392964482 4287652173
-0.2720018625 -0.1552279592 0.5385612845 4287652173
-0.2720668614 -0.1546665281 0.5386899710 4287652173
-0.2721316516 -0.1541046947 0.5388182402 4287652173
-0.2717593014 -0.1532960087 0.5380810499 4287586380
-0.2718235850 -0.1527342796 0.5382083058 4287652173
-0.2710134089 -0.1516828388 0.5366041660 4287652173
-0.2710770667 -0.1511221230 0.5367302299 4287521100
-0.2711405158 -0.1505610198 0.5368558168 4287455307
-0.2712037563 -0.1499994993 0.5369810462 4287389514
-0.2712667882 -0.1494376063 0.5371058583 4287389514
-0.2708919942 -0.1486351937 0.5363637805 4287389514
-0.2709545195 -0.1480734199 0.5364875793 4287192135
-0.2710168362 -0.1475112587 0.5366109610 4287126342
-0.2710789442 -0.1469487101 0.5367339253 4287192135
-0.2707028091 -0.1461492926 0.5359891653 4287257928
-0.2707643807 -0.1455868781 0.5361111164 4287323721
-0.2703875303 -0.1447894275 0.5353649259 4287389001
-0.2708869278 -0.1444609165 0.5363537073 4287191622
-0.2705094516 -0.1436645240 0.5356063247 4287060549
-0.2705700994 -0.1431014985 0.5357264280 4287192135
-0.2706305385 -0.1425381005 0.5358460546 4287192135
-0.2702520192 -0.1417442113 0.5350966454 4287257928
-0.2703119516 -0.1411809772 0.5352152586 4287257928
-0.2703716457 -0.1406173706 0.5353334546 4287323721
-0.2704311311 -0.1400533766 0.5354512334 4287192135
-0.2700513005 -0.1392625719 0.5346992016 4286994756
-0.2701102495 -0.1386987716 0.5348159671 4287060549
-0.2701690197 -0.1381345838 0.5349322557 4287060549
-0.2702275515 -0.1375700384 0.5350481868 4286928963
-0.2702858746 -0.1370051205 0.5351636410 4286797377
-0.2703439891 -0.1364398450 0.5352787375 4286928963
-0.2699621916 -0.1356532723 0.5345227718 4286928963
-0.2700197697 -0.1350881904 0.5346367955 4286798147
-0.2700771391 -0.1345227361 0.5347504020 4286798147
-0.2701343000 -0.1339569390 0.5348635316 4286732354
-0.2701912224 -0.1333907694 0.5349762440 4286732354
-0.2702479362 -0.1328242421 0.5350885391 4286732354
-0.2698642015 -0.1320419610 0.5343287587 4286666561
-0.2699204087 -0.1314756572 0.5344400406 4286666561
-0.2699763775 -0.1309089959 0.5345508456 4286600768
-0.2700321078 -0.1303419769 0.5346612334 4286469439
-0.2700876594 -0.1297746152 0.5347712040 4286403646
-0.2701429725 -0.1292069107 0.5348806977 4286272060
-0.2701980472 -0.1286388487 0.5349897742 4286337853
-0.2702529132 -0.1280704290 0.5350984335 4286469439
-0.2703075707 -0.1275016814 0.5352066159 4286535232
-0.2703620195 -0.1269325763 0.5353143811 4286534205
-0.2704162300 -0.1263631433 0.5354217291 4286599998
-0.2704702020 -0.1257933527 0.5355286002 4286403646
-0.2700826526 -0.1250189543 0.5347612500 4286337853
-0.2701361179 -0.1244494170 0.5348671079 4286272832
-0.2701893449 -0.1238795519 0.5349724889 4286404418
-0.2702423334 -0.1233093441 0.5350774527 4286339136
-0.2702951133 -0.1227388009 0.5351819396 4286141757
-0.2703476846 -0.1221679300 0.5352860093 4286010684
-0.2704000175 -0.1215967163 0.5353896618 4286076477
-0.2704521120 -0.1210251823 0.5354928374 4286075966
-0.2705039978 -0.1204533130 0.5355955362 4286075966
-0.2705556452 -0.1198811159 0.5356978178 4286141246
-0.2706070840 -0.1193085909 0.5357996225 4286075453
-0.2706582844 -0.1187357455 0.5359010100 4286272060
-0.2711516023 -0.1183556467 0.5368778110 4286403646
-0.2707599998 -0.1175890714 0.5361024141 4286469182
-0.2708105445 -0.1170152500 0.5362024903 4286534975
-0.2708608210 -0.1164411157 0.5363020301 4286534973
-0.2709108889 -0.1158666536 0.5364011526 4286534973
-0.2709607184 -0.1152918786 0.5364998579 4286732352
-0.2710103095 -0.1147167832 0.5365980268 4287061317
-0.2710596919 -0.1141413748 0.5366957784 4287389512
-0.2711088359 -0.1135656536 0.5367931128 4287521098
-0.2711577415 -0.1129896194 0.5368899703 4287520841
-0.2712064385 -0.1124132723 0.5369863510 4287257669
-0.2712548673 -0.1118366197 0.5370822549 4287191876
-0.2713030875 -0.1112596542 0.5371777415 4287323462
-0.2713510692 -0.1106823832 0.5372727513 4287454534
-0.2718423009 -0.1102847159 0.5382453203 4287586120
-0.2714463472 -0.1095269248 0.5374614000 4287651913
-0.2714936435 -0.1089487448 0.5375549793 4287388741
-0.2715406716 -0.1083702594 0.5376481414 4286797375
-0.2715874910 -0.1077914760 0.5377408862 4286731582
-0.2716340721 -0.1072123945 0.5378330946 4286797118
-0.2716804147 -0.1066330150 0.5379248261 4286928704
-0.2717265487 -0.1060533375 0.5380161405 4287060290
-0.2717724144 -0.1054733694 0.5381069779 4287060290
-0.2718180418 -0.1048931032 0.5381973386 4287126083
-0.2718634605 -0.1043125466 0.5382872224 4287126083
-0.2719086111 -0.1037316993 0.5383766890 4287323462
-0.2723979056 -0.1033191159 0.5393454432 4287257669
-0.2724426687 -0.1027367413 0.5394340754 4287388741
-0.2720426917 -0.1019874364 0.5386421084 4287454534
-0.2720868886 -0.1014054492 0.5387296677 4287586120
-0.2721308768 -0.1008231714 0.5388167500 4287783499
-0.2721745968 -0.1002406180 0.5389033556 4287980878
-0.2726629078 -0.0998206213 0.5398701429 4287915085
-0.2727062404 -0.0992365479 0.5399559140 4287849805
-0.2727493048 -0.0986522064 0.5400412679 4287849805
-0.2727921605 -0.0980675817 0.5401260853 4287849292
-0.2728347778 -0.0974826887 0.5402104259 4287849292
-0.2728771269 -0.0968975127 0.5402942896 4287849292
-0.2733644545 -0.0964691937 0.5412592292 4287783499
-0.2734064162 -0.0958825201 0.5413423181 4287651913
-0.2734481096 -0.0952955857 0.5414248705 4287520327
-0.2734895647 -0.0947083831 0.5415069461 4287717706
-0.2739762664 -0.0942742005 0.5424706340 4288244050
-0.2744628787 -0.0938378423 0.5434340835 4288638294
-0.2745037377 -0.0932479277 0.5435149670 4288440915
-0.2749900222 -0.0928081721 0.5444778204 4288243536
-0.2750304639 -0.0922167748 0.5445579290 4288177743
-0.2750706375 -0.0916251168 0.5446374416 4287980878
-0.2751106024 -0.0910331979 0.5447165370 4288046671
-0.2751502693 -0.0904410258 0.5447951555 4289294931
-0.2751897275 -0.0898486003 0.5448732376 4290018654
-0.2752289176 -0.0892559141 0.5449508429 4290349160
-0.2752678692 -0.0886629820 0.5450279713 4289691230
-0.2753065526 -0.0880697966 0.5451045632 4288836950
-0.2753450274 -0.0874763578 0.5451807380 4289297501
-0.2753832042 -0.0868826807 0.5452563763 4289626466
-0.2758675516 -0.0864286050 0.5462153554 4289626466
-0.2759053111 -0.0858334675 0.5462900996 4289691229
-0.2759428322 -0.0852380842 0.5463643670 4290085987
-0.2759800851 -0.0846424624 0.5464381576 4290086758
-0.2764637172 -0.0841825977 0.5473957658 4289823586
-0.2769472301 -0.0837205648 0.5483530760 4289102180
-0.2769838572 -0.0831222981 0.5484256148 4289760110
-0.2770202160 -0.0825237855 0.5484976172 4290420358
-0.2775031924 -0.0820571855 0.5494539142 4290288772
-0.2775391340 -0.0814572424 0.5495250225 4289502865
-0.2775747776 -0.0808570758 0.5495956540 4292002999
-0.3119025826 -0.2127746195 0.6189254522 4291280316
-0.3111286461 -0.2115606964 0.6173896790 4287727494
-0.3094931245 -0.2097662091 0.6141442657 4287988861
-0.3061341643 -0.2068146467 0.6074788570 4287857275
-0.3006196618 -0.2024264187 0.5965361595 4288051563
-0.2933786511 -0.1969037652 0.5821673870 4287722598
-0.2852715552 -0.1908336580 0.5660800934 4288641380
-0.2879358530 -0.1919811219 0.5713669658 4288378208
-0.2832716405 -0.1882467121 0.5621114969 4288245593
-0.2816236019 -0.1865306050 0.5588412285 4288179800
-0.2808372080 -0.1853905618 0.5572807193 4288244823
-0.2800501585 -0.1842535585 0.5557189584 4288179030
-0.2783991992 -0.1825535446 0.5524428487 4288244310
-0.2793375552 -0.1825529784 0.5543048978 4288178517
-0.2776850760 -0.1808608025 0.5510257483 4288178257
-0.2773273587 -0.1800163835 0.5503159165 4288178257
-0.2761050463 -0.1786142290 0.5478904843 4288244564
-0.2770428956 -0.1786101162 0.5497514606 4288244564
-0.2766840458 -0.1777687371 0.5490393639 4288178771
-0.2758923173 -0.1766517907 0.5474683046 4287981392
-0.2755325139 -0.1758139133 0.5467543602 4287915599
-0.2751722932 -0.1749773622 0.5460395217 4287915599
-0.2752444148 -0.1744163781 0.5461826324 4287915599
-0.2748834491 -0.1735816002 0.5454663634 4287915599
-0.2740890682 -0.1724756658 0.5438899994 4287915086
-0.2741602659 -0.1719160080 0.5440312624 4287783500
-0.2742312551 -0.1713559180 0.5441721678 4287717707
-0.2738687396 -0.1705255806 0.5434527993 4287651914
-0.2739392221 -0.1699655056 0.5435926914 4287651914
-0.2735759914 -0.1691369563 0.5428718925 4287651914
-0.2736459672 -0.1685769111 0.5430107713 4287586121
-0.2732819915 -0.1677501500 0.5422885418 4287520328
-0.2733514905 -0.1671901345 0.5424264073 4287586123
-0.2729867995 -0.1663652062 0.5417026877 4287586123
-0.2730557919 -0.1658052206 0.5418395996 4287651914
-0.2726903558 -0.1649821103 0.5411144495 4287717707
-0.2723245025 -0.1641603559 0.5403885245 4287783500
-0.2728271186 -0.1638618261 0.5413858891 4287717707
-0.2724606693 -0.1630410105 0.5406587124 4287717707
-0.2725284398 -0.1624807119 0.5407931805 4287717707
-0.2721612453 -0.1616617441 0.5400645733 4287717707
-0.2722285390 -0.1611015052 0.5401980281 4287717707
-0.2722955942 -0.1605408490 0.5403311253 4287651914
-0.2723624706 -0.1599797904 0.5404638052 4287520328
-0.2719939351 -0.1591636389 0.5397325754 4287454535
-0.2720603049 -0.1586026400 0.5398642421 4287586121
-0.2721264660 -0.1580412388 0.5399954915 4287651914
-0.2721924186 -0.1574794203 0.5401263833 4287651914
-0.2718225420 -0.1566661298 0.5393924713 4287652173
-0.2718879879 -0.1561044008 0.5395222902 4287586380
-0.2719532251 -0.1555422693 0.5396517515 4287586380
-0.2715823352 -0.1547313631 0.5389158130 4287652173
-0.2716470659 -0.1541693360 0.5390442610 4287652173
-0.2712754607 -0.1533603221 0.5383068323 4287586380
-0.2717759013 -0.1530440450 0.5392999053 4287586380
-0.2709673345 -0.1519913077 0.5376954079 4287652173
-0.2710310519 -0.1514294744 0.5378218293 4287520587
-0.2710945308 -0.1508672535 0.5379477739 4287454794
-0.2707211673 -0.1500625908 0.5372068882 4287389514
-0.2707841396 -0.1495004892 0.5373318791 4287389514
-0.2708469033 -0.1489379853 0.5374564528 4287389514
-0.2709094882 -0.1483751088 0.5375806093 4287192135
-0.2705347836 -0.1475734264 0.5368370414 4287192135
-0.2705968320 -0.1470106691 0.5369601846 4287192135
-0.2706586719 -0.1464475244 0.5370828509 4287192135
-0.2702829242 -0.1456483155 0.5363373160 4287323721
-0.2703442574 -0.1450853199 0.5364589691 4287323208
-0.2704053521 -0.1445219219 0.5365802646 4287060036
-0.2700286210 -0.1437252164 0.5358326435 4286994756
-0.2700892091 -0.1431619823 0.5359528661 4287192135
-0.2701495886 -0.1425983757 0.5360726714 4287192135
-0.2702097297 -0.1420343816 0.5361920595 4287192135
-0.2702696919 -0.1414700150 0.5363110304 4287257928
-0.2698912919 -0.1406769156 0.5355601907 4287257928
-0.2699507475 -0.1401127130 0.5356780887 4287126342
-0.2695716321 -0.1393215954 0.5349258184 4286863170
-0.2696305513 -0.1387575716 0.5350427032 4286797377
-0.2696892321 -0.1381931901 0.5351591706 4286797377
-0.2697477043 -0.1376284212 0.5352752209 4286863170
-0.2698059976 -0.1370632946 0.5353908539 4286928963
-0.2698640525 -0.1364977956 0.5355060697 4286994754
-0.2699218690 -0.1359319389 0.5356208682 4287060547
-0.2695405185 -0.1351456195 0.5348640680 4286995524
-0.2695978284 -0.1345799565 0.5349777937 4286863938
-0.2696549296 -0.1340139359 0.5350911021 4286798145
-0.2697117925 -0.1334475428 0.5352039933 4286732352
-0.2697684765 -0.1328808069 0.5353164077 4286666561
-0.2698249221 -0.1323137134 0.5354284048 4286600768
-0.2694416046 -0.1315316856 0.5346677899 4286600768
-0.2694975138 -0.1309648156 0.5347787738 4286534975
-0.2695532143 -0.1303975731 0.5348892808 4286600768
-0.2696087062 -0.1298300028 0.5349993706 4286666561
-0.2696639597 -0.1292620599 0.5351090431 4286601025
-0.2697190046 -0.1286937743 0.5352182388 4286601025
-0.2697738111 -0.1281251460 0.5353270173 4286535232
-0.2698284090 -0.1275561750 0.5354353786 4286469439
-0.2698827982 -0.1269868612 0.5355432630 4286731584
-0.2699369490 -0.1264171898 0.5356507301 4286665791
-0.2699908912 -0.1258471906 0.5357577801 4286468928
-0.2700445950 -0.1252768338 0.5358643532 4286468928
-0.2696574926 -0.1245027184 0.5350961685 4286272832
-0.2697106600 -0.1239326224 0.5352017283 4286075453
-0.2697636187 -0.1233621910 0.5353068113 4285812792
-0.2702572346 -0.1229920685 0.5362862945 4285878585
-0.2703098357 -0.1224200353 0.5363906622 4285944378
-0.2703621984 -0.1218476668 0.5364945531 4286141757
-0.2704143226 -0.1212749705 0.5365980268 4286075964
-0.2700250447 -0.1205050424 0.5358255506 4286075964
-0.2700766623 -0.1199326143 0.5359279513 4286207037
-0.2701280415 -0.1193598658 0.5360299349 4286075451
-0.2701791823 -0.1187867895 0.5361314416 4286206267
-0.2706716657 -0.1184065491 0.5371086597 4286272060
-0.2707224488 -0.1178318858 0.5372094512 4286403646
-0.2703312933 -0.1170656160 0.5364332795 4286337853
-0.2703815401 -0.1164912507 0.5365329385 4286272314
-0.2708734274 -0.1161059663 0.5375090837 4286338107
-0.2704813480 -0.1153415516 0.5367310047 4286666559
-0.2705309093 -0.1147662327 0.5368293524 4286995524
-0.2705802321 -0.1141905934 0.5369272232 4287323719
-0.2706293166 -0.1136146411 0.5370246768 4287455305
-0.2706781924 -0.1130383760 0.5371216536 4287389255
-0.2707268298 -0.1124617979 0.5372181535 4287323462
-0.2707752287 -0.1118849143 0.5373141766 4287322948
-0.2708233893 -0.1113077179 0.5374097824 4287257155
-0.2708713412 -0.1107302159 0.5375049114 4287322948
-0.2709190547 -0.1101524010 0.5375995636 4287586120
-0.2714092731 -0.1097533330 0.5385723710 4287782985
-0.2710137665 -0.1089958772 0.5377875566 4287651399
-0.2710607648 -0.1084171534 0.5378808379 4287060547
-0.2711075544 -0.1078381389 0.5379736423 4286994754
-0.2711541057 -0.1072588190 0.5380659699 4286797118
-0.2712003887 -0.1066792011 0.5381578803 4286862911
-0.2712464631 -0.1060992926 0.5382493138 4287059777
-0.2712922990 -0.1055190861 0.5383402109 4287059777
-0.2713378966 -0.1049385890 0.5384306908 4287257156
-0.2709398270 -0.1041872725 0.5376408100 4287191363
-0.2714283764 -0.1037767082 0.5386102796 4287060290
-0.2714732587 -0.1031953394 0.5386993289 4287060290
-0.2715179324 -0.1026136801 0.5387879610 4287126082
-0.2715623379 -0.1020317376 0.5388760567 4287191875
-0.2716065049 -0.1014495045 0.5389637351 4287322948
-0.2716504335 -0.1008669883 0.5390509367 4287520327
-0.2716941237 -0.1002841964 0.5391376019 4287782985
-0.2721816003 -0.0998640284 0.5401049256 4287848778
-0.2722249031 -0.0992797241 0.5401908159 4287783751
-0.2722679377 -0.0986951366 0.5402762890 4287849544
-0.2723107338 -0.0981102735 0.5403612256 4287849544
-0.2723533213 -0.0975251347 0.5404456854 4287849544
-0.2723956406 -0.0969397202 0.5405296683 4287849544
-0.2728821635 -0.0965112224 0.5414950848 4287849544
-0.2729240656 -0.0959243104 0.5415782332 4287717958
-0.2729657292 -0.0953371301 0.5416609049 4287586372
-0.2730071545 -0.0947496817 0.5417430997 4287652167
-0.2734930217 -0.0943153277 0.5427072644 4288178511
-0.2735340297 -0.0937263891 0.5427886248 4288310097
-0.2740196288 -0.0932886302 0.5437521935 4288178511
-0.2745051086 -0.0928486884 0.5447155833 4288309327
-0.2745454907 -0.0922570452 0.5447957516 4288309327
-0.2745856643 -0.0916651487 0.5448754430 4287915339
-0.2746255398 -0.0910729840 0.5449545979 4287717960
-0.2746652067 -0.0904805660 0.5450332761 4287980101
-0.2747046053 -0.0898878872 0.5451114774 4288440652
-0.2747437656 -0.0892949551 0.5451892018 4289296990
-0.2747826874 -0.0887017772 0.5452663898 4289099611
-0.2748213708 -0.0881083384 0.5453431606 4287718730
-0.2748597860 -0.0875146538 0.5454193950 4288113488
-0.2748979330 -0.0869207233 0.5454950929 4289363296
-0.2753814459 -0.0864664614 0.5464545488 4288968538
-0.2754191756 -0.0858710706 0.5465294719 4289363035
-0.2754566669 -0.0852754414 0.5466037989 4289494621
-0.2754938900 -0.0846795663 0.5466777086 4289429085
-0.2764225602 -0.0843555704 0.5485205054 4289692257
-0.2764593959 -0.0837572813 0.5485935807 4289036902
-0.2769419551 -0.0832928866 0.5495511293 4289168488
-0.2769783437 -0.0826931670 0.5496233702 4289301879
-0.2770144939 -0.0820932016 0.5496950746 4288775535
-0.2774965167 -0.0816242397 0.5506516099 4288054645
-0.2775321901 -0.0810228437 0.5507224202 4290160021
-0.2780138850 -0.0805505142 0.5516782403 4292530634
-0.3109126091 -0.2125677764 0.6183237433 4292728793
-0.3101400137 -0.2113542557 0.6167872548 4289044385
-0.3085073829 -0.2095599622 0.6135404110 4287463033
-0.3060140014 -0.2071901113 0.6085817218 4287660412
-0.3022292554 -0.2039597780 0.6010548472 4287919977
-0.2958619595 -0.1990090609 0.5883919597 4287919977
-0.2899210751 -0.1943723559 0.5765771270 4288509796
-0.2856977582 -0.1909096390 0.5681780577 4288246624
-0.2836238444 -0.1888970882 0.5640535355 4288376925
-0.2819790542 -0.1871785671 0.5607824922 4288311132
-0.2807637453 -0.1857514530 0.5583655834 4288245593
-0.2791168094 -0.1840451211 0.5550902486 4288114007
-0.2800538838 -0.1840441823 0.5569538474 4288244564
-0.2784053981 -0.1823456734 0.5536754131 4288112978
-0.2776179612 -0.1812165082 0.5521094203 4288440402
-0.2768298984 -0.1800903827 0.5505421758 4288440402
-0.2764724791 -0.1792469621 0.5498313308 4288244564
-0.2761146128 -0.1784048527 0.5491196513 4288244564
-0.2757563591 -0.1775640398 0.5484071970 4288178771
-0.2758293152 -0.1770015508 0.5485523343 4288047185
-0.2750385702 -0.1758863777 0.5469796658 4287915599
-0.2746790349 -0.1750495285 0.5462646484 4287915599
-0.2751830816 -0.1747626960 0.5472670794 4287915599
-0.2748229504 -0.1739267111 0.5465508699 4287849806
-0.2740301490 -0.1728194803 0.5449742079 4287980879
-0.2736690640 -0.1719870418 0.5442560911 4287783500
-0.2737399936 -0.1714267582 0.5443971753 4287717707
-0.2733781636 -0.1705961078 0.5436776280 4287651914
-0.2734486163 -0.1700358391 0.5438176990 4287717707
-0.2735188603 -0.1694751531 0.5439573526 4287783500
-0.2731559873 -0.1686467379 0.5432357192 4287717707
-0.2727927268 -0.1678196937 0.5425133109 4287717707
-0.2728621662 -0.1672594845 0.5426513553 4287717709
-0.2724981606 -0.1664342433 0.5419274569 4287586123
-0.2721337378 -0.1656103432 0.5412027836 4287651916
-0.2722023726 -0.1650506407 0.5413392186 4287717709
-0.2722707987 -0.1644905061 0.5414752960 4287717709
-0.2719053328 -0.1636689156 0.5407485366 4287717709
-0.2719732523 -0.1631088406 0.5408836007 4287783500
-0.2716071010 -0.1622890830 0.5401554108 4287783500
-0.2716745138 -0.1617290676 0.5402894616 4287717707
-0.2717417181 -0.1611686200 0.5404230952 4287717707
-0.2718087137 -0.1606077701 0.5405563712 4287717707
-0.2718755305 -0.1600465029 0.5406892300 4287586121
-0.2715077102 -0.1592300534 0.5399577618 4287520328
-0.2715740204 -0.1586688459 0.5400896072 4287586121
-0.2716400921 -0.1581072360 0.5402210355 4287651914
-0.2717059851 -0.1575452238 0.5403520465 4287717707
-0.2713368535 -0.1567316204 0.5396179557 4287717709
-0.2714022398 -0.1561696976 0.5397479534 4287586123
-0.2710323632 -0.1553579867 0.5390123725 4287520330
-0.2710972428 -0.1547961384 0.5391414165 4287586123
-0.2711618841 -0.1542339027 0.5392699838 4287586123
-0.2712263465 -0.1536712497 0.5393981934 4287586123
-0.2712906003 -0.1531082094 0.5395259857 4287586380
-0.2709190845 -0.1522999108 0.5387871265 4287586380
-0.2709828317 -0.1517369598 0.5389139056 4287652173
-0.2710463703 -0.1511736363 0.5390402675 4287520587
-0.2702379525 -0.1501256227 0.5374325514 4287454794
-0.2703008950 -0.1495633125 0.5375576615 4287454794
-0.2703635991 -0.1490006000 0.5376824141 4287389001
-0.2704260945 -0.1484375149 0.5378066897 4287323208
-0.2700521052 -0.1476355195 0.5370629430 4287323208
-0.2701140940 -0.1470725536 0.5371862054 4287323208
-0.2701758742 -0.1465092003 0.5373090506 4287323208
-0.2698008716 -0.1457096785 0.5365632772 4287389001
-0.2698621452 -0.1451464742 0.5366851091 4287191622
-0.2699231803 -0.1445828825 0.5368065238 4286862657
-0.2699840367 -0.1440189034 0.5369275212 4286994756
-0.2696076930 -0.1432224214 0.5361791253 4287192135
-0.2696680129 -0.1426585913 0.5362990499 4287191622
-0.2697281241 -0.1420944035 0.5364186168 4287323208
-0.2697880268 -0.1415298134 0.5365377069 4287192135
-0.2698477209 -0.1409648657 0.5366564393 4287060549
-0.2694697380 -0.1401719898 0.5359047055 4287060549
-0.2695288956 -0.1396072060 0.5360223651 4287060549
-0.2691501975 -0.1388163269 0.5352692604 4286863170
-0.2692088485 -0.1382517219 0.5353859067 4286731584
-0.2692672610 -0.1376867443 0.5355020761 4286928963
-0.2693254948 -0.1371214092 0.5356178880 4287126342
-0.2693834901 -0.1365557015 0.5357332230 4287192133
-0.2694412768 -0.1359896213 0.5358481407 4287323719
-0.2694988549 -0.1354231834 0.5359626412 4287323719
-0.2691178918 -0.1346371025 0.5352050066 4287192133
-0.2691749334 -0.1340708733 0.5353184342 4287060547
-0.2692317665 -0.1335042715 0.5354315042 4286928961
-0.2692883611 -0.1329373121 0.5355440378 4286863168
-0.2693447769 -0.1323700100 0.5356562138 4286797375
-0.2694009542 -0.1318023354 0.5357679129 4286732352
-0.2694568932 -0.1312343180 0.5358791947 4286732352
-0.2690736949 -0.1304531246 0.5351170897 4286732354
-0.2691291273 -0.1298853159 0.5352273583 4286798147
-0.2691843212 -0.1293171644 0.5353371501 4286863940
-0.2692393363 -0.1287486702 0.5354465246 4286798147
-0.2692940831 -0.1281798184 0.5355554223 4286666561
-0.2693486512 -0.1276106238 0.5356639028 4286600768
-0.2694029808 -0.1270410866 0.5357719660 4286599998
-0.2694570720 -0.1264711916 0.5358795524 4286534205
-0.2695109546 -0.1259009689 0.5359867215 4286337596
-0.2695646286 -0.1253304034 0.5360934734 4286469182
-0.2700579166 -0.1249630079 0.5370744467 4286272060
-0.2696712911 -0.1241882369 0.5363056064 4285679923
-0.2697242796 -0.1236166507 0.5364109874 4285154862
-0.2697770596 -0.1230447292 0.5365158916 4285483827
-0.2698296010 -0.1224724725 0.5366204381 4286010171
-0.2698819339 -0.1218998805 0.5367244482 4286207550
-0.2699340284 -0.1213269606 0.5368281007 4286075451
-0.2699858844 -0.1207537055 0.5369312167 4286009658
-0.2700375319 -0.1201801226 0.5370339751 4286337853
-0.2700889707 -0.1196062118 0.5371361971 4286272060
-0.2701401412 -0.1190319657 0.5372380018 4286272060
-0.2701911032 -0.1184574068 0.5373393893 4286272060
-0.2702418566 -0.1178825125 0.5374403000 4286338107
-0.2702923715 -0.1173072979 0.5375407338 4286206521
-0.2703426480 -0.1167317629 0.5376407504 4286271801
-0.2703926861 -0.1161559075 0.5377402902 4286403387
-0.2704425156 -0.1155797318 0.5378393531 4286600766
-0.2704921067 -0.1150032431 0.5379379988 4286732352
-0.2705414891 -0.1144264340 0.5380361676 4287060547
-0.2705906034 -0.1138493046 0.5381338596 4287126340
-0.2706395090 -0.1132718697 0.5382311344 4286928704
-0.2706881762 -0.1126941219 0.5383279324 4287257669
-0.2707366347 -0.1121160612 0.5384242535 4287322948
-0.2707848251 -0.1115376875 0.5385200977 4287125569
-0.2708328068 -0.1109590083 0.5386155248 4287322434
-0.2708805501 -0.1103800237 0.5387104750 4287585606
-0.2709280550 -0.1098007336 0.5388049483 4287585606
-0.2709753215 -0.1092211381 0.5388990045 4287388227
-0.2705802619 -0.1084640101 0.5381132364 4287389255
-0.2706269920 -0.1078847572 0.5382062197 4287191876
-0.2706734836 -0.1073052064 0.5382986665 4286797118
-0.2707197368 -0.1067253500 0.5383906960 4286797118
-0.2707657814 -0.1061452031 0.5384821892 4287059777
-0.2708115578 -0.1055647656 0.5385732651 4287125570
-0.2712996900 -0.1051555723 0.5395440459 4287322948
-0.2709024251 -0.1044029966 0.5387539864 4287191362
-0.2709475160 -0.1038216799 0.5388436913 4286928703
-0.2709923685 -0.1032400727 0.5389328599 4286994496
-0.2710369825 -0.1026581749 0.5390215516 4287060289
-0.2710813582 -0.1020759940 0.5391098261 4287126082
-0.2711254954 -0.1014935225 0.5391975641 4287257155
-0.2711693645 -0.1009107679 0.5392848849 4287322948
-0.2712130249 -0.1003277376 0.5393717289 4287519813
-0.2712564468 -0.0997444242 0.5394580364 4287651399
-0.2717429399 -0.0993228555 0.5404255390 4287717442
-0.2717859447 -0.0987380296 0.5405110717 4287783235
-0.2718287110 -0.0981529206 0.5405961275 4287783235
-0.2723147571 -0.0977267101 0.5415627360 4287783235
-0.2723571062 -0.0971400961 0.5416469574 4287783235
-0.2723992169 -0.0965532213 0.5417307019 4287849028
-0.2724410892 -0.0959660634 0.5418139696 4287914567
-0.2724826932 -0.0953786448 0.5418967605 4287848774
-0.2725240886 -0.0947909504 0.5419790745 4288046153
-0.2730091512 -0.0943564177 0.5429437160 4288177739
-0.2730501294 -0.0937672332 0.5430251956 4288046153
-0.2739789486 -0.0934808031 0.5448723435 4287980360
-0.2740195394 -0.0928891823 0.5449531078 4288177739
-0.2740598917 -0.0922972932 0.5450333953 4288243532
-0.2741000056 -0.0917051360 0.5451131463 4288111946
-0.2741398811 -0.0911127329 0.5451924205 4288046153
-0.2741795182 -0.0905200616 0.5452712178 4287914821
-0.2742188871 -0.0899271369 0.5453495383 4287914821
-0.2742580175 -0.0893339589 0.5454273224 4288507476
-0.2742968798 -0.0887405276 0.5455046892 4288968027
-0.2743355036 -0.0881468505 0.5455814600 4287981391
-0.2743738890 -0.0875529125 0.5456578135 4288047184
-0.2744120359 -0.0869587362 0.5457336307 4289297503
-0.2748947144 -0.0865042806 0.5466936231 4289034331
-0.2749324143 -0.0859086439 0.5467685461 4289100120
-0.2754147947 -0.0854508057 0.5477278829 4289034327
-0.2758970559 -0.0849907994 0.5486869812 4288706391
-0.2759341002 -0.0843925029 0.5487606525 4288969563
-0.2759709060 -0.0837939680 0.5488339067 4289168488
-0.2764526308 -0.0833293796 0.5497919321 4289234281
-0.2764890194 -0.0827294067 0.5498642325 4289037937
-0.2765251100 -0.0821291879 0.5499360561 4289103730
-0.2765609622 -0.0815287456 0.5500073433 4288053616
-0.2770419717 -0.0810583830 0.5509639382 4289172097
-0.2775228620 -0.0805858523 0.5519202948 4290687400
-0.2780035734 -0.0801111609 0.5528762937 4292990155
-0.3070083261 -0.2096832395 0.6119108200 4290690239
-0.3088092208 -0.2102293521 0.6155002117 4287660671
-0.3076076806 -0.2087301761 0.6131054163 4287200120
-0.3055469692 -0.2066552192 0.6089980602 4287722344
-0.3026263416 -0.2040096968 0.6031768918 4288051309
-0.2979863584 -0.2002218515 0.5939287543 4288443748
-0.2920551002 -0.1955897808 0.5821068883 4288180576
-0.2874091864 -0.1918419302 0.5728469491 4288509024
-0.2844794095 -0.1892563552 0.5670074821 4288443231
-0.2828373313 -0.1875375807 0.5637345910 4288377436
-0.2807641625 -0.1855411828 0.5596024990 4288311643
-0.2799798846 -0.1844028682 0.5580393076 4288376150
-0.2783345580 -0.1827028245 0.5547599196 4288112978
-0.2775487304 -0.1815723628 0.5531936288 4288440402
-0.2767622173 -0.1804449409 0.5516260266 4288506195
-0.2764056325 -0.1796003282 0.5509153008 4288178771
-0.2756179571 -0.1784781665 0.5493453145 4288112978
-0.2756911516 -0.1779150367 0.5494912267 4288112978
-0.2753332853 -0.1770743579 0.5487779379 4288047185
-0.2749750018 -0.1762350053 0.5480638146 4287981392
-0.2741851807 -0.1751216054 0.5464895964 4287915599
-0.2746883929 -0.1748346984 0.5474925637 4287981392
-0.2743289471 -0.1739984155 0.5467761755 4287915599
-0.2735376358 -0.1728907675 0.5451989770 4287849293
-0.2736088037 -0.1723298281 0.5453408360 4287717707
-0.2732481360 -0.1714975387 0.5446219444 4287717707
-0.2733187973 -0.1709366292 0.5447627902 4287717707
-0.2729573846 -0.1701061279 0.5440424681 4287717707
-0.2725955546 -0.1692769527 0.5433212519 4287783500
-0.2722332776 -0.1684491336 0.5425992012 4287783500
-0.2723028362 -0.1678891629 0.5427378416 4287717707
-0.2719398737 -0.1670631468 0.5420144200 4287717709
-0.2720089257 -0.1665032059 0.5421520472 4287586123
-0.2716452181 -0.1656790078 0.5414271355 4287651916
-0.2717821300 -0.1645587683 0.5417000055 4287717709
-0.2718502879 -0.1639980227 0.5418358445 4287717709
-0.2714852393 -0.1631765962 0.5411082506 4287783500
-0.2715528905 -0.1626158953 0.5412430763 4287717707
-0.2716203332 -0.1620547771 0.5413775444 4287651914
-0.2716875970 -0.1614932418 0.5415115952 4287717707
-0.2713212073 -0.1606746167 0.5407813191 4287651914
-0.2713879645 -0.1601131409 0.5409143567 4287586121
-0.2714545131 -0.1595512629 0.5410469770 4287651914
-0.2715208232 -0.1589889675 0.5411792397 4287717707
-0.2715869844 -0.1584262550 0.5413110256 4287717707
-0.2712189555 -0.1576109529 0.5405775309 4287717707
-0.2712845802 -0.1570483297 0.5407083035 4287717709
-0.2709158361 -0.1562349200 0.5399733782 4287520330
-0.2709809542 -0.1556723714 0.5401031375 4287454537
-0.2710458636 -0.1551094204 0.5402325392 4287454537
-0.2706761062 -0.1542984098 0.5394955277 4287586123
-0.2707405090 -0.1537355632 0.5396239161 4287651916
-0.2708047032 -0.1531722993 0.5397518277 4287651916
-0.2708686888 -0.1526086479 0.5398793817 4287586123
-0.2709324658 -0.1520446092 0.5400065184 4287520587
-0.2709960341 -0.1514801532 0.5401332378 4287323208
-0.2706243396 -0.1506730616 0.5393923521 4287323208
-0.2706874013 -0.1501087397 0.5395180583 4287323208
-0.2707502544 -0.1495440006 0.5396432877 4287257415
-0.2699421048 -0.1484998614 0.5380325913 4287191622
-0.2700043321 -0.1479361653 0.5381566286 4287191622
-0.2700663805 -0.1473720819 0.5382802486 4287191622
-0.2696924806 -0.1465708166 0.5375350714 4287323208
-0.2697539926 -0.1460068673 0.5376576781 4287389001
-0.2693794072 -0.1452075839 0.5369110703 4287191622
-0.2694404125 -0.1446437687 0.5370326042 4286994243
-0.2695011795 -0.1440795809 0.5371537805 4287126342
-0.2695617676 -0.1435150206 0.5372744799 4287126342
-0.2691858411 -0.1427187622 0.5365252495 4286994243
-0.2692458928 -0.1421543509 0.5366449356 4287191622
-0.2693057358 -0.1415895671 0.5367642045 4287257415
-0.2689287961 -0.1407958269 0.5360128880 4287060036
-0.2689881027 -0.1402312070 0.5361311436 4287192135
-0.2690472305 -0.1396662146 0.5362489820 4287323721
-0.2691061199 -0.1391008496 0.5363663435 4287192135
-0.2687278390 -0.1383102089 0.5356124043 4287060549
-0.2687862217 -0.1377450228 0.5357287526 4287126342
-0.2688443661 -0.1371794641 0.5358446836 4287192135
-0.2689023316 -0.1366135478 0.5359601378 4287257926
-0.2685227096 -0.1358260363 0.5352035165 4287323719
-0.2685801387 -0.1352603137 0.5353180170 4287455048
-0.2686373591 -0.1346942186 0.5354320407 4287389255
-0.2686943412 -0.1341277659 0.5355455875 4287257926
-0.2687511146 -0.1335609406 0.5356587768 4287126340
-0.2688076794 -0.1329937726 0.5357714891 4287060547
-0.2688640058 -0.1324262470 0.5358837843 4287060547
-0.2684821486 -0.1316436082 0.5351226926 4286929731
-0.2685379684 -0.1310762912 0.5352339149 4286995524
-0.2685935497 -0.1305086166 0.5353447199 4287060547
-0.2686489522 -0.1299405992 0.5354551077 4286994754
-0.2687040865 -0.1293722242 0.5355650783 4286798145
-0.2687590420 -0.1288035065 0.5356745720 4286732352
-0.2688137591 -0.1282344311 0.5357836485 4286666559
-0.2688682675 -0.1276650131 0.5358922482 4286732352
-0.2689225376 -0.1270952523 0.5360004306 4286796864
-0.2689765990 -0.1265251487 0.5361081958 4286796864
-0.2690304220 -0.1259547025 0.5362154841 4286731584
-0.2690840364 -0.1253839135 0.5363223553 4286797377
-0.2691374421 -0.1248127744 0.5364287496 4286337853
-0.2691906095 -0.1242412999 0.5365347266 4285350958
-0.2692435384 -0.1236694902 0.5366402864 4284694311
-0.2692962587 -0.1230973452 0.5367453694 4285154862
-0.2689093649 -0.1223249882 0.5359742045 4286075964
-0.2689615488 -0.1217531040 0.5360782146 4286273343
-0.2690135241 -0.1211808920 0.5361818075 4286141244
-0.2695049047 -0.1208054200 0.5371611714 4286075451
-0.2695565224 -0.1202316135 0.5372640491 4286403646
-0.2696078718 -0.1196574718 0.5373664498 4286337853
-0.2696590424 -0.1190830022 0.5374683738 4286272060
-0.2697099447 -0.1185082123 0.5375698805 4286272060
-0.2697606385 -0.1179330945 0.5376709104 4286534973
-0.2698110938 -0.1173576564 0.5377714634 4286403387
-0.2698613405 -0.1167818904 0.5378715992 4286469180
-0.2699113488 -0.1162058040 0.5379712582 4286534973
-0.2699611187 -0.1156294048 0.5380704999 4286665789
-0.2700106800 -0.1150526777 0.5381692052 4286731582
-0.2700599730 -0.1144756377 0.5382675529 4286928961
-0.2701090872 -0.1138982847 0.5383653641 4286994754
-0.2701579332 -0.1133206189 0.5384627581 4286928703
-0.2702065706 -0.1127426326 0.5385596752 4287323461
-0.2702549398 -0.1121643409 0.5386561155 4287322948
-0.2703031003 -0.1115857363 0.5387521386 4287059776
-0.2703510523 -0.1110068262 0.5388476849 4287191362
-0.2703987360 -0.1104276106 0.5389427543 4287388741
-0.2704462111 -0.1098480821 0.5390373468 4287257155
-0.2704934478 -0.1092682555 0.5391314626 4287125569
-0.2705404460 -0.1086881235 0.5392251611 4286928961
-0.2701458037 -0.1079313308 0.5384385586 4286797375
-0.2701922357 -0.1073515490 0.5385311246 4286468410
-0.2702384591 -0.1067714617 0.5386232734 4286402617
-0.2702844441 -0.1061910763 0.5387149453 4286599996
-0.2703301907 -0.1056104004 0.5388061404 4286863168
-0.2708175182 -0.1052010432 0.5397773981 4286994496
-0.2708628476 -0.1046188325 0.5398677588 4286862910
-0.2704660296 -0.1038666070 0.5390768647 4286994496
-0.2705108523 -0.1032847613 0.5391661525 4287060289
-0.2705554068 -0.1027026325 0.5392549634 4286994496
-0.2705997527 -0.1021202058 0.5393433571 4286994496
-0.2706438303 -0.1015375033 0.5394312143 4287060289
-0.2706876993 -0.1009545103 0.5395186543 4287126082
-0.2707313001 -0.1003712416 0.5396055579 4287388227
-0.2707746923 -0.0997876823 0.5396920443 4287585606
-0.2712603509 -0.0993659496 0.5406600237 4287585602
-0.2713032961 -0.0987808779 0.5407456160 4287519809
-0.2713460326 -0.0981955379 0.5408307910 4287323200
-0.2718312442 -0.0977691486 0.5417978764 4287323200
-0.2718735635 -0.0971822962 0.5418822169 4287388993
-0.2719156444 -0.0965951756 0.5419660807 4287520579
-0.2719574571 -0.0960077792 0.5420494676 4287782981
-0.2719990611 -0.0954201147 0.5421323776 4287782981
-0.2720403969 -0.0948321819 0.5422148108 4288046153
-0.2725246251 -0.0943974704 0.5431799293 4288111946
-0.2725655735 -0.0938080475 0.5432615280 4288046153
-0.2730495036 -0.0933699310 0.5442260504 4288046153
-0.2735333443 -0.0929296315 0.5451903939 4288177739
-0.2735736668 -0.0923374966 0.5452708006 4288177739
-0.2736137509 -0.0917451009 0.5453506708 4288111689
-0.2736535668 -0.0911524445 0.5454300642 4288243275
-0.2736931741 -0.0905595273 0.5455089808 4288045892
-0.2737325132 -0.0899663568 0.5455873609 4287980099
-0.2737715840 -0.0893729329 0.5456652641 4287848774
-0.2738104463 -0.0887792557 0.5457426906 4288638290
-0.2738490403 -0.0881853253 0.5458196402 4288572499
-0.2738873661 -0.0875911415 0.5458960533 4288046155
-0.2743694484 -0.0871377066 0.5468568802 4288506958
-0.2744073570 -0.0865420699 0.5469323993 4288572751
-0.2744449973 -0.0859461799 0.5470075011 4288441933
-0.2749265730 -0.0854881555 0.5479673147 4288770898
-0.2754079998 -0.0850279555 0.5489268303 4288443732
-0.2754450142 -0.0844294131 0.5490006804 4288706904
-0.2754817903 -0.0838306248 0.5490739346 4288971367
-0.2759627104 -0.0833658427 0.5500324965 4288839781
-0.2759990394 -0.0827656090 0.5501049161 4288511336
-0.2760351002 -0.0821651444 0.5501767993 4288840301
-0.2760709226 -0.0815644413 0.5502482057 4288645751
-0.2765511274 -0.0810938850 0.5512052774 4287856235
-0.2765865028 -0.0804917514 0.5512757897 4288318591
-0.2770663500 -0.0800178275 0.5522322059 4291674034
-0.3078228831 -0.2100228220 0.6148955226 4289240475
-0.3057669997 -0.2079414874 0.6107887626 4287003513
-0.3032813370 -0.2055779696 0.6058235168 4287525736
-0.2995086312 -0.2023559064 0.5982872844 4287854701
-0.2944478095 -0.1982831657 0.5881779194 4288312677
-0.2893839478 -0.1942308545 0.5780625343 4288049505
-0.2856035531 -0.1910596341 0.5705110431 4288311647
-0.2831077278 -0.1887616813 0.5655254722 4288180061
-0.2810393870 -0.1867588609 0.5613937974 4288245339
-0.2798280418 -0.1853328198 0.5589740872 4288376925
-0.2786158323 -0.1839115918 0.5565525889 4288507482
-0.2778321207 -0.1827776432 0.5549870729 4288178517
-0.2774772942 -0.1819283664 0.5542783141 4288243281
-0.2766923904 -0.1807996482 0.5527104139 4288374867
-0.2763366103 -0.1799538583 0.5519996881 4288047185
-0.2751206458 -0.1785514057 0.5495707393 4287981392
-0.2756237984 -0.1782661974 0.5505757928 4287981392
-0.2748366296 -0.1771471053 0.5490034223 4287915599
-0.2744790614 -0.1763074398 0.5482891202 4287915599
-0.2741210461 -0.1754690856 0.5475739837 4287915599
-0.2737626135 -0.1746320575 0.5468580127 4287981392
-0.2738343477 -0.1740700454 0.5470012426 4287981392
-0.2739058733 -0.1735075861 0.5471441150 4287717707
-0.2731156349 -0.1724008471 0.5455656052 4287651914
-0.2731865346 -0.1718392968 0.5457072258 4287717707
-0.2728262544 -0.1710071415 0.5449874997 4287783500
-0.2728966475 -0.1704455912 0.5451281667 4287783500
-0.2725356221 -0.1696152389 0.5444070101 4287783500
-0.2726055384 -0.1690537184 0.5445466638 4287717707
-0.2722437978 -0.1682251543 0.5438240767 4287651914
-0.2718816400 -0.1673979461 0.5431006551 4287651916
-0.2719507515 -0.1668369174 0.5432386398 4287651916
-0.2715878785 -0.1660115272 0.5425137877 4287717709
-0.2716564536 -0.1654505283 0.5426508188 4287717709
-0.2712928653 -0.1646269709 0.5419244766 4287717709
-0.2713609338 -0.1640660167 0.5420604944 4287717709
-0.2714288235 -0.1635046452 0.5421960950 4287717707
-0.2710641921 -0.1626833826 0.5414677262 4287717707
-0.2711315751 -0.1621220708 0.5416023135 4287717707
-0.2711987793 -0.1615603268 0.5417365432 4287651914
-0.2712657452 -0.1609981805 0.5418703556 4287651916
-0.2708998024 -0.1601797342 0.5411393046 4287651916
-0.2709662616 -0.1596176475 0.5412721038 4287651916
-0.2710325420 -0.1590551436 0.5414044857 4287783502
-0.2710986137 -0.1584922373 0.5415364504 4287783500
-0.2711644769 -0.1579289138 0.5416680574 4287717707
-0.2707968652 -0.1571138054 0.5409337282 4287651916
-0.2708622515 -0.1565505564 0.5410643220 4287520330
-0.2704938948 -0.1557373405 0.5403285623 4287454537
-0.2705587447 -0.1551741809 0.5404580832 4287454537
-0.2706234157 -0.1546106339 0.5405871868 4287651916
-0.2702540457 -0.1537998021 0.5398494005 4287717709
-0.2703181803 -0.1532363445 0.5399774909 4287651916
-0.2703821063 -0.1526724845 0.5401052237 4287454537
-0.2704458237 -0.1521082222 0.5402324796 4287323208
-0.2705093324 -0.1515435725 0.5403593779 4287125829
-0.2705726624 -0.1509785205 0.5404857993 4287125829
-0.2702013552 -0.1501716375 0.5397441387 4287191622
-0.2702641487 -0.1496067047 0.5398695469 4287125829
-0.2703267336 -0.1490413696 0.5399945378 4286994243
-0.2695196867 -0.1479982436 0.5383824706 4287060036
-0.2695816457 -0.1474339515 0.5385062099 4287125829
-0.2696433961 -0.1468692720 0.5386295915 4287257415
-0.2697049677 -0.1463042051 0.5387525558 4287257415
-0.2693311870 -0.1455036849 0.5380059481 4287191622
-0.2689570189 -0.1447046101 0.5372585058 4287125829
-0.2690177560 -0.1441402137 0.5373798013 4287192135
-0.2690782547 -0.1435754299 0.5375006795 4287060549
-0.2691385746 -0.1430102736 0.5376211405 4286862657
-0.2687630653 -0.1422142535 0.5368710756 4287125829
-0.2688228488 -0.1416492462 0.5369904637 4287389001
-0.2688824236 -0.1410838664 0.5371094942 4287323208
-0.2685059011 -0.1402903795 0.5363573432 4287323721
-0.2685649395 -0.1397251636 0.5364753008 4287389514
-0.2686237693 -0.1391595900 0.5365928411 4287323721
-0.2686824203 -0.1385936290 0.5367099643 4287389514
-0.2683045566 -0.1378032416 0.5359551311 4287454794
-0.2683626711 -0.1372374743 0.5360712409 4287323208
-0.2684205472 -0.1366713345 0.5361868739 4287192133
-0.2680416703 -0.1358835250 0.5354300141 4287192133
-0.2680990398 -0.1353175789 0.5355446339 4287257926
-0.2681562006 -0.1347512603 0.5356587768 4287389512
-0.2682131231 -0.1341845989 0.5357725620 4287389512
-0.2682698369 -0.1336175650 0.5358858109 4287323719
-0.2683263421 -0.1330501735 0.5359987020 4287127110
-0.2683826387 -0.1324824244 0.5361111760 4287061317
-0.2684387267 -0.1319143176 0.5362231731 4287127110
-0.2684945762 -0.1313458681 0.5363346934 4287061317
-0.2685501873 -0.1307770461 0.5364458561 4287192133
-0.2686056197 -0.1302078813 0.5365565419 4287060547
-0.2686608136 -0.1296383590 0.5366668105 4286798145
-0.2687157989 -0.1290684938 0.5367766023 4286732352
-0.2687705457 -0.1284982711 0.5368860364 4286732352
-0.2688250840 -0.1279277056 0.5369949341 4286732352
-0.2688793838 -0.1273567975 0.5371034741 4286731584
-0.2689335048 -0.1267855465 0.5372114778 4286731584
-0.2689873576 -0.1262139380 0.5373191237 4286534203
-0.2690410316 -0.1256419867 0.5374262929 4286534203
-0.2690944374 -0.1250697076 0.5375330448 4286272314
-0.2687093019 -0.1242943183 0.5367636681 4285351212
-0.2687622011 -0.1237222850 0.5368693471 4284299553
-0.2688148618 -0.1231499165 0.5369745493 4284431139
-0.2688673139 -0.1225772053 0.5370793343 4285944378
-0.2689195275 -0.1220041662 0.5371836424 4286207550
-0.2689715326 -0.1214307919 0.5372875333 4286207037
-0.2690233290 -0.1208570898 0.5373909473 4286141244
-0.2690748572 -0.1202830523 0.5374938846 4286337853
-0.2691261768 -0.1197086871 0.5375964046 4286272060
-0.2691772878 -0.1191339940 0.5376985073 4286272062
-0.2692281604 -0.1185589731 0.5378001332 4286337855
-0.2692787945 -0.1179836318 0.5379012823 4286666561
-0.2693292201 -0.1174079627 0.5380020142 4286534975
-0.2693794072 -0.1168319657 0.5381022692 4286534975
-0.2694293559 -0.1162556559 0.5382020473 4286666561
-0.2694790959 -0.1156790257 0.5383014083 4286797375
-0.2695285976 -0.1151020750 0.5384002924 4286797375
-0.2695778608 -0.1145248041 0.5384986997 4286928961
-0.2691870630 -0.1137613356 0.5377180576 4287126340
-0.2692357898 -0.1131843776 0.5378153920 4287389255
-0.2697243094 -0.1127911061 0.5387911797 4287389255
-0.2697726488 -0.1122125834 0.5388877988 4287191876
-0.2698207796 -0.1116337478 0.5389838815 4287060290
-0.2698686719 -0.1110546067 0.5390795469 4287191875
-0.2699163258 -0.1104751527 0.5391747355 4287191875
-0.2695233524 -0.1097161174 0.5383897424 4287060289
-0.2695704401 -0.1091370061 0.5384838581 4286994496
-0.2696173191 -0.1085575894 0.5385774970 4286534205
-0.2696639895 -0.1079778671 0.5386707187 4286336826
-0.2697103918 -0.1073978469 0.5387634039 4285877556
-0.2697565556 -0.1068175286 0.5388556719 4285548591
-0.2698025107 -0.1062369049 0.5389474034 4285680177
-0.2702891529 -0.1058286354 0.5399194956 4286074935
-0.2703346908 -0.1052464768 0.5400105119 4286468410
-0.2699389160 -0.1044932902 0.5392199159 4286599996
-0.2699839175 -0.1039114967 0.5393097997 4287126083
-0.2700286806 -0.1033294126 0.5393992662 4286994497
-0.2700732052 -0.1027470455 0.5394881964 4286797630
-0.2701175213 -0.1021643877 0.5395766497 4286731837
-0.2701615691 -0.1015814394 0.5396646261 4286797630
-0.2702053785 -0.1009982079 0.5397521853 4286863423
-0.2702489495 -0.1004147008 0.5398392081 4287125569
-0.2702922821 -0.0998309031 0.5399258137 4287322948
-0.2703354061 -0.0992468297 0.5400118828 4287257155
-0.2703782618 -0.0986624807 0.5400975347 4287257155
-0.2708627284 -0.0982381105 0.5410652757 4287126082
-0.2709051967 -0.0976522490 0.5411500931 4287126082
-0.2709473968 -0.0970661119 0.5412343740 4287257409
-0.2714314461 -0.0966370925 0.5422012806 4287323202
-0.2714732289 -0.0960494578 0.5422847867 4287585604
-0.2715147734 -0.0954615474 0.5423678160 4287717190
-0.2715560794 -0.0948733687 0.5424503088 4287782724
-0.2720395029 -0.0944384858 0.5434159636 4287980103
-0.2720803916 -0.0938488171 0.5434976220 4287980360
-0.2725635171 -0.0934105217 0.5444626808 4288046153
-0.2726039588 -0.0928193629 0.5445435047 4288177480
-0.2726441920 -0.0922279432 0.5446238518 4288111687
-0.2726841569 -0.0916362628 0.5447037220 4288045124
-0.2727239132 -0.0910443217 0.5447830558 4288045124
-0.2727633715 -0.0904521197 0.5448619723 4288242243
-0.2728026211 -0.0898596644 0.5449403524 4288308036
-0.2732845247 -0.0894118696 0.5459029675 4287980614
-0.2733233571 -0.0888179392 0.5459805131 4288441165
-0.2733618915 -0.0882237628 0.5460575223 4288639058
-0.2734002173 -0.0876293331 0.5461340547 4287981128
-0.2738814652 -0.0871757120 0.5470953584 4287520063
-0.2739193439 -0.0865798220 0.5471710563 4287783235
-0.2744002640 -0.0861228183 0.5481317043 4288309577
-0.2744376957 -0.0855254754 0.5482065082 4288901714
-0.2749182880 -0.0850650817 0.5491665006 4288640600
-0.2749552727 -0.0844662860 0.5492404103 4289035358
-0.2754355669 -0.0840025172 0.5501998067 4289037162
-0.2754721045 -0.0834022686 0.5502728224 4288971369
-0.2759520710 -0.0829351246 0.5512315631 4288708972
-0.2759881616 -0.0823334381 0.5513036847 4288445800
-0.2760240138 -0.0817315131 0.5513752699 4288974203
-0.2760596275 -0.0811293572 0.5514463782 4287066206
-0.2765388489 -0.0806564316 0.5524036884 4285817428
-0.2770179212 -0.0801813379 0.5533606410 4289370250
-0.2766088843 -0.0794490278 0.5525435805 4292596942
-0.3059827387 -0.2092315108 0.6125787497 4291017144
-0.3047852218 -0.2077346891 0.6101813316 4287332736
-0.3031592071 -0.2059521079 0.6069260240 4287527021
-0.3002489209 -0.2033071369 0.6010996699 4287461228
-0.2964811325 -0.2000963688 0.5935565233 4287984741
-0.2914272249 -0.1960372180 0.5834385753 4287853155
-0.2867983580 -0.1922855228 0.5741715431 4288114013
-0.2838793993 -0.1896970570 0.5683278441 4287982427
-0.2818152308 -0.1876908392 0.5641952753 4287916374
