VERSION 0.7
FIELDS x y z rgba
SIZE 4 4 4 4
TYPE F F F U
COUNT 1 1 1 1
WIDTH 920
HEIGHT 1
VIEWPOINT 0.0 0.0 0.0 1.0 0.0 0.0 0.0
POINTS 920
DATA ascii
-0.2706347406 -0.1132505238 0.5777847171 4287782730
-0.2706815004 -0.1126280054 0.5778844953 4287979852
-0.2707279921 -0.1120051742 0.5779837370 4288045645
-0.2707742453 -0.1113820150 0.5780825019 4288045645
-0.2708202600 -0.1107585430 0.5781807303 4287979852
-0.2708660066 -0.1101347506 0.5782784224 4287915088
-0.2713296115 -0.1096796468 0.5792681575 4288244053
-0.2709568143 -0.1088862270 0.5784723163 4288375896
-0.2710018456 -0.1082614958 0.5785684586 4288375896
-0.2710466385 -0.1076364517 0.5786640644 4288376409
-0.2715095580 -0.1071762368 0.5796523094 4288507995
-0.2715539336 -0.1065496132 0.5797470808 4288375898
-0.2715980411 -0.1059226841 0.5798412561 4288573277
-0.2716419399 -0.1052954495 0.5799349546 4288639583
-0.2716855705 -0.1046679094 0.5800281167 4288573790
-0.2717289329 -0.1040400639 0.5801207423 4288968033
-0.2717720866 -0.1034119278 0.5802128315 4289099619
-0.2718149722 -0.1027834862 0.5803043842 4288770656
-0.2718576193 -0.1021547467 0.5803954005 4288770656
-0.2718999982 -0.1015257165 0.5804859400 4288573537
-0.2723611593 -0.1010518596 0.5814704895 4288705123
-0.2724031210 -0.1004212722 0.5815600753 4288640877
-0.2724448442 -0.0997903943 0.5816491246 4288772463
-0.2729055285 -0.0993117839 0.5826326013 4288642166
-0.2733660638 -0.0988309383 0.5836158395 4289234303
-0.2734071612 -0.0981972516 0.5837035179 4290090643
-0.2734479904 -0.0975632891 0.5837907195 4290945952
-0.2739080191 -0.0970776975 0.5847728848 4291214523
-0.2743679285 -0.0965898857 0.5857547522 4292135625
-0.2748277187 -0.0960998461 0.5867363811 4293123549
-0.2666438222 -0.2164551467 0.5706174374 4290428617
-0.2667262554 -0.2158878595 0.5707938075 4290231238
-0.2668084800 -0.2153200358 0.5709698200 4289968066
-0.2668905854 -0.2147516906 0.5711454749 4289704894
-0.2669724822 -0.2141828388 0.5713207722 4289507513
-0.2666532695 -0.2132927030 0.5706375837 4289375927
-0.2667347193 -0.2127236426 0.5708119273 4289244082
-0.2672172189 -0.2124730945 0.5718445182 4289112496
-0.2672984600 -0.2119021416 0.5720183849 4289112496
-0.2673795521 -0.2113306671 0.5721918344 4288783531
-0.2674604654 -0.2107586712 0.5723649859 4288585636
-0.2675411999 -0.2101861686 0.5725377798 4288388257
-0.2676217556 -0.2096131295 0.5727101564 4288059292
-0.2677021325 -0.2090395838 0.5728821754 4287861913
-0.2681844234 -0.2087785304 0.5739142895 4287532947
-0.2682645917 -0.2082030922 0.5740858912 4287138189
-0.2683445811 -0.2076271325 0.5742570162 4287137417
-0.2684244215 -0.2070506662 0.5744278431 4286940038
-0.2685040534 -0.2064736784 0.5745983124 4286742143
-0.2681808472 -0.2055874765 0.5739066601 4286478971
-0.2686628103 -0.2053181678 0.5749380589 4286347124
-0.2687419355 -0.2047396451 0.5751073360 4286215538
-0.2688208520 -0.2041606009 0.5752762556 4286083952
-0.2688996196 -0.2035810649 0.5754448175 4286018159
-0.2693814635 -0.2033053637 0.5764759779 4286018159
-0.2694599926 -0.2027239203 0.5766440034 4286018159
-0.2695383430 -0.2021419853 0.5768116713 4286018158
-0.2700201273 -0.2018612772 0.5778426528 4285952365
-0.2700982094 -0.2012774497 0.5780097842 4286082922
-0.2701761425 -0.2006931156 0.5781765580 4286017129
-0.2702538669 -0.2001082897 0.5783429146 4286082407
-0.2703314126 -0.1995229423 0.5785088539 4286016614
-0.2704088092 -0.1989371032 0.5786744356 4285951849
-0.2704859972 -0.1983507574 0.5788396001 4285886056
-0.2705629766 -0.1977639049 0.5790044069 4285886056
-0.2706398070 -0.1971765608 0.5791687965 4285820263
-0.2707164288 -0.1965887100 0.5793327689 4285754470
-0.2707928717 -0.1960003525 0.5794963837 4285754470
-0.2712740302 -0.1957036108 0.5805260539 4285754470
-0.2713502347 -0.1951133907 0.5806890726 4285688677
-0.2714262307 -0.1945226640 0.5808517337 4285688164
-0.2715020478 -0.1939314455 0.5810139775 4285688164
-0.2719829977 -0.1936283112 0.5820432305 4285688164
-0.2720585465 -0.1930352151 0.5822048783 4285622371
-0.2721339166 -0.1924416423 0.5823661685 4285622371
-0.2718033791 -0.1915616542 0.5816588998 4285622371
-0.2718782425 -0.1909679621 0.5818190575 4285556578
-0.2723588347 -0.1906579435 0.5828475356 4285556578
-0.2724334300 -0.1900623888 0.5830071568 4285360229
-0.2725078166 -0.1894663572 0.5831663609 4285360229
-0.2725820243 -0.1888698339 0.5833251476 4285490531
-0.2726560235 -0.1882728189 0.5834835172 4285293152
-0.2727298439 -0.1876753271 0.5836415291 4285227100
-0.2728034854 -0.1870773435 0.5837990642 4285227100
-0.2728768885 -0.1864788830 0.5839561820 4285358170
-0.2729501426 -0.1858799309 0.5841128826 4285292377
-0.2730231583 -0.1852805018 0.5842691660 4285226071
-0.2730959952 -0.1846805960 0.5844250321 4285160278
-0.2727615237 -0.1838058680 0.5837092996 4285093715
-0.2728338540 -0.1832059026 0.5838640928 4284896336
-0.2716840208 -0.1817878187 0.5814034343 4284698697
-0.2729779482 -0.1820045263 0.5841724277 4284567111
-0.2730496824 -0.1814031303 0.5843259096 4284435266
-0.2731212080 -0.1808012575 0.5844790339 4284237887
-0.2727847993 -0.1799299568 0.5837590694 4284236856
-0.2724479735 -0.1790599823 0.5830382705 4283973684
-0.2725186944 -0.1784584969 0.5831896067 4283775535
-0.2725892067 -0.1778565496 0.5833405256 4283578156
-0.2726595402 -0.1772541255 0.5834910274 4283380777
-0.2719130814 -0.1761223525 0.5818936229 4283314984
-0.2715744078 -0.1752572656 0.5811688304 4283314727
-0.2712353170 -0.1743935198 0.5804432034 4283248934
-0.2708958089 -0.1735311300 0.5797166824 4283248934
-0.2709645927 -0.1729309112 0.5798638463 4283248934
-0.2706243694 -0.1720703244 0.5791357756 4283512106
-0.2698748410 -0.1709520668 0.5775317550 4283841071
-0.2695336938 -0.1700951010 0.5768017173 4284038450
-0.2687830329 -0.1689822972 0.5751953125 4284170036
-0.2688501775 -0.1683852673 0.5753390193 4284170293
-0.2685078084 -0.1675324142 0.5746063590 4284236086
-0.2685744464 -0.1669353992 0.5747489333 4284563764
-0.2686408758 -0.1663379371 0.5748910904 4284761143
-0.2687070966 -0.1657400429 0.5750328302 4284892729
-0.2683633864 -0.1648899615 0.5742973089 4284826936
-0.2684291005 -0.1642920971 0.5744379163 4284958263
-0.2680847049 -0.1634438783 0.5737009048 4285155642
-0.2677398920 -0.1625970453 0.5729629397 4285417785
-0.2678047717 -0.1619997025 0.5731018186 4285351992
-0.2674592435 -0.1611547470 0.5723623633 4285613881
-0.2671132982 -0.1603111923 0.5716220737 4285745467
-0.2671773732 -0.1597143710 0.5717591643 4285876794
-0.2668307126 -0.1588727087 0.5710173845 4285942587
-0.2664836645 -0.1580324620 0.5702746511 4286073402
-0.2665469050 -0.1574362069 0.5704100132 4286204988
-0.2666099370 -0.1568395197 0.5705448985 4286336317
-0.2666727901 -0.1562424153 0.5706793666 4286402110
-0.2667354047 -0.1556448787 0.5708133578 4286402367
-0.2663867176 -0.1548080295 0.5700671673 4286402367
-0.2664487958 -0.1542105973 0.5702000856 4286402367
-0.2665106952 -0.1536127329 0.5703325272 4286402367
-0.2665723860 -0.1530144513 0.5704644918 4286205758
-0.2662223577 -0.1521805525 0.5697154999 4286139965
-0.2662835121 -0.1515823752 0.5698463321 4286008380
-0.2663444579 -0.1509837806 0.5699768066 4285942587
-0.2659934461 -0.1501523405 0.5692256093 4286074173
-0.2660538554 -0.1495538503 0.5693548918 4286271552
-0.2657021284 -0.1487243772 0.5686022043 4286403137
-0.2657620311 -0.1481260061 0.5687303543 4286403137
-0.2654095888 -0.1472985148 0.5679761171 4286600000
-0.2654689550 -0.1467002630 0.5681031942 4286797379
-0.2655281425 -0.1461016089 0.5682297945 4286731073
-0.2655870616 -0.1455025524 0.5683559775 4286402108
-0.2656458020 -0.1449031085 0.5684816837 4286401595
-0.2657043338 -0.1443032622 0.5686068535 4286401595
-0.2657626271 -0.1437030286 0.5687316060 4286401595
-0.2662334740 -0.1433245987 0.5697392225 4286335802
-0.2662914097 -0.1427226365 0.5698632598 4286335802
-0.2663491368 -0.1421202868 0.5699868202 4286335802
-0.2664066553 -0.1415175349 0.5701099038 4286270522
-0.2664639652 -0.1409144104 0.5702325106 4286270522
-0.2665210366 -0.1403108835 0.5703546405 4286467901
-0.2665778697 -0.1397069693 0.5704762936 4286467901
-0.2666345239 -0.1391026825 0.5705974698 4286402106
-0.2666909099 -0.1384979934 0.5707181692 4286270520
-0.2667471170 -0.1378929317 0.5708384514 4286139447
-0.2668030858 -0.1372874826 0.5709581971 4286205240
-0.2668588161 -0.1366816610 0.5710774660 4286139447
-0.2669143379 -0.1360754669 0.5711963177 4285942068
-0.2669696212 -0.1354688853 0.5713146329 4285942586
-0.2670246959 -0.1348619163 0.5714324713 4286008379
-0.2670795321 -0.1342545897 0.5715498328 4285811000
-0.2675483227 -0.1338540912 0.5725530386 4285942586
-0.2676028013 -0.1332450658 0.5726696253 4286008377
-0.2676570415 -0.1326356679 0.5727857351 4285942584
-0.2677110732 -0.1320259124 0.5729013085 4286139447
-0.2677648664 -0.1314157844 0.5730164647 4286007861
-0.2678184509 -0.1308052838 0.5731310844 4286138934
-0.2678717971 -0.1301944107 0.5732452273 4286138934
-0.2679249048 -0.1295831949 0.5733588934 4286139188
-0.2679777741 -0.1289715916 0.5734720826 4286204981
-0.2680304348 -0.1283596456 0.5735847950 4286139188
-0.2680828571 -0.1277473271 0.5736969709 4286073395
-0.2681350708 -0.1271346658 0.5738086700 4286204467
-0.2681870162 -0.1265216321 0.5739198327 4286336053
-0.2682387531 -0.1259082556 0.5740305781 4286205238
-0.2682902515 -0.1252945065 0.5741407871 4286139445
-0.2687569261 -0.1248734221 0.5751394033 4286139188
-0.2688080370 -0.1242580339 0.5752487779 4286204981
-0.2688589096 -0.1236422881 0.5753576756 4286336567
-0.2693251967 -0.1232163459 0.5763555169 4286402360
-0.2693756819 -0.1225989535 0.5764635801 4286533433
-0.2698417008 -0.1221694574 0.5774608850 4286599226
-0.2698917985 -0.1215504184 0.5775681138 4286796605
-0.2703576088 -0.1211173758 0.5785648823 4286862398
-0.2704073191 -0.1204966903 0.5786712766 4287059007
-0.2704567611 -0.1198756695 0.5787771344 4287124800
-0.2705059946 -0.1192543134 0.5788824558 4287190593
-0.2705549896 -0.1186326146 0.5789873004 4287124800
-0.2710200548 -0.1181921288 0.5799825191 4287124800
-0.2710686326 -0.1175688058 0.5800865293 4287190593
-0.2711170018 -0.1169451401 0.5801900029 4287191362
-0.2707485557 -0.1161424592 0.5794015527 4287388741
-0.2707963586 -0.1155190915 0.5795038342 4287519813
-0.2708438933 -0.1148953959 0.5796055794 4287651399
-0.2713079751 -0.1144471690 0.5805986524 4287716679
-0.2713551223 -0.1138218567 0.5806995630 4287716679
-0.2709851265 -0.1130223423 0.5799077749 4287848266
-0.2710317075 -0.1123973429 0.5800074339 4287914059
-0.2710780501 -0.1117720231 0.5801066160 4288111438
-0.2711241543 -0.1111463830 0.5802052617 4287979852
-0.2711699903 -0.1105204225 0.5803034306 4287980109
-0.2716328800 -0.1100632101 0.5812939405 4288177488
-0.2712609768 -0.1092675552 0.5804981589 4288112978
-0.2713060975 -0.1086406484 0.5805947185 4288178771
-0.2717684507 -0.1081796065 0.5815840960 4288310616
-0.2718131542 -0.1075511128 0.5816797614 4288639581
-0.2718576193 -0.1069223061 0.5817748904 4288836451
-0.2719018161 -0.1062932014 0.5818695426 4288770658
-0.2719458044 -0.1056637838 0.5819635987 4288770658
-0.2719895244 -0.1050340608 0.5820571780 4288639072
-0.2720329762 -0.1044040397 0.5821502209 4288902244
-0.2720761895 -0.1037737131 0.5822426677 4289033830
-0.2725371718 -0.1033015251 0.5832291842 4288377187
-0.2725799680 -0.1026696339 0.5833207369 4288179808
-0.2726225257 -0.1020374447 0.5834118128 4288313454
-0.2726648152 -0.1014049649 0.5835022926 4288905591
-0.2731251121 -0.1009267420 0.5844873786 4289500046
-0.2731669545 -0.1002927050 0.5845769048 4290684320
-0.2736269534 -0.0998109877 0.5855613351 4291475640
-0.2740868330 -0.0993270427 0.5865454078 4292528328
-0.2741280496 -0.0986901894 0.5866336823 4293319390
-0.2653942704 -0.2153215408 0.5692964792 4290362824
-0.2654761672 -0.2147552669 0.5694721937 4290099652
-0.2655579150 -0.2141884714 0.5696474910 4289836480
-0.2656394839 -0.2136211544 0.5698224902 4289770685
-0.2661210597 -0.2133741677 0.5708555579 4289639099
-0.2658021152 -0.2124849409 0.5701713562 4289507256
-0.2658831775 -0.2119160444 0.5703452826 4289375670
-0.2663646340 -0.2116649300 0.5713779926 4289309875
-0.2664454877 -0.2110941410 0.5715514421 4288980910
-0.2665261626 -0.2105228454 0.5717245340 4288783529
-0.2666066885 -0.2099510133 0.5718972087 4288586150
-0.2662859857 -0.2090638280 0.5712093115 4288454050
-0.2663660347 -0.2084918320 0.5713810325 4288190878
-0.2668471932 -0.2082324475 0.5724131465 4287927706
-0.2669270337 -0.2076585591 0.5725843906 4287532948
-0.2670066655 -0.2070841491 0.5727552772 4287400591
-0.2670861483 -0.2065092325 0.5729257464 4287203212
-0.2667637169 -0.2056241333 0.5722340941 4286874245
-0.2672446072 -0.2053578645 0.5732656121 4286545280
-0.2673235536 -0.2047813982 0.5734350085 4286347385
-0.2678044438 -0.2045115083 0.5744665265 4286215799
-0.2678831816 -0.2039331645 0.5746354461 4286215284
-0.2679617107 -0.2033543140 0.5748038888 4286149491
-0.2680400908 -0.2027749568 0.5749720335 4285952366
-0.2681182921 -0.2021950930 0.5751397610 4286018159
-0.2681962848 -0.2016147077 0.5753070712 4286148974
-0.2686769366 -0.2013356835 0.5763381124 4286083181
-0.2687547207 -0.2007534206 0.5765049458 4286083435
-0.2688322961 -0.2001706660 0.5766714215 4285951849
-0.2689097226 -0.1995873898 0.5768374205 4286017127
-0.2689869404 -0.1990036219 0.5770031214 4286017127
-0.2694673836 -0.1987168193 0.5780336857 4285951849
-0.2695443630 -0.1981311738 0.5781988502 4285886056
-0.2692175210 -0.1972492933 0.5774977207 4285886056
-0.2692940235 -0.1966635138 0.5776618123 4285886056
-0.2693703473 -0.1960772425 0.5778255463 4285754470
-0.2694464624 -0.1954904646 0.5779888034 4285754470
-0.2699264884 -0.1951954067 0.5790185332 4285754470
-0.2700023651 -0.1946067512 0.5791812539 4285688677
-0.2700780332 -0.1940176040 0.5793436170 4285688164
-0.2701535225 -0.1934279650 0.5795055628 4285753957
-0.2706333697 -0.1931265146 0.5805348754 4285688164
-0.2707085907 -0.1925350130 0.5806962252 4285622371
-0.2707836330 -0.1919430047 0.5808572173 4285688164
-0.2708584964 -0.1913505048 0.5810177922 4285622371
-0.2709331512 -0.1907575279 0.5811779499 4285556578
-0.2710076272 -0.1901640445 0.5813376904 4285622371
-0.2710818946 -0.1895700842 0.5814970136 4285425252
-0.2715612948 -0.1892581135 0.5825253725 4285491045
-0.2716353238 -0.1886622906 0.5826841593 4285491044
-0.2717091143 -0.1880659759 0.5828424692 4285293665
-0.2717827559 -0.1874691695 0.5830003619 4285227359
-0.2718561590 -0.1868718863 0.5831578970 4285161566
-0.2719293833 -0.1862741262 0.5833149552 4285161307
-0.2720024288 -0.1856758744 0.5834716558 4285292893
-0.2716691792 -0.1848009080 0.5827568173 4285226330
-0.2717417181 -0.1842025816 0.5829123855 4285094744
-0.2718140483 -0.1836037934 0.5830675364 4284963158
-0.2718861997 -0.1830045134 0.5832222700 4284831572
-0.2719581425 -0.1824047714 0.5833765864 4284633934
-0.2720298767 -0.1818045378 0.5835304856 4284436555
-0.2721014321 -0.1812038422 0.5836839676 4284369992
-0.2721727788 -0.1806026697 0.5838370323 4284238406
-0.2722439170 -0.1800010204 0.5839896202 4284172607
-0.2719078064 -0.1791307479 0.5832686424 4283909435
-0.2719784379 -0.1785290539 0.5834201574 4283711541
-0.2720488906 -0.1779268980 0.5835712552 4283382576
-0.2721191049 -0.1773242801 0.5837219357 4283381549
-0.2717816830 -0.1764566451 0.5829980969 4283249963
-0.2722589672 -0.1761176437 0.5840219259 4283249193
-0.2715132535 -0.1749881357 0.5824222565 4283051814
-0.2711746693 -0.1741236150 0.5816960335 4282919715
-0.2712435722 -0.1735213995 0.5818438530 4282722336
-0.2709043026 -0.1726586819 0.5811160207 4282722590
-0.2705646157 -0.1717973351 0.5803873539 4282854176
-0.2702244818 -0.1709373295 0.5796577930 4282919969
-0.2694756687 -0.1698213965 0.5780515075 4283183141
-0.2691346407 -0.1689650416 0.5773199797 4283380777
-0.2692017257 -0.1683655381 0.5774638057 4283446570
-0.2688599825 -0.1675110161 0.5767307878 4283249961
-0.2689265311 -0.1669115424 0.5768735409 4283447340
-0.2689928710 -0.1663116068 0.5770158172 4283709997
-0.2686501145 -0.1654593945 0.5762805939 4283709997
-0.2687159479 -0.1648595035 0.5764217973 4284038449
-0.2687815726 -0.1642591506 0.5765625834 4284367414
-0.2684377730 -0.1634092778 0.5758250952 4284498741
-0.2680935860 -0.1625607908 0.5750867724 4284498741
-0.2681584060 -0.1619609743 0.5752257705 4284694837
-0.2674039900 -0.1608680040 0.5736075044 4284694837
-0.2678777874 -0.1605145782 0.5746238232 4284891187
-0.2671224475 -0.1594253480 0.5730036497 4284891187
-0.2671861351 -0.1588265449 0.5731402040 4285022260
-0.2672495842 -0.1582273245 0.5732763410 4285088053
-0.2673128545 -0.1576276720 0.5734120011 4285284918
-0.2669658065 -0.1567867547 0.5726675987 4285350711
-0.2670285404 -0.1561871767 0.5728021860 4285350707
-0.2670910656 -0.1555871665 0.5729362965 4285416500
-0.2671533823 -0.1549867541 0.5730699301 4285351477
-0.2672154903 -0.1543859094 0.5732031465 4285417270
-0.2668668032 -0.1535484195 0.5724552274 4285351992
-0.2669284046 -0.1529476643 0.5725873113 4285351992
-0.2669897676 -0.1523464918 0.5727189779 4285285945
-0.2670509219 -0.1517449170 0.5728501678 4285285945
-0.2667009234 -0.1509103924 0.5720993876 4285285945
-0.2667615414 -0.1503089070 0.5722294450 4285417531
-0.2664108276 -0.1494763494 0.5714771152 4285548858
-0.2664709389 -0.1488749832 0.5716060400 4285548858
-0.2661195099 -0.1480443925 0.5708522201 4285877051
-0.2661791146 -0.1474431306 0.5709800124 4286074430
-0.2662384808 -0.1468414813 0.5711073875 4285876793
-0.2662976384 -0.1462394297 0.5712342858 4285482035
-0.2663565576 -0.1456369609 0.5713607073 4285678645
-0.2664152980 -0.1450341046 0.5714866519 4285744438
-0.2664737701 -0.1444308609 0.5716121793 4285744438
-0.2665320635 -0.1438271999 0.5717371702 4285744438
-0.2665901184 -0.1432231516 0.5718617439 4285810231
-0.2670601010 -0.1428391486 0.5728698373 4285744438
-0.2667056024 -0.1420138776 0.5721094012 4285613622
-0.2667630017 -0.1414086521 0.5722325444 4285613622
-0.2668201923 -0.1408030391 0.5723552108 4285613622
-0.2672896385 -0.1404137313 0.5733622313 4285679415
-0.2669338882 -0.1395906508 0.5725991130 4285614134
-0.2669903934 -0.1389838755 0.5727203488 4285548341
-0.2670466900 -0.1383767128 0.5728411078 4285482548
-0.2671027780 -0.1377691627 0.5729613900 4285482548
-0.2671586275 -0.1371612400 0.5730811954 4285548341
-0.2672142386 -0.1365529299 0.5732005239 4285482548
-0.2676827312 -0.1361543536 0.5742054582 4285548086
-0.2673248351 -0.1353351772 0.5734377503 4285548086
-0.2673797905 -0.1347257346 0.5735555887 4285548086
-0.2674345076 -0.1341159195 0.5736730099 4285548086
-0.2679024339 -0.1337120682 0.5746767521 4285613621
-0.2679567933 -0.1331005692 0.5747933388 4285613621
-0.2680109143 -0.1324886829 0.5749094486 4285613619
-0.2680648267 -0.1318764389 0.5750250816 4285613619
-0.2681185007 -0.1312638223 0.5751402378 4285810484
-0.2681719363 -0.1306508332 0.5752548575 4285744691
-0.2682251632 -0.1300374866 0.5753690004 4285810484
-0.2682781518 -0.1294237673 0.5754826665 4285876277
-0.2683309019 -0.1288096905 0.5755958557 4285810482
-0.2683834434 -0.1281952560 0.5757085085 4285744689
-0.2684357166 -0.1275804639 0.5758206844 4285876016
-0.2684877813 -0.1269652992 0.5759323835 4285876016
-0.2685396373 -0.1263497919 0.5760436058 4285548080
-0.2685912251 -0.1257339120 0.5761542916 4285548080
-0.2690571547 -0.1253107786 0.5771537423 4285613873
-0.2695230246 -0.1248853803 0.5781530738 4285679666
-0.2695740759 -0.1242665425 0.5782626271 4285876275
-0.2696249187 -0.1236473620 0.5783716440 4286007861
-0.2696754932 -0.1230278313 0.5784801245 4286139447
-0.2697258592 -0.1224079505 0.5785881877 4286336826
-0.2701910138 -0.1219750866 0.5795859694 4286336826
-0.2702409625 -0.1213535592 0.5796931386 4286336826
-0.2707058787 -0.1209171414 0.5806904435 4286467899
-0.2707554400 -0.1202939749 0.5807967186 4286467899
-0.2708047628 -0.1196704656 0.5809025168 4286467899
-0.2708538473 -0.1190466136 0.5810078382 4286467899
-0.2709026933 -0.1184224263 0.5811126232 4286467899
-0.2713668644 -0.1179785654 0.5821083188 4286533692
-0.2714153230 -0.1173527464 0.5822122097 4286533945
-0.2714635134 -0.1167265922 0.5823156238 4286665531
-0.2710956931 -0.1159223095 0.5815265775 4286927676
-0.2711433172 -0.1152964532 0.5816287398 4286993469
-0.2716066539 -0.1148461401 0.5826226473 4287058749
-0.2716538906 -0.1142186671 0.5827239752 4287058749
-0.2717008889 -0.1135908663 0.5828247666 4287256129
-0.2717476487 -0.1129627377 0.5829250813 4287387715
-0.2717941403 -0.1123342812 0.5830248594 4287453508
-0.2718403935 -0.1117055118 0.5831240416 4287453508
-0.2718864083 -0.1110764220 0.5832227468 4287651144
-0.2719321847 -0.1104470044 0.5833209753 4287980109
-0.2719777226 -0.1098172814 0.5834186077 4287981392
-0.2720229924 -0.1091872305 0.5835157633 4287981392
-0.2720680237 -0.1085568741 0.5836123824 4288113235
-0.2721128166 -0.1079262048 0.5837084651 4288376407
-0.2721573710 -0.1072952226 0.5838040113 4288441442
-0.2722016573 -0.1066639349 0.5838990211 4288441442
-0.2722457051 -0.1060323343 0.5839934945 4288375906
-0.2722895145 -0.1054004356 0.5840874910 4288244320
-0.2723330855 -0.1047682241 0.5841808915 4288113765
-0.2723763883 -0.1041357145 0.5842738152 4288574316
-0.2728366256 -0.1036614105 0.5852610469 4289103746
-0.2728794813 -0.1030273288 0.5853530169 4290288020
-0.2729221284 -0.1023929566 0.5854444504 4290949292
-0.2733818591 -0.1019138694 0.5864306688 4292265152
-0.2641464472 -0.2141899019 0.5679730177 4290362822
-0.2642278373 -0.2136246562 0.5681480169 4290165443
-0.2643090785 -0.2130588740 0.5683226585 4290033857
-0.2643901408 -0.2124925703 0.5684969425 4289902271
-0.2648705244 -0.2122458816 0.5695298910 4289836221
-0.2649513781 -0.2116776854 0.5697036982 4289638842
-0.2646322846 -0.2107905447 0.5690176487 4289573047
-0.2651125491 -0.2105397284 0.5700502992 4289309875
-0.2651928961 -0.2099699676 0.5702230930 4289178289
-0.2652730644 -0.2093997002 0.5703954697 4289046703
-0.2653530538 -0.2088288963 0.5705674887 4288914601
-0.2654328942 -0.2082576007 0.5707391500 4288717222
-0.2655125558 -0.2076857835 0.5709103942 4288454050
-0.2655920386 -0.2071134448 0.5710813403 4288059292
-0.2656713724 -0.2065405846 0.5712518692 4287926935
-0.2657504976 -0.2059672326 0.5714220405 4287597970
-0.2658294737 -0.2053933591 0.5715918541 4287269005
-0.2659082711 -0.2048189789 0.5717613101 4286874247
-0.2663880885 -0.2045521438 0.5727930069 4286545280
-0.2660653591 -0.2036686689 0.5720990300 4286413694
-0.2665450573 -0.2033990771 0.5731304884 4286413178
-0.2666232586 -0.2028217912 0.5732986927 4286281592
-0.2667013109 -0.2022439986 0.5734664798 4286149745
-0.2671809196 -0.2019694000 0.5744977593 4286149745
-0.2672587335 -0.2013897151 0.5746650696 4286018156
-0.2673363686 -0.2008095384 0.5748319626 4286018156
-0.2674137950 -0.2002288401 0.5749984980 4286149228
-0.2674910724 -0.1996476352 0.5751646161 4286017642
-0.2675681412 -0.1990659386 0.5753303766 4285951847
-0.2676450312 -0.1984837353 0.5754957199 4285951847
-0.2677217722 -0.1979010254 0.5756607056 4286017388
-0.2682010233 -0.1976145506 0.5766911507 4285951595
-0.2682774663 -0.1970299631 0.5768555999 4285951595
-0.2679508328 -0.1961499155 0.5761532187 4285885802
-0.2680268288 -0.1955652088 0.5763166547 4285820009
-0.2681026161 -0.1949800104 0.5764796138 4285820009
-0.2681782544 -0.1943943202 0.5766422153 4285754216
-0.2686570883 -0.1940995753 0.5776718259 4285754216
-0.2687324286 -0.1935120076 0.5778338909 4285688423
-0.2688076198 -0.1929239482 0.5779955387 4285688423
-0.2688826025 -0.1923353970 0.5781567693 4285753703
-0.2689574063 -0.1917463541 0.5783175826 4285753703
-0.2690320313 -0.1911568195 0.5784780383 4285687910
-0.2695105076 -0.1908529252 0.5795068741 4285687910
-0.2695848644 -0.1902615279 0.5796667337 4285687910
-0.2696590126 -0.1896696240 0.5798262358 4285622117
-0.2701373696 -0.1893607229 0.5808548331 4285490785
-0.2702112794 -0.1887669712 0.5810136795 4285556578
-0.2702849805 -0.1881727278 0.5811721683 4285622117
-0.2703584731 -0.1875780076 0.5813301802 4285490531
-0.2704317868 -0.1869827956 0.5814878345 4285293152
-0.2705048919 -0.1863870919 0.5816450119 4285161566
-0.2705778182 -0.1857909262 0.5818018317 4285227102
-0.2706505358 -0.1851942539 0.5819582343 4285292895
-0.2707230747 -0.1845971197 0.5821141601 4285161307
-0.2703900337 -0.1837240607 0.5813980699 4285029721
-0.2704620659 -0.1831268519 0.5815529227 4285094744
-0.2705338895 -0.1825291663 0.5817074180 4285028951
-0.2706055343 -0.1819310188 0.5818614364 4284765779
-0.2706769705 -0.1813323945 0.5820150375 4284502607
-0.2711541355 -0.1810042560 0.5830410719 4284305228
-0.2712253034 -0.1804037690 0.5831940770 4284239435
-0.2708901167 -0.1795336604 0.5824733377 4283977285
-0.2709607780 -0.1789331436 0.5826252699 4283779906
-0.2714375556 -0.1785995215 0.5836504698 4283713085
-0.2715079188 -0.1779971719 0.5838017464 4283384120
-0.2711715102 -0.1771287918 0.5830783844 4283448373
-0.2716479897 -0.1767910570 0.5841029882 4283382580
-0.2713109851 -0.1759235412 0.5833783150 4283512883
-0.2709735632 -0.1750573814 0.5826527476 4283249711
-0.2710426748 -0.1744545102 0.5828014016 4283314988
-0.2711116076 -0.1738511771 0.5829496384 4282986023
-0.2707731724 -0.1729872525 0.5822218657 4282788129
-0.2708415687 -0.1723839045 0.5823689699 4282590750
-0.2705024183 -0.1715217829 0.5816397071 4282459164
-0.2697553337 -0.1704036295 0.5800333023 4282459164
-0.2698228359 -0.1698016375 0.5801784396 4282591263
-0.2698901296 -0.1691991985 0.5803231597 4282657056
-0.2699572146 -0.1685963124 0.5804674029 4282394654
-0.2692083120 -0.1674854606 0.5788570642 4282526240
-0.2692747712 -0.1668834984 0.5789999962 4282788642
-0.2689329386 -0.1660291553 0.5782650113 4282854435
-0.2689988911 -0.1654272228 0.5784068108 4283117607
-0.2686563432 -0.1645747274 0.5776702762 4283512365
-0.2691301703 -0.1642220318 0.5786890984 4283775278
-0.2687870264 -0.1633704901 0.5779512525 4283775278
-0.2684434652 -0.1625203341 0.5772125125 4283840558
-0.2680994868 -0.1616715938 0.5764728785 4283708972
-0.2681638896 -0.1610697806 0.5766113400 4283708972
-0.2678191960 -0.1602229029 0.5758702159 4283774765
-0.2678830922 -0.1596211493 0.5760076046 4283971374
-0.2675376832 -0.1587761790 0.5752649307 4284037167
-0.2676010728 -0.1581744701 0.5754011869 4284102960
-0.2676642239 -0.1575723439 0.5755369663 4284168753
-0.2677271664 -0.1569697857 0.5756723285 4284299565
-0.2677899301 -0.1563668102 0.5758072138 4284365358
-0.2674428821 -0.1555252373 0.5750610232 4284234286
-0.2675051093 -0.1549223363 0.5751948357 4284300079
-0.2675670981 -0.1543190181 0.5753281713 4284300079
-0.2676289082 -0.1537152827 0.5754610300 4284431665
-0.2672805488 -0.1528766453 0.5747119784 4284694323
-0.2673418224 -0.1522729993 0.5748437047 4284825909
-0.2674028575 -0.1516689360 0.5749750137 4284760116
-0.2670534849 -0.1508327723 0.5742237568 4284825909
-0.2671140134 -0.1502288133 0.5743539333 4284891700
-0.2667639256 -0.1493946016 0.5736011267 4284957493
-0.2668239474 -0.1487907469 0.5737301707 4285220152
-0.2668837309 -0.1481864899 0.5738587379 4285351738
-0.2669433057 -0.1475818306 0.5739868283 4285153846
-0.2665918767 -0.1467506438 0.5732312202 4284693295
-0.2666509449 -0.1461461037 0.5733581781 4284890160
-0.2667097747 -0.1455411762 0.5734846592 4284955953
-0.2671794295 -0.1451591551 0.5744945407 4285021744
-0.2672379017 -0.1445524842 0.5746203065 4285021744
-0.2672961652 -0.1439454257 0.5747455955 4285021744
-0.2673542202 -0.1433379501 0.5748704076 4285087537
-0.2674120367 -0.1427301019 0.5749947429 4285021746
-0.2674696445 -0.1421218365 0.5751186013 4285021746
-0.2675270140 -0.1415131986 0.5752419829 4284956721
-0.2675841749 -0.1409041584 0.5753648877 4284890928
-0.2676411271 -0.1402947307 0.5754873157 4285022514
-0.2676978409 -0.1396849155 0.5756092072 4285022514
-0.2677543163 -0.1390747279 0.5757306814 4284891441
-0.2673985660 -0.1382511109 0.5749657750 4284825648
-0.2674545348 -0.1376410872 0.5750860572 4284957234
-0.2675102651 -0.1370306760 0.5752059221 4284957234
-0.2679780424 -0.1366300732 0.5762117505 4285088307
-0.2676210701 -0.1358087063 0.5754441619 4285022514
-0.2676761150 -0.1351971477 0.5755625367 4285023027
-0.2677309513 -0.1345852166 0.5756804347 4284957234
-0.2681981623 -0.1341793537 0.5766850710 4284956721
-0.2682526112 -0.1335657239 0.5768021345 4285022514
-0.2683068514 -0.1329517365 0.5769187808 4285153328
-0.2683608532 -0.1323373616 0.5770348907 4285219121
-0.2684146464 -0.1317226291 0.5771505237 4285219376
-0.2684682012 -0.1311075240 0.5772656798 4285153583
-0.2685215175 -0.1304920465 0.5773802996 4285219376
-0.2685745955 -0.1298762113 0.5774944425 4285219376
-0.2686274648 -0.1292600036 0.5776081085 4285219376
-0.2686800659 -0.1286434382 0.5777212977 4285219376
-0.2687324882 -0.1280265152 0.5778339505 4285284654
-0.2687846422 -0.1274092346 0.5779461265 4285153068
-0.2692501545 -0.1269866526 0.5789470673 4284957231
-0.2693019509 -0.1263676882 0.5790584087 4284957231
-0.2693534791 -0.1257483810 0.5791692734 4285088560
-0.2698186338 -0.1253209263 0.5801694393 4285088560
-0.2698698044 -0.1246999502 0.5802794099 4285154353
-0.2699207067 -0.1240786314 0.5803889036 4285285939
-0.2699714005 -0.1234569550 0.5804979205 4285417525
-0.2700218558 -0.1228349283 0.5806064010 4285483318
-0.2700720727 -0.1222125590 0.5807143450 4285417525
-0.2705363333 -0.1217763275 0.5817126632 4285351732
-0.2705861628 -0.1211523041 0.5818197727 4285351732
-0.2710501850 -0.1207125187 0.5828175545 4285417525
-0.2710995972 -0.1200868562 0.5829237700 4285482293
-0.2711487710 -0.1194608510 0.5830295086 4285482293
-0.2711977065 -0.1188345104 0.5831347704 4285417270
-0.2716611624 -0.1183885708 0.5841313004 4285417270
-0.2717097104 -0.1177605987 0.5842356086 4285745718
-0.2717579901 -0.1171322837 0.5843394995 4285877304
-0.2718060315 -0.1165036336 0.5844427943 4286074170
-0.2718538642 -0.1158746555 0.5845456123 4286139963
-0.2719014287 -0.1152453423 0.5846478939 4286270522
-0.2719487548 -0.1146157011 0.5847496390 4286336315
-0.2719958127 -0.1139857396 0.5848508477 4286665282
-0.2720426619 -0.1133554429 0.5849515796 4286731075
-0.2720892429 -0.1127248183 0.5850517750 4286665539
-0.2721356153 -0.1120938808 0.5851514339 4286797125
-0.2721817195 -0.1114626154 0.5852505565 4287060297
-0.2726431787 -0.1110002398 0.5862427950 4287257676
-0.2726888657 -0.1103673726 0.5863410234 4287061580
-0.2727343142 -0.1097341850 0.5864387751 4286864201
-0.2727794945 -0.1091006845 0.5865359306 4286864716
-0.2728244364 -0.1084668711 0.5866325498 4287193681
-0.2728691399 -0.1078327447 0.5867286921 4287589993
-0.2729135752 -0.1071983054 0.5868242383 4287853165
-0.2729577720 -0.1065635532 0.5869193077 4288182646
-0.2730017304 -0.1059285030 0.5870137811 4289235334
-0.2730454504 -0.1052931398 0.5871077776 4290224029
-0.2730889022 -0.1046574786 0.5872012377 4291539889
-0.2632987201 -0.2133830637 0.5675054789 4290428615
-0.2633797228 -0.2128179669 0.5676800609 4290165443
-0.2634605467 -0.2122523487 0.5678542852 4289968064
-0.2635412216 -0.2116862237 0.5680281520 4289836478
-0.2636217177 -0.2111195773 0.5682016611 4289770685
-0.2637020350 -0.2105524093 0.5683748126 4289770426
-0.2641812861 -0.2103023976 0.5694077015 4289507254
-0.2642613947 -0.2097333223 0.5695804358 4289375668
-0.2639420331 -0.2088477910 0.5688920617 4289244082
-0.2640216947 -0.2082785517 0.5690637827 4289111726
-0.2641012073 -0.2077087909 0.5692350864 4288980140
-0.2641805112 -0.2071385235 0.5694060922 4288783015
-0.2642596662 -0.2065677494 0.5695766807 4288454050
-0.2643386424 -0.2059964538 0.5697469115 4288453024
-0.2644174695 -0.2054246515 0.5699167848 4288124059
-0.2644960880 -0.2048523426 0.5700862408 4287664021
-0.2645745575 -0.2042795122 0.5702553988 4287335056
-0.2650532126 -0.2040143609 0.5712870955 4287006090
-0.2651314437 -0.2034396380 0.5714557171 4286808711
-0.2652095258 -0.2028644234 0.5716239214 4286807682
-0.2656881213 -0.2025942653 0.5726555586 4286544510
-0.2657659650 -0.2020171583 0.5728232861 4286347124
-0.2658436000 -0.2014395595 0.5729906559 4286281331
-0.2659210861 -0.2008614391 0.5731576085 4286083949
-0.2659983635 -0.2002828121 0.5733242035 4286083949
-0.2660754919 -0.1997036934 0.5734904408 4286083949
-0.2661524117 -0.1991240680 0.5736562610 4285886570
-0.2662291825 -0.1985439360 0.5738216639 4285754984
-0.2667074203 -0.1982618868 0.5748524666 4285820777
-0.2667839229 -0.1976798773 0.5750173926 4285820779
-0.2668602467 -0.1970973611 0.5751819015 4285886572
-0.2669364214 -0.1965143532 0.5753460526 4285951595
-0.2670123875 -0.1959308535 0.5755097866 4285885802
-0.2666859031 -0.1950526386 0.5748061538 4285951595
-0.2667613924 -0.1944690198 0.5749688148 4285885802
-0.2672391832 -0.1941773444 0.5759986043 4285820009
-0.2673144042 -0.1935918480 0.5761607289 4285885802
-0.2673894465 -0.1930058599 0.5763224959 4285820009
-0.2674643099 -0.1924193799 0.5764838457 4285754216
-0.2675389647 -0.1918324083 0.5766447783 4285819496
-0.2676134706 -0.1912449449 0.5768053532 4285819496
-0.2680909038 -0.1909441203 0.5778344274 4285753703
-0.2681651413 -0.1903547943 0.5779944062 4285687910
-0.2682391703 -0.1897649765 0.5781539679 4285687910
-0.2687164843 -0.1894591451 0.5791827440 4285622117
-0.2683866620 -0.1885838807 0.5784718990 4285687903
-0.2688638270 -0.1882752925 0.5795003176 4285622110
-0.2689372301 -0.1876826435 0.5796585083 4285622369
-0.2694143355 -0.1873704195 0.5806868672 4285556576
-0.2694874406 -0.1867759079 0.5808444619 4285424992
-0.2695603669 -0.1861809194 0.5810016394 4285227613
-0.2692288458 -0.1853071898 0.5802870393 4285227613
-0.2693012655 -0.1847121269 0.5804431438 4285227613
-0.2693734765 -0.1841165870 0.5805988312 4285161305
-0.2694455087 -0.1835205555 0.5807541013 4285029719
-0.2691126764 -0.1826493889 0.5800366998 4285226584
-0.2691842020 -0.1820533127 0.5801908970 4285226584
-0.2692555487 -0.1814567596 0.5803446174 4284963158
-0.2693266869 -0.1808597296 0.5804979801 4284634193
-0.2698027492 -0.1805332899 0.5815240145 4284371791
-0.2698735893 -0.1799344122 0.5816767812 4284305998
-0.2703495622 -0.1796043366 0.5827026367 4283847241
-0.2704201341 -0.1790036261 0.5828547478 4283715655
-0.2704904974 -0.1784024388 0.5830063820 4283779906
-0.2705606520 -0.1778007895 0.5831575990 4283450941
-0.2702248693 -0.1769329906 0.5824338794 4283646523
-0.2707003653 -0.1765960753 0.5834587812 4283646523
-0.2707699239 -0.1759930253 0.5836086869 4283842106
-0.2704332173 -0.1751265526 0.5828830004 4283578934
-0.2705022693 -0.1745234728 0.5830317736 4283314734
-0.2705711126 -0.1739199311 0.5831801891 4283248941
-0.2706397772 -0.1733159423 0.5833281279 4283182889
-0.2703017294 -0.1724521518 0.5825995207 4283051303
-0.2703698575 -0.1718481481 0.5827463865 4282788642
-0.2696244419 -0.1707286686 0.5811397433 4282657056
-0.2700987160 -0.1703821719 0.5821620226 4282526240
-0.2697592676 -0.1695220172 0.5814303160 4282460447
-0.2698263824 -0.1689180136 0.5815749764 4282459166
-0.2694861889 -0.1680596918 0.5808417201 4282459166
-0.2699599564 -0.1677086651 0.5818628669 4282459166
-0.2696191669 -0.1668512672 0.5811283588 4282327580
-0.2692779601 -0.1659952551 0.5803929567 4282261785
-0.2689363360 -0.1651406437 0.5796566606 4282393371
-0.2690019011 -0.1645366997 0.5797979236 4282459677
-0.2690672576 -0.1639323235 0.5799387693 4282393884
-0.2687246203 -0.1630800366 0.5792002678 4282591263
-0.2687894702 -0.1624756902 0.5793400407 4282525470
-0.2684461176 -0.1616252810 0.5785999894 4282657056
-0.2685104311 -0.1610209793 0.5787386298 4282854435
-0.2681663632 -0.1601724625 0.5779970288 4282986021
-0.2678219080 -0.1593253464 0.5772545934 4282986021
-0.2678853869 -0.1587215811 0.5773914456 4282986021
-0.2679486573 -0.1581174135 0.5775278211 4283117607
-0.2680117488 -0.1575127989 0.5776637793 4283314214
-0.2680746019 -0.1569077671 0.5777992606 4283248421
-0.2681372464 -0.1563023031 0.5779342651 4283182628
-0.2677908242 -0.1554590762 0.5771875978 4283182628
-0.2678529620 -0.1548536867 0.5773215294 4283445285
-0.2679148614 -0.1542478949 0.5774549246 4283642664
-0.2675674260 -0.1534070969 0.5767061114 4283970600
-0.2676288188 -0.1528013796 0.5768384337 4284102186
-0.2676899731 -0.1521952599 0.5769702792 4284364845
-0.2677509189 -0.1515887082 0.5771016479 4284430638
-0.2674021721 -0.1507508904 0.5763499141 4284365358
-0.2674626112 -0.1501444429 0.5764802098 4284299565
-0.2671131492 -0.1493085921 0.5757269263 4284365874
-0.2671730518 -0.1487022638 0.5758560896 4284497460
-0.2672327161 -0.1480955184 0.5759847164 4284365875
-0.2672922015 -0.1474883705 0.5761128664 4284036910
-0.2669413984 -0.1466555446 0.5753567815 4284692781
-0.2670003474 -0.1460485309 0.5754838586 4284626988
-0.2674692869 -0.1456645131 0.5764945745 4284626986
-0.2675278783 -0.1450557560 0.5766208768 4284561193
-0.2675862610 -0.1444466114 0.5767467022 4284430377
-0.2676444054 -0.1438370496 0.5768720508 4284496170
-0.2677023411 -0.1432271004 0.5769969225 4284561709
-0.2677600682 -0.1426167488 0.5771213174 4284495916
-0.2678175569 -0.1420060098 0.5772452354 4284693295
-0.2678748071 -0.1413948834 0.5773686767 4284495916
-0.2679318786 -0.1407833546 0.5774916410 4284496683
-0.2679886818 -0.1401714385 0.5776140690 4284562476
-0.2680452764 -0.1395591348 0.5777360797 4284496683
-0.2681016624 -0.1389464587 0.5778575540 4284496683
-0.2677465379 -0.1381212026 0.5770921111 4284562222
-0.2678023577 -0.1375086904 0.5772125125 4284628015
-0.2678579688 -0.1368957907 0.5773323774 4284628528
-0.2679133713 -0.1362825036 0.5774517655 4284562735
-0.2679685354 -0.1356688440 0.5775706172 4284563505
-0.2680234611 -0.1350547969 0.5776890516 4284497712
-0.2684899569 -0.1346468925 0.5786945224 4284628528
-0.2685445249 -0.1340311617 0.5788121223 4284628528
-0.2685988545 -0.1334150434 0.5789292455 4284562476
-0.2686529756 -0.1327985674 0.5790458918 4284628269
-0.2687068582 -0.1321817040 0.5791620016 4284694060
-0.2687605023 -0.1315644830 0.5792776346 4284628267
-0.2688139379 -0.1309468895 0.5793927908 4284562733
-0.2692794800 -0.1305288076 0.5803962350 4284562733
-0.2693325281 -0.1299095303 0.5805105567 4284562476
-0.2693853378 -0.1292898804 0.5806244016 4284628269
-0.2694379091 -0.1286698878 0.5807377100 4284694060
-0.2694902420 -0.1280495077 0.5808505416 4284628267
-0.2695423663 -0.1274287850 0.5809628367 4284628780
-0.2695942521 -0.1268076897 0.5810746551 4284628780
-0.2696458995 -0.1261862367 0.5811859369 4284628780
-0.2696973085 -0.1255644411 0.5812968016 4284628780
-0.2701615691 -0.1251336187 0.5822974443 4284694573
-0.2702125907 -0.1245101541 0.5824074149 4284760366
-0.2702633739 -0.1238863319 0.5825168490 4284760366
-0.2703139186 -0.1232621670 0.5826258063 4284694573
-0.2703642249 -0.1226376444 0.5827342272 4284497710
-0.2708277702 -0.1221993417 0.5837333798 4284234538
-0.2708776891 -0.1215731725 0.5838409662 4284431147
-0.2709273696 -0.1209466606 0.5839480162 4284496940
-0.2713904977 -0.1205035001 0.5849462152 4284496940
-0.2714397609 -0.1198753417 0.5850524306 4284562733
-0.2714888155 -0.1192468405 0.5851581097 4284563503
-0.2719515264 -0.1187988222 0.5861554742 4284497710
-0.2720001340 -0.1181686819 0.5862602592 4284431665
-0.2720485330 -0.1175382137 0.5863645077 4284629044
-0.2720966637 -0.1169074029 0.5864682794 4284957493
-0.2721445560 -0.1162762567 0.5865715146 4285023286
-0.2721922100 -0.1156447828 0.5866742730 4284759601
-0.2722396255 -0.1150129810 0.5867764354 4284693808
-0.2722868025 -0.1143808439 0.5868781209 4284956982
-0.2723337412 -0.1137483791 0.5869792700 4285022775
-0.2723804116 -0.1131155863 0.5870798826 4285220154
-0.2724268436 -0.1124824733 0.5871799588 4285549119
-0.2728877664 -0.1120192781 0.5881733894 4286075463
-0.2729337811 -0.1113845557 0.5882725716 4286667600
-0.2729795575 -0.1107495129 0.5883712173 4287063385
-0.2730250657 -0.1101141497 0.5884693265 4287721315
-0.2730703652 -0.1094784737 0.5885669589 4288446067
-0.2731153965 -0.1088424772 0.5886639953 4289367169
-0.2731601596 -0.1082061678 0.5887604952 4290095012
-0.2732047141 -0.1075695455 0.5888565183 4291213493
-0.2619730532 -0.2128181756 0.5660031438 4290494410
-0.2620536983 -0.2122546285 0.5661773682 4290428617
-0.2621341944 -0.2116905600 0.5663512945 4290362824
-0.2622145116 -0.2111259848 0.5665248036 4290099650
-0.2622946799 -0.2105608732 0.5666980147 4289836478
-0.2627727985 -0.2103139162 0.5677310228 4289902014
-0.2628527582 -0.2097469121 0.5679037571 4289770428
-0.2629325092 -0.2091794014 0.5680761337 4289573049
-0.2630121410 -0.2086113691 0.5682480931 4289375670
-0.2626929581 -0.2077276111 0.5675585270 4289309105
-0.2627721131 -0.2071594149 0.5677295327 4289177519
-0.2628510892 -0.2065907121 0.5679001808 4288980140
-0.2629298866 -0.2060214877 0.5680704117 4288914347
-0.2630085349 -0.2054517418 0.5682403445 4288717221
-0.2630870044 -0.2048815042 0.5684098601 4288256670
-0.2631652951 -0.2043107450 0.5685790777 4287927705
-0.2632434368 -0.2037394792 0.5687478781 4287730326
-0.2637209594 -0.2034760118 0.5697795749 4287532434
-0.2633991838 -0.2025954276 0.5690843463 4287203469
-0.2638765872 -0.2023292035 0.5701158047 4286874758
-0.2639541328 -0.2017550319 0.5702833533 4286611586
-0.2644315660 -0.2014851868 0.5713148713 4286413692
-0.2645088732 -0.2009091377 0.5714818835 4286084727
-0.2649863064 -0.2006356716 0.5725134015 4286018420
-0.2650633752 -0.2000577450 0.5726799369 4285952627
-0.2651402950 -0.1994793117 0.5728460550 4285821039
-0.2652170062 -0.1989003718 0.5730118155 4285689453
-0.2652935684 -0.1983209401 0.5731772184 4285689453
-0.2653699219 -0.1977410018 0.5733422041 4285623660
-0.2654461265 -0.1971605718 0.5735068321 4285951595
-0.2655221224 -0.1965796351 0.5736710429 4285885802
-0.2655979395 -0.1959981918 0.5738348365 4285885802
-0.2656735778 -0.1954162717 0.5739982724 4285885802
-0.2657490373 -0.1948338300 0.5741612911 4285885802
-0.2658243179 -0.1942509115 0.5743239522 4285820009
-0.2658994198 -0.1936674863 0.5744861960 4285754216
-0.2659743428 -0.1930835843 0.5746480823 4285688423
-0.2664509416 -0.1927899569 0.5756778121 4285754216
-0.2665255964 -0.1922041774 0.5758391023 4285885802
-0.2666000724 -0.1916179061 0.5759999752 4285885543
-0.2666743398 -0.1910311282 0.5761604905 4285753957
-0.2667484581 -0.1904438734 0.5763205886 4285688164
-0.2672248185 -0.1901424974 0.5773497224 4285622371
-0.2672986388 -0.1895533800 0.5775092840 4285622371
-0.2673722804 -0.1889637709 0.5776683688 4285753957
-0.2674457431 -0.1883736700 0.5778270960 4285622884
-0.2679218948 -0.1880659014 0.5788558125 4285557091
-0.2679950893 -0.1874739528 0.5790139437 4285557091
-0.2684711814 -0.1871625334 0.5800426006 4285491298
-0.2681408823 -0.1862885803 0.5793289542 4285556578
-0.2686168253 -0.1859744191 0.5803572536 4285424992
-0.2686893344 -0.1853796393 0.5805139542 4285358686
-0.2683581114 -0.1845069230 0.5797983408 4285424479
-0.2684301436 -0.1839120835 0.5799539685 4285292893
-0.2680982351 -0.1830410957 0.5792368054 4285161307
-0.2681697607 -0.1824461818 0.5793913603 4285160537
-0.2682411075 -0.1818508059 0.5795454979 4285094744
-0.2683122456 -0.1812549531 0.5796992183 4284897365
-0.2683832049 -0.1806586236 0.5798525214 4284634193
-0.2688582540 -0.1803330034 0.5808788538 4284568143
-0.2685244977 -0.1794645488 0.5801578164 4284633936
-0.2689993680 -0.1791361719 0.5811837912 4284633936
-0.2690696418 -0.1785370708 0.5813355446 4284370764
-0.2691397071 -0.1779374778 0.5814869404 4284173383
-0.2696143985 -0.1776041090 0.5825125575 4284041797
-0.2696841657 -0.1770026833 0.5826632977 4283910211
-0.2697537243 -0.1764007956 0.5828136206 4283844418
-0.2694179714 -0.1755344868 0.5820881724 4283843648
-0.2698922753 -0.1751956344 0.5831128955 4283646269
-0.2695558667 -0.1743302047 0.5823861361 4283514937
-0.2700299919 -0.1739886105 0.5834104419 4283251765
-0.2700985372 -0.1733844131 0.5835585594 4283185459
-0.2697612345 -0.1725203246 0.5828298330 4283119666
-0.2698293030 -0.1719161123 0.5829768777 4282922286
-0.2694912851 -0.1710538268 0.5822465420 4282659114
-0.2695588171 -0.1704496145 0.5823924541 4282593064
-0.2696261406 -0.1698449552 0.5825379491 4282527271
-0.2696932554 -0.1692398340 0.5826829672 4282854437
-0.2693539262 -0.1683802903 0.5819497705 4282854437
-0.2698268890 -0.1680282354 0.5829716921 4282722851
-0.2694869339 -0.1671696305 0.5822371840 4282393886
-0.2695531249 -0.1665636301 0.5823801756 4282262300
-0.2696191072 -0.1659571677 0.5825227499 4282262300
-0.2696848810 -0.1653502882 0.5826648474 4282262300
-0.2689367235 -0.1642459780 0.5810484290 4282130714
-0.2690019011 -0.1636400372 0.5811892152 4282130712
-0.2690668404 -0.1630336493 0.5813295841 4282130712
-0.2687244415 -0.1621810943 0.5805897713 4282130201
-0.2687888741 -0.1615747511 0.5807289481 4282064408
-0.2684457302 -0.1607240885 0.5799876451 4282130201
-0.2685096562 -0.1601177901 0.5801257491 4282195994
-0.2681658268 -0.1592690200 0.5793828368 4282195992
-0.2682292163 -0.1586627811 0.5795198083 4282327578
-0.2682923973 -0.1580561101 0.5796563029 4282327580
-0.2683553696 -0.1574490219 0.5797923803 4282261787
-0.2684181333 -0.1568415016 0.5799279809 4282196507
-0.2680726349 -0.1559961140 0.5791815519 4282196507
-0.2681348920 -0.1553886682 0.5793160200 4282196505
-0.2681969106 -0.1547808051 0.5794500113 4282459677
-0.2682587206 -0.1541725248 0.5795835257 4282722336
-0.2679119110 -0.1533300728 0.5788342357 4282853922
-0.2679731846 -0.1527218670 0.5789666772 4283051301
-0.2680342495 -0.1521132588 0.5790985823 4283182887
-0.2676864266 -0.1512732804 0.5783470869 4283248680
-0.2677469552 -0.1506647617 0.5784779191 4283314473
-0.2673984170 -0.1498267353 0.5777248740 4283446313
-0.2674584389 -0.1492183208 0.5778545141 4283512106
-0.2675182521 -0.1486095041 0.5779837370 4283512106
-0.2675778270 -0.1480002850 0.5781124830 4283512106
-0.2676371932 -0.1473906487 0.5782406926 4283970346
-0.2676963210 -0.1467806101 0.5783684850 4284036139
-0.2677552700 -0.1461701691 0.5784958005 4283905321
-0.2678139508 -0.1455593258 0.5786226392 4283839528
-0.2678724527 -0.1449480802 0.5787490010 4283905321
-0.2679307163 -0.1443364322 0.5788748860 4283905321
-0.2679887414 -0.1437243968 0.5790002942 4283970600
-0.2680465579 -0.1431119591 0.5791252255 4284036393
-0.2681041658 -0.1424991190 0.5792496800 4284233772
-0.2681615353 -0.1418858916 0.5793735981 4284233772
-0.2682186961 -0.1412722617 0.5794970989 4284102954
-0.2682756186 -0.1406582445 0.5796200633 4284037161
-0.2683323324 -0.1400438398 0.5797426105 4283971368
-0.2683888078 -0.1394290477 0.5798646212 4284037161
-0.2680346072 -0.1386016160 0.5790993571 4284102700
-0.2680905461 -0.1379869878 0.5792202353 4284036907
-0.2681462467 -0.1373719722 0.5793405771 4284037422
-0.2682017386 -0.1367565840 0.5794605017 4284103215
-0.2682570219 -0.1361408085 0.5795798898 4284102702
-0.2683120668 -0.1355246603 0.5796988010 4284036909
-0.2683668733 -0.1349081248 0.5798172355 4284168495
-0.2684214413 -0.1342912167 0.5799351335 4284168495
-0.2684758008 -0.1336739212 0.5800526142 4284037422
-0.2693523765 -0.1334637851 0.5819464922 4284103215
-0.2694064379 -0.1328438669 0.5820633173 4284103215
-0.2690488994 -0.1320216954 0.5812907815 4284037422
-0.2695138752 -0.1316028982 0.5822954178 4284168493
-0.2695672512 -0.1309818625 0.5824106932 4284168493
-0.2696203887 -0.1303604543 0.5825255513 4284102700
-0.2696733177 -0.1297386736 0.5826398134 4284102700
-0.2697259784 -0.1291165352 0.5827536583 4284103213
-0.2697784305 -0.1284940392 0.5828669667 4284037420
-0.2698306441 -0.1278711706 0.5829797387 4283840809
-0.2698826194 -0.1272479445 0.5830920339 4283840809
-0.2699343562 -0.1266243607 0.5832038522 4284037418
-0.2699858546 -0.1260004193 0.5833151340 4284103211
-0.2700371444 -0.1253761202 0.5834258795 4284169004
-0.2705005109 -0.1249419227 0.5844270587 4284300590
-0.2705513835 -0.1243159622 0.5845369697 4284169004
-0.2706020474 -0.1236896440 0.5846464038 4283840039
-0.2706524432 -0.1230629832 0.5847553015 4283840039
-0.2711152732 -0.1226226091 0.5857552290 4283774246
-0.2711652815 -0.1219942868 0.5858632922 4283576610
-0.2712150514 -0.1213656217 0.5859708190 4283576610
-0.2712645531 -0.1207366139 0.5860778093 4283773735
-0.2717268169 -0.1202900708 0.5870765448 4283773735
-0.2717759311 -0.1196594089 0.5871826410 4283642662
-0.2718248069 -0.1190284118 0.5872882605 4283840041
-0.2722866535 -0.1185770109 0.5882860422 4283773735
-0.2723351121 -0.1179443747 0.5883907676 4284102700
