VERSION 0.7
FIELDS x y z rgba
SIZE 4 4 4 4
TYPE F F F U
COUNT 1 1 1 1
WIDTH 920
HEIGHT 1
VIEWPOINT 0.0 0.0 0.0 1.0 0.0 0.0 0.0
POINTS 920
DATA ascii
-0.3149248958 -0.1676664203 0.6276896596 4290622647
-0.3149954379 -0.1670063883 0.6278302073 4287330420
-0.3137565553 -0.1656547487 0.6253609657 4287790971
-0.3112074435 -0.1636196971 0.6202802062 4288050793
-0.3025448918 -0.1583953053 0.6030145288 4287656035
-0.2799048424 -0.1459224075 0.5578896999 4287718481
-0.2760354578 -0.1432939023 0.5501775146 4286797379
-0.2739115953 -0.1415847838 0.5459443331 4287191622
-0.2722235024 -0.1401093751 0.5425797105 4288507482
-0.2714085281 -0.1390888691 0.5409553647 4288508514
-0.2705929577 -0.1380716860 0.5393298268 4287982170
-0.2697767913 -0.1370578110 0.5377030969 4288046933
-0.2689600587 -0.1360472590 0.5360752344 4288178519
-0.2685801387 -0.1352603137 0.5353180170 4288178519
-0.2677623034 -0.1342554688 0.5336879492 4287981140
-0.2673814893 -0.1334724128 0.5329289436 4287652175
-0.2670002878 -0.1326908469 0.5321691036 4287389003
-0.2666186690 -0.1319107562 0.5314085484 4287323208
-0.2662366629 -0.1311321706 0.5306471586 4287454794
-0.2658542693 -0.1303550899 0.5298849344 4287323208
-0.2654714584 -0.1295794994 0.5291219950 4287257415
-0.2655264139 -0.1290183067 0.5292314887 4287192135
-0.2651429176 -0.1282448024 0.5284671187 4287126342
-0.2647590041 -0.1274727881 0.5277019739 4287060549
-0.2643747032 -0.1267023087 0.5269359946 4287060549
-0.2644285560 -0.1261425167 0.5270432830 4287126340
-0.2640435398 -0.1253741235 0.5262759328 4287126340
-0.2636581361 -0.1246072575 0.5255077481 4286994756
-0.2637111545 -0.1240483075 0.5256134272 4287060549
-0.2633250654 -0.1232835576 0.5248438716 4287060547
-0.2638165057 -0.1229294091 0.5258233547 4287060547
-0.2634297907 -0.1221658513 0.5250526071 4286994754
-0.2634818256 -0.1216064990 0.5251563191 4287126340
-0.2630944252 -0.1208450645 0.5243842006 4286994754
-0.2631459534 -0.1202859879 0.5244868994 4286534203
-0.2631972432 -0.1197265834 0.5245891213 4285942836
-0.2628088593 -0.1189679056 0.5238149762 4286008629
-0.2628596127 -0.1184087843 0.5239161849 4286271800
-0.2629101872 -0.1178493351 0.5240169764 4286534972
-0.2629605234 -0.1172895655 0.5241172910 4286863937
-0.2625707984 -0.1165342778 0.5233405232 4286995523
-0.2626206279 -0.1159748062 0.5234398246 4286929730
-0.2626702189 -0.1154150143 0.5235386491 4286995523
-0.2622795105 -0.1146625206 0.5227599740 4287126340
-0.2623285651 -0.1141030341 0.5228577256 4287192133
-0.2619371712 -0.1133527309 0.5220776200 4287323462
-0.2615454197 -0.1126039922 0.5212967992 4287389255
-0.2611532509 -0.1118568256 0.5205151439 4287651913
-0.2607606947 -0.1111112311 0.5197327733 4287717706
-0.2608083487 -0.1105539650 0.5198277235 4287914058
-0.2604151070 -0.1098105833 0.5190439224 4287848265
-0.2604622245 -0.1092536449 0.5191377997 4287979851
-0.2600682974 -0.1085124910 0.5183526874 4287914058
-0.2601148784 -0.1079558954 0.5184455514 4287979849
-0.2597202957 -0.1072169691 0.5176590681 4288045642
-0.2597663403 -0.1066607237 0.5177508593 4288111948
-0.2598121762 -0.1061041802 0.5178421736 4288243534
-0.2598577738 -0.1055473462 0.5179330707 4288309327
-0.2599031627 -0.1049902141 0.5180235505 4288243534
-0.2599483132 -0.1044327989 0.5181135535 4287782981
-0.2599932551 -0.1038750857 0.5182031393 4287454016
-0.2600379586 -0.1033170894 0.5182922482 4287256639
-0.2600824535 -0.1027588099 0.5183808804 4288046155
-0.2601267099 -0.1022002399 0.5184690952 4288836187
-0.2601707280 -0.1016413793 0.5185568333 4289230945
-0.2602145374 -0.1010822430 0.5186441541 4290875771
-0.2602581084 -0.1005228236 0.5187309980 4292125838
-0.2611853480 -0.1003025621 0.5205790997 4291533700
-0.2612286210 -0.0997406766 0.5206653476 4290941563
-0.2617137432 -0.0993463323 0.5216322541 4290481523
-0.2617566288 -0.0987829491 0.5217177272 4290284144
-0.2622414827 -0.0983851925 0.5226841569 4290152812
-0.2622839808 -0.0978203043 0.5227688551 4290415984
-0.2627686262 -0.0974191427 0.5237348080 4290613361
-0.2628107369 -0.0968527496 0.5238187313 4290481775
-0.2632951140 -0.0964481831 0.5247842073 4290415730
-0.2637794018 -0.0960414410 0.5257494450 4290284144
-0.2642636001 -0.0956325233 0.5267145038 4290284144
-0.2643049657 -0.0950621888 0.5267969966 4290284144
-0.2647888958 -0.0946498588 0.5277615190 4290218351
-0.2648298740 -0.0940780342 0.5278432369 4290284144
-0.2653135657 -0.0936623141 0.5288072228 4290152812
-0.2657971382 -0.0932444111 0.5297710299 4289889640
-0.2662805915 -0.0928243324 0.5307346582 4289758054
-0.2663208246 -0.0922485813 0.5308148861 4289955433
-0.2668040097 -0.0918251127 0.5317779183 4289758054
-0.2672871053 -0.0913994610 0.5327407718 4289231710
-0.2677700818 -0.0909716338 0.5337034464 4289363296
-0.2678095400 -0.0903919712 0.5337821245 4289626468
-0.2682922482 -0.0899607539 0.5347442031 4289626468
-0.2687748373 -0.0895273611 0.5357060432 4289429089
-0.2692572773 -0.0890917853 0.5366676450 4289757541
-0.2692959905 -0.0885082334 0.5367447734 4290020713
-0.2697781622 -0.0880692750 0.5377058387 4290218092
-0.2702602148 -0.0876281410 0.5386666059 4290415471
-0.2707421482 -0.0871848390 0.5396271944 4290481264
-0.2707800567 -0.0865973979 0.5397027135 4290218092
-0.2712616920 -0.0861507133 0.5406627059 4290021224
-0.2717432082 -0.0857018530 0.5416224003 4289823845
-0.2722245753 -0.0852508247 0.5425818563 4289692772
-0.2722616792 -0.0846595168 0.5426558256 4289824358
-0.2727427483 -0.0842051059 0.5436146259 4289692518
-0.2736679614 -0.0838847086 0.5454587340 4290218862
-0.2741488218 -0.0834249929 0.5464171171 4290482034
-0.2746295631 -0.0829631090 0.5473753214 4289758311
-0.2755545974 -0.0826323330 0.5492190719 4289429600
-0.2760351002 -0.0821651444 0.5501767993 4289758565
-0.2765154839 -0.0816957876 0.5511342883 4290086765
-0.2774403393 -0.0813546330 0.5529776216 4290415730
-0.2783651948 -0.0810093805 0.5548209548 4290221174
-0.2792899907 -0.0806600228 0.5566642284 4290813311
-0.2802147567 -0.0803065598 0.5585074425 4290947217
-0.2811394930 -0.0799489915 0.5603505373 4290881424
-0.2825090885 -0.0797128454 0.5630803704 4291608503
-0.3134892285 -0.1672723591 0.6262143850 4291214784
-0.3131240010 -0.1663825065 0.6254848242 4287857023
-0.3123227060 -0.1652635634 0.6238842010 4287462265
-0.3102137148 -0.1634590924 0.6196713448 4288182381
-0.3041813970 -0.1596054137 0.6076214314 4287787623
-0.2820183635 -0.1473504454 0.5633493662 4287981653
-0.2768486142 -0.1440348774 0.5530224442 4287586895
-0.2742927969 -0.1420964003 0.5479170084 4288112213
-0.2721717954 -0.1403935552 0.5436801910 4288770143
-0.2709221542 -0.1391476691 0.5411840081 4288507744
-0.2701081038 -0.1381300688 0.5395578742 4288047193
-0.2692934573 -0.1371157914 0.5379305482 4288112726
-0.2684782147 -0.1361048222 0.5363020897 4288310105
-0.2680990398 -0.1353175789 0.5355446339 4288179032
-0.2677194476 -0.1345317960 0.5347864032 4287850067
-0.2673394680 -0.1337475181 0.5340273380 4287521102
-0.2660852373 -0.1325294673 0.5315219760 4287323723
-0.2670153081 -0.1324000955 0.5333798528 4287323208
-0.2657600045 -0.1311878115 0.5308722854 4287389001
-0.2653783262 -0.1304104179 0.5301098824 4287323208
-0.2654335499 -0.1298484355 0.5302201509 4287257415
-0.2650511861 -0.1290731132 0.5294563174 4287126342
-0.2646684051 -0.1282992959 0.5286917090 4287060549
-0.2647227943 -0.1277381331 0.5288003683 4286994756
-0.2643392980 -0.1269664019 0.5280343294 4287060549
-0.2639554441 -0.1261961907 0.5272675157 4287060547
-0.2640089989 -0.1256358474 0.5273745060 4286994754
-0.2631865144 -0.1246603206 0.5257315636 4286994756
-0.2632394731 -0.1241011545 0.5258373022 4287060549
-0.2628540993 -0.1233360991 0.5250675678 4287060547
-0.2633447051 -0.1229818240 0.5260475874 4286928961
-0.2629587352 -0.1222179532 0.5252765417 4286928961
-0.2625723779 -0.1214556172 0.5245047808 4287060547
-0.2626240849 -0.1208966523 0.5246080160 4286863170
-0.2622370124 -0.1201364547 0.5238348842 4286468412
-0.2622881830 -0.1195777655 0.5239371061 4285810482
-0.2623391151 -0.1190187484 0.5240388513 4286007861
-0.2623898685 -0.1184594035 0.5241401792 4286337594
-0.2620015144 -0.1177025810 0.5233644247 4286666559
-0.2620517015 -0.1171435267 0.5234646797 4286863938
-0.2621016800 -0.1165841520 0.5235645771 4286995524
-0.2617123425 -0.1158301160 0.5227867961 4286929731
-0.2617617846 -0.1152710393 0.5228856206 4286929731
-0.2618110478 -0.1147116497 0.5229839683 4287126340
-0.2618600428 -0.1141519472 0.5230818987 4287126340
-0.2614693940 -0.1134013385 0.5223015547 4287126595
-0.2610783875 -0.1126523018 0.5215204358 4287192388
-0.2606869638 -0.1119048297 0.5207385421 4287389254
-0.2602951527 -0.1111589372 0.5199558735 4287520840
-0.2603427470 -0.1106014401 0.5200509429 4287651913
-0.2599502504 -0.1098577604 0.5192669034 4287586120
-0.2595573962 -0.1091156602 0.5184821486 4287848776
-0.2596041560 -0.1085591391 0.5185755491 4287782983
-0.2592105865 -0.1078192666 0.5177894235 4287848776
-0.2592568398 -0.1072630957 0.5178817511 4287980362
-0.2588625848 -0.1065254584 0.5170942545 4288111948
-0.2589083016 -0.1059696376 0.5171855688 4288309327
-0.2589538097 -0.1054135263 0.5172764659 4288506193
-0.2589990497 -0.1048571244 0.5173668861 4288440400
-0.2590441108 -0.1043004245 0.5174568295 4287849028
-0.2590889335 -0.1037434414 0.5175463557 4287520063
-0.2591335177 -0.1031861678 0.5176354051 4287388223
-0.2591778636 -0.1026286036 0.5177240372 4288177739
-0.2592220306 -0.1020707563 0.5178122520 4288967259
-0.2592659295 -0.1015126258 0.5178999305 4289493603
-0.2593096197 -0.1009542048 0.5179872513 4290941564
-0.2602352500 -0.1007369906 0.5198361874 4291796873
-0.2602786124 -0.1001761183 0.5199228525 4291533700
-0.2607629895 -0.0997837931 0.5208904147 4290941563
-0.2608059943 -0.0992214084 0.5209763646 4290547059
-0.2612901330 -0.0988256782 0.5219434500 4290415473
-0.2617741823 -0.0984277651 0.5229103565 4290350191
-0.2618166506 -0.0978626460 0.5229951739 4290415984
-0.2623004615 -0.0974613279 0.5239616036 4290350189
-0.2623425126 -0.0968947038 0.5240456462 4290021224
-0.2628260851 -0.0964899734 0.5250115395 4290218351
-0.2633095384 -0.0960830674 0.5259773135 4290152558
-0.2637929022 -0.0956739858 0.5269428492 4290218351
-0.2638342381 -0.0951034129 0.5270254612 4290218351
-0.2643173635 -0.0946909264 0.5279905200 4290152558
-0.2648003697 -0.0942762569 0.5289553404 4290218351
-0.2648411393 -0.0937029719 0.5290367603 4290218605
-0.2653238773 -0.0932849050 0.5300011039 4289955433
-0.2658065259 -0.0928646550 0.5309652090 4289889640
-0.2658467293 -0.0922886655 0.5310454965 4289889640
-0.2663290799 -0.0918650180 0.5320090652 4289823847
-0.2672538161 -0.0915908366 0.5338562727 4289494882
-0.2672935128 -0.0910111964 0.5339355469 4289428576
-0.2677755356 -0.0905810148 0.5348984599 4289823334
-0.2678148150 -0.0899998993 0.5349768400 4289691748
-0.2682965696 -0.0895663276 0.5359392166 4289494369
-0.2687782049 -0.0891305804 0.5369012952 4289691748
-0.2692597210 -0.0886926576 0.5378631949 4289823334
-0.2692982256 -0.0881076381 0.5379400849 4290086506
-0.2697794437 -0.0876663327 0.5389013290 4290349678
-0.2702605426 -0.0872228444 0.5398623943 4290218605
-0.2707415521 -0.0867771804 0.5408232212 4290152812
-0.2707792222 -0.0861882865 0.5408985019 4290415984
-0.2712599039 -0.0857392401 0.5418586731 4290547570
-0.2717404664 -0.0852880254 0.5428186059 4290350191
-0.2722209096 -0.0848346353 0.5437783003 4290218605
-0.2727012038 -0.0843790770 0.5447377563 4290152812
-0.2731813788 -0.0839213431 0.5456969142 4290415984
-0.2736614347 -0.0834614336 0.5466558337 4290284655
-0.2741413414 -0.0829993635 0.5476145148 4289955690
-0.2750647664 -0.0826684535 0.5494590998 4290218862
-0.2755444646 -0.0822010636 0.5504173040 4290416241
-0.2764678001 -0.0818629116 0.5522617102 4290086765
-0.2769472599 -0.0813902244 0.5532194972 4290218351
-0.2778704762 -0.0810448229 0.5550637245 4290089847
-0.2787936926 -0.0806953236 0.5569078326 4290813570
-0.2797168493 -0.0803417116 0.5587519407 4290947475
-0.2810840011 -0.0801105499 0.5614829063 4291013268
-0.2833394706 -0.0801245198 0.5659883618 4292134847
-0.3120559752 -0.1668778360 0.6247374415 4291477956
-0.3116912544 -0.1659894735 0.6240072846 4288449160
-0.3108912706 -0.1648719162 0.6224057078 4287264886
-0.3092208505 -0.1632982343 0.6190615296 4288313712
-0.3053743839 -0.1605876684 0.6113608479 4287787368
-0.2897781730 -0.1517414898 0.5801371932 4287981140
-0.2772212029 -0.1445494294 0.5549980998 4288178519
-0.2737996578 -0.1421563178 0.5481480956 4288638557
-0.2721179128 -0.1406778693 0.5447812080 4288441178
-0.2708706558 -0.1394305527 0.5422842503 4288244574
-0.2696226239 -0.1381883919 0.5397856832 4288310367
-0.2692451775 -0.1373960376 0.5390300155 4288178519
-0.2684315443 -0.1363837570 0.5374011397 4288310105
-0.2676173151 -0.1353747845 0.5357710719 4288112985
-0.2672384679 -0.1345887035 0.5350126028 4287784020
-0.2668592334 -0.1338041127 0.5342532992 4287586895
-0.2660434246 -0.1328032911 0.5326201320 4287455309
-0.2665357292 -0.1324561685 0.5336056948 4287454794
-0.2657190561 -0.1314592510 0.5319707394 4287520587
-0.2649017870 -0.1304656863 0.5303345323 4287323208
-0.2653934658 -0.1301175058 0.5313189030 4287257415
-0.2645753026 -0.1291278750 0.5296809673 4287126342
-0.2641932666 -0.1283537447 0.5289160609 4287060549
-0.2642475963 -0.1277923584 0.5290248990 4286994756
-0.2638648748 -0.1270203292 0.5282586217 4286994756
-0.2634817362 -0.1262498200 0.5274915695 4287060290
-0.2635352314 -0.1256892532 0.5275986791 4287060290
-0.2631514072 -0.1249208450 0.5268302560 4286994243
-0.2632043958 -0.1243605316 0.5269363523 4287191622
-0.2628198564 -0.1235942394 0.5261664987 4287257415
-0.2628723085 -0.1230341867 0.5262715220 4287060036
-0.2624870837 -0.1222700104 0.5255002975 4286863170
-0.2621014714 -0.1215073764 0.5247282982 4286863170
-0.2621531188 -0.1209481880 0.5248316526 4286731584
-0.2617667913 -0.1201876923 0.5240582824 4286402619
-0.2618179023 -0.1196287796 0.5241606236 4285613103
-0.2618688047 -0.1190695465 0.5242624879 4285876275
-0.2619194984 -0.1185099781 0.5243639350 4286403387
-0.2615318596 -0.1177528501 0.5235879421 4286798145
-0.2615820169 -0.1171935797 0.5236883759 4286863938
-0.2616319656 -0.1166339889 0.5237883329 4286995524
-0.2612433434 -0.1158796474 0.5230103135 4286995526
-0.2612927556 -0.1153203547 0.5231092572 4286929733
-0.2613419592 -0.1147607416 0.5232077241 4287126595
-0.2613909245 -0.1142008156 0.5233057737 4287126595
-0.2610010207 -0.1134499013 0.5225251913 4287060802
-0.2606107295 -0.1127005592 0.5217438340 4287060802
-0.2602200508 -0.1119527891 0.5209617019 4287192388
-0.2598290145 -0.1112065911 0.5201787949 4287323974
-0.2598765492 -0.1106488779 0.5202739835 4287389767
-0.2594847977 -0.1099048927 0.5194897056 4287389767
-0.2590926886 -0.1091624871 0.5187046528 4287586631
-0.2591393888 -0.1086057499 0.5187981725 4287520838
-0.2587465942 -0.1078655720 0.5180118084 4287652167
-0.2587927878 -0.1073091775 0.5181042552 4287849546
-0.2583992779 -0.1065712422 0.5173165202 4288177482
-0.2584449649 -0.1060152054 0.5174079537 4288506447
-0.2584904134 -0.1054588631 0.5174989104 4288900435
-0.2585356236 -0.1049022377 0.5175894499 4288900435
-0.2585806251 -0.1043453142 0.5176795721 4287980101
-0.2586253881 -0.1037881076 0.5177691579 4287848515
-0.2586699426 -0.1032306030 0.5178583860 4287848517
-0.2587142885 -0.1026728228 0.5179471374 4288374861
-0.2587583661 -0.1021147445 0.5180354118 4289164638
-0.2588022649 -0.1015563905 0.5181232691 4290019947
-0.2588458955 -0.1009977460 0.5182106495 4291335552
-0.2593296170 -0.1006096378 0.5191790462 4291335552
-0.2598132491 -0.1002193466 0.5201472640 4290809978
-0.2598563433 -0.0996579602 0.5202335715 4290349427
-0.2603397667 -0.0992642567 0.5212013125 4290020461
-0.2608230710 -0.0988683701 0.5221689343 4289954668
-0.2608656287 -0.0983042493 0.5222541690 4289889386
-0.2613486946 -0.0979049504 0.5232212543 4289823593
-0.2618316710 -0.0975034684 0.5241881609 4289692261
-0.2623145580 -0.0970998108 0.5251549482 4289363296
-0.2623564303 -0.0965317264 0.5252387524 4289823593
-0.2628390789 -0.0961246565 0.5262049437 4289823593
-0.2633216083 -0.0957154036 0.5271710157 4290087019
-0.2638040483 -0.0953039750 0.5281369090 4290218605
-0.2638452053 -0.0947319493 0.5282192230 4290087019
-0.2643273771 -0.0943171084 0.5291845798 4290152812
-0.2648094594 -0.0939000919 0.5301496983 4290218092
-0.2648500204 -0.0933253542 0.5302309394 4290020713
-0.2653318346 -0.0929049328 0.5311955214 4289954920
-0.2653720081 -0.0923287123 0.5312759280 4289823334
-0.2658535540 -0.0919048935 0.5322399735 4289823334
-0.2667766511 -0.0916306004 0.5340880752 4289691748
-0.2672580481 -0.0912014619 0.5350518227 4289494367
-0.2672975361 -0.0906203613 0.5351307988 4289889125
-0.2677786350 -0.0901878327 0.5360940099 4289691746
-0.2678176761 -0.0896052569 0.5361721516 4289691746
-0.2682985067 -0.0891693309 0.5371347666 4289757541
-0.2687791884 -0.0887312293 0.5380971432 4289889127
-0.2692597806 -0.0882909521 0.5390592813 4290284398
-0.2692980468 -0.0877044797 0.5391358733 4290679156
-0.2697783411 -0.0872608125 0.5400974154 4290416241
-0.2702584863 -0.0868149698 0.5410587192 4290218862
-0.2707385421 -0.0863669515 0.5420197248 4290350448
-0.2707760036 -0.0857765973 0.5420947671 4290350448
-0.2712557316 -0.0853251964 0.5430551767 4290744949
-0.2717353404 -0.0848716125 0.5440153480 4290350191
-0.2726574540 -0.0845531300 0.5458614230 4290415730
-0.2731368542 -0.0840942413 0.5468211770 4290744695
-0.2736161351 -0.0836331770 0.5477806926 4290416243
-0.2740952671 -0.0831699446 0.5487399697 4290218864
-0.2745742798 -0.0827045366 0.5496989489 4290350448
-0.2754960954 -0.0823693797 0.5515443683 4290087276
-0.2759748697 -0.0818986669 0.5525029302 4290349937
-0.2768965662 -0.0815562680 0.5543481708 4290284144
-0.2778182328 -0.0812097564 0.5561932921 4290155640
-0.2787398696 -0.0808591470 0.5580384135 4290945156
-0.2796614766 -0.0805044174 0.5598834753 4291013268
-0.2814695537 -0.0803988054 0.5635032654 4291210647
-0.2828345001 -0.0801595598 0.5662358999 4292661191
-0.3106251359 -0.1664828509 0.6232587695 4291347392
-0.3102609515 -0.1655959785 0.6225280166 4289963167
-0.3098963201 -0.1647105068 0.6217963696 4287397240
-0.3082288504 -0.1631371081 0.6184507012 4288183155
-0.3048235178 -0.1606552005 0.6116179824 4287656811
-0.2949016094 -0.1547684968 0.5917100310 4288114017
-0.2788932920 -0.1457453668 0.5595898628 4288179810
-0.2750439048 -0.1431205720 0.5518662333 4288375900
-0.2720618248 -0.1409623176 0.5458827615 4288112728
-0.2703822851 -0.1394893229 0.5425128341 4287850067
-0.2691365480 -0.1382466704 0.5400133133 4287915860
-0.2687598169 -0.1374540031 0.5392574072 4288112728
-0.2679477036 -0.1364413053 0.5376279354 4288375900
-0.2675700784 -0.1356525123 0.5368702412 4288178521
-0.2667568922 -0.1346455514 0.5352385640 4287849556
-0.2663783729 -0.1338606477 0.5344790816 4287717968
-0.2659994364 -0.1330772340 0.5337187648 4287586382
-0.2656201124 -0.1322953105 0.5329576731 4287586382
-0.2652404010 -0.1315148771 0.5321958065 4287586382
-0.2648602724 -0.1307359338 0.5314331055 4287389514
-0.2644797564 -0.1299585104 0.5306696296 4287126342
-0.2649704516 -0.1296089143 0.5316541791 4287060549
-0.2641534507 -0.1286203861 0.5300148726 4287060549
-0.2642078102 -0.1280578673 0.5301239491 4286994754
-0.2638258934 -0.1272846013 0.5293576717 4286994754
-0.2634435892 -0.1265128404 0.5285905600 4287060547
-0.2634971142 -0.1259511411 0.5286980271 4287060547
-0.2626777887 -0.1249738932 0.5270540118 4286798404
-0.2627307177 -0.1244133636 0.5271602273 4286929990
-0.2623469234 -0.1236467659 0.5263901353 4287257928
-0.2619627118 -0.1228816956 0.5256192684 4287060549
-0.2620148361 -0.1223220229 0.5257238150 4286731584
-0.2616299391 -0.1215590760 0.5249515772 4286534205
-0.2616815567 -0.1209996790 0.5250551105 4286206010
-0.2612959743 -0.1202388704 0.5242814422 4286008631
-0.2613470256 -0.1196797416 0.5243839025 4285613873
-0.2609607577 -0.1189210936 0.5236088634 4286008631
-0.2610113025 -0.1183622479 0.5237103105 4286665791
-0.2610616386 -0.1178030744 0.5238112807 4286994756
-0.2611117363 -0.1172435880 0.5239118338 4286994756
-0.2611616552 -0.1166837737 0.5240119100 4287060549
-0.2607737780 -0.1159291267 0.5232336521 4286995526
-0.2608231306 -0.1153696105 0.5233327150 4286929733
-0.2604345679 -0.1146171466 0.5225530863 4286994497
-0.2604834139 -0.1140579432 0.5226510763 4286928704
-0.2605320513 -0.1134984195 0.5227486491 4286928961
-0.2601425052 -0.1127487719 0.5219670534 4287060547
-0.2597525716 -0.1120007038 0.5211846828 4287257669
-0.2593622506 -0.1112542003 0.5204014778 4287389255
-0.2594097555 -0.1106962636 0.5204967856 4287455047
-0.2590187490 -0.1099519804 0.5197122693 4287389254
-0.2586273551 -0.1092092767 0.5189269781 4287586120
-0.2586740255 -0.1086523160 0.5190206170 4287651913
-0.2582819760 -0.1079118401 0.5182339549 4287652426
-0.2583281398 -0.1073552221 0.5183265805 4287718219
-0.2579353750 -0.1066169888 0.5175385475 4287784012
-0.2579810023 -0.1060607210 0.5176301003 4287981391
-0.2580264211 -0.1055041626 0.5177211761 4288441683
-0.2576327026 -0.1047688276 0.5169312358 4288836441
-0.2576775849 -0.1042126343 0.5170212984 4288770648
-0.2577222288 -0.1036561430 0.5171108842 4288639062
-0.2577666640 -0.1030993685 0.5172000527 4288836187
-0.2578108907 -0.1025423110 0.5172887444 4289165152
-0.2578548491 -0.1019849554 0.5173769593 4289691750
-0.2578986287 -0.1014273241 0.5174647570 4290612852
-0.2583815753 -0.1010412499 0.5184338093 4291072631
-0.2588644624 -0.1006529853 0.5194026828 4290677873
-0.2593472600 -0.1002625450 0.5203714371 4290414442
-0.2589506805 -0.0995319411 0.5195757151 4290348649
-0.2594331801 -0.0991390347 0.5205438137 4290085990
-0.2599155903 -0.0987439454 0.5215117931 4290020197
-0.2603979111 -0.0983466730 0.5224795341 4290348647
-0.2608801425 -0.0979472175 0.5234470963 4290085475
-0.2609222829 -0.0973813608 0.5235316753 4289361237
-0.2614042759 -0.0969784930 0.5244987607 4288637514
-0.2618861794 -0.0965734422 0.5254656672 4288967507
-0.2623679936 -0.0961662084 0.5264323950 4289888609
-0.2624094188 -0.0955963954 0.5265155435 4290020711
-0.2628909647 -0.0951857567 0.5274817348 4289889125
-0.2633724213 -0.0947729349 0.5284478068 4290152297
-0.2638537884 -0.0943579301 0.5294135809 4290152297
-0.2643350363 -0.0939407423 0.5303792357 4290020711
-0.2643755674 -0.0933657661 0.5304605365 4290020711
-0.2648565471 -0.0929451808 0.5314256549 4289954918
-0.2657781839 -0.0926761031 0.5332748890 4289889125
-0.2658182085 -0.0920974612 0.5333551764 4289692261
-0.2662988901 -0.0916703269 0.5343196392 4289758054
-0.2667794526 -0.0912410170 0.5352838635 4289758054
-0.2668188810 -0.0906596780 0.5353629589 4289626468
-0.2672991455 -0.0902269706 0.5363266468 4289691748
-0.2677793205 -0.0897920802 0.5372900963 4289954920
-0.2678181529 -0.0892080516 0.5373679996 4289888611
-0.2682980299 -0.0887697712 0.5383308530 4290151783
-0.2687777877 -0.0883293077 0.5392934680 4290349676
-0.2692574263 -0.0878866687 0.5402558446 4290415469
-0.2692954838 -0.0872987434 0.5403321981 4290152299
-0.2697748244 -0.0868527144 0.5412939787 4290218092
-0.2702540159 -0.0864045173 0.5422555208 4290547055
-0.2707331181 -0.0859541371 0.5432167649 4290481262
-0.2712121010 -0.0855015814 0.5441778302 4290481777
-0.2712491453 -0.0849085599 0.5442521572 4290415984
-0.2721696496 -0.0845899433 0.5460991263 4290416243
-0.2726482153 -0.0841308683 0.5470593572 4290547829
-0.2731266618 -0.0836696103 0.5480193496 4290350450
-0.2736049891 -0.0832061842 0.5489791036 4290284657
-0.2745252550 -0.0828740373 0.5508255363 4290218864
-0.2750033438 -0.0824052989 0.5517848730 4290153071
-0.2754813135 -0.0819343850 0.5527438521 4290284909
-0.2764014006 -0.0815918446 0.5545899868 4290087530
-0.2773214281 -0.0812451988 0.5564360023 4290221434
-0.2786838114 -0.0810230449 0.5591695905 4291076743
-0.2796038389 -0.0806672052 0.5610156059 4290751643
-0.2809663117 -0.0804339126 0.5637493134 4291277987
-0.2827713788 -0.0803202689 0.5673711300 4293254872
-0.3099227846 -0.1678623408 0.6232383847 4291085256
-0.3095600009 -0.1669741869 0.6225088239 4291150272
-0.3096297979 -0.1663200408 0.6226491928 4291084479
-0.3092662096 -0.1654337347 0.6219180822 4290226598
-0.3089022040 -0.1645488292 0.6211860776 4287923843
-0.3076710701 -0.1632055938 0.6187103391 4288183157
-0.3047053814 -0.1609516144 0.6127464771 4287985778
-0.2978363037 -0.1566577852 0.5989331007 4288246117
-0.2801232636 -0.1467150748 0.5633131266 4288114531
-0.2754138410 -0.1436331570 0.5538427234 4288310364
-0.2724373639 -0.1414721608 0.5478572249 4288047192
-0.2707611024 -0.1399967372 0.5444862843 4287784274
-0.2695178688 -0.1387517452 0.5419862270 4287718481
-0.2682738602 -0.1375119090 0.5394845605 4288112728
-0.2674632668 -0.1364988089 0.5378544927 4288310107
-0.2670863569 -0.1357097179 0.5370966196 4288178521
-0.2671434283 -0.1351418346 0.5372113585 4287849556
-0.2663313746 -0.1341359615 0.5355783105 4287652175
-0.2663878202 -0.1335691959 0.5356918573 4287586382
-0.2660094202 -0.1327851266 0.5349309444 4287652175
-0.2656306028 -0.1320025325 0.5341691971 4287586382
-0.2643817365 -0.1307912022 0.5316577554 4287323721
-0.2653067410 -0.1306560338 0.5335178971 4287126342
-0.2644918263 -0.1296637505 0.5318791270 4287060549
-0.2641114295 -0.1288871616 0.5311141610 4287126342
-0.2637306452 -0.1281120777 0.5303484201 4287126340
-0.2637847364 -0.1275489926 0.5304571986 4287126340
-0.2629678845 -0.1265664548 0.5288145542 4287126340
-0.2630213797 -0.1260045320 0.5289221406 4287126340
-0.2626391053 -0.1252345741 0.5281534195 4286929990
-0.2622564435 -0.1244661510 0.5273838639 4286929990
-0.2618733644 -0.1236992478 0.5266135335 4287126342
-0.2614899278 -0.1229338720 0.5258424282 4286994756
-0.2615419924 -0.1223739833 0.5259471536 4286599998
-0.2611578405 -0.1216107383 0.5251746774 4286073654
-0.2612093687 -0.1210511103 0.5252782702 4285745459
-0.2608245313 -0.1202900112 0.5245044231 4285811252
-0.2608755529 -0.1197306588 0.5246070027 4286008631
-0.2609263659 -0.1191709861 0.5247091651 4286337596
-0.2605405152 -0.1184126437 0.5239332914 4286863170
-0.2605908215 -0.1178532541 0.5240343809 4287060549
-0.2606408596 -0.1172935441 0.5241350532 4287060549
-0.2606907189 -0.1167335138 0.5242353082 4287060549
-0.2603035867 -0.1159785613 0.5234568119 4286863940
-0.2603529096 -0.1154188290 0.5235559940 4286798147
-0.2599650919 -0.1146660596 0.5227760673 4286797118
-0.2595768869 -0.1139148623 0.5219954252 4286731325
-0.2596253753 -0.1133560613 0.5220929384 4286665791
-0.2592364848 -0.1126070544 0.5213109255 4286863170
-0.2592844665 -0.1120485663 0.5214074254 4287126083
-0.2588948905 -0.1113017648 0.5206239820 4287389255
-0.2585049570 -0.1105565429 0.5198398232 4287520328
-0.2585521042 -0.1099990234 0.5199346542 4287454535
-0.2581614554 -0.1092560217 0.5191491246 4287388741
-0.2582080960 -0.1086988375 0.5192428827 4287454534
-0.2578167617 -0.1079580635 0.5184559226 4287586121
-0.2578628659 -0.1074012220 0.5185486674 4287717707
-0.2574708760 -0.1066626832 0.5177603960 4287717706
-0.2570785284 -0.1059257463 0.5169713497 4287849292
-0.2571237981 -0.1053699106 0.5170624256 4288243536
-0.2571688592 -0.1048137844 0.5171530247 4288375122
-0.2572136819 -0.1042573601 0.5172432065 4288441429
-0.2572582960 -0.1037006527 0.5173329115 4288441429
-0.2573027015 -0.1031436548 0.5174221992 4288704601
-0.2569084466 -0.1024116054 0.5166293979 4289099359
-0.2573907971 -0.1020287946 0.5175993443 4289494371
-0.2578730881 -0.1016438007 0.5185691714 4290020715
-0.2579166591 -0.1010847092 0.5186567903 4290348908
-0.2583987117 -0.1006962955 0.5196262002 4290217322
-0.2588806748 -0.1003056988 0.5205953717 4290020197
-0.2584848404 -0.0995747969 0.5197994113 4289954404
-0.2589665055 -0.0991817340 0.5207680464 4289888611
-0.2594480813 -0.0987864882 0.5217364430 4290085990
-0.2599295974 -0.0983890593 0.5227047205 4290678125
-0.2604109943 -0.0979894400 0.5236727595 4290349160
-0.2604531050 -0.0974233523 0.5237574577 4288440905
-0.2609342635 -0.0970203280 0.5247250199 4286335529
-0.2614153326 -0.0966151133 0.5256924629 4288506956
-0.2614568770 -0.0960462987 0.5257760286 4289428058
-0.2619376779 -0.0956376716 0.5267428756 4289757539
-0.2624184191 -0.0952268690 0.5277096033 4289889125
-0.2628990412 -0.0948138833 0.5286760926 4290020711
-0.2633795738 -0.0943987146 0.5296424031 4289954918
-0.2638599873 -0.0939813554 0.5306085348 4289955172
-0.2639004886 -0.0934061483 0.5306899548 4290020965
-0.2643806338 -0.0929853916 0.5316555500 4290020711
-0.2653006613 -0.0927162096 0.5335056186 4289954918
-0.2657806575 -0.0922901258 0.5344709158 4289889127
-0.2658204734 -0.0917100236 0.5345509648 4289889127
-0.2663002014 -0.0912805349 0.5355157256 4289823334
-0.2663396001 -0.0906989574 0.5355949402 4289691748
-0.2668190598 -0.0902660713 0.5365590453 4289691746
-0.2672984004 -0.0898310095 0.5375229716 4289889125
-0.2677776217 -0.0893937647 0.5384866595 4290085988
-0.2678162456 -0.0888082758 0.5385643244 4290349160
-0.2682951689 -0.0883676335 0.5395274162 4290349676
-0.2687739730 -0.0879248157 0.5404903293 4290283883
-0.2692526579 -0.0874798149 0.5414529443 4290152297
-0.2692905068 -0.0868904367 0.5415289998 4290218090
-0.2697688937 -0.0864420459 0.5424910188 4290481262
-0.2702471614 -0.0859914795 0.5434527993 4290547055
-0.2711662054 -0.0856780559 0.5453009605 4290284398
-0.2716442943 -0.0852221698 0.5462623835 4290218605
-0.2721222341 -0.0847641081 0.5472234488 4290218862
-0.2721589506 -0.0841674581 0.5472972989 4290218862
-0.2726365626 -0.0837060139 0.5482577682 4290087278
-0.2735552788 -0.0833768770 0.5501052737 4290087278
-0.2740327120 -0.0829101130 0.5510653257 4290087276
-0.2745099664 -0.0824411809 0.5520251393 4290153069
-0.2754285038 -0.0821016431 0.5538722277 4290153839
-0.2759055793 -0.0816273913 0.5548315644 4290022253
-0.2772655189 -0.0814102292 0.5575663447 4289958778
-0.2781839669 -0.0810583606 0.5594133139 4291143052
-0.2795439959 -0.0808300674 0.5621482730 4290817438
-0.2809041142 -0.0805957168 0.5648833513 4291738540
-0.3087871671 -0.1690045744 0.6223447323 4290888137
-0.3088576198 -0.1683515161 0.6224867105 4290888390
-0.3084957898 -0.1674634665 0.6217574477 4290822597
-0.3085656762 -0.1668104231 0.6218982935 4290821307
-0.3082030416 -0.1659242362 0.6211674809 4290952893
-0.3078399897 -0.1650394350 0.6204357743 4290555563
-0.3074764907 -0.1641560197 0.6197031736 4288581773
-0.3062474728 -0.1628140807 0.6172261238 4288380536
-0.3041523099 -0.1610191166 0.6130034328 4288380536
-0.2990267575 -0.1576360166 0.6026731133 4288640877
-0.2817791104 -0.1479127109 0.5679113865 4288246119
-0.2757799625 -0.1441460550 0.5558204055 4288179549
-0.2723761201 -0.1417569667 0.5489600897 4287916377
-0.2702699006 -0.1400555819 0.5447151661 4287653202
-0.2694621980 -0.1390336156 0.5430872440 4287587409
-0.2682205737 -0.1377923638 0.5405848622 4288112728
-0.2678450048 -0.1369996220 0.5398278832 4288244314
-0.2670355141 -0.1359876096 0.5381964445 4288178521
-0.2666590512 -0.1351987571 0.5374376774 4287915349
-0.2662821710 -0.1344113946 0.5366780758 4287717968
-0.2654711306 -0.1334075332 0.5350434780 4287717968
-0.2659611106 -0.1330581903 0.5360310078 4287783761
-0.2651491463 -0.1320582330 0.5343945622 4287586382
-0.2639026046 -0.1308464110 0.5318821669 4287389514
-0.2648259699 -0.1307112128 0.5337432027 4287060549
-0.2640125751 -0.1297185272 0.5321038365 4286994756
-0.2636329234 -0.1289416403 0.5313386321 4287192135
-0.2636872530 -0.1283777505 0.5314481854 4287257926
-0.2633069158 -0.1276029348 0.5306816101 4287192133
-0.2629261613 -0.1268296540 0.5299142003 4287192133
-0.2625450194 -0.1260578781 0.5291460156 4287257926
-0.2621634901 -0.1252876222 0.5283770561 4287061319
-0.2617815435 -0.1245188862 0.5276073217 4286929733
-0.2613992393 -0.1237516776 0.5268367529 4286994756
-0.2610165179 -0.1229859963 0.5260654092 4286994756
-0.2610685229 -0.1224258915 0.5261702538 4286534205
-0.2606851161 -0.1216623411 0.5253975391 4285810482
-0.2607366145 -0.1211025044 0.5255013108 4285416494
-0.2603525221 -0.1203410923 0.5247271657 4285745459
-0.2604034841 -0.1197815314 0.5248298645 4286403389
-0.2604542375 -0.1192216352 0.5249322057 4286732354
-0.2600691319 -0.1184629872 0.5241560340 4287060549
-0.2601193786 -0.1179033816 0.5242573023 4287060549
-0.2601693869 -0.1173434556 0.5243580937 4287060549
-0.2602191865 -0.1167832017 0.5244584680 4286994756
-0.2598327994 -0.1160279512 0.5236797333 4286863170
-0.2594460249 -0.1152742580 0.5229001641 4286665791
-0.2594949901 -0.1147149280 0.5229988694 4286468412
-0.2591075301 -0.1139634252 0.5222179890 4286402619
-0.2591559887 -0.1134044006 0.5223156214 4286534205
-0.2587678432 -0.1126550958 0.5215333700 4286863170
-0.2588157654 -0.1120963916 0.5216299295 4287191622
-0.2584269345 -0.1113492846 0.5208463073 4287323208
-0.2580377460 -0.1106037647 0.5200618505 4287323462
-0.2576481402 -0.1098598167 0.5192766786 4287257669
-0.2576949596 -0.1093027145 0.5193709731 4287388742
-0.2573046982 -0.1085610017 0.5185844302 4287388742
-0.2573509812 -0.1080042347 0.5186777115 4287586121
-0.2569600344 -0.1072647572 0.5178897977 4287651914
-0.2570057809 -0.1067083403 0.5179820061 4287651914
-0.2566141486 -0.1059711054 0.5171927214 4287717707
-0.2566593885 -0.1054150462 0.5172839165 4287980364
-0.2567044199 -0.1048586965 0.5173746347 4287980364
-0.2567492127 -0.1043020487 0.5174648762 4287651914
-0.2567937970 -0.1037451178 0.5175547600 4287717707
-0.2568381429 -0.1031878963 0.5176441073 4287981392
-0.2564446330 -0.1024555489 0.5168510675 4288573529
-0.2569261491 -0.1020725891 0.5178215504 4289099359
-0.2569698393 -0.1015145034 0.5179095268 4289230945
-0.2574511468 -0.1011281237 0.5188795924 4289231199
-0.2574944198 -0.1005685255 0.5189668536 4289296992
-0.2579754889 -0.1001787260 0.5199363828 4289165404
-0.2580184042 -0.0996176079 0.5200229287 4289494369
-0.2584992349 -0.0992243886 0.5209919810 4289691746
-0.2589799762 -0.0988289863 0.5219609141 4289823332
-0.2590223849 -0.0982651338 0.5220463276 4290349930
-0.2595028877 -0.0978663117 0.5230147839 4290613102
-0.2599833012 -0.0974653065 0.5239830017 4289691229
-0.2604636252 -0.0970621184 0.5249511003 4287980611
-0.2609438598 -0.0966567472 0.5259189606 4288901714
-0.2609853745 -0.0960877016 0.5260026455 4289362265
-0.2614653409 -0.0956789106 0.5269700289 4289625953
-0.2619452477 -0.0952679440 0.5279372334 4289823332
-0.2624250352 -0.0948547944 0.5289041996 4289889125
-0.2629047334 -0.0944394544 0.5298710465 4289889125
-0.2633843124 -0.0940219313 0.5308375955 4290151783
-0.2638638020 -0.0936022326 0.5318040252 4290217576
-0.2643432021 -0.0931803435 0.5327702165 4290020711
-0.2648224831 -0.0927562714 0.5337361693 4290020711
-0.2653016746 -0.0923300162 0.5347019434 4290020711
-0.2657807469 -0.0919015780 0.5356675386 4290020711
-0.2658203542 -0.0913200229 0.5357473493 4289889125
-0.2662991583 -0.0908881798 0.5367122889 4289757539
-0.2667778432 -0.0904541537 0.5376770496 4289823332
-0.2672564089 -0.0900179520 0.5386416316 4290020711
-0.2672952414 -0.0894324780 0.5387198329 4290217576
-0.2677735090 -0.0889928713 0.5396838188 4290480748
-0.2682516873 -0.0885510892 0.5406475067 4290218090
-0.2687297165 -0.0881071240 0.5416110158 4290020711
-0.2687677741 -0.0875177458 0.5416876674 4290020711
-0.2692455053 -0.0870703831 0.5426505208 4290086504
-0.2697231174 -0.0866208449 0.5436131358 4290218090
-0.2702006102 -0.0861691311 0.5445755124 4290283883
-0.2711181343 -0.0858546123 0.5464246869 4290218090
-0.2715954185 -0.0853975713 0.5473867059 4290152297
-0.2720726132 -0.0849383622 0.5483484268 4290087019
-0.2721093297 -0.0843404904 0.5484224558 4290021226
-0.2725861967 -0.0838778913 0.5493835211 4289955433
-0.2730629146 -0.0834131092 0.5503443480 4289955433
-0.2735395133 -0.0829461589 0.5513048768 4290087019
-0.2744565010 -0.0826096237 0.5531530380 4290350191
-0.2749328613 -0.0821373537 0.5541131496 4290154354
-0.2758497596 -0.0817935616 0.5559610724 4289956975
-0.2767666280 -0.0814456567 0.5578089356 4289827707
-0.2776834667 -0.0810936391 0.5596567988 4291011981
-0.2794818878 -0.0809930041 0.5632814765 4290620317
-0.2808396518 -0.0807575956 0.5660179257 4292199349
-0.3075098395 -0.1714436859 0.6211608052 4290888907
-0.3075810969 -0.1707931012 0.6213047504 4290757321
-0.3076521158 -0.1701420695 0.6214482188 4290757321
-0.3072918952 -0.1692531854 0.6207205653 4290888137
-0.3073623478 -0.1686021686 0.6208628416 4290756551
-0.3074325323 -0.1679506898 0.6210046411 4290559426
-0.3075025082 -0.1672987789 0.6211459637 4290493633
-0.3071408570 -0.1664126813 0.6204154491 4290492344
-0.3067787588 -0.1655279845 0.6196840405 4290558137
-0.3068477809 -0.1648765653 0.6198234558 4290555563
-0.3064849079 -0.1639937311 0.6190904975 4288976531
-0.3056898415 -0.1628822386 0.6174845099 4288446329
-0.3035985827 -0.1610865593 0.6132601500 4288446329
-0.2997782528 -0.1583867371 0.6055432558 4288707181
-0.2765136361 -0.1454743743 0.5585494041 4288312423
-0.2882424593 -0.1509980112 0.5822412372 4288113755
-0.2723126709 -0.1420419067 0.5500635505 4287653204
-0.2702104449 -0.1403389126 0.5458170772 4287587409
-0.2689718902 -0.1390919983 0.5433152914 4287653202
-0.2681651115 -0.1380729377 0.5416856408 4288112728
-0.2673577368 -0.1370572001 0.5400547981 4288244314
-0.2665497959 -0.1360447854 0.5384227037 4288112728
-0.2661740482 -0.1352556348 0.5376637578 4287915349
-0.2657979131 -0.1344679594 0.5369039178 4287783761
-0.2654213607 -0.1336817741 0.5361433625 4287915347
-0.2650444210 -0.1328970790 0.5353819132 4287915347
-0.2646670938 -0.1321138740 0.5346197486 4287717968
-0.2642893493 -0.1313321590 0.5338566899 4287389514
-0.2634778917 -0.1303375810 0.5322175622 4287126342
-0.2635326982 -0.1297732592 0.5323283076 4286994756
-0.2631537914 -0.1289960593 0.5315628648 4287126342
-0.2627744675 -0.1282203645 0.5307967067 4287192135
-0.2628284693 -0.1276568323 0.5309057832 4287126342
-0.2620146573 -0.1266735196 0.5292618871 4287192133
-0.2620680630 -0.1261111647 0.5293697119 4287323719
-0.2616872489 -0.1253406107 0.5286005139 4287061319
-0.2613060474 -0.1245715693 0.5278305411 4286929733
-0.2609244883 -0.1238040552 0.5270597339 4286994756
-0.2605425119 -0.1230380684 0.5262881517 4286928963
-0.2605944574 -0.1224777475 0.5263931155 4286534205
-0.2602117956 -0.1217138991 0.5256201625 4285942068
-0.2602632344 -0.1211538389 0.5257240534 4285876275
-0.2603144646 -0.1205934584 0.5258275270 4286139447
-0.2599307895 -0.1198323518 0.5250525475 4286665791
-0.2599815130 -0.1192722395 0.5251549482 4286928963
-0.2595971525 -0.1185132861 0.5243785977 4287060549
-0.2596473396 -0.1179534644 0.5244799852 4286994756
-0.2596973181 -0.1173933148 0.5245808959 4286994756
-0.2597470582 -0.1168328449 0.5246813893 4286928963
-0.2593614161 -0.1160772890 0.5239024162 4286731584
-0.2589753866 -0.1153232977 0.5231226087 4286402619
-0.2590242922 -0.1147637442 0.5232214332 4286073654
-0.2586375773 -0.1140119433 0.5224403143 4286205240
-0.2586860061 -0.1134527028 0.5225380659 4286534205
-0.2582986057 -0.1127030924 0.5217555165 4286928963
-0.2579108179 -0.1119550541 0.5209722519 4287126342
-0.2579583824 -0.1113967597 0.5210683346 4287192135
-0.2575699389 -0.1106509343 0.5202836990 4287257669
-0.2571811080 -0.1099066958 0.5194982290 4287257669
-0.2567918599 -0.1091640294 0.5187119842 4287323462
-0.2568383217 -0.1086073518 0.5188058615 4287389255
-0.2564484179 -0.1078669205 0.5180182457 4287520328
-0.2564943731 -0.1073105857 0.5181110501 4287520328
-0.2565400898 -0.1067539528 0.5182034373 4287520328
-0.2561492026 -0.1060164124 0.5174138546 4287586121
-0.2561944127 -0.1054601371 0.5175051689 4287782985
-0.2558028698 -0.1047248542 0.5167142153 4287651399
-0.2558475435 -0.1041689366 0.5168044567 4287322949
-0.2558919787 -0.1036127284 0.5168942809 4287388742
-0.2559362352 -0.1030562297 0.5169836283 4287455048
-0.2564170659 -0.1026743576 0.5179548860 4287849806
-0.2564609051 -0.1021163389 0.5180434585 4288375636
-0.2565045357 -0.1015580297 0.5181316137 4288441429
-0.2565479577 -0.1009994447 0.5182192922 4288310097
-0.2570282817 -0.1006116793 0.5191895366 4288375890
-0.2570713162 -0.1000515670 0.5192764401 4288441681
-0.2575513721 -0.0996603817 0.5202462077 4289099611
-0.2575940192 -0.0990987569 0.5203323364 4289494367
-0.2580738664 -0.0987041518 0.5213016272 4289362781
-0.2585536242 -0.0983073637 0.5222706795 4289626207
-0.2590332925 -0.0979083851 0.5232396126 4290284137
-0.2595128715 -0.0975072235 0.5242083669 4290613102
-0.2599923611 -0.0971038789 0.5251769423 4290481516
-0.2604717910 -0.0966983438 0.5261452794 4289691746
-0.2609511018 -0.0962906256 0.5271134973 4289494367
-0.2614302933 -0.0958807170 0.5280815363 4289560160
-0.2619094253 -0.0954686254 0.5290493369 4289889125
-0.2623884678 -0.0950543508 0.5300169587 4289823332
-0.2628673911 -0.0946378931 0.5309844017 4289823332
-0.2633462250 -0.0942192450 0.5319516063 4290086504
-0.2638249397 -0.0937984139 0.5329186320 4290020711
-0.2643035650 -0.0933753923 0.5338854194 4289954918
-0.2643437088 -0.0927963033 0.5339665413 4289954918
-0.2648220658 -0.0923698768 0.5349327922 4290020711
-0.2653003335 -0.0919412673 0.5358988047 4290086504
-0.2657784522 -0.0915104747 0.5368646383 4290020711
-0.2658178508 -0.0909274518 0.5369442105 4289954918
-0.2662957013 -0.0904932469 0.5379094481 4290086504
-0.2667734325 -0.0900568664 0.5388744473 4290283883
-0.2672510743 -0.0896183029 0.5398392677 4290086504
-0.2672896683 -0.0890313685 0.5399172306 4290481262
-0.2677670121 -0.0885894001 0.5408814549 4290218090
-0.2682442069 -0.0881452560 0.5418454409 4289954918
-0.2687213123 -0.0876989290 0.5428091288 4289955431
-0.2687591314 -0.0871080905 0.5428855419 4289955431
-0.2692359388 -0.0866583735 0.5438486338 4289889638
-0.2697125971 -0.0862064660 0.5448114872 4289955431
-0.2706284821 -0.0858918205 0.5466615558 4290021224
-0.2711049318 -0.0854346007 0.5476239920 4290087017
-0.2715812922 -0.0849751905 0.5485861897 4290087019
-0.2720575035 -0.0845136121 0.5495481491 4290021226
-0.2725335956 -0.0840498507 0.5505098104 4289889640
-0.2730095387 -0.0835839063 0.5514712334 4289955433
-0.2734853625 -0.0831157938 0.5524323583 4290218605
-0.2739610374 -0.0826454982 0.5533932447 4290547570
-0.2748763859 -0.0823047161 0.5552421808 4290089077
-0.2753518522 -0.0818291008 0.5562026501 4290023284
-0.2762670815 -0.0814810544 0.5580513477 4290025602
-0.2776222527 -0.0812576711 0.5607888103 4290815118
-0.2789775133 -0.0810282230 0.5635263920 4290555039
-0.2803328633 -0.0807927102 0.5662640929 4293055173
-0.3060165346 -0.1716831177 0.6195343137 4290823114
-0.3060877621 -0.1710345745 0.6196784973 4290625735
-0.3061587512 -0.1703855693 0.6198222041 4290428356
-0.3057993948 -0.1694977134 0.6190947294 4290362563
-0.3058697879 -0.1688487232 0.6192372441 4290559172
-0.3059399724 -0.1681992859 0.6193793416 4290559172
-0.3055795133 -0.1673137546 0.6186495423 4290230461
-0.3056491017 -0.1666643322 0.6187904477 4290033082
-0.3057184517 -0.1660144776 0.6189308763 4290097586
-0.3057875931 -0.1653641760 0.6190707684 4290031793
-0.3054256737 -0.1644814461 0.6183381081 4290226852
-0.3050633371 -0.1636001170 0.6176045537 4289239957
-0.3042695820 -0.1624900252 0.6159975529 4288709499
-0.3030441403 -0.1611539274 0.6135166287 4288380534
-0.3000932038 -0.1589096487 0.6075424552 4288641388
-0.2911029756 -0.1534942240 0.5893416405 4288378216
-0.2773635983 -0.1456257552 0.5615261197 4287916376
-0.2726784647 -0.1425525397 0.5520409942 4287258446
-0.2701487541 -0.1406223774 0.5469195247 4287258444
-0.2689126432 -0.1393740326 0.5444170237 4287653202
-0.2681074739 -0.1383536607 0.5427869558 4288046935
-0.2673017085 -0.1373365968 0.5411556959 4288178521
-0.2664953768 -0.1363228559 0.5395231843 4288046935
-0.2656884491 -0.1353124380 0.5378895998 4287915349
-0.2653130293 -0.1345244646 0.5371295810 4287915349
-0.2653694153 -0.1339561343 0.5372437239 4287981142
-0.2649933100 -0.1331702173 0.5364822745 4288046933
-0.2641844153 -0.1321694553 0.5348446965 4287915347
-0.2633749545 -0.1311720610 0.5332058668 4287586895
-0.2638625801 -0.1308213919 0.5341930985 4287257930
-0.2630522549 -0.1298279315 0.5325525403 4286994756
-0.2626740634 -0.1290504187 0.5317869186 4287060549
-0.2631611526 -0.1286977679 0.5327730179 4287126342
-0.2623494267 -0.1277106851 0.5311297178 4287126342
-0.2619701624 -0.1269367784 0.5303618312 4287126340
-0.2615904808 -0.1261644065 0.5295932293 4287323719
-0.2616436183 -0.1256014854 0.5297007561 4287257928
-0.2612632513 -0.1248312145 0.5289307237 4287126342
-0.2608824968 -0.1240624636 0.5281598568 4287060549
-0.2605013251 -0.1232952476 0.5273882151 4286928963
-0.2601197958 -0.1225295588 0.5266157985 4286665791
-0.2601715028 -0.1219686866 0.5267204642 4286336826
-0.2602229714 -0.1214074790 0.5268246531 4286336826
-0.2598404288 -0.1206445247 0.5260502100 4286468412
-0.2594575286 -0.1198831201 0.5252749920 4286665791
-0.2595081627 -0.1193227917 0.5253775716 4286863170
-0.2595586181 -0.1187621355 0.5254796743 4286994756
-0.2591747046 -0.1180034950 0.5247024298 4286994756
-0.2592246234 -0.1174431294 0.5248035192 4286928963
-0.2592743039 -0.1168824360 0.5249041319 4286863170
-0.2588894069 -0.1161265820 0.5241248608 4286665278
-0.2585041225 -0.1153722852 0.5233448744 4286270520
-0.2585529983 -0.1148125157 0.5234438181 4285613873
-0.2581670284 -0.1140604094 0.5226624012 4285877045
-0.2577807009 -0.1133098751 0.5218802691 4286337596
-0.2578287423 -0.1127510369 0.5219775438 4286732354
-0.2574416995 -0.1120027006 0.5211939812 4287060549
-0.2574892342 -0.1114441901 0.5212901831 4287126342
-0.2571015358 -0.1106980667 0.5205052495 4287192133
-0.2571485341 -0.1101398841 0.5206004381 4287192133
-0.2567601502 -0.1093959808 0.5198141336 4287126083
-0.2563713789 -0.1086536646 0.5190270543 4287191876
-0.2564175725 -0.1080964580 0.5191205740 4287191876
-0.2560281157 -0.1073563769 0.5183321238 4287191876
-0.2560738027 -0.1067995206 0.5184246302 4287388742
-0.2556836605 -0.1060616821 0.5176348090 4287388742
-0.2557288110 -0.1055051833 0.5177261829 4287322949
-0.2553380132 -0.1047696024 0.5169350505 4287257156
-0.2553826571 -0.1042134613 0.5170254111 4287191622
-0.2554270625 -0.1036570296 0.5171152949 4287191622
-0.2554712594 -0.1031003147 0.5172047615 4287257158
-0.2559512556 -0.1027182937 0.5181764960 4287388744
-0.2559950650 -0.1021600515 0.5182652473 4287651914
-0.2560386658 -0.1016015187 0.5183534622 4287717707
-0.2560820282 -0.1010427028 0.5184412599 4287717706
-0.2565615177 -0.1006547883 0.5194119811 4287783499
-0.2566044927 -0.1000944525 0.5194990039 4288178511
-0.2570837438 -0.0997031108 0.5204692483 4288704855
-0.2571263611 -0.0991412625 0.5205554962 4288968025
-0.2576053441 -0.0987465009 0.5215252638 4289231197
-0.2580842674 -0.0983495563 0.5224948525 4289691746
-0.2585631013 -0.0979504213 0.5234642625 4289889125
-0.2590418458 -0.0975491032 0.5244334936 4290086504
-0.2595205307 -0.0971455947 0.5254025459 4290481262
-0.2599990964 -0.0967398956 0.5263714194 4290218092
-0.2604775727 -0.0963320211 0.5273401141 4289691748
-0.2609559596 -0.0959219486 0.5283085704 4289691746
-0.2614342272 -0.0955096930 0.5292769074 4289954918
-0.2619124353 -0.0950952545 0.5302450061 4289823332
-0.2623905241 -0.0946786255 0.5312129259 4289757539
-0.2628685236 -0.0942598060 0.5321806073 4289954920
-0.2633464336 -0.0938388109 0.5331481099 4289757541
-0.2642617524 -0.0935705379 0.5350012183 4289889640
-0.2643018961 -0.0929902494 0.5350825191 4289889640
-0.2647795081 -0.0925626904 0.5360494256 4289955431
-0.2648192644 -0.0919809118 0.5361298919 4290021224
-0.2652965486 -0.0915499404 0.5370962024 4290021224
-0.2657737434 -0.0911167935 0.5380622745 4290021224
-0.2658129334 -0.0905323029 0.5381416082 4290152812
-0.2662898302 -0.0900957510 0.5391070843 4290350191
-0.2667666376 -0.0896570086 0.5400723815 4290021226
-0.2672432959 -0.0892160833 0.5410374403 4290415984
-0.2677198648 -0.0887729749 0.5420022607 4290284398
-0.2681963146 -0.0883276835 0.5429667830 4290021226
-0.2686726451 -0.0878802091 0.5439311266 4290152812
-0.2687104940 -0.0872881562 0.5440077782 4290021226
-0.2691865265 -0.0868372843 0.5449714661 4289955433
-0.2701008916 -0.0865246952 0.5468226075 4289889640
-0.2705767155 -0.0860684961 0.5477859378 4290021226
-0.2710524201 -0.0856101140 0.5487490296 4290087019
-0.2715280056 -0.0851495489 0.5497118235 4290218605
