VERSION 0.7
FIELDS x y z rgba
SIZE 4 4 4 4
TYPE F F F U
COUNT 1 1 1 1
WIDTH 920
HEIGHT 1
VIEWPOINT 0.0 0.0 0.0 1.0 0.0 0.0 0.0
POINTS 920
DATA ascii
-0.3820399046 -0.1034154221 0.4575759768 4279252882
-0.3820946515 -0.1029217690 0.4576415420 4279581847
-0.3821491599 -0.1024279073 0.4577068388 4279647894
-0.3822034299 -0.1019338295 0.4577718377 4279647894
-0.3828892708 -0.1016072184 0.4585932791 4279581847
-0.3829431236 -0.1011119038 0.4586577713 4279779226
-0.3829967082 -0.1006163880 0.4587219656 4279581331
-0.3830500841 -0.1001206636 0.4587858915 4279647124
-0.3837353587 -0.0997891277 0.4596066773 4279516569
-0.3844205737 -0.0994557440 0.4604273736 4279713948
-0.3844733834 -0.0989577621 0.4604905844 4279844494
-0.3851583600 -0.0986215174 0.4613110125 4279318150
-0.3787219822 -0.1177935153 0.4542062879 4278856811
-0.3762711287 -0.1165298373 0.4512669146 4278791018
-0.3819866776 -0.1177909225 0.4581216872 4278725236
-0.3839336336 -0.1178796887 0.4604566693 4278725236
-0.3846240044 -0.1175791323 0.4612846375 4278725233
-0.3853143454 -0.1172767282 0.4621125758 4278791026
-0.3853759766 -0.1167819574 0.4621864855 4278791026
-0.3854373395 -0.1162869558 0.4622600973 4278791026
-0.3848696053 -0.1156028286 0.4615792036 4278594417
-0.3843014538 -0.1149200723 0.4608978033 4278594417
-0.3837328255 -0.1142387092 0.4602158368 4278528625
-0.3831637800 -0.1135587245 0.4595333934 4278594418
-0.3832235634 -0.1130657867 0.4596050680 4278594418
-0.3826537430 -0.1123877689 0.4589216709 4278594418
-0.3827129304 -0.1118951812 0.4589926600 4278725750
-0.3821423352 -0.1112191379 0.4583083391 4278791543
-0.3822009563 -0.1107269078 0.4583786428 4278857336
-0.3822593391 -0.1102344543 0.4584486485 4278923129
-0.3823174536 -0.1097417697 0.4585183859 4278988924
-0.3817453980 -0.1090688854 0.4578323066 4278923131
-0.3818029761 -0.1085765660 0.4579013288 4278923393
-0.3818602860 -0.1080840230 0.4579700530 4278989186
-0.3812870979 -0.1074137166 0.4572826624 4279054978
-0.3813438416 -0.1069215536 0.4573507011 4279120771
-0.3814003170 -0.1064291671 0.4574184418 4279121029
-0.3814565539 -0.1059365571 0.4574858844 4279121029
-0.3808819652 -0.1052694470 0.4567967653 4279186572
-0.3815683126 -0.1049506962 0.4576199055 4279186572
-0.3816238046 -0.1044574380 0.4576864839 4278989712
-0.3816790879 -0.1039639711 0.4577527344 4279055505
-0.3817341030 -0.1034702808 0.4578187168 4279581851
-0.3817888498 -0.1029763892 0.4578844011 4279581851
-0.3818433881 -0.1024822742 0.4579497874 4279516058
-0.3818976581 -0.1019879580 0.4580148757 4279450265
-0.3819516897 -0.1014934257 0.4580796957 4279318936
-0.3826368749 -0.1011656225 0.4589014351 4279516315
-0.3826904893 -0.1006698608 0.4589657485 4279712406
-0.3827438653 -0.1001738831 0.4590297639 4279580820
-0.3834286630 -0.0998421833 0.4598510563 4279581849
-0.3841134012 -0.0995086432 0.4606722593 4279910814
-0.3841661811 -0.0990104154 0.4607355893 4279975567
-0.3848506808 -0.0986739993 0.4615564942 4279449223
-0.3784162700 -0.1178554147 0.4544449747 4278856811
-0.3753398061 -0.1163964495 0.4507503808 4278791018
-0.3816784620 -0.1178528592 0.4583625793 4278659189
-0.3836238980 -0.1179416925 0.4606988728 4278724982
-0.3843137920 -0.1176410019 0.4615273774 4278528625
-0.3850036263 -0.1173384562 0.4623557925 4278594418
-0.3850652575 -0.1168434471 0.4624298215 4278594418
-0.3851266801 -0.1163482070 0.4625035524 4278594418
-0.3845594525 -0.1156637296 0.4618223906 4278594418
-0.3839918077 -0.1149806380 0.4611406922 4278594418
-0.3834237158 -0.1142989323 0.4604584575 4278528371
-0.3834838569 -0.1138051748 0.4605306983 4278528371
-0.3829149902 -0.1131254286 0.4598475397 4278528371
-0.3823456764 -0.1124470755 0.4591638446 4278594164
-0.3824048936 -0.1119542494 0.4592349529 4278725752
-0.3824638724 -0.1114611924 0.4593057632 4278857338
-0.3818934560 -0.1107853949 0.4586207569 4278923131
-0.3819518387 -0.1102926955 0.4586908817 4278988924
-0.3820099831 -0.1097997725 0.4587607086 4278988924
-0.3814384639 -0.1091265455 0.4580743313 4278923131
-0.3814960122 -0.1086339802 0.4581434727 4278857346
-0.3815533519 -0.1081411988 0.4582123160 4278923139
-0.3809807003 -0.1074705571 0.4575246274 4279054979
-0.3810374439 -0.1069781408 0.4575927556 4279186565
-0.3810939491 -0.1064855158 0.4576606154 4279186311
-0.3811501861 -0.1059926599 0.4577281773 4279186311
-0.3805761039 -0.1053252146 0.4570387602 4279186826
-0.3812619746 -0.1050063074 0.4578624070 4279252619
-0.3813174963 -0.1045128107 0.4579290748 4279252366
-0.3813727796 -0.1040190905 0.4579954445 4279383952
-0.3814277947 -0.1035251617 0.4580615461 4279647642
-0.3821131289 -0.1032013148 0.4588845670 4279647642
-0.3821677566 -0.1027061418 0.4589501619 4279713182
-0.3822221458 -0.1022107601 0.4590154588 4279581596
-0.3822762668 -0.1017151624 0.4590804875 4279779236
-0.3823301494 -0.1012193561 0.4591451883 4279581857
-0.3830147684 -0.1008895487 0.4599673748 4279515027
-0.3830682635 -0.1003925130 0.4600315988 4279515027
-0.3831214905 -0.0998952612 0.4600954950 4279646872
-0.3838057220 -0.0995615572 0.4609172046 4279910044
-0.3844898641 -0.0992260054 0.4617388248 4279910028
-0.3845425248 -0.0987264961 0.4618020356 4279515270
-0.3781100810 -0.1179173291 0.4546837211 4278856811
-0.3781718910 -0.1174313426 0.4547580481 4278791018
-0.3807425201 -0.1177208722 0.4578492641 4278659189
-0.3833136857 -0.1180037186 0.4609411359 4278659189
-0.3840030730 -0.1177028865 0.4617701471 4278659441
-0.3846924305 -0.1174001992 0.4625990987 4278593648
-0.3847540915 -0.1169049516 0.4626732469 4278593648
-0.3848154843 -0.1164094657 0.4627470970 4278593648
-0.3842488229 -0.1157246530 0.4620656371 4278593648
-0.3836816847 -0.1150412187 0.4613836706 4278659441
-0.3831141293 -0.1143591702 0.4607011676 4278528371
-0.3831742704 -0.1138651744 0.4607734978 4278528371
-0.3826059103 -0.1131850928 0.4600900412 4278594164
-0.3820371330 -0.1125063971 0.4594060779 4278659957
-0.3820963800 -0.1120133251 0.4594773054 4278659959
-0.3821553588 -0.1115200296 0.4595482349 4278791545
-0.3815854490 -0.1108438894 0.4588629007 4278857338
-0.3816438615 -0.1103509516 0.4589331448 4278923131
-0.3817020357 -0.1098577827 0.4590030909 4278923131
-0.3811310232 -0.1091842204 0.4583164454 4278988924
-0.3811886013 -0.1086914167 0.4583856761 4278988673
-0.3812459409 -0.1081983894 0.4584546387 4279120259
-0.3800446093 -0.1073496789 0.4570100009 4279186565
-0.3801012635 -0.1068578362 0.4570781589 4279252358
-0.3801576793 -0.1063657701 0.4571459889 4279252358
-0.3802138567 -0.1058734953 0.4572135508 4279318151
-0.3802697957 -0.1053809971 0.4572808146 4279252870
-0.3809551597 -0.1050619408 0.4581049681 4279187077
-0.3810106814 -0.1045681909 0.4581717551 4279384456
-0.3810659647 -0.1040742323 0.4582382441 4279384456
-0.3811210096 -0.1035800576 0.4583044350 4279319180
-0.3818058670 -0.1032560542 0.4591279626 4279713938
-0.3818604946 -0.1027606353 0.4591936469 4280042400
-0.3819148839 -0.1022650003 0.4592590630 4279779228
-0.3819690347 -0.1017691568 0.4593241811 4280239528
-0.3820229173 -0.1012731045 0.4593889713 4279778977
-0.3820765913 -0.1007768363 0.4594534934 4279646613
-0.3827605546 -0.1004458442 0.4602759778 4279909785
-0.3828137815 -0.0999483466 0.4603400230 4279910298
-0.3834975362 -0.0996144786 0.4611622095 4279910298
-0.3841812015 -0.0992787629 0.4619843364 4279975051
-0.3842338622 -0.0987790078 0.4620476663 4279580293
-0.3778033853 -0.1179792657 0.4549224973 4278725738
-0.3803718090 -0.1182724312 0.4580152035 4278659945
-0.3823140562 -0.1183648631 0.4603539109 4278593137
-0.3836298287 -0.1182589829 0.4619382620 4278593137
-0.3836918771 -0.1177647859 0.4620129764 4278659440
-0.3843807280 -0.1174619570 0.4628424644 4278659440
-0.3838152587 -0.1167756617 0.4621615410 4278659440
-0.3845038414 -0.1164707467 0.4629906714 4278659440
-0.3839376569 -0.1157855913 0.4623089433 4278593647
-0.3827436268 -0.1149134338 0.4608711600 4278593647
-0.3821764886 -0.1142318547 0.4601882398 4278528625
-0.3822365403 -0.1137384251 0.4602605700 4278594418
-0.3816686273 -0.1130588129 0.4595767260 4278594418
-0.3817281127 -0.1125657335 0.4596483707 4278660211
-0.3817873597 -0.1120724231 0.4597196877 4278725750
-0.3818463385 -0.1115788817 0.4597907364 4278791543
-0.3819051087 -0.1110851094 0.4598614872 4278923129
-0.3807071745 -0.1102273241 0.4584190249 4278923129
-0.3807652295 -0.1097347289 0.4584889412 4278923131
-0.3801946640 -0.1090616360 0.4578019083 4278923131
-0.3802521527 -0.1085694060 0.4578711390 4279251595
-0.3803094327 -0.1080769524 0.4579400718 4279448974
-0.3797377348 -0.1074064448 0.4572516978 4279383439
-0.3797944188 -0.1069143638 0.4573199451 4279317646
-0.3798508346 -0.1064220592 0.4573878944 4279383439
-0.3799070418 -0.1059295312 0.4574555457 4279515025
-0.3799629807 -0.1054367945 0.4575229287 4279515278
-0.3806478381 -0.1051175818 0.4583475888 4279449485
-0.3807033896 -0.1046235934 0.4584144652 4279581582
-0.3807587028 -0.1041293815 0.4584810734 4279647375
-0.3808137476 -0.1036349609 0.4585473537 4279647123
-0.3814980984 -0.1033108011 0.4593713880 4280173467
-0.3815527558 -0.1028151363 0.4594372213 4280108193
-0.3816071451 -0.1023192555 0.4595027268 4279845021
-0.3816613257 -0.1018231660 0.4595679343 4280502700
-0.3817152381 -0.1013268605 0.4596328437 4280239528
-0.3817688823 -0.1008303538 0.4596974552 4279647126
-0.3818222880 -0.1003336310 0.4597617686 4279976091
-0.3825056255 -0.1000014469 0.4605845809 4280107677
-0.3825586140 -0.0995034948 0.4606484175 4280107677
-0.3832417130 -0.0991684347 0.4614709318 4279975051
-0.3839247227 -0.0988315269 0.4622933567 4279448707
-0.3781222701 -0.1182369664 0.4559161961 4278726253
-0.3819410205 -0.1189194024 0.4605206251 4278726253
-0.3801246583 -0.1178446263 0.4583305418 4278856307
-0.3808127642 -0.1175477952 0.4591602683 4278790514
-0.3827537596 -0.1176341698 0.4615005553 4278922612
-0.3834420145 -0.1173320189 0.4623304307 4278988405
-0.3835035861 -0.1168370917 0.4624046683 4278988405
-0.3835649490 -0.1163419336 0.4624786377 4278988405
-0.3829991817 -0.1156572476 0.4617965221 4278988406
-0.3824330270 -0.1149739474 0.4611138403 4278988406
-0.3818663955 -0.1142920256 0.4604306519 4278857590
-0.3812993467 -0.1136114970 0.4597469270 4278923383
-0.3813590705 -0.1131184027 0.4598189592 4278857336
-0.3814185858 -0.1126250774 0.4598906934 4278988922
-0.3814778328 -0.1121315286 0.4599621594 4279054717
-0.3809093237 -0.1114541292 0.4592766762 4279186303
-0.3809680045 -0.1109609306 0.4593474269 4279252609
-0.3810264468 -0.1104675010 0.4594178796 4279252609
-0.3804568052 -0.1097926721 0.4587310553 4279186562
-0.3805146515 -0.1092996076 0.4588008225 4279252355
-0.3799442649 -0.1086267680 0.4581130743 4279712404
-0.3800015450 -0.1081340685 0.4581821263 4280172955
-0.3794303834 -0.1074632332 0.4574934542 4280501924
-0.3794870675 -0.1069709063 0.4575617909 4280501924
-0.3795435131 -0.1064783558 0.4576298594 4280436131
-0.3795997202 -0.1059855893 0.4576976299 4280633510
-0.3796556592 -0.1054925993 0.4577651024 4280633508
-0.3797113895 -0.1049994007 0.4578322768 4280501922
-0.3797668517 -0.1045059785 0.4578991532 4280107677
-0.3798220754 -0.1040123403 0.4579657316 4280041884
-0.3798770607 -0.1035184935 0.4580320418 4279844251
-0.3805608153 -0.1031949967 0.4588564634 4279910044
-0.3806153834 -0.1026999056 0.4589222670 4280436642
-0.3806697130 -0.1022045910 0.4589877725 4281949881
-0.3807238042 -0.1017090753 0.4590529799 4282476223
-0.3807776570 -0.1012133434 0.4591178894 4281686707
-0.3808312416 -0.1007174030 0.4591825008 4280502435
-0.3808845580 -0.1002212539 0.4592468143 4280436642
-0.3809376657 -0.0997248963 0.4593108296 4280568228
-0.3822499812 -0.0995563567 0.4608931541 4280765607
-0.3829325736 -0.0992211401 0.4617161751 4280435602
-0.3829851747 -0.0987216979 0.4617795944 4279514500
-0.3778760731 -0.1178115308 0.4562303424 4279055477
-0.3816921711 -0.1184892580 0.4608376920 4279317113
-0.3823800981 -0.1181898713 0.4616682827 4279251320
-0.3824420869 -0.1176959947 0.4617431164 4279251578
-0.3831298351 -0.1173937023 0.4625734985 4279317371
-0.3831914365 -0.1168985441 0.4626478553 4279251578
-0.3826265633 -0.1162129417 0.4619658589 4279317371
-0.3826875687 -0.1157181114 0.4620395303 4279383680
-0.3814955056 -0.1148458868 0.4606002569 4279383680
-0.3815558255 -0.1143522114 0.4606731236 4279252094
-0.3809893131 -0.1136713400 0.4599891007 4279317887
-0.3810490668 -0.1131780073 0.4600612521 4279384195
-0.3811085820 -0.1126844436 0.4601331055 4279515781
-0.3811678290 -0.1121906489 0.4602046609 4279581320
-0.3805998564 -0.1115129143 0.4595189095 4279647113
-0.3806585371 -0.1110194698 0.4595897794 4279778701
-0.3807169795 -0.1105258018 0.4596603215 4279844494
-0.3801478744 -0.1098506376 0.4589732289 4279844494
-0.3802057505 -0.1093573272 0.4590430856 4279910287
-0.3802633882 -0.1088637933 0.4591126740 4280173460
-0.3796931803 -0.1081912071 0.4584242105 4281160355
-0.3791225255 -0.1075200289 0.4577352405 4282081203
-0.3791792393 -0.1070274562 0.4578036964 4282278582
-0.3792356849 -0.1065346673 0.4578718841 4282212791
-0.3792918921 -0.1060416549 0.4579397440 4282212791
-0.3793478906 -0.1055484265 0.4580073357 4282081207
-0.3794036210 -0.1050549746 0.4580746293 4281752242
-0.3794590831 -0.1045613140 0.4581415951 4281357229
-0.3795143366 -0.1040674299 0.4582082927 4280896678
-0.3795693219 -0.1035733372 0.4582746923 4280699812
-0.3802525997 -0.1032496840 0.4590996206 4281226156
-0.3803071678 -0.1027543396 0.4591655433 4284055759
-0.3803615272 -0.1022587866 0.4592311680 4288727039
-0.3804156184 -0.1017630175 0.4592964649 4289648383
-0.3804694712 -0.1012670398 0.4593614936 4288003583
-0.3805230558 -0.1007708535 0.4594261944 4282805190
-0.3805764318 -0.1002744511 0.4594906271 4282081467
-0.3806295097 -0.0997778475 0.4595547318 4281949881
-0.3813115954 -0.0994451344 0.4603782296 4282015674
-0.3813642859 -0.0989472941 0.4604418576 4281356704
-0.3820461333 -0.0986117050 0.4612650871 4279909258
-0.3819432259 -0.1192394495 0.4617600441 4279581045
-0.3801300526 -0.1181627810 0.4595679641 4279513720
-0.3801919818 -0.1176713333 0.4596428275 4279645306
-0.3827553391 -0.1179505661 0.4627418518 4279646335
-0.3834426999 -0.1176473275 0.4635728598 4279646335
-0.3835044205 -0.1171511188 0.4636474848 4279581312
-0.3829401731 -0.1164643615 0.4629653096 4279647105
-0.3823754787 -0.1157789975 0.4622826278 4279712899
-0.3824362755 -0.1152836904 0.4623561203 4279712899
-0.3818708062 -0.1146002784 0.4616724849 4279843715
-0.3813048899 -0.1139182597 0.4609883130 4279909508
-0.3813647628 -0.1134238765 0.4610606730 4279712899
-0.3807980716 -0.1127438247 0.4603755772 4279318141
-0.3808573484 -0.1122497842 0.4604472518 4279449984
-0.3802898824 -0.1115717068 0.4597612023 4279647363
-0.3803485930 -0.1110780239 0.4598321617 4279581570
-0.3804070652 -0.1105841175 0.4599028528 4279713156
-0.3798384666 -0.1099086106 0.4592154622 4279910278
-0.3798963428 -0.1094150543 0.4592854381 4279910278
-0.3799539804 -0.1089212820 0.4593551159 4279910288
-0.3800113797 -0.1084272787 0.4594244957 4281226148
-0.3794413507 -0.1077549532 0.4587353468 4282476223
-0.3794981837 -0.1072613224 0.4588040411 4283134153
-0.3795547485 -0.1067674682 0.4588724375 4283528910
-0.3789836168 -0.1060977355 0.4581819475 4283397324
-0.3790395856 -0.1056042612 0.4582496285 4282937023
-0.3790953457 -0.1051105708 0.4583170116 4282805437
-0.3797785640 -0.1047898680 0.4591430128 4282081464
-0.3792060912 -0.1041225344 0.4584509134 4281160362
-0.3792611063 -0.1036281958 0.4585174024 4281225906
-0.3799438775 -0.1033043861 0.4593428671 4281686457
-0.3799984753 -0.1028087959 0.4594088793 4283331783
-0.3800528347 -0.1023129970 0.4594745934 4287739903
-0.3801069260 -0.1018169820 0.4595400095 4289517311
-0.3801608086 -0.1013207510 0.4596051276 4288464639
-0.3802144229 -0.1008243188 0.4596699476 4284646622
-0.3802677691 -0.1003276706 0.4597344697 4282146488
-0.3803209066 -0.0998308137 0.4597986937 4281621167
-0.3810024858 -0.0994979367 0.4606226981 4281950132
-0.3816839755 -0.0991632119 0.4614466429 4281751460
-0.3817365170 -0.0986640900 0.4615101516 4280632979
-0.3771963120 -0.1184231937 0.4566343129 4279975801
-0.3766337335 -0.1177399680 0.4559532106 4279646836
-0.3798188865 -0.1182248145 0.4598091841 4279579252
-0.3823800385 -0.1185076833 0.4629097283 4279776631
-0.3824421465 -0.1180125251 0.4629849195 4280304006
-0.3831290305 -0.1177091449 0.4638164639 4280567178
-0.3831907511 -0.1172126904 0.4638911784 4280501898
-0.3832522333 -0.1167160049 0.4639656246 4280238726
-0.3826881945 -0.1160294786 0.4632827640 4280435851
-0.3821236789 -0.1153443456 0.4625993669 4281027988
-0.3815587461 -0.1146605909 0.4619154334 4281225367
-0.3816189468 -0.1141653880 0.4619883597 4281027988
-0.3810532391 -0.1134836078 0.4613034725 4280172680
-0.3811128736 -0.1129887477 0.4613756835 4279119992
-0.3805463612 -0.1123089343 0.4606898725 4278923129
-0.3806054294 -0.1118144244 0.4607613683 4279581059
-0.3806642294 -0.1113196835 0.4608325660 4279844233
-0.3807228208 -0.1108247191 0.4609034956 4279844233
-0.3801548481 -0.1101480573 0.4602159262 4279778440
-0.3795864582 -0.1094728038 0.4595278203 4279712647
-0.3796441257 -0.1089787856 0.4595976174 4279449475
-0.3797015250 -0.1084845364 0.4596671164 4279975819
-0.3791320324 -0.1078118682 0.4589776695 4280633498
-0.3791888654 -0.1073179990 0.4590464532 4280896670
-0.3792454302 -0.1068238989 0.4591149688 4280568218
-0.3793017864 -0.1063295826 0.4591831565 4280041874
-0.3787308335 -0.1056601182 0.4584919810 4280239252
-0.3787865937 -0.1051661745 0.4585594833 4281160354
-0.3794693053 -0.1048453227 0.4593859911 4281028519
-0.3795246780 -0.1043501273 0.4594530165 4280567968
-0.3789523840 -0.1036830619 0.4587602019 4280370087
-0.3796346486 -0.1033591032 0.4595861435 4280238501
-0.3796892762 -0.1028632671 0.4596522748 4279975326
-0.3797436357 -0.1023672149 0.4597180784 4281225393
-0.3797977567 -0.1018709540 0.4597836137 4282410422
-0.3798516393 -0.1013744771 0.4598488212 4282147250
-0.3799052536 -0.1008777916 0.4599137604 4281488558
-0.3799586296 -0.1003808975 0.4599783719 4280699042
-0.3806398809 -0.1000488922 0.4608030915 4280436639
-0.3806928694 -0.0995507538 0.4608672261 4280962983
-0.3820021749 -0.0993793234 0.4624522626 4281290913
-0.3820548058 -0.0988791287 0.4625159800 4280764569
-0.3819414079 -0.1195599735 0.4630012512 4279580786
-0.3801314533 -0.1184814051 0.4608071744 4279512946
-0.3820663691 -0.1185698956 0.4631527364 4279776118
-0.3827528954 -0.1182674319 0.4639849663 4280369281
-0.3834393620 -0.1179630980 0.4648171365 4280698246
-0.3835012019 -0.1174655929 0.4648920894 4280633223
-0.3835628033 -0.1169678494 0.4649667740 4280435844
-0.3829993606 -0.1162801832 0.4642837644 4280764555
-0.3824355006 -0.1155938879 0.4636001885 4281619864
-0.3818711638 -0.1149089858 0.4629161060 4281948833
-0.3819315135 -0.1144127324 0.4629892409 4281685661
-0.3813664019 -0.1137297973 0.4623042345 4280303753
-0.3814261556 -0.1132338792 0.4623766541 4278987893
-0.3808602989 -0.1125529185 0.4616906941 4278856568
-0.3809194565 -0.1120573506 0.4617623985 4279909256
-0.3803527951 -0.1113783643 0.4610754848 4280698774
-0.3804113865 -0.1108831540 0.4611465037 4281027739
-0.3798439503 -0.1102061570 0.4604586661 4281027739
-0.3799019456 -0.1097113043 0.4605289698 4280896153
-0.3793337643 -0.1090362966 0.4598401785 4280765083
-0.3793911636 -0.1085418090 0.4599097967 4280830876
-0.3794483542 -0.1080470979 0.4599790871 4281028256
-0.3788790405 -0.1073746905 0.4592889547 4281028256
-0.3789356351 -0.1068803445 0.4593575597 4280567705
-0.3789919913 -0.1063857898 0.4594258666 4280041361
-0.3790481091 -0.1058910042 0.4594938755 4280567705
-0.3791039586 -0.1053960025 0.4595616162 4281883565
-0.3791595697 -0.1049007848 0.4596290290 4282081205
-0.3792149425 -0.1044053510 0.4596961439 4281554861
-0.3792700768 -0.1039097011 0.4597629607 4281028266
-0.3793249428 -0.1034138277 0.4598295093 4281423024
-0.3800066411 -0.1030878574 0.4606558681 4281423024
-0.3800611198 -0.1025907397 0.4607219100 4280567715
-0.3801153600 -0.1020934060 0.4607876539 4280041624
-0.3801693320 -0.1015958637 0.4608530700 4278791557
-0.3802230656 -0.1010981128 0.4609182179 4280370076
-0.3802765310 -0.1006001458 0.4609830379 4280304283
-0.3803297579 -0.1001019701 0.4610475600 4279449745
-0.3810104430 -0.0997679532 0.4618726969 4279581331
-0.3816910386 -0.0994320735 0.4626977444 4280040593
-0.3823715746 -0.0990943462 0.4635227025 4280172179
-0.3760150373 -0.1178635210 0.4564316869 4279448946
-0.3785714507 -0.1181542575 0.4595347941 4279577971
-0.3818143308 -0.1181364805 0.4634712338 4279382128
-0.3831242025 -0.1180250496 0.4650612175 4279513714
-0.3831860423 -0.1175272986 0.4651362896 4279513972
-0.3832476735 -0.1170293167 0.4652110934 4279448179
-0.3820604682 -0.1161515117 0.4637700021 4279382388
-0.3821214139 -0.1156546697 0.4638439715 4279448181
-0.3815576136 -0.1149694324 0.4631595910 4279513720
-0.3816179633 -0.1144729257 0.4632328451 4279447927
-0.3816780746 -0.1139761880 0.4633058012 4279513722
-0.3811131716 -0.1132934913 0.4626200795 4279118964
-0.3811726868 -0.1127971038 0.4626923501 4279119481
-0.3799820244 -0.1119322851 0.4612470269 4279251067
-0.3800408542 -0.1114370599 0.4613184631 4279251069
-0.3807246387 -0.1111240759 0.4621484578 4279514241
-0.3795325458 -0.1102642715 0.4607014656 4279711620
-0.3795905709 -0.1097691730 0.4607718885 4279645827
-0.3790228963 -0.1090938300 0.4600827992 4279449224
-0.3790803254 -0.1085990965 0.4601525068 4279778189
-0.3791375160 -0.1081041396 0.4602219462 4280107154
-0.3779430091 -0.1072538197 0.4587719440 4280304533
-0.3779995143 -0.1067600548 0.4588405490 4280436119
-0.3780557811 -0.1062660664 0.4589088559 4280436119
-0.3781118095 -0.1057718545 0.4589768648 4280633498
-0.3781675994 -0.1052774265 0.4590445757 4281291428
-0.3782231510 -0.1047827825 0.4591119885 4281291941
-0.3795309961 -0.1046332493 0.4606995583 4281160355
-0.3795862496 -0.1041365266 0.4607666135 4280699550
-0.3796412349 -0.1036395952 0.4608333409 4280633757
-0.3796959519 -0.1031424403 0.4608998001 4280897444
-0.3797504306 -0.1026450768 0.4609659314 4280502686
-0.3798046708 -0.1021474972 0.4610317647 4280568479
-0.3798586726 -0.1016497090 0.4610973001 4279778963
-0.3805393279 -0.1013186201 0.4619235396 4280239003
-0.3805929124 -0.1008195803 0.4619885683 4280370589
-0.3806462586 -0.1003203392 0.4620533288 4279712919
-0.3806993365 -0.0998208821 0.4621177614 4279976091
-0.3813794255 -0.0994848460 0.4629432857 4280369307
-0.3820594549 -0.0991469473 0.4637687504 4280369307
-0.3781972229 -0.1187075749 0.4597003162 4279514225
-0.3807519972 -0.1189952418 0.4628056288 4279709300
-0.3826840818 -0.1190822497 0.4651540816 4279775093
-0.3821230531 -0.1183916181 0.4644721746 4279381875
-0.3828085363 -0.1180870086 0.4653053582 4279316082
-0.3828704059 -0.1175890192 0.4653805792 4279447668
-0.3829320371 -0.1170907989 0.4654554725 4279579254
-0.3817458749 -0.1162125468 0.4640137255 4279513463
-0.3818068206 -0.1157154664 0.4640877843 4279250291
-0.3818675280 -0.1152181476 0.4641615748 4279053169
-0.3806798458 -0.1143456846 0.4627179503 4279184755
-0.3807398677 -0.1138495207 0.4627909064 4279316343
-0.3801754117 -0.1131673008 0.4621047676 4279382136
-0.3802348375 -0.1126714796 0.4621770382 4279382137
-0.3802940249 -0.1121754274 0.4622489810 4279118965
-0.3803529739 -0.1116791442 0.4623206556 4279053172
-0.3804116845 -0.1111826375 0.4623920023 4279382137
-0.3798454106 -0.1105041429 0.4617036879 4279447930
-0.3792786896 -0.1098270565 0.4610148370 4279382137
-0.3780866265 -0.1089712530 0.4595658481 4279383166
-0.3781439662 -0.1084770933 0.4596355855 4279580545
-0.3782010674 -0.1079827175 0.4597049952 4279777672
-0.3776327372 -0.1073104441 0.4590141475 4279843465
-0.3776892424 -0.1068164334 0.4590828717 4280040591
-0.3777455389 -0.1063221991 0.4591512680 4279974798
-0.3778015673 -0.1058277488 0.4592193961 4279449224
-0.3778573871 -0.1053330749 0.4592872262 4279383431
-0.3779129386 -0.1048381850 0.4593547285 4279778189
-0.3785940111 -0.1045158282 0.4601826072 4279712396
-0.3792750239 -0.1041916162 0.4610103667 4279581069
-0.3793300092 -0.1036944389 0.4610772133 4279120518
-0.3793847561 -0.1031970382 0.4611437619 4279515278
-0.3794392645 -0.1026994288 0.4612100124 4279778450
-0.3794935048 -0.1022016034 0.4612759650 4280107162
-0.3801738322 -0.1018713862 0.4621028900 4279712404
-0.3802276850 -0.1013723165 0.4621683359 4279844756
-0.3809077740 -0.1010392085 0.4629949927 4279844756
-0.3809612095 -0.1005388945 0.4630599320 4279910298
-0.3810143769 -0.1000383645 0.4631245732 4280239263
-0.3816940784 -0.0997013375 0.4639507234 4280500641
-0.3823736906 -0.0993624553 0.4647768140 4280632227
-0.3824262917 -0.0988596529 0.4648407400 4281282890
-0.3831056356 -0.0985178873 0.4656665027 4281217097
-0.3790671229 -0.1196540892 0.4613805413 4279580014
-0.3791297078 -0.1191611290 0.4614567161 4279382635
-0.3816826344 -0.1194473505 0.4645639956 4279643505
-0.3817451298 -0.1189506650 0.4646400809 4279775091
-0.3830530941 -0.1188402027 0.4662320614 4279381623
-0.3831153214 -0.1183414087 0.4663077891 4279513209
-0.3831773102 -0.1178423688 0.4663832486 4279447416
-0.3813695908 -0.1167706847 0.4641829729 4279381623
-0.3820540309 -0.1164635867 0.4650160670 4279381623
-0.3808684051 -0.1155871004 0.4635729492 4279315830
-0.3809290230 -0.1150903478 0.4636467397 4279118964
-0.3803658485 -0.1144058183 0.4629612863 4279118964
-0.3810495138 -0.1140961424 0.4637934268 4279118964
-0.3798619211 -0.1132268459 0.4623479247 4279250550
-0.3799213767 -0.1127307862 0.4624202847 4279382137
-0.3799805939 -0.1122344881 0.4624923468 4279184758
-0.3800395429 -0.1117379665 0.4625641406 4279053172
-0.3794741333 -0.1110585481 0.4618759453 4279184758
-0.3801567554 -0.1107442230 0.4627067745 4279382137
-0.3789663315 -0.1098849475 0.4612578750 4279579516
-0.3771508634 -0.1088485047 0.4590481818 4279382401
-0.3772081435 -0.1083549187 0.4591178894 4279448194
-0.3772651553 -0.1078611091 0.4591872990 4279579529
-0.3773219585 -0.1073670760 0.4592564106 4279842701
-0.3767536879 -0.1066958830 0.4585647583 4279974291
-0.3768098950 -0.1062022224 0.4586331844 4279776912
-0.3768658638 -0.1057083458 0.4587012827 4279251077
-0.3769215643 -0.1052142531 0.4587691128 4279251077
-0.3776022196 -0.1048936024 0.4595975280 4279514502
-0.3789080679 -0.1047439352 0.4611869454 4279382916
-0.3795886636 -0.1044187471 0.4620153308 4279711626
-0.3790183067 -0.1037492976 0.4613211453 4279448454
-0.3790730834 -0.1032516509 0.4613877833 4279251847
-0.3791275918 -0.1027537882 0.4614541531 4279515019
-0.3791818619 -0.1022557169 0.4615201950 4279646605
-0.3798616827 -0.1019253433 0.4623476267 4279580812
-0.3805414140 -0.1015931144 0.4631749690 4279581582
-0.3805951178 -0.1010927558 0.4632403255 4279449996
-0.3806485534 -0.1005921885 0.4633053839 4279712919
-0.3807017505 -0.1000914052 0.4633701444 4279515540
-0.3813809454 -0.0997542143 0.4641968012 4279776918
-0.3820600510 -0.0994151682 0.4650233686 4280303262
-0.3827390671 -0.0990742669 0.4658498466 4281283406
-0.3827915192 -0.0985701755 0.4659136832 4281086027
-0.3806816638 -0.1198108718 0.4639728963 4279448168
-0.3801221848 -0.1191200390 0.4632909894 4279709297
-0.3826734126 -0.1194013283 0.4664004445 4279709297
-0.3821135759 -0.1187091991 0.4657180905 4279184496
-0.3827981353 -0.1184034944 0.4665524662 4279316082
-0.3828601539 -0.1179042161 0.4666280150 4279316084
-0.3829219043 -0.1174046919 0.4667032957 4279184498
-0.3817379475 -0.1165247560 0.4652602673 4279250291
-0.3811761737 -0.1158370972 0.4645756185 4279381877
-0.3812369108 -0.1153392941 0.4646496177 4279250550
-0.3806743622 -0.1146536022 0.4639639854 4279118964
-0.3801113665 -0.1139693037 0.4632778168 4279316343
-0.3795479536 -0.1132863984 0.4625911117 4279118964
-0.3796074092 -0.1127901003 0.4626635909 4279184758
-0.3802900612 -0.1124779508 0.4634956121 4279316344
-0.3803491294 -0.1119803712 0.4635676146 4279513723
-0.3797843456 -0.1112997979 0.4628792405 4279645309
-0.3792191148 -0.1106206253 0.4621903598 4279580030
-0.3792772889 -0.1101239845 0.4622612298 4279645823
-0.3768395483 -0.1089058816 0.4592901766 4279447943
-0.3756488562 -0.1080530733 0.4578389227 4279447943
-0.3757056892 -0.1075606570 0.4579082131 4279645073
-0.3757623136 -0.1070680246 0.4579772055 4279908245
-0.3758186698 -0.1065751612 0.4580458999 4280039829
-0.3758747876 -0.1060820818 0.4581143260 4279842450
-0.3759306669 -0.1055887789 0.4581824243 4279513989
-0.3759863079 -0.1050952524 0.4582502246 4279579782
-0.3766663671 -0.1047752723 0.4590790570 4279712131
-0.3785958290 -0.1047993004 0.4614306986 4279514752
-0.3799007833 -0.1046460718 0.4630211592 4279514500
-0.3793310523 -0.1039754599 0.4623267949 4279580293
-0.3793859184 -0.1034767479 0.4623936415 4279448456
-0.3794405460 -0.1029778123 0.4624602199 4279645835
-0.3794949055 -0.1024786681 0.4625264704 4279777419
-0.3795490265 -0.1019793078 0.4625924230 4279843212
-0.3796028793 -0.1014797390 0.4626580775 4279383943
-0.3802819848 -0.1011463106 0.4634857476 4279515529
-0.3803354204 -0.1006454900 0.4635508955 4279844245
-0.3803886473 -0.1001444608 0.4636157453 4279844245
-0.3816930354 -0.0999709964 0.4652055800 4280105883
-0.3823717237 -0.0996309593 0.4660327435 4280369055
-0.3830503523 -0.0992890671 0.4668598473 4281611601
-0.3831028938 -0.0987838954 0.4669238925 4281151050
-0.3816084862 -0.1202653721 0.4657329619 4279711340
-0.3816713691 -0.1197676435 0.4658097029 4279775090
-0.3823557198 -0.1194639131 0.4666449130 4279709297
-0.3830400407 -0.1191583201 0.4674800932 4279316592
-0.3824804723 -0.1184656024 0.4667971730 4279316592
-0.3825424910 -0.1179660782 0.4668728411 4279513714
-0.3813599944 -0.1170843095 0.4654296935 4279579507
-0.3820435703 -0.1167761162 0.4662639499 4279513459
-0.3808600903 -0.1158979312 0.4648195803 4279447666
-0.3809208572 -0.1153998896 0.4648937285 4279316595
-0.3803588152 -0.1147138551 0.4642078280 4279185009
-0.3810416162 -0.1144030839 0.4650411010 4279185525
-0.3798561990 -0.1135320887 0.4635943770 4279251318
-0.3799157739 -0.1130347326 0.4636670947 4279513722
-0.3799751103 -0.1125371382 0.4637394845 4279382136
-0.3794111907 -0.1118556410 0.4630512595 4279382137
-0.3788468242 -0.1111755446 0.4623624980 4279579516
-0.3795284331 -0.1108609214 0.4631943703 4279514239
-0.3789634109 -0.1101820022 0.4625047743 4279580032
-0.3765277565 -0.1089632735 0.4595322013 4279382912
-0.3759615719 -0.1082896218 0.4588412046 4279580291
-0.3760185242 -0.1077961475 0.4589107335 4279711628
-0.3754515946 -0.1071245000 0.4582187831 4279711628
-0.3755079508 -0.1066313908 0.4582875967 4279777421
-0.3761879504 -0.1063143760 0.4591175020 4279711628
-0.3762439489 -0.1058200076 0.4591858089 4279317371
-0.3762996793 -0.1053254232 0.4592538476 4279119992
-0.3769793212 -0.1050044671 0.4600833058 4279514749
-0.3782831132 -0.1048546806 0.4616745412 4279580542
-0.3802113831 -0.1048735902 0.4640278518 4279185284
-0.3796422482 -0.1042018160 0.4633332789 4279514249
-0.3796972334 -0.1037020311 0.4634003639 4279382160
-0.3797519505 -0.1032020301 0.4634671509 4279579539
-0.3798064291 -0.1027018130 0.4635336399 4279645332
-0.3798606396 -0.1022013873 0.4635998011 4279513746
-0.3799146116 -0.1017007381 0.4636656642 4279646856
-0.3805932701 -0.1013663262 0.4644939601 4279778442
-0.3806468248 -0.1008644328 0.4645593166 4279712657
-0.3813252747 -0.1005271301 0.4653873146 4279844243
-0.3813784122 -0.1000239849 0.4654521644 4280303003
-0.3826819062 -0.0998469368 0.4670429826 4280105624
-0.3833600879 -0.0995040461 0.4678706825 4281611601
-0.3840382099 -0.0991593003 0.4686982930 4281151050
-0.3825958669 -0.1202207059 0.4675717950 4279646074
-0.3827213347 -0.1192207783 0.4677251279 4279382385
-0.3834050894 -0.1189131737 0.4685607553 4279579764
-0.3834673166 -0.1184117869 0.4686368108 4279448179
-0.3829077184 -0.1177190468 0.4679529071 4279645558
-0.3823476434 -0.1170276999 0.4672684371 4279711353
-0.3817871213 -0.1163377315 0.4665834606 4279645560
-0.3812261820 -0.1156491563 0.4658979177 4279776892
-0.3806647956 -0.1149619669 0.4652118385 4279579513
-0.3801029623 -0.1142761782 0.4645252228 4279579516
-0.3795407116 -0.1135917753 0.4638380706 4279579516
-0.3814671934 -0.1136503741 0.4661924243 4279645827
-0.3809044361 -0.1129655018 0.4655046761 4279777413
-0.3797187507 -0.1120982617 0.4640556574 4279842952
-0.3797776103 -0.1115999594 0.4641276002 4279645573
-0.3792135417 -0.1109192893 0.4634382427 4279513987
-0.3780262470 -0.1100587100 0.4619872570 4279908745
-0.3762154877 -0.1090206802 0.4597743154 4279908997
-0.3756498098 -0.1083466858 0.4590830207 4279711618
-0.3757067919 -0.1078529656 0.4591526389 4280039050
-0.3757635355 -0.1073590294 0.4592219591 4280368015
-0.3751967549 -0.1066876352 0.4585293233 4280236172
-0.3758762479 -0.1063704714 0.4593597353 4279907207
-0.3759322464 -0.1058758572 0.4594281614 4279710850
-0.3766115308 -0.1055557877 0.4602583349 4279250299
-0.3766671419 -0.1050599217 0.4603262842 4279646603
-0.3785936236 -0.1050831825 0.4626806676 4279515017
-0.3798966110 -0.1049290076 0.4642730355 4279054989
-0.3799519539 -0.1044283733 0.4643406570 4279318161
-0.3800069988 -0.1039275154 0.4644079506 4279252114
-0.3800618351 -0.1034264416 0.4644749463 4279449493
-0.3801164031 -0.1029251516 0.4645416439 4279515280
-0.3801707327 -0.1024236530 0.4646080136 4279383694
-0.3802247941 -0.1019219309 0.4646741152 4279974036
-0.3809030354 -0.1015865356 0.4655030072 4280039829
-0.3809567094 -0.1010835692 0.4655685723 4279713686
-0.3816347122 -0.1007452682 0.4663971961 4279647893
-0.3823126554 -0.1004051119 0.4672257006 4280303506
-0.3823657334 -0.0998998582 0.4672905505 4280237713
-0.3830434382 -0.0995568037 0.4681187570 4280825678
-0.3837210238 -0.0992118865 0.4689468741 4280562506
-0.3815930486 -0.1205874234 0.4669800997 4280433005
-0.3816560507 -0.1200883985 0.4670571983 4279841899
-0.3836436868 -0.1196705326 0.4694896042 4279184496
-0.3837062716 -0.1191683337 0.4695661962 4279381875
-0.3837686181 -0.1186658889 0.4696424901 4279316084
-0.3832096159 -0.1179720014 0.4689584076 4279316084
-0.3826501966 -0.1172794923 0.4682737887 4279184244
-0.3820903003 -0.1165883690 0.4675886333 4278986865
-0.3815299869 -0.1158986390 0.4669029415 4278987378
-0.3809692264 -0.1152102947 0.4662167132 4279053171
-0.3810296357 -0.1147104725 0.4662906229 4279052918
-0.3804680705 -0.1140240952 0.4656034112 4278987125
-0.3799061179 -0.1133391187 0.4649156928 4279052922
-0.3805874288 -0.1130249053 0.4657494724 4279250301
-0.3800247610 -0.1123410910 0.4650609195 4279579012
-0.3800837398 -0.1118417308 0.4651330709 4279842184
-0.3788981438 -0.1109776720 0.4636821747 4279579780
-0.3764673769 -0.1097538397 0.4607075155 4279513987
-0.3752803206 -0.1088975072 0.4592548311 4279711620
-0.3747151196 -0.1082239971 0.4585631490 4279843206
-0.3753945529 -0.1079098061 0.4593946040 4279777421
-0.3754512966 -0.1074156240 0.4594640434 4279909007
-0.3748850524 -0.1067438945 0.4587711096 4279975318
-0.3749412298 -0.1062500849 0.4588398337 4279712146
-0.3756200671 -0.1059317216 0.4596705735 4279252108
-0.3756758273 -0.1054366454 0.4597388208 4279054729
-0.3769775629 -0.1052894145 0.4613318443 4279449998
-0.3789026141 -0.1053118929 0.4636876285 4279515791
-0.3802046478 -0.1051568240 0.4652810395 4278858378
-0.3808834553 -0.1048266813 0.4661117494 4278858378
-0.3803152442 -0.1041531861 0.4654164016 4279055503
-0.3803701699 -0.1036510468 0.4654836059 4279318675
-0.3810485005 -0.1033177823 0.4663137197 4279252882
-0.3811030090 -0.1028143764 0.4663804173 4279516054
-0.3811572790 -0.1023107618 0.4664468169 4279975319
-0.3812112808 -0.1018069312 0.4665129185 4279975319
-0.3818890452 -0.1014686823 0.4673423469 4279911065
-0.3819426298 -0.1009636000 0.4674079418 4279911065
-0.3826201558 -0.1006224528 0.4682370424 4280566161
-0.3832975924 -0.1002794430 0.4690660834 4280434575
-0.3833506107 -0.0997720733 0.4691309333 4280956494
-0.3840278089 -0.0994261578 0.4699596763 4280627529
-0.3825137317 -0.1210428923 0.4687439203 4285497515
-0.3825769424 -0.1205420047 0.4688214064 4284971425
-0.3833229244 -0.1197332218 0.4697355330 4284247702
-0.3840059042 -0.1194237098 0.4705724716 4284445081
-0.3840683401 -0.1189202145 0.4706490040 4284510620
-0.3835099936 -0.1182251647 0.4699647725 4284510620
-0.3829512000 -0.1175314933 0.4692800045 4284313242
-0.3823919594 -0.1168392152 0.4685947001 4284050070
-0.3824531436 -0.1163371876 0.4686696827 4283984790
-0.3818930984 -0.1156468689 0.4679833949 4284247962
-0.3807115853 -0.1147707179 0.4665355086 4284576673
-0.3807717264 -0.1142704114 0.4666092098 4285168810
-0.3802103698 -0.1135842800 0.4659213126 4285366961
-0.3815126419 -0.1134538800 0.4675171673 4285103789
-0.3803292811 -0.1125841290 0.4660670161 4284577191
-0.3797667921 -0.1119005606 0.4653777480 4284116640
-0.3760956526 -0.1103067696 0.4608790278 4283722136
-0.3786405325 -0.1105376333 0.4639976025 4283327378
-0.3793204427 -0.1102196574 0.4648307562 4282077066
-0.3750248253 -0.1084608585 0.4595667720 4281813894
-0.3757038414 -0.1081457064 0.4603988826 4281420428
-0.3763827980 -0.1078286842 0.4612309039 4281025670
-0.3758172989 -0.1071549803 0.4605379105 4280435341
-0.3758736551 -0.1066592857 0.4606069922 4280566927
-0.3759297729 -0.1061633676 0.4606757462 4280369807
-0.3759856522 -0.1056672260 0.4607442021 4279975049
-0.3766638637 -0.1053449884 0.4615753293 4280237445
-0.3792100251 -0.1055407897 0.4646954834 4280434824
-0.3805111647 -0.1053848341 0.4662899077 4280302462
-0.3811895549 -0.1050537080 0.4671212435 4280697220
-0.3812449276 -0.1045498922 0.4671890736 4281551761
-0.3813000321 -0.1040458456 0.4672566056 4281617554
-0.3813548982 -0.1035415903 0.4673238397 4280696971
-0.3814094961 -0.1030371115 0.4673907757 4280828557
-0.3820871711 -0.1026999578 0.4682212174 4280829850
-0.3821413815 -0.1021942273 0.4682876468 4280369299
-0.3821953237 -0.1016882733 0.4683537483 4280107407
-0.3828725815 -0.1013471782 0.4691836834 4280041614
-0.3829261065 -0.1008399725 0.4692492783 4280696452
-0.3836031258 -0.1004959717 0.4700789154 4280630659
-0.3842800856 -0.1001501009 0.4709084630 4281284428
-0.3843330145 -0.0996406153 0.4709733427 4280955463
-0.3840512633 -0.1216950640 0.4712694883 4288457161
-0.3828757405 -0.1208005548 0.4698269963 4288128450
-0.3847977519 -0.1208823398 0.4721854925 4288194243
-0.3836214244 -0.1199897751 0.4707420170 4288652733
-0.3849238157 -0.1198723391 0.4723401964 4288981698
-0.3849864900 -0.1193669662 0.4724171162 4289573837
-0.3850489259 -0.1188613474 0.4724937081 4289837009
-0.3838708103 -0.1179743037 0.4710480571 4289771473
-0.3833123147 -0.1172800511 0.4703626931 4289574094
-0.3833736777 -0.1167761460 0.4704380333 4289574094
-0.3828144073 -0.1160838529 0.4697517157 4289837266
-0.3816341162 -0.1152056307 0.4683033824 4289706450
-0.3810738325 -0.1145169362 0.4676158726 4289969622
-0.3805131018 -0.1138296500 0.4669278264 4290035417
-0.3799519539 -0.1131437495 0.4662392139 4290167003
-0.3806322217 -0.1128273755 0.4670739770 4290035930
-0.3794493377 -0.1119594052 0.4656224847 4289509586
-0.3807503581 -0.1118241623 0.4672189355 4288654277
-0.3770817220 -0.1102325916 0.4627171457 4287667382
-0.3758969605 -0.1093737558 0.4612633288 4286220201
-0.3759543896 -0.1088778973 0.4613338113 4285825443
-0.3772546053 -0.1087400913 0.4629293084 4285103011
-0.3766901493 -0.1080638170 0.4622366726 4284313495
-0.3767469525 -0.1075664535 0.4623063803 4283854239
-0.3768035173 -0.1070688739 0.4623757899 4284577962
-0.3781036139 -0.1069227830 0.4639711082 4284973240
-0.3775378764 -0.1062480733 0.4632769227 4285104826
-0.3775937855 -0.1057489961 0.4633455276 4285498806
-0.3795159459 -0.1057698876 0.4657041728 4285104048
-0.3820606172 -0.1059581786 0.4688267708 4285234595
-0.3827387691 -0.1056244299 0.4696589410 4286221490
-0.3827944398 -0.1051178873 0.4697272182 4287404737
-0.3828498125 -0.1046111211 0.4697951972 4287009979
-0.3829049766 -0.1041041389 0.4698628783 4285495722
-0.3829598725 -0.1035969406 0.4699302316 4284969378
-0.3830145001 -0.1030895188 0.4699972868 4282998431
-0.3830688894 -0.1025818810 0.4700640142 4281748364
-0.3831230402 -0.1020740345 0.4701304436 4281025407
-0.3837999701 -0.1017311141 0.4709611237 4280893821
-0.3838536739 -0.1012220085 0.4710270166 4281154675
-0.3839071393 -0.1007126868 0.4710926414 4280957296
-0.3845836520 -0.1003658250 0.4719227850 4281349448
-0.3852601051 -0.1000170931 0.4727528393 4281086276
-0.3831095099 -0.1215623245 0.4707554579 4287206831
-0.3819349408 -0.1206681803 0.4693121612 4287140783
-0.3851568103 -0.1206344292 0.4732711315 4288061109
-0.3852198422 -0.1201282442 0.4733485878 4288587453
-0.3865214884 -0.1200064495 0.4749479890 4289442762
-0.3853451610 -0.1191151366 0.4735025764 4290034899
-0.3854074478 -0.1186082140 0.4735791087 4289969876
-0.3842300475 -0.1177212968 0.4721323550 4289969876
-0.3836718500 -0.1170264557 0.4714464247 4290101462
-0.3831131756 -0.1163330078 0.4707599580 4290298841
-0.3825540543 -0.1156409457 0.4700729251 4290628317
-0.3819945157 -0.1149502769 0.4693853557 4290825696
-0.3820547462 -0.1144468039 0.4694593847 4290825696
-0.3808740973 -0.1135731414 0.4680086076 4290891489
-0.3803132176 -0.1128866673 0.4673194289 4290497245
-0.3803724051 -0.1123849303 0.4673921764 4289970901
-0.3798107803 -0.1117004454 0.4667020440 4289510350
-0.3780072629 -0.1106539741 0.4644859433 4289049799
-0.3817901313 -0.1112400889 0.4691342413 4288852941
-0.3762605190 -0.1091152579 0.4623395801 4288589769
-0.3763178289 -0.1086181104 0.4624100029 4286617010
-0.3776170611 -0.1084775627 0.4640064538 4284577427
-0.3795375824 -0.1085111052 0.4663663507 4284117656
-0.3783520758 -0.1076556221 0.4649096429 4284446621
-0.3827582002 -0.1083867699 0.4703237712 4284578983
-0.3790864944 -0.1068294868 0.4658120871 4285500085
-0.3791427016 -0.1063276976 0.4658811390 4286223291
-0.3810635805 -0.1063461453 0.4682414532 4285104810
-0.3836064637 -0.1065320894 0.4713661075 4285432736
-0.3849062026 -0.1063675433 0.4729631841 4287077561
-0.3849622309 -0.1058574542 0.4730320275 4288457413
-0.3850179911 -0.1053471416 0.4731005430 4288260034
-0.3850735128 -0.1048366055 0.4731687605 4287140020
-0.3845065832 -0.1041573137 0.4724721611 4286416297
-0.3851837814 -0.1038148776 0.4733042717 4284376717
-0.3846161664 -0.1031367928 0.4726068079 4282731892
-0.3852930367 -0.1027922779 0.4734385014 4281942633
-0.3847247362 -0.1021154150 0.4727402031 4281942633
-0.3854012787 -0.1017688066 0.4735715091 4281876066
-0.3854550123 -0.1012567505 0.4736375213 4281481308
-0.3834686577 -0.1213183179 0.4718407094 4286944174
-0.3860698640 -0.1210856587 0.4750413895 4287008421
-0.3873707354 -0.1209640652 0.4766420126 4287468972
-0.3874339163 -0.1204541326 0.4767197967 4288192695
-0.3874968886 -0.1199439541 0.4767972529 4288587453
-0.3875595927 -0.1194335222 0.4768744111 4288390842
-0.3863836229 -0.1185428947 0.4754274487 4288522428
-0.3858263493 -0.1178444475 0.4747417271 4288851395
-0.3852685988 -0.1171473861 0.4740554690 4289114567
-0.3840909302 -0.1162641943 0.4726063907 4289180871
-0.3835321963 -0.1155707315 0.4719189107 4289509836
-0.3829730451 -0.1148786694 0.4712308645 4289904594
-0.3824134469 -0.1141880006 0.4705423117 4290365145
-0.3818534017 -0.1134987250 0.4698531926 4290365659
-0.3819128871 -0.1129942909 0.4699264169 4290102487
-0.3819721341 -0.1124896184 0.4699993134 4289970901
-0.3820311427 -0.1119847149 0.4700719416 4289970901
-0.3802290857 -0.1109366566 0.4678545594 4289643229
-0.3778058290 -0.1097131297 0.4648728669 4289643229
-0.3778634369 -0.1092132777 0.4649437368 4288721873
-0.3785413504 -0.1088916957 0.4657778740 4287537599
-0.3798398674 -0.1087459400 0.4673756361 4287011517
-0.3798969984 -0.1082429364 0.4674459696 4286879931
-0.3805747330 -0.1079157516 0.4682798982 4286683070
-0.3818733394 -0.1077619120 0.4698777497 4287077828
-0.3844141364 -0.1079533622 0.4730040729 4286222771
-0.3826075792 -0.1069229618 0.4707811773 4285038497
-0.3876335025 -0.1077975631 0.4769653678 4285235098
-0.3876902461 -0.1072833166 0.4770351946 4286814130
-0.3883681297 -0.1069399565 0.4778692722 4287865276
-0.3878029585 -0.1062541604 0.4771738946 4287799483
-0.3878589571 -0.1057392508 0.4772427678 4287534260
-0.3872930110 -0.1050554886 0.4765464067 4287336881
-0.3873483837 -0.1045409516 0.4766145349 4286743960
-0.3874035180 -0.1040262058 0.4766823649 4285230721
-0.3868364394 -0.1033450812 0.4759846330 4284374900
-0.3868909776 -0.1028307229 0.4760517180 4284111728
-0.3875673115 -0.1024806350 0.4768839478 4283453797
-0.3876214027 -0.1019650102 0.4769504964 4282401109
-0.3867884874 -0.1230655834 0.4765768945 4286089118
-0.3849987388 -0.1219690815 0.4743717015 4285365393
-0.3893889189 -0.1228268370 0.4797810316 4285168014
-0.3869803250 -0.1215373054 0.4768132865 4285692309
-0.3876620531 -0.1212207079 0.4776532948 4285823895
-0.3889621496 -0.1210947558 0.4792551696 4285626516
-0.3890254200 -0.1205818802 0.4793331325 4285363344
-0.3890884221 -0.1200687513 0.4794107676 4284968584
-0.3885325193 -0.1193653047 0.4787258208 4284771205
-0.3879761696 -0.1186632439 0.4780403078 4284837000
-0.3874193728 -0.1179625690 0.4773542285 4284705414
-0.3862431347 -0.1170756593 0.4759049714 4284311426
-0.3850662708 -0.1161917821 0.4744548798 4284574598
-0.3845079243 -0.1154969186 0.4737669528 4285298319
-0.3839491308 -0.1148034483 0.4730784595 4286022042
-0.3833899200 -0.1141113788 0.4723894000 4286416800
-0.3834497333 -0.1136042401 0.4724631011 4286548386
-0.3835092783 -0.1130968630 0.4725364745 4286416800
-0.3829489350 -0.1124073640 0.4718460441 4286285214
-0.3799091280 -0.1109949946 0.4681006074 4286221221
-0.3799673617 -0.1104918346 0.4681723416 4286287014
-0.3800253570 -0.1099884436 0.4682438076 4286747569
-0.3807031512 -0.1096634343 0.4690789282 4287010741
-0.3838613927 -0.1100476757 0.4729703367 4286878901
-0.3814383149 -0.1088308245 0.4699847400 4287076280
-0.3827361465 -0.1086771563 0.4715838432 4287471292
-0.3858953118 -0.1090459079 0.4754763842 4287208120
-0.3840911388 -0.1080102697 0.4732533991 4287273911
-0.3847685456 -0.1076740101 0.4740880430 4286484395
-0.3866872489 -0.1076815724 0.4764521718 4286023585
-0.3892270029 -0.1078559756 0.4795815051 4286549929
-0.3911463916 -0.1078523695 0.4819464386 4286811818
-0.3912031651 -0.1073324680 0.4820164144 4286680232
-0.3912597001 -0.1068123430 0.4820860624 4286811305
-0.3906948268 -0.1061232835 0.4813900590 4287337649
-0.3907507658 -0.1056035385 0.4814589620 4286744726
-0.3901850879 -0.1049165055 0.4807620049 4285823624
-0.3902404308 -0.1043971404 0.4808301628 4285164667
-0.3896739781 -0.1037121490 0.4801322520 4284638323
-0.3897286952 -0.1031931713 0.4801996648 4284243048
-0.3897831440 -0.1026739776 0.4802667499 4283124567
-0.3833742142 -0.1221464202 0.4730173945 4285562770
-0.3834379315 -0.1216410697 0.4730959833 4284444542
-0.3872067034 -0.1223058626 0.4777460098 4283852405
-0.3903588057 -0.1227663755 0.4816351533 4283720052
-0.3916583955 -0.1226381809 0.4832386374 4283785845
-0.3923403025 -0.1223138496 0.4840799570 4283325808
-0.3924041688 -0.1217958331 0.4841587842 4283260015
-0.3967942297 -0.1226144806 0.4895753562 4283325808
-0.3925311863 -0.1207590401 0.4843155146 4283325808
-0.3919760585 -0.1200509071 0.4836305678 4283325808
-0.3908021450 -0.1191556305 0.4821821451 4282931050
-0.3902460039 -0.1184510887 0.4814959764 4283128429
-0.3890708983 -0.1175610423 0.4800460935 4283128429
-0.3878951073 -0.1166740209 0.4785954058 4283523441
-0.3867187202 -0.1157900244 0.4771439135 4283523441
-0.3855416477 -0.1149090752 0.4756916463 4283260526
-0.3856018782 -0.1143984050 0.4757659137 4283260526
-0.3850427866 -0.1137046963 0.4750761092 4283128940
-0.3844832480 -0.1130123883 0.4743857384 4282997354
-0.3839232922 -0.1123214886 0.4736948311 4282932854
-0.3833628595 -0.1116319895 0.4730033875 4282867061
-0.3821825981 -0.1107643843 0.4715471566 4282998397
-0.3828602433 -0.1104359329 0.4723832309 4283261569
-0.3841574490 -0.1102834791 0.4739837646 4283064190
-0.3873138726 -0.1106586605 0.4778782427 4283064190
-0.3848928213 -0.1094393134 0.4748910964 4283327101
-0.3868100047 -0.1094541699 0.4772565365 4283063929
-0.3881074786 -0.1092892662 0.4788574278 4283194998
-0.3894051015 -0.1091208458 0.4804584384 4283918721
-0.3919431269 -0.1092947647 0.4835899472 4284510346
-0.3938613832 -0.1092897430 0.4859567285 4285431448
-0.3945392370 -0.1089369729 0.4867931008 4285497500
