VERSION 0.7
FIELDS x y z rgba
SIZE 4 4 4 4
TYPE F F F U
COUNT 1 1 1 1
WIDTH 920
HEIGHT 1
VIEWPOINT 0.0 0.0 0.0 1.0 0.0 0.0 0.0
POINTS 920
DATA ascii
-0.2759736180 -0.1618500352 0.5864018202 4284054394
-0.2760387361 -0.1612365246 0.5865402222 4283594354
-0.2761036158 -0.1606225967 0.5866780877 4283528561
-0.2761683166 -0.1600082219 0.5868154764 4283988601
-0.2762327492 -0.1593934149 0.5869524479 4284712324
-0.2758833766 -0.1585405022 0.5862100720 4286686625
-0.2759473026 -0.1579257548 0.5863459110 4288792001
-0.2760110199 -0.1573106050 0.5864812732 4289647563
-0.2756606042 -0.1564600766 0.5857366920 4290042321
-0.2757237554 -0.1558450013 0.5858709216 4289583564
-0.2757867277 -0.1552294791 0.5860046744 4288530876
-0.2758494616 -0.1546135545 0.5861380100 4285441422
-0.2750833929 -0.1535347402 0.5845102072 4283401839
-0.2751455009 -0.1529198289 0.5846421719 4281432922
-0.2747929096 -0.1520751119 0.5838930011 4281432922
-0.2752690315 -0.1516887397 0.5849046707 4280975962
-0.2745011449 -0.1506175399 0.5832730532 4280910169
-0.2741474509 -0.1497762352 0.5825214982 4280649307
-0.2733784616 -0.1487107128 0.5808875561 4280912479
-0.2730238438 -0.1478732377 0.5801340342 4280585821
-0.2726688087 -0.1470372230 0.5793796182 4280717407
-0.2727285028 -0.1464255303 0.5795064569 4280716893
-0.2723727524 -0.1455914974 0.5787505507 4280256342
-0.2720166147 -0.1447589397 0.5779938102 4279928145
-0.2716600597 -0.1439278424 0.5772361755 4280191317
-0.2713030875 -0.1430982053 0.5764777064 4280520793
-0.2717768550 -0.1427064687 0.5774843693 4280652379
-0.2714192867 -0.1418779343 0.5767245889 4279929426
-0.2714770436 -0.1412671953 0.5768473148 4279271496
-0.2715345621 -0.1406560838 0.5769695044 4278876999
-0.2715918720 -0.1400445849 0.5770912766 4279337550
-0.2712329626 -0.1392191648 0.5763286352 4279337297
-0.2712897360 -0.1386078149 0.5764492750 4279666262
-0.2713462710 -0.1379961073 0.5765693784 4279995229
-0.2714025676 -0.1373839974 0.5766890645 4280982124
-0.2714586556 -0.1367715150 0.5768082142 4282362241
-0.2715145350 -0.1361586452 0.5769269466 4283151757
-0.2715701461 -0.1355454028 0.5770451427 4284595353
-0.2716255486 -0.1349317878 0.5771628618 4284990111
-0.2716807425 -0.1343178004 0.5772801042 4287086251
-0.2717356682 -0.1337034404 0.5773968697 4287020458
-0.2722072601 -0.1332928240 0.5783988833 4288395443
-0.2726787627 -0.1328799427 0.5794007182 4289053373
-0.2731502056 -0.1324648261 0.5804024935 4291684066
-0.2737370133 -0.1654525697 0.5830252767 4292537582
-0.2738032341 -0.1648446620 0.5831663609 4292011238
-0.2738692760 -0.1642363220 0.5833070278 4291288285
-0.2739350796 -0.1636275351 0.5834471583 4290827734
-0.2740006745 -0.1630183160 0.5835868716 4289842638
-0.2744781971 -0.1626528800 0.5846039653 4288921536
-0.2745434642 -0.1620418578 0.5847429633 4287606189
-0.2746085227 -0.1614304185 0.5848814845 4286553501
-0.2746733427 -0.1608185321 0.5850195885 4285435533
-0.2747379839 -0.1602062136 0.5851572752 4284448638
-0.2748023868 -0.1595934629 0.5852944255 4284645504
-0.2748665810 -0.1589802951 0.5854311585 4284382332
-0.2749305367 -0.1583666801 0.5855674148 4284317050
-0.2745814025 -0.1575157791 0.5848237872 4285238152
-0.2746448517 -0.1569022536 0.5849589109 4286882975
-0.2747080624 -0.1562882811 0.5850935578 4288725179
-0.2747710645 -0.1556739062 0.5852277279 4290370259
-0.2748338580 -0.1550590992 0.5853614807 4290830810
-0.2748964131 -0.1544438601 0.5854946971 4290174161
-0.2745452821 -0.1535968930 0.5847468376 4288200371
-0.2741937637 -0.1527513564 0.5839981437 4285506191
-0.2742554545 -0.1521367282 0.5841295719 4283992952
-0.2743169665 -0.1515216976 0.5842605233 4282220388
-0.2739644051 -0.1506786197 0.5835096240 4281957216
-0.2736114264 -0.1498370022 0.5827578306 4281697381
-0.2732580304 -0.1489968300 0.5820051432 4281500002
-0.2729042470 -0.1481581181 0.5812516212 4281503076
-0.2725500464 -0.1473208517 0.5804972053 4280779353
-0.2726097405 -0.1467079967 0.5806244016 4280253266
-0.2722548246 -0.1458727270 0.5798684955 4279858508
-0.2718995214 -0.1450389177 0.5791116953 4279268164
-0.2715438008 -0.1442065686 0.5783540606 4279465543
-0.2716023326 -0.1435949355 0.5784787536 4280058961
-0.2716606557 -0.1429829001 0.5786029696 4280585305
-0.2713039219 -0.1421530992 0.5778431296 4279730766
-0.2713616788 -0.1415412128 0.5779662132 4279336008
-0.2714192569 -0.1409289390 0.5780887604 4279072583
-0.2714765668 -0.1403162628 0.5782108903 4278348860
-0.2715336680 -0.1397032142 0.5783324838 4278217019
-0.2711752653 -0.1388770938 0.5775691271 4278414655
-0.2712318301 -0.1382642090 0.5776896477 4278216507
-0.2712881863 -0.1376509368 0.5778096318 4278217021
-0.2713442743 -0.1370372921 0.5779291391 4278742599
-0.2714001536 -0.1364232600 0.5780481100 4279334736
-0.2714558244 -0.1358088553 0.5781666636 4282486899
-0.2715112567 -0.1351940632 0.5782847404 4285447584
-0.2715664506 -0.1345788985 0.5784022808 4289057734
-0.2716214061 -0.1339633614 0.5785193443 4289781457
-0.2720921934 -0.1335516572 0.5795220137 4289843402
-0.2725628912 -0.1331377029 0.5805246234 4287803819
-0.2730335593 -0.1327214837 0.5815270543 4288066479
-0.2735041380 -0.1323029995 0.5825293064 4290829785
-0.2724431753 -0.1644147635 0.5816455483 4292931824
-0.2725089192 -0.1638080329 0.5817859173 4292406509
-0.2725744545 -0.1632008702 0.5819258094 4292077544
-0.2726397812 -0.1625932604 0.5820652843 4291157984
-0.2731162012 -0.1622295380 0.5830824375 4290565847
-0.2731812000 -0.1616201550 0.5832211971 4289711052
-0.2732459903 -0.1610103250 0.5833594799 4288987329
-0.2733105719 -0.1604000628 0.5834973454 4288132020
-0.2733749151 -0.1597893685 0.5836347342 4287013539
-0.2734390497 -0.1591782570 0.5837716460 4286092950
-0.2735029757 -0.1585666984 0.5839081407 4285040262
-0.2735666931 -0.1579547226 0.5840441585 4284843394
-0.2736301720 -0.1573423147 0.5841796994 4284909187
-0.2736934423 -0.1567294747 0.5843147635 4284514427
-0.2737565041 -0.1561162174 0.5844494104 4285698701
-0.2738193274 -0.1555025429 0.5845835209 4288461750
-0.2738819718 -0.1548884362 0.5847172141 4290238161
-0.2739443481 -0.1542739123 0.5848504305 4291159520
-0.2740065455 -0.1536589712 0.5849831700 4291159520
-0.2736557424 -0.1528131366 0.5842342973 4290437849
-0.2737173736 -0.1521982849 0.5843659043 4289450954
-0.2737787962 -0.1515830159 0.5844970345 4287808950
-0.2734269798 -0.1507396400 0.5837458968 4286887848
-0.2730747461 -0.1498976946 0.5829938650 4285573526
-0.2727220953 -0.1490572095 0.5822409987 4283994494
-0.2723690569 -0.1482181847 0.5814872980 4281694044
-0.2724289894 -0.1476045847 0.5816152692 4280378184
-0.2724887133 -0.1469905823 0.5817427635 4279525184
-0.2721346319 -0.1461540759 0.5809868574 4279393598
-0.2717801630 -0.1453190148 0.5802300572 4278212656
-0.2714252770 -0.1444854289 0.5794724226 4278278449
-0.2714838386 -0.1438726187 0.5795974135 4279333958
-0.2715421915 -0.1432594210 0.5797219872 4280649818
-0.2716003060 -0.1426458359 0.5798460245 4279729998
-0.2716581821 -0.1420318484 0.5799696445 4280124756
-0.2713016570 -0.1412018985 0.5792084336 4280585052
-0.2713589966 -0.1405880749 0.5793309212 4279532364
-0.2714161277 -0.1399738491 0.5794528723 4279202888
-0.2714730203 -0.1393592507 0.5795743465 4279268681
-0.2711151540 -0.1385324299 0.5788102746 4279202120
-0.2711715102 -0.1379179955 0.5789306164 4279794257
-0.2712276280 -0.1373031735 0.5790504217 4279332685
-0.2712835371 -0.1366879791 0.5791698098 4280582752
-0.2713392079 -0.1360723972 0.5792886615 4284588171
-0.2713946402 -0.1354564428 0.5794070363 4287680442
-0.2714498639 -0.1348401010 0.5795249343 4290765015
-0.2715048492 -0.1342234015 0.5796422958 4291159773
-0.2719748318 -0.1338106096 0.5806456804 4291356129
-0.2724447548 -0.1333955526 0.5816489458 4289974476
-0.2724992335 -0.1327758282 0.5817651749 4287737514
-0.2729689181 -0.1323572099 0.5827679634 4287934893
-0.2730230093 -0.1317358017 0.5828834772 4290300873
-0.2730768621 -0.1311140209 0.5829983950 4292669421
-0.2712814808 -0.1621677428 0.5805419683 4292275180
-0.2717568278 -0.1618057489 0.5815592408 4291880422
-0.2718215585 -0.1611979753 0.5816977620 4291157471
-0.2718860507 -0.1605897695 0.5818358064 4290565334
-0.2719503641 -0.1599811465 0.5819733739 4289907404
-0.2720144391 -0.1593720764 0.5821105242 4289117888
-0.2720783353 -0.1587625742 0.5822471976 4287869361
-0.2721419632 -0.1581526548 0.5823834538 4286750880
-0.2722054124 -0.1575423032 0.5825192332 4285829776
-0.2722686529 -0.1569315195 0.5826545358 4284974467
-0.2723316550 -0.1563203186 0.5827893615 4284777342
-0.2723944485 -0.1557086855 0.5829237103 4284777342
-0.2724570036 -0.1550966352 0.5830576420 4285238150
-0.2729310393 -0.1547175348 0.5840720534 4286948768
-0.2729932666 -0.1541037112 0.5842052102 4289054144
-0.2726434171 -0.1532579660 0.5834565759 4290370004
-0.2727051377 -0.1526442468 0.5835886002 4291028704
-0.2727666199 -0.1520301104 0.5837201476 4290962911
-0.2732400000 -0.1516442746 0.5847331882 4290766045
-0.2728888988 -0.1508005708 0.5839818716 4290700252
-0.2725374103 -0.1499583274 0.5832296610 4289845712
-0.2721855044 -0.1491175294 0.5824766159 4288595645
-0.2722457051 -0.1485031843 0.5826054215 4286754463
-0.2718930840 -0.1476643682 0.5818508267 4283991157
-0.2719527483 -0.1470501423 0.5819784999 4281560407
-0.2715994120 -0.1462133080 0.5812223554 4281165649
-0.2712456882 -0.1453779489 0.5804653764 4279920455
-0.2713044882 -0.1447643787 0.5805912018 4280249420
-0.2713630497 -0.1441504210 0.5807165504 4280451415
-0.2710083127 -0.1433175951 0.5799573660 4280846173
-0.2710663378 -0.1427037865 0.5800815821 4279795279
-0.2711241543 -0.1420895755 0.5802053213 4279729486
-0.2711817622 -0.1414749771 0.5803285837 4280124244
-0.2708256543 -0.1406452507 0.5795665383 4279729486
-0.2708827257 -0.1400308162 0.5796886683 4280122963
-0.2709395587 -0.1394159794 0.5798102617 4280254549
-0.2705824375 -0.1385888457 0.5790460110 4280254038
-0.2706387043 -0.1379741877 0.5791664720 4281240933
-0.2706947923 -0.1373591423 0.5792864561 4283277442
-0.2711646259 -0.1369528025 0.5802918673 4285909162
-0.2712202966 -0.1363360584 0.5804110765 4289189831
-0.2712757885 -0.1357189268 0.5805298090 4290045140
-0.2713310122 -0.1351014227 0.5806480050 4291487200
-0.2713860273 -0.1344835311 0.5807657242 4291026649
-0.2718552053 -0.1340696514 0.5817697644 4291289566
-0.2723243535 -0.1336535066 0.5827736855 4291486945
-0.2723788321 -0.1330326200 0.5828902721 4290829017
-0.2724330723 -0.1324113458 0.5830063820 4289052606
-0.2724871039 -0.1317897141 0.5831220150 4288326314
-0.2725408673 -0.1311677098 0.5832371116 4289444795
-0.2730093300 -0.1307440400 0.5842396021 4292074974
-0.2699903250 -0.1611369699 0.5791555047 4292866547
-0.2704644799 -0.1607753336 0.5801725984 4292405996
-0.2705287337 -0.1601687670 0.5803104043 4291813859
-0.2705927789 -0.1595617533 0.5804477334 4291222235
-0.2702465057 -0.1587134749 0.5797049999 4290761684
-0.2707201838 -0.1583464444 0.5807210803 4289907917
-0.2711938620 -0.1579771489 0.5817371607 4288592057
-0.2712571323 -0.1573674977 0.5818728805 4287868332
-0.2713201642 -0.1567574292 0.5820081234 4286618265
-0.2713830173 -0.1561469287 0.5821429491 4285499784
-0.2714456320 -0.1555360109 0.5822772384 4285170819
-0.2715080380 -0.1549246758 0.5824111104 4284514170
-0.2715702355 -0.1543129086 0.5825445056 4284711549
-0.2716321945 -0.1537007242 0.5826774836 4285698701
-0.2716939747 -0.1530881226 0.5828099251 4287080354
-0.2717554867 -0.1524751037 0.5829419494 4288330423
-0.2718168199 -0.1518616676 0.5830734372 4289185732
-0.2718779147 -0.1512478143 0.5832045078 4290040782
-0.2719387710 -0.1506335586 0.5833351016 4290501333
-0.2715879381 -0.1497919261 0.5825824738 4290500819
-0.2716482878 -0.1491777748 0.5827119350 4290040268
-0.2712967098 -0.1483381093 0.5819578171 4288791741
-0.2713565230 -0.1477240771 0.5820860863 4286160021
-0.2714160979 -0.1471096277 0.5822139382 4283465840
-0.2714754641 -0.1464947909 0.5823412538 4282347359
-0.2707105279 -0.1454368085 0.5807003975 4280707919
-0.2707692683 -0.1448230296 0.5808264017 4280839505
-0.2708278000 -0.1442088336 0.5809519291 4280646488
-0.2708860934 -0.1435942650 0.5810769200 4280514902
-0.2705317438 -0.1427616626 0.5803169012 4280715102
-0.2705895007 -0.1421472281 0.5804407597 4280649309
-0.2706470490 -0.1415324062 0.5805642009 4280452441
-0.2702916861 -0.1407023668 0.5798019171 4279794511
-0.2703486681 -0.1400876939 0.5799241662 4280056659
-0.2704054415 -0.1394726485 0.5800459385 4280846175
-0.2704619765 -0.1388572007 0.5801672339 4281371238
-0.2701053023 -0.1380303204 0.5794020891 4281963375
-0.2701613009 -0.1374150366 0.5795221925 4284130441
-0.2702170610 -0.1367993802 0.5796418190 4287025333
-0.2706858814 -0.1363915801 0.5806474686 4290306774
-0.2707412839 -0.1357742250 0.5807663202 4290635739
-0.2707964480 -0.1351564974 0.5808846951 4291552738
-0.2712649107 -0.1347437799 0.5818895698 4291355359
-0.2713196874 -0.1341243535 0.5820071101 4291290338
-0.2717879415 -0.1337080598 0.5830115676 4291158752
-0.2718423605 -0.1330869347 0.5831282735 4291223262
-0.2718965709 -0.1324654371 0.5832445025 4291223262
-0.2719505131 -0.1318435669 0.5833602548 4289773506
-0.2720042467 -0.1312213242 0.5834755301 4287668130
-0.2720577121 -0.1305987239 0.5835902691 4288391594
-0.2725251615 -0.1301735789 0.5845929384 4291089107
-0.2691740096 -0.1597472876 0.5787833333 4292931311
-0.2688286006 -0.1589000374 0.5780405998 4292405226
-0.2688920498 -0.1582951546 0.5781770349 4291944675
-0.2693646550 -0.1579298526 0.5791932940 4290696150
-0.2694277763 -0.1573231816 0.5793290138 4290301392
-0.2699002326 -0.1569542587 0.5803449154 4289709255
-0.2699630260 -0.1563458145 0.5804799199 4288985532
-0.2700256109 -0.1557369530 0.5806144476 4287998637
-0.2700879872 -0.1551276743 0.5807485580 4286551191
-0.2701501250 -0.1545179635 0.5808821917 4285302405
-0.2702120543 -0.1539078355 0.5810153484 4285433991
-0.2706838846 -0.1535299122 0.5820298791 4285237380
-0.2703352571 -0.1526863128 0.5812802315 4284974208
-0.2703965306 -0.1520749331 0.5814120173 4285566345
-0.2708679736 -0.1516929716 0.5824257731 4286882205
-0.2705184221 -0.1508509368 0.5816740990 4288198065
-0.2705790401 -0.1502383053 0.5818044543 4288855995
-0.2706394494 -0.1496252716 0.5819343328 4289053374
-0.2702888548 -0.1487857103 0.5811804533 4289184960
-0.2703486979 -0.1481727958 0.5813091993 4288199605
-0.2704083622 -0.1475594640 0.5814374685 4286225815
-0.2704677880 -0.1469457299 0.5815652609 4283991673
-0.2705269754 -0.1463315934 0.5816925168 4282873192
-0.2701747417 -0.1454955935 0.5809351206 4281166676
-0.2702334225 -0.1448815912 0.5810613036 4280837711
-0.2698804438 -0.1440476030 0.5803023577 4280709459
-0.2699385881 -0.1434337348 0.5804273486 4280972631
-0.2699964941 -0.1428194791 0.5805518627 4280514389
-0.2696425319 -0.1419880390 0.5797907710 4281238112
-0.2696999013 -0.1413739324 0.5799140930 4281437029
-0.2693451941 -0.1405445188 0.5791514516 4280910685
-0.2694020569 -0.1399305612 0.5792736411 4280054862
-0.2694586515 -0.1393162161 0.5793954134 4280844378
-0.2695150375 -0.1387014836 0.5795166492 4282093421
-0.2695712149 -0.1380863786 0.5796374083 4282948730
-0.2696271539 -0.1374708712 0.5797576904 4283799938
-0.2696828544 -0.1368549913 0.5798774362 4284655247
-0.2697383463 -0.1362387240 0.5799967647 4287937713
-0.2702061236 -0.1358294636 0.5810025930 4289648331
-0.2702612281 -0.1352114975 0.5811210871 4291092957
-0.2707287967 -0.1347986460 0.5821264982 4291553508
-0.2707835436 -0.1341789812 0.5822441578 4291948268
-0.2712509036 -0.1337625384 0.5832490921 4291619303
-0.2713052630 -0.1331411749 0.5833659768 4291485664
-0.2713593841 -0.1325194538 0.5834823847 4291551457
-0.2714132667 -0.1318973452 0.5835982561 4291549917
-0.2714669406 -0.1312748790 0.5837136507 4290036678
-0.2719336450 -0.1308508962 0.5847171545 4288128935
-0.2719869018 -0.1302267462 0.5848317146 4288194728
-0.2720399499 -0.1296022236 0.5849457383 4290495942
-0.2720927596 -0.1289773434 0.5850592852 4292140767
-0.2675402164 -0.1578763723 0.5766474605 4292799725
-0.2680117488 -0.1575127989 0.5776637793 4291879911
-0.2680746019 -0.1569077671 0.5777992606 4291485153
-0.2685459852 -0.1565405726 0.5788152814 4290629846
-0.2686085105 -0.1559337527 0.5789500475 4290169295
-0.2686708272 -0.1553265303 0.5790843368 4289511878
-0.2687329054 -0.1547188759 0.5792181492 4288590776
-0.2687948048 -0.1541108042 0.5793515444 4287802028
-0.2688564658 -0.1535023153 0.5794844627 4286749340
-0.2689179182 -0.1528933942 0.5796169043 4286091662
-0.2689791620 -0.1522840708 0.5797488689 4285631111
-0.2690401673 -0.1516743302 0.5798804164 4285368196
-0.2695105672 -0.1512940973 0.5808942914 4285170817
-0.2691615522 -0.1504535973 0.5801420212 4285632138
-0.2692219019 -0.1498426199 0.5802721381 4287145377
-0.2692820430 -0.1492312253 0.5804017782 4288198835
-0.2693419755 -0.1486194283 0.5805309415 4288462007
-0.2694016993 -0.1480072141 0.5806596279 4287016360
-0.2694611847 -0.1473945975 0.5807878375 4284647812
-0.2695204318 -0.1467815787 0.5809155703 4282478436
-0.2695794702 -0.1461681575 0.5810428262 4282083678
-0.2692278922 -0.1453327835 0.5802850127 4281691225
-0.2692863941 -0.1447194815 0.5804111362 4281296467
-0.2693446875 -0.1441057920 0.5805367827 4281167187
-0.2689920962 -0.1432729661 0.5797767639 4281890910
-0.2690498531 -0.1426594108 0.5799012780 4281761633
-0.2691073716 -0.1420454681 0.5800252557 4281498461
-0.2687537372 -0.1412152052 0.5792630315 4281566048
-0.2688107491 -0.1406014115 0.5793858767 4282158185
-0.2688675225 -0.1399872452 0.5795082450 4281039450
-0.2689240575 -0.1393726617 0.5796301365 4281236829
-0.2689803839 -0.1387577057 0.5797515512 4282749299
-0.2690364718 -0.1381423771 0.5798724294 4284130952
-0.2690923512 -0.1375266463 0.5799928904 4283929984
-0.2691479921 -0.1369105428 0.5801128149 4281824608
-0.2692033947 -0.1362940520 0.5802322626 4283726193
-0.2692585886 -0.1356771737 0.5803511739 4286950050
-0.2697253525 -0.1352664381 0.5813572407 4290238161
-0.2697801590 -0.1346478760 0.5814753771 4291422435
-0.2702467144 -0.1342335492 0.5824809670 4291948268
-0.2703011632 -0.1336132735 0.5825983286 4292211440
-0.2707674801 -0.1331953704 0.5836034417 4292142824
-0.2708215415 -0.1325734109 0.5837199688 4292142824
-0.2708753943 -0.1319510788 0.5838359594 4292009957
-0.2709289789 -0.1313283741 0.5839514732 4291944164
-0.2713947892 -0.1309042424 0.5849555135 4291418585
-0.2714480162 -0.1302798539 0.5850701928 4289576381
-0.2715010047 -0.1296551079 0.5851843953 4288719531
-0.2711410522 -0.1288338900 0.5844085813 4289443254
-0.2711934745 -0.1282093525 0.5845215917 4290956491
-0.2712456584 -0.1275844574 0.5846340656 4292667109
-0.2706756890 -0.1130558476 0.5834055543 4292733931
-0.2694783509 -0.1119104028 0.5808248520 4292207588
-0.2682803273 -0.1107704118 0.5782426596 4291878623
-0.2666669190 -0.1094656512 0.5747652054 4292602605
-0.2654674947 -0.1083375588 0.5721800327 4292931570
-0.2642674446 -0.1072149500 0.5695934296 4292076261
-0.2630667090 -0.1060978249 0.5670054555 4292339433
-0.2666614354 -0.1570952833 0.5761325955 4292603888
-0.2667240202 -0.1564918756 0.5762677789 4292077544
-0.2667863965 -0.1558880508 0.5764025450 4291485407
-0.2668485641 -0.1552838087 0.5765368938 4291024856
-0.2669105232 -0.1546791345 0.5766707063 4290564305
-0.2669722736 -0.1540740430 0.5768041015 4290037961
-0.2674421072 -0.1537031978 0.5778192282 4289314495
-0.2675035000 -0.1530963331 0.5779519081 4288788151
-0.2675646842 -0.1524890661 0.5780841112 4287603877
-0.2672170699 -0.1516495049 0.5773330331 4286945947
-0.2676864266 -0.1512732804 0.5783470869 4286025615
-0.2677469552 -0.1506647617 0.5784779191 4285301892
-0.2678073049 -0.1500558257 0.5786082745 4284775548
-0.2678674161 -0.1494464874 0.5787380934 4284709755
-0.2679272890 -0.1488367319 0.5788674951 4285367685
-0.2679869533 -0.1482265741 0.5789964199 4286157201
-0.2680464089 -0.1476160139 0.5791248679 4285568651
-0.2685149610 -0.1472294778 0.5801371932 4283989619
-0.2685740888 -0.1466171741 0.5802649260 4282805859
-0.2686329484 -0.1460044533 0.5803921223 4282608480
-0.2682820261 -0.1451697201 0.5796339512 4282148442
-0.2683403790 -0.1445571333 0.5797600150 4281622098
-0.2679887414 -0.1437243968 0.5790002942 4281557586
-0.2684564292 -0.1433307827 0.5800107121 4282018137
-0.2681041658 -0.1424991190 0.5792496800 4282217569
-0.2681615353 -0.1418858916 0.5793735981 4282349155
-0.2682186961 -0.1412722617 0.5794970989 4282154084
-0.2678654194 -0.1404431760 0.5787338018 4282285670
-0.2679220438 -0.1398297101 0.5788561702 4282285927
-0.2679784298 -0.1392158568 0.5789780021 4282220134
-0.2680346072 -0.1386016160 0.5790993571 4283075186
-0.2680905461 -0.1379869878 0.5792202353 4284654218
-0.2681462467 -0.1373719722 0.5793405771 4284914318
-0.2682017386 -0.1367565840 0.5794605017 4282874735
-0.2682570219 -0.1361408085 0.5795798898 4282740839
-0.2687229514 -0.1357322037 0.5805865526 4283661941
-0.2687778473 -0.1351147145 0.5807051659 4286553753
-0.2692435682 -0.1347025186 0.5817113519 4289843403
-0.2692981064 -0.1340833455 0.5818291903 4291814883
-0.2697636187 -0.1336675584 0.5828349590 4291880676
-0.2702290714 -0.1332494915 0.5838406086 4292865518
-0.2702830732 -0.1326273084 0.5839572549 4292865518
-0.2703368366 -0.1320047379 0.5840734243 4292864750
-0.2708019316 -0.1315817833 0.5850782394 4292535785
-0.2708553076 -0.1309575289 0.5851935744 4292339176
-0.2704967260 -0.1301348209 0.5844188929 4292536555
-0.2705495656 -0.1295107901 0.5845330358 4291287515
-0.2706021667 -0.1288863868 0.5846467018 4289708483
-0.2706545591 -0.1282616109 0.5847598314 4289245875
-0.2702946365 -0.1274422109 0.5839822888 4290035391
-0.2703464627 -0.1268176734 0.5840942264 4291613910
-0.2700453103 -0.1143597066 0.5834435821 4292601308
-0.2696785331 -0.1135570109 0.5826510787 4289710033
-0.2688976526 -0.1125827059 0.5809640288 4288788931
-0.2677025199 -0.1114396974 0.5783818364 4288656308
-0.2665067017 -0.1103021502 0.5757982731 4289840582
-0.2644824088 -0.1088294461 0.5714247227 4291945704
-0.2628711760 -0.1075354218 0.5679435730 4292011497
-0.2616731822 -0.1064171940 0.5653552413 4290105559
-0.2604745030 -0.1053044498 0.5627654791 4290237145
-0.2596893907 -0.1043636575 0.5610691905 4291619309
-0.2593179941 -0.1035919040 0.5602667928 4291685102
-0.2593605518 -0.1029863060 0.5603587627 4291288554
-0.2594028711 -0.1023804098 0.5604501963 4292209656
-0.2653760910 -0.1560755521 0.5747346878 4292866547
-0.2654381990 -0.1554733515 0.5748692155 4292471789
-0.2655000985 -0.1548707485 0.5750032663 4292077031
-0.2655617893 -0.1542677134 0.5751368403 4291616480
-0.2656232715 -0.1536642611 0.5752699971 4291155929
-0.2656845152 -0.1530603766 0.5754026771 4290564305
-0.2661531568 -0.1526899189 0.5764176250 4290169547
-0.2662141025 -0.1520842910 0.5765495896 4289972425
-0.2662748098 -0.1514782459 0.5766810775 4289511874
-0.2663353086 -0.1508717835 0.5768120885 4288853944
-0.2663955986 -0.1502649039 0.5769426823 4288130221
-0.2664556503 -0.1496576220 0.5770727396 4287144096
-0.2665155232 -0.1490499228 0.5772023797 4286354580
-0.2665751576 -0.1484418213 0.5773315430 4285762443
-0.2670429051 -0.1480596960 0.5783445239 4285367685
-0.2671021819 -0.1474498510 0.5784729719 4284711546
-0.2671612501 -0.1468395889 0.5786008835 4283922030
-0.2676286995 -0.1464525163 0.5796132684 4283331176
-0.2676874399 -0.1458405256 0.5797404647 4283331176
-0.2673371732 -0.1450064033 0.5789818764 4282740066
-0.2673953474 -0.1443945318 0.5791078806 4282345308
-0.2674533129 -0.1437822729 0.5792334676 4282280026
-0.2671020329 -0.1429506987 0.5784726143 4282345819
-0.2671594918 -0.1423385739 0.5785970688 4282149980
-0.2672167122 -0.1417260617 0.5787209868 4282347359
-0.2672736943 -0.1411131471 0.5788444281 4282546021
-0.2673304677 -0.1404998451 0.5789673924 4283006572
-0.2673870325 -0.1398861557 0.5790898204 4283336818
-0.2674433589 -0.1392720789 0.5792118311 4283665783
-0.2674994469 -0.1386576146 0.5793333054 4284192384
-0.2675553262 -0.1380427629 0.5794543624 4285113486
-0.2676109672 -0.1374275237 0.5795748830 4284058495
-0.2676663995 -0.1368119121 0.5796949267 4282742635
-0.2677216232 -0.1361959130 0.5798144937 4283990648
-0.2677765787 -0.1355795264 0.5799335241 4284319613
-0.2678313255 -0.1349627674 0.5800520778 4284579962
-0.2678858638 -0.1343456358 0.5801701546 4286816924
-0.2683504522 -0.1339329034 0.5811764002 4290301131
-0.2688150108 -0.1335179210 0.5821824670 4291880163
-0.2688690126 -0.1328977644 0.5822994113 4292536553
-0.2689227760 -0.1322772354 0.5824158788 4292997104
-0.2693869770 -0.1318573356 0.5834212303 4293588214
-0.2694403529 -0.1312351227 0.5835368037 4293522421
-0.2694935203 -0.1306125373 0.5836519599 4292996334
-0.2695464492 -0.1299895793 0.5837665796 4292667369
-0.2695991397 -0.1293662488 0.5838807225 4292339433
-0.2696515918 -0.1287425607 0.5839943290 4292076261
-0.2692926824 -0.1279232204 0.5832170248 4291482837
-0.2693445981 -0.1272997558 0.5833294392 4290364356
-0.2689850032 -0.1264825314 0.5825506449 4289508534
-0.2690363526 -0.1258593202 0.5826618671 4290232257
-0.2690874934 -0.1252357364 0.5827726126 4292074461
-0.2686823308 -0.1140562072 0.5818951726 4291088590
-0.2687289715 -0.1134293601 0.5819961429 4286752184
-0.2679496408 -0.1124556437 0.5803083181 4286028461
-0.2663438916 -0.1111408323 0.5768306851 4285898921
-0.2647373378 -0.1098334119 0.5733513236 4287017402
-0.2627169192 -0.1083630100 0.5689756274 4289318361
-0.2606955767 -0.1069019511 0.5645979047 4290700014
-0.2594996989 -0.1057871431 0.5620079637 4290961389
-0.2583031952 -0.1046778262 0.5594166517 4291619319
-0.2575193942 -0.1037405208 0.5577191710 4292080375
-0.2571485043 -0.1029723361 0.5569159389 4290040792
-0.2571907341 -0.1023703739 0.5570073724 4288658117
-0.2572327554 -0.1017681137 0.5570983291 4290566114
-0.2572745085 -0.1011655629 0.5571888089 4292538101
-0.2641542554 -0.1544572264 0.5734679699 4292865518
-0.2642156780 -0.1538558304 0.5736013055 4292405480
-0.2642768919 -0.1532540172 0.5737342238 4291944929
-0.2643378973 -0.1526517868 0.5738666058 4291353308
-0.2648054659 -0.1522830576 0.5748816729 4291024343
-0.2648661137 -0.1516790688 0.5750133991 4290959063
-0.2649265826 -0.1510746628 0.5751446486 4290761684
-0.2649868131 -0.1504698396 0.5752754211 4290432976
-0.2650468647 -0.1498646140 0.5754057169 4290235597
-0.2651066780 -0.1492589712 0.5755355954 4289906634
-0.2651662529 -0.1486529112 0.5756649971 4289577669
-0.2656330466 -0.1482738703 0.5766783357 4288723130
-0.2656923234 -0.1476660818 0.5768070221 4287867821
-0.2657513618 -0.1470578760 0.5769351721 4287012763
-0.2658101618 -0.1464492679 0.5770629048 4286289040
-0.2662765384 -0.1460639387 0.5780753493 4285303172
-0.2663350403 -0.1454535872 0.5782023072 4284513656
-0.2663932741 -0.1448428333 0.5783287883 4283462762
-0.2660432756 -0.1440108120 0.5775689483 4283199590
-0.2661010027 -0.1434001923 0.5776942372 4283265383
-0.2661584914 -0.1427891850 0.5778191090 4283068004
-0.2662158012 -0.1421777755 0.5779434443 4282871138
-0.2662728429 -0.1415659785 0.5780673027 4283002724
-0.2663297057 -0.1409537941 0.5781907439 4283069542
-0.2663863003 -0.1403412074 0.5783136487 4283332714
-0.2664427161 -0.1397282332 0.5784360766 4283794548
-0.2664988935 -0.1391148716 0.5785580277 4284584064
-0.2665548325 -0.1385011226 0.5786795020 4285045642
-0.2666105628 -0.1378870010 0.5788004994 4285703572
-0.2666660547 -0.1372724771 0.5789209604 4286293660
-0.2667213380 -0.1366575807 0.5790409446 4284714628
-0.2671855390 -0.1362509429 0.5800487399 4284449916
-0.2672404647 -0.1356343329 0.5801679492 4284910467
-0.2672951519 -0.1350173503 0.5802866817 4285829516
-0.2673496008 -0.1343999803 0.5804048777 4285829516
-0.2674038112 -0.1337822378 0.5805225968 4287274653
-0.2678674161 -0.1333680600 0.5815290213 4290301131
-0.2679212689 -0.1327486187 0.5816459656 4292469990
-0.2679748833 -0.1321288049 0.5817623734 4292996334
-0.2680282593 -0.1315086186 0.5818783045 4293522421
-0.2684913576 -0.1310882121 0.5828835964 4293785593
-0.2685443461 -0.1304663420 0.5829986930 4293588214
-0.2685971558 -0.1298440993 0.5831132531 4293127663
-0.2686496973 -0.1292214990 0.5832273364 4292667369
-0.2687020004 -0.1285985261 0.5833409429 4292272611
-0.2683437765 -0.1277798116 0.5825632215 4292403940
-0.2679851651 -0.1269626468 0.5817847252 4292140768
-0.2680366337 -0.1263404936 0.5818964243 4291548118
-0.2680878639 -0.1257179976 0.5820076466 4290627016
-0.2681388557 -0.1250951290 0.5821183324 4290232257
-0.2677789032 -0.1242812946 0.5813369155 4290955980
-0.2678293586 -0.1236586794 0.5814464688 4292469219
-0.2681457996 -0.1141029149 0.5821334720 4290364616
-0.2673684359 -0.1131272092 0.5804458261 4284849077
-0.2661785185 -0.1119816825 0.5778625011 4284651698
-0.2645758092 -0.1106692404 0.5743831396 4284590779
-0.2629722953 -0.1093641967 0.5709019303 4284590779
-0.2605434656 -0.1077256501 0.5656291246 4285048760
-0.2589382231 -0.1064373553 0.5621441603 4286890964
-0.2577445805 -0.1053250059 0.5595528483 4289911019
-0.2565503120 -0.1042181477 0.5569600463 4291226879
-0.2561804056 -0.1034499630 0.5561570525 4291883771
-0.2553975880 -0.1025177911 0.5544575453 4290173153
-0.2554395497 -0.1019184962 0.5545486808 4289579990
-0.2550685704 -0.1011552289 0.5537433028 4290501092
-0.2551100254 -0.1005563214 0.5538333058 4290434528
-0.2551512420 -0.0999571159 0.5539227724 4289973977
-0.2551922202 -0.0993576273 0.5540117025 4291419622
-0.2556459606 -0.0989176482 0.5549967885 4292735482
-0.2624665499 -0.1532067060 0.5711812377 4293062897
-0.2625274062 -0.1526074558 0.5713136792 4292602346
-0.2629939020 -0.1522427350 0.5723288655 4292142308
-0.2630544305 -0.1516417265 0.5724605918 4291813343
-0.2631147504 -0.1510403156 0.5725919008 4291287515
-0.2635809779 -0.1506706327 0.5736064911 4291155929
-0.2636409700 -0.1500674635 0.5737370253 4290893270
-0.2637007535 -0.1494638771 0.5738671422 4290827477
-0.2633538842 -0.1486305147 0.5731123090 4290761943
-0.2638196349 -0.1482554823 0.5741258860 4290827736
-0.2638787627 -0.1476506591 0.5742545128 4290630357
-0.2643443644 -0.1472720206 0.5752677917 4290235599
-0.2644031644 -0.1466654688 0.5753957033 4289906886
-0.2648685873 -0.1462832093 0.5764085650 4289446335
-0.2649270296 -0.1456749141 0.5765357614 4288658101
-0.2645782232 -0.1448433846 0.5757766366 4287671206
-0.2650432587 -0.1444571167 0.5767887235 4286487446
-0.2651010454 -0.1438476294 0.5769144893 4285829516
-0.2647513151 -0.1430176944 0.5761533380 4284974720
-0.2648085654 -0.1424083412 0.5762779713 4284185204
-0.2652730942 -0.1420167536 0.5772888660 4284054129
-0.2657375634 -0.1416228861 0.5782996416 4284251508
-0.2657943368 -0.1410104632 0.5784232020 4284120692
-0.2658509016 -0.1403976679 0.5785462856 4284054899
-0.2659072280 -0.1397844702 0.5786688328 4284515963
-0.2659633160 -0.1391708851 0.5787909627 4285568651
-0.2660191953 -0.1385569125 0.5789125562 4286621853
-0.2660748661 -0.1379425526 0.5790336728 4287740334
-0.2661302984 -0.1373278052 0.5791543126 4288266680
-0.2661855221 -0.1367126852 0.5792744756 4288529852
-0.2662405074 -0.1360971779 0.5793941021 4287936432
-0.2662952542 -0.1354812831 0.5795133114 4286686365
-0.2663497925 -0.1348650157 0.5796319842 4286881435
-0.2659955025 -0.1340424716 0.5788609385 4286091919
-0.2660495043 -0.1334263980 0.5789784789 4285629315
-0.2665120065 -0.1330139488 0.5799850225 4287076761
-0.2665656507 -0.1323961765 0.5801017284 4290561993
-0.2666190267 -0.1317780316 0.5802178979 4292206818
-0.2666721940 -0.1311595142 0.5803336501 4293259249
-0.2667251527 -0.1305406392 0.5804488063 4293390835
-0.2667778432 -0.1299213916 0.5805635452 4293456374
-0.2668303251 -0.1293017715 0.5806777477 4293719546
-0.2668825686 -0.1286817789 0.5807914138 4293719546
-0.2669346035 -0.1280614436 0.5809046030 4292930030
-0.2669863701 -0.1274407357 0.5810173154 4292403173
-0.2670379281 -0.1268196702 0.5811294913 4292140001
-0.2666796148 -0.1260046810 0.5803497434 4292271841
-0.2667306066 -0.1253838539 0.5804607272 4292140255
-0.2671912014 -0.1249543130 0.5814630389 4291482325
-0.2668319345 -0.1241411194 0.5806812644 4290692809
-0.2668822408 -0.1235192269 0.5807906985 4290627015
-0.2669323385 -0.1228969842 0.5808997154 4291284945
-0.2669821680 -0.1222743914 0.5810081959 4292600805
-0.2667864859 -0.1137988716 0.5805822611 4289903552
-0.2660105526 -0.1128247082 0.5788937211 4283538356
-0.2648229003 -0.1116806641 0.5763091445 4283472563
-0.2628120184 -0.1101971790 0.5719330311 4283279549
-0.2612115443 -0.1088945121 0.5684500933 4283608514
-0.2591988444 -0.1074287295 0.5640700459 4283474615
-0.2575967014 -0.1061418504 0.5605834723 4284329924
-0.2564053535 -0.1050309911 0.5579908490 4287482074
-0.2552133501 -0.1039256305 0.5553967953 4289653243
-0.2548440993 -0.1031590775 0.5545932651 4291622655
-0.2544744909 -0.1023941636 0.5537889004 4291096314
-0.2545163631 -0.1017956063 0.5538800359 4291882231
-0.2537342012 -0.1008692607 0.5521778464 4292211196
-0.2537754476 -0.1002720520 0.5522676110 4291092715
-0.2538164854 -0.0996745601 0.5523568988 4289974234
-0.2538572848 -0.0990767777 0.5524457097 4290302940
-0.2538978457 -0.0984787047 0.5525339842 4290763491
-0.2539381981 -0.0978803486 0.5526217818 4290895586
-0.2539782822 -0.0972817019 0.5527090430 4291158758
-0.2540181577 -0.0966827795 0.5527958274 4291750635
-0.2544702291 -0.0962395519 0.5537796021 4292342772
-0.2620576024 -0.1520682722 0.5716730356 4292997104
-0.2617128193 -0.1512338817 0.5709209442 4292733932
-0.2617728710 -0.1506340951 0.5710519552 4292405480
-0.2618327439 -0.1500339210 0.5711824894 4292208101
-0.2622977793 -0.1496646404 0.5721969604 4291682273
-0.2623572946 -0.1490626931 0.5723267794 4291419101
-0.2620109916 -0.1482308954 0.5715713501 4291222235
-0.2624756694 -0.1478575915 0.5725850463 4291024856
-0.2625345588 -0.1472544372 0.5727134943 4290827223
-0.2629990578 -0.1468775272 0.5737268329 4290827223
-0.2630575895 -0.1462726295 0.5738545060 4290894551
-0.2635219693 -0.1458921134 0.5748675466 4290828758
-0.2635801435 -0.1452854723 0.5749944448 4290762965
-0.2636381388 -0.1446784288 0.5751209259 4290499793
-0.2632895708 -0.1438490003 0.5743605494 4289907656
-0.2637534142 -0.1434631348 0.5753724575 4289118140
-0.2638107538 -0.1428548992 0.5754975080 4288131502
-0.2634612620 -0.1420270801 0.5747351050 4287341986
-0.2643314004 -0.1418554783 0.5766332746 4286422166
-0.2643881440 -0.1412451118 0.5767570734 4286027408
-0.2644446790 -0.1406343579 0.5768803954 4285698956
-0.2645009756 -0.1400232017 0.5770032406 4286027921
-0.2645570636 -0.1394116729 0.5771256089 4287343781
-0.2646129429 -0.1387997419 0.5772474408 4288922813
-0.2646685839 -0.1381874382 0.5773688555 4290238671
-0.2647239864 -0.1375747323 0.5774897337 4291357152
-0.2647791803 -0.1369616538 0.5776101351 4291488485
-0.2648341656 -0.1363481879 0.5777300596 4291356899
-0.2648889124 -0.1357343495 0.5778495073 4291027677
-0.2649434507 -0.1351201236 0.5779684186 4290106575
-0.2649977505 -0.1345055252 0.5780869126 4289512898
-0.2650518119 -0.1338905394 0.5782048702 4288197038
-0.2651056647 -0.1332751811 0.5783223510 4286747796
-0.2651592791 -0.1326594502 0.5784392953 4286089866
-0.2652126849 -0.1320433468 0.5785557628 4287996838
-0.2652658522 -0.1314268708 0.5786717534 4289773249
-0.2653187811 -0.1308100224 0.5787872672 4291745756
-0.2653715014 -0.1301928163 0.5789022446 4292995823
-0.2654239833 -0.1295752376 0.5790167451 4293324275
-0.2654762268 -0.1289572865 0.5791307092 4293390068
-0.2655282617 -0.1283389777 0.5792441964 4293850619
-0.2655800581 -0.1277203113 0.5793572068 4293982205
-0.2656316161 -0.1271012723 0.5794696808 4293719033
-0.2656829357 -0.1264818758 0.5795816779 4292863724
-0.2653252184 -0.1256684959 0.5788013339 4292140001
-0.2657849193 -0.1252420098 0.5798041224 4291876829
-0.2658355534 -0.1246215478 0.5799145699 4292403427
-0.2658859789 -0.1240007281 0.5800245404 4292666599
-0.2655270100 -0.1231897473 0.5792414546 4291942106
-0.2655768692 -0.1225691810 0.5793502331 4291021004
-0.2656264901 -0.1219482645 0.5794585347 4290692038
-0.2656759024 -0.1213270053 0.5795662999 4291481554
-0.2661345005 -0.1208913848 0.5805667043 4292600035
-0.2654297948 -0.1134944931 0.5790293813 4289770939
-0.2646553218 -0.1125218794 0.5773399472 4282949814
-0.2638803422 -0.1115527973 0.5756493211 4282818228
-0.2614629865 -0.1098971590 0.5703759193 4282491321
-0.2598656416 -0.1085959077 0.5668913126 4282754493
-0.2582674921 -0.1073020622 0.5634049773 4283148988
-0.2562578619 -0.1058460176 0.5590210557 4283280574
-0.2550688088 -0.1047366485 0.5564271212 4284263870
-0.2542898953 -0.1038004756 0.5547279716 4286698211
-0.2539213598 -0.1030345932 0.5539240241 4290177532
-0.2535524666 -0.1022703424 0.5531192422 4290967039
-0.2535942197 -0.1016725302 0.5532103181 4292013560
-0.2532246411 -0.1009105965 0.5524041653 4292342525
-0.2528547049 -0.1001503170 0.5515971184 4292276732
-0.2524844110 -0.0993916839 0.5507893562 4292210939
-0.2525250316 -0.0987956077 0.5508779883 4292145657
-0.2525654137 -0.0981992483 0.5509660840 4291553520
-0.2526055872 -0.0976025984 0.5510537028 4290830824
-0.2526455224 -0.0970056728 0.5511407852 4290765031
-0.2526851892 -0.0964084566 0.5512273312 4290567652
-0.2527246475 -0.0958109647 0.5513134599 4289843929
-0.2527638972 -0.0952131897 0.5513989925 4289974486
-0.2536263466 -0.0949233323 0.5532804132 4290961381
-0.2536652386 -0.0943230614 0.5533652902 4292275184
-0.2613618076 -0.1494927853 0.5715399384 4292734445
-0.2614211440 -0.1488915682 0.5716697574 4292471273
-0.2614802718 -0.1482899338 0.5717990398 4292273640
-0.2615391910 -0.1476878971 0.5719279051 4291944675
-0.2620028555 -0.1473131478 0.5729418397 4291550687
-0.2620614469 -0.1467093676 0.5730699301 4291616480
-0.2621198297 -0.1461051852 0.5731976032 4291289055
-0.2625831962 -0.1457254738 0.5742108822 4291223262
-0.2626412213 -0.1451195478 0.5743377805 4291288028
-0.2626990378 -0.1445132196 0.5744642019 4291222235
-0.2627566457 -0.1439065039 0.5745901465 4290959063
-0.2628140152 -0.1432993710 0.5747156739 4290761684
-0.2628711760 -0.1426918507 0.5748406649 4290630609
-0.2629281282 -0.1420839429 0.5749651790 4290564816
-0.2629848421 -0.1414756179 0.5750892162 4289250753
-0.2630413771 -0.1408669204 0.5752127767 4288921788
-0.2630976439 -0.1402578205 0.5753358603 4288330164
-0.2631537020 -0.1396483332 0.5754584670 4287869613
-0.2636157572 -0.1392530352 0.5764688253 4288132271
-0.2636714578 -0.1386418194 0.5765906572 4288790201
-0.2637269497 -0.1380302310 0.5767120123 4289974475
-0.2637822330 -0.1374182552 0.5768328905 4291290335
-0.2638372779 -0.1368058920 0.5769532323 4292276461
-0.2638920844 -0.1361931562 0.5770730972 4292342254
-0.2639466822 -0.1355800331 0.5771925449 4292210668
-0.2640010417 -0.1349665225 0.5773113966 4292013289
-0.2640551925 -0.1343526393 0.5774298310 4292143848
-0.2641091347 -0.1337383837 0.5775477290 4291749090
-0.2637557983 -0.1329186261 0.5767750740 4290563792
-0.2638092041 -0.1323045641 0.5768918395 4289116346
-0.2638623416 -0.1316901296 0.5770081282 4289444284
-0.2639153004 -0.1310753226 0.5771238804 4288786354
-0.2639680207 -0.1304601431 0.5772391558 4288982450
-0.2640205026 -0.1298446059 0.5773539543 4290561482
-0.2640727460 -0.1292286962 0.5774682164 4292337380
-0.2637171745 -0.1284139454 0.5766906738 4293126896
-0.2637689114 -0.1277982593 0.5768037438 4293586933
-0.2638203800 -0.1271822155 0.5769163370 4293652726
-0.2638716698 -0.1265658140 0.5770284534 4293916412
-0.2639226913 -0.1259490401 0.5771400332 4294179583
-0.2639735043 -0.1253319234 0.5772511363 4293916412
-0.2640240788 -0.1247144490 0.5773617625 4292797931
-0.2644825578 -0.1242884174 0.5783643723 4291811036
-0.2645327449 -0.1236692742 0.5784741640 4291811036
-0.2645827234 -0.1230497882 0.5785833597 4292336864
-0.2646324337 -0.1224299446 0.5786921382 4292534243
-0.2646819353 -0.1218097508 0.5788003802 4291744727
-0.2647311985 -0.1211892143 0.5789080858 4290823625
-0.2651888430 -0.1207543910 0.5799088478 4290363073
-0.2652377188 -0.1201322079 0.5800157189 4291284175
-0.2648775876 -0.1193255335 0.5792281628 4292731621
-0.2640757561 -0.1131897718 0.5774747729 4289375670
-0.2633027434 -0.1122187003 0.5757843852 4282163126
-0.2625292242 -0.1112511680 0.5740928650 4282031540
-0.2605262697 -0.1097693965 0.5697128773 4282425529
-0.2589321136 -0.1084685996 0.5662267208 4282162357
-0.2573371232 -0.1071752086 0.5627388954 4282492087
-0.2557413578 -0.1058892459 0.5592493415 4282821052
-0.2545547485 -0.1047794372 0.5566544533 4283083708
-0.2537774444 -0.1038428918 0.5549546480 4284662740
-0.2529996336 -0.1029099226 0.5532537699 4286761439
-0.2530415654 -0.1023121700 0.5533454418 4287616748
-0.2526730597 -0.1015492678 0.5525396466 4289188571
-0.2523042262 -0.1007880047 0.5517330766 4289517536
-0.2519350052 -0.1000283957 0.5509256721 4290634732
-0.2515654266 -0.0992704406 0.5501174331 4291621627
-0.2516059279 -0.0986751020 0.5502060652 4292081150
-0.2512356937 -0.0979194865 0.5493963957 4291686392
-0.2512756586 -0.0973245502 0.5494838357 4291620342
-0.2513154149 -0.0967293307 0.5495707393 4291949307
-0.2513549328 -0.0961338356 0.5496571660 4291488501
-0.2513942122 -0.0955380574 0.5497430563 4290435813
-0.2514332533 -0.0949419960 0.5498284698 4289974747
-0.2518829703 -0.0944998190 0.5508118868 4289711575
-0.2519216239 -0.0939022377 0.5508964062 4289710287
-0.2523710728 -0.0934565887 0.5518792272 4290697182
-0.2528204024 -0.0930087119 0.5528618693 4292735735
-0.2601997256 -0.1472892463 0.5703840852 4292865518
-0.2606622875 -0.1469162256 0.5713980794 4292602346
-0.2607206404 -0.1463140994 0.5715259910 4292536553
-0.2607787549 -0.1457115710 0.5716533661 4292405228
-0.2608366609 -0.1451086402 0.5717803240 4292207849
-0.2612988353 -0.1447293311 0.5727934241 4292076263
-0.2613563836 -0.1441246718 0.5729196668 4291944677
-0.2614137530 -0.1435195953 0.5730453730 4291615710
-0.2614708841 -0.1429141313 0.5731706023 4291484124
-0.2615278065 -0.1423082650 0.5732953548 4291353821
-0.2615844905 -0.1417020112 0.5734196305 4291353821
-0.2616409659 -0.1410953552 0.5735434890 4291025113
-0.2616972327 -0.1404883116 0.5736668110 4290959320
-0.2617532909 -0.1398808807 0.5737896562 4290630609
-0.2618091106 -0.1392730474 0.5739120245 4290170058
-0.2618647218 -0.1386648417 0.5740339160 4289906886
-0.2619200945 -0.1380562484 0.5741553307 4290170058
-0.2619752586 -0.1374472529 0.5742762685 4290697172
-0.2620302141 -0.1368378848 0.5743966699 4291486688
-0.2624906301 -0.1364390105 0.5754060149 4292670192
-0.2625452280 -0.1358279437 0.5755256414 4293196536
-0.2625995874 -0.1352164745 0.5756448507 4293591038
-0.2626537085 -0.1346046478 0.5757635236 4293722111
-0.2627076507 -0.1339924335 0.5758817196 4293524988
-0.2627613246 -0.1333798319 0.5759993792 4293261816
-0.2628147900 -0.1327668726 0.5761166215 4293260535
-0.2628680468 -0.1321535259 0.5762333274 4292339433
-0.2625146806 -0.1313365102 0.5754587650 4290759374
-0.2625674009 -0.1307233870 0.5755742788 4289772479
-0.2626198828 -0.1301098764 0.5756893158 4288456106
-0.2626721561 -0.1294960082 0.5758038759 4287995555
-0.2627241910 -0.1288817823 0.5759179592 4289179316
-0.2623692155 -0.1280686259 0.5751398206 4291087313
-0.2620138526 -0.1272570044 0.5743608475 4292863210
-0.2620650530 -0.1266435981 0.5744730830 4293784312
-0.2621160150 -0.1260298193 0.5745847821 4293784826
-0.2621667385 -0.1254156828 0.5746960044 4293784826
-0.2626244128 -0.1249949858 0.5756992698 4293851132
-0.2626747787 -0.1243791878 0.5758096576 4294048511
-0.2631322443 -0.1239549145 0.5768124461 4293719033
-0.2631822228 -0.1233374551 0.5769219995 4292797931
-0.2632319629 -0.1227196455 0.5770310760 4292402657
-0.2636890113 -0.1222904921 0.5780329704 4292271071
-0.2637383640 -0.1216710284 0.5781412125 4292139485
-0.2637875080 -0.1210512146 0.5782488585 4292336864
-0.2638363838 -0.1204310581 0.5783560276 4291876313
-0.2638850510 -0.1198105514 0.5784627199 4290692039
-0.2639334798 -0.1191897094 0.5785688758 4290297280
-0.2635736763 -0.1183852628 0.5777801275 4291152589
-0.2636215389 -0.1177646965 0.5778850913 4292599778
-0.2631329596 -0.1130602658 0.5768140554 4288915378
-0.2623614669 -0.1120897830 0.5751228929 4281967034
-0.2615894973 -0.1111228392 0.5734305978 4281835448
-0.2595905662 -0.1096414477 0.5690487623 4281900473
-0.2579995692 -0.1083410904 0.5655611753 4281900473
-0.2564077973 -0.1070481613 0.5620718002 4281966771
-0.2548152208 -0.1057626531 0.5585807562 4282361529
-0.2540400624 -0.1048221737 0.5568814874 4282888641
-0.2532643676 -0.1038852558 0.5551810861 4284204501
-0.2524881661 -0.1029519215 0.5534795523 4284595155
-0.2525300384 -0.1023539379 0.5535713434 4284529362
-0.2521623373 -0.1015907377 0.5527653098 4285382602
-0.2517942488 -0.1008291841 0.5519584417 4285251016
-0.2514258027 -0.1000692770 0.5511507988 4286892245
-0.2510569990 -0.0993110240 0.5503423214 4288142312
-0.2510974705 -0.0987154543 0.5504310131 4289914095
-0.2507280111 -0.0979595408 0.5496211648 4290572025
-0.2507679462 -0.0973643735 0.5497086644 4291621627
-0.2508076429 -0.0967689231 0.5497956872 4292082175
-0.2504372299 -0.0960160494 0.5489836931 4292146943
-0.2508863509 -0.0955771878 0.5499682426 4291949564
-0.2509253323 -0.0949808955 0.5500537157 4291751928
-0.2509641051 -0.0943843275 0.5501387119 4290370275
-0.2510026693 -0.0937874839 0.5502232313 4288658888
-0.2510409653 -0.0931903645 0.5503071547 4288724681
-0.2514893115 -0.0927442759 0.5512899756 4290237919
-0.2519375384 -0.0922959596 0.5522724986 4291356400
-0.2596126497 -0.1435124874 0.5704861283 4292864752
-0.2596696615 -0.1429100186 0.5706114173 4292273129
-0.2597264647 -0.1423071474 0.5707362294 4292075750
-0.2601870596 -0.1419242620 0.5717483759 4292010468
-0.2602435052 -0.1413196623 0.5718724132 4291878882
-0.2602997422 -0.1407146752 0.5719959736 4291615710
-0.2603557706 -0.1401092857 0.5721191168 4291681503
-0.2604115605 -0.1395035237 0.5722417235 4291747550
-0.2604671419 -0.1388973594 0.5723638535 4291681757
-0.2605225146 -0.1382908076 0.5724855065 4291550685
-0.2605776489 -0.1376838684 0.5726066828 4291550685
-0.2606325746 -0.1370765567 0.5727273822 4291288539
-0.2606872916 -0.1364688575 0.5728476048 4291222746
-0.2607417703 -0.1358607709 0.5729673505 4291616478
-0.2612009943 -0.1354623139 0.5739764571 4292800752
-0.2612551451 -0.1348525286 0.5740954280 4293261303
-0.2613090575 -0.1342423558 0.5742138624 4293853183
-0.2613627315 -0.1336318254 0.5743318200 4294115327
-0.2614161968 -0.1330208927 0.5744493008 4294049791
-0.2614694238 -0.1324096024 0.5745663047 4294180863
-0.2615224421 -0.1317979395 0.5746827722 4293852413
-0.2611696720 -0.1309825033 0.5739076138 4292930541
-0.2612221539 -0.1303710490 0.5740229487 4292206818
-0.2612744272 -0.1297592223 0.5741378069 4291022033
-0.2613264620 -0.1291470230 0.5742521286 4289443001
-0.2609724104 -0.1283348799 0.5734741092 4288258214
-0.2610239089 -0.1277229190 0.5735872984 4287995042
-0.2606691420 -0.1269128919 0.5728077292 4289638840
-0.2607201338 -0.1263011545 0.5729197264 4291744216
-0.2607708573 -0.1256890595 0.5730312467 4292798444
-0.2608213723 -0.1250766069 0.5731422305 4293522167
-0.2612780035 -0.1246576682 0.5741456747 4293719546
-0.2617345750 -0.1242364645 0.5751489401 4293719546
-0.2617845535 -0.1236210391 0.5752587914 4293982718
-0.2618343234 -0.1230052635 0.5753681660 4294114303
-0.2618838549 -0.1223891303 0.5754770041 4293719287
-0.2623398602 -0.1219617426 0.5764790773 4292929771
-0.2623890042 -0.1213439628 0.5765870810 4291942106
-0.2624379396 -0.1207258329 0.5766945481 4291810520
-0.2624866068 -0.1201073602 0.5768015385 4291877083
-0.2625350654 -0.1194885373 0.5769079924 4291877083
-0.2625832856 -0.1188693792 0.5770139694 4291481555
-0.2630384564 -0.1184332147 0.5780141354 4290560453
-0.2626790106 -0.1176300421 0.5772243142 4290231488
-0.2627265155 -0.1170098707 0.5773287416 4290889418
-0.2627738118 -0.1163893566 0.5774326324 4292206560
-0.2621452212 -0.1135507971 0.5760512948 4293127160
-0.2617834210 -0.1127549261 0.5752562881 4288587443
-0.2614212334 -0.1119606644 0.5744603872 4281704893
-0.2602428794 -0.1108206138 0.5718709826 4281375928
-0.2586558759 -0.1095132977 0.5683836341 4281573818
-0.2570680678 -0.1082133949 0.5648945570 4281047474
-0.2558875978 -0.1070917174 0.5623005629 4281441195
-0.2542982996 -0.1058057025 0.5588081479 4282230711
-0.2535247207 -0.1048648581 0.5571082234 4282230968
-0.2523423135 -0.1037596762 0.5545099378 4283349449
