VERSION 0.7
FIELDS x y z rgba
SIZE 4 4 4 4
TYPE F F F U
COUNT 1 1 1 1
WIDTH 920
HEIGHT 1
VIEWPOINT 0.0 0.0 0.0 1.0 0.0 0.0 0.0
POINTS 920
DATA ascii
-0.2877211869 -0.2030656338 0.5945265889 4289182662
-0.2878018916 -0.2024618685 0.5946934223 4289116869
-0.2878824472 -0.2018575966 0.5948598385 4289247942
-0.2879627943 -0.2012528032 0.5950258374 4289116356
-0.2876260877 -0.2003571540 0.5943300724 4288984770
-0.2877058983 -0.1997522265 0.5944950581 4289116356
-0.2873684466 -0.1988581866 0.5937977433 4288787391
-0.2874477804 -0.1982531399 0.5939616561 4288853184
-0.2875269055 -0.1976476014 0.5941251516 4289050563
-0.2876058221 -0.1970415562 0.5942882299 4289116356
-0.2876845598 -0.1964350194 0.5944508910 4289116356
-0.2877630591 -0.1958279759 0.5946131945 4289247942
-0.2878414094 -0.1952204406 0.5947750211 4289313735
-0.2883374095 -0.1948948652 0.5957999229 4289313735
-0.2884154320 -0.1942854524 0.5959611535 4289510855
-0.2889113724 -0.1939562410 0.5969859362 4289642441
-0.2894073427 -0.1936247498 0.5980107188 4290366164
-0.2894849777 -0.1930120885 0.5981711745 4290497750
-0.2899808586 -0.1926769763 0.5991958380 4291483875
-0.2900582254 -0.1920624375 0.5993556976 4292404977
-0.2897848785 -0.1832325608 0.5987908840 4292863986
-0.2898589671 -0.1826139390 0.5989440084 4292666607
-0.2899328470 -0.1819948554 0.5990966558 4292535021
-0.2900065184 -0.1813752800 0.5992488861 4292403435
-0.2900799811 -0.1807552427 0.5994006395 4292337384
-0.2901532054 -0.1801347286 0.5995519757 4292074212
-0.2902262509 -0.1795137525 0.5997028947 4291679454
-0.2907197773 -0.1791515797 0.6007226706 4291416282
-0.2907924652 -0.1785287559 0.6008728743 4291350234
-0.2908649445 -0.1779054701 0.6010226607 4291350234
-0.2909372151 -0.1772817224 0.6011719704 4291218903
-0.2910092473 -0.1766575128 0.6013208032 4291218903
-0.2910810709 -0.1760328412 0.6014692187 4291218903
-0.2907313108 -0.1751538664 0.6007465720 4291153110
-0.2908025980 -0.1745291650 0.6008938551 4290889685
-0.2912952304 -0.1741560549 0.6019117832 4290758099
-0.2913661599 -0.1735295355 0.6020583510 4290692306
-0.2914368808 -0.1729025692 0.6022045016 4290626513
-0.2915073931 -0.1722751409 0.6023501754 4290429647
-0.2911556959 -0.1713988483 0.6016234756 4290363854
-0.2912256718 -0.1707714200 0.6017680168 4290363854
-0.2908732295 -0.1698969603 0.6010397673 4290166475
-0.2913649082 -0.1695152223 0.6020557284 4289969096
-0.2905894518 -0.1683969200 0.6004533768 4289903303
-0.2906582952 -0.1677695066 0.6005956531 4289771717
-0.2911494970 -0.1673846096 0.6016106606 4289640131
-0.2907953262 -0.1665133685 0.6008788347 4289508545
-0.2908635139 -0.1658846438 0.6010197401 4289311166
-0.2913543284 -0.1654956639 0.6020339131 4289047994
-0.2909992039 -0.1646258533 0.6013000607 4288850615
-0.2914897799 -0.1642341614 0.6023137569 4288719280
-0.2915571332 -0.1636027545 0.6024529338 4288587694
-0.2920475304 -0.1632074416 0.6034662724 4288324009
-0.2921145558 -0.1625742316 0.6036047339 4288126630
-0.2921813428 -0.1619406044 0.6037427783 4287995046
-0.2922478914 -0.1613065302 0.6038802862 4287666081
-0.2923142016 -0.1606720388 0.6040173173 4287008664
-0.2923803031 -0.1600371003 0.6041538715 4286613906
-0.2920223176 -0.1591707170 0.6034141779 4285958795
-0.2920878530 -0.1585358530 0.6035495400 4286156174
-0.2921531498 -0.1579005569 0.6036844850 4284055928
-0.2917940915 -0.1570365876 0.6029425859 4282082138
-0.2914346159 -0.1561740339 0.6021997333 4281626459
-0.2910746932 -0.1553129107 0.6014561057 4281231701
-0.2907143831 -0.1544532180 0.6007115245 4280906838
-0.2903536260 -0.1535949558 0.5999661088 4280643666
-0.2899924815 -0.1527381241 0.5992198586 4280844117
-0.2900555730 -0.1521054357 0.5993502140 4281173082
-0.2896936536 -0.1512505561 0.5986024141 4281108828
-0.2893313468 -0.1503971219 0.5978537202 4281043035
-0.2889685929 -0.1495451480 0.5971041918 4280256338
-0.2886054218 -0.1486946195 0.5963537693 4279861580
-0.2886669934 -0.1480636001 0.5964809656 4279601229
-0.2883030772 -0.1472150385 0.5957289934 4279995987
-0.2883640826 -0.1465841532 0.5958550572 4279800405
-0.2879994214 -0.1457375884 0.5951015949 4279668819
-0.2880598605 -0.1451068372 0.5952264667 4279405649
-0.2876944840 -0.1442622691 0.5944714546 4279339856
-0.2877543569 -0.1436316520 0.5945951343 4279603030
-0.2878139913 -0.1430006474 0.5947183371 4279800409
-0.2874475121 -0.1421586424 0.5939611197 4279734875
-0.2875065804 -0.1415277869 0.5940831900 4279669082
-0.2875654101 -0.1408965290 0.5942047834 4279668821
-0.2876240015 -0.1402648985 0.5943258405 4279603028
-0.2876823545 -0.1396328807 0.5944464207 4279997016
-0.2877404690 -0.1390004903 0.5945664644 4279865430
-0.2877983451 -0.1383676976 0.5946860313 4280128602
-0.2878559828 -0.1377345324 0.5948051214 4279997016
-0.2879133523 -0.1371009946 0.5949237347 4280062811
-0.2879705131 -0.1364670694 0.5950418115 4279997018
-0.2880274057 -0.1358327717 0.5951593518 4279734616
-0.2889376581 -0.1355986893 0.5970402360 4279997788
-0.2885673642 -0.1347624063 0.5962750912 4279998045
-0.2886236012 -0.1341260374 0.5963913202 4279669080
-0.2886796296 -0.1334893107 0.5965070724 4279603800
-0.2887353897 -0.1328522116 0.5966222882 4279866972
-0.2887909114 -0.1322147399 0.5967370272 4279801949
-0.2884188890 -0.1313822567 0.5959683061 4279736156
-0.2884738445 -0.1307449937 0.5960818529 4280065380
-0.2885285616 -0.1301073730 0.5961948633 4279868001
-0.2885830104 -0.1294693947 0.5963073969 4280131173
-0.2886372209 -0.1288310438 0.5964193940 4280328552
-0.2891188562 -0.1283822507 0.5974146724 4280197736
-0.2891726494 -0.1277422458 0.5975258350 4280329322
-0.2892261744 -0.1271018833 0.5976364613 4280329833
-0.2892794907 -0.1264611632 0.5977465510 4280329833
-0.2893325090 -0.1258200854 0.5978561640 4280329833
-0.2893853188 -0.1251786649 0.5979652405 4280527212
-0.2894378603 -0.1245368868 0.5980738401 4280856175
-0.2894901335 -0.1238947660 0.5981818438 4281053554
-0.2891138792 -0.1230699643 0.5974043608 4280593003
-0.2891655862 -0.1224280968 0.5975111723 4280658796
-0.2892170250 -0.1217858866 0.5976175070 4280593516
-0.2888396978 -0.1209638640 0.5968378186 4280527723
-0.2888905704 -0.1203219295 0.5969429612 4280591978
-0.2893698812 -0.1198572144 0.5979333520 4280920943
-0.2894203365 -0.1192136481 0.5980376005 4280855148
-0.2894705236 -0.1185697392 0.5981413126 4280920941
-0.2895204425 -0.1179255024 0.5982444882 4280855918
-0.2895701230 -0.1172809303 0.5983471274 4280855918
-0.2896195650 -0.1166360304 0.5984492898 4280790895
-0.2900978625 -0.1161626354 0.5994376540 4280659309
-0.2901468575 -0.1155161187 0.5995388627 4280134248
-0.2901955843 -0.1148692816 0.5996395350 4280331627
-0.2898147106 -0.1140531451 0.5988525152 4280595313
-0.2898628414 -0.1134066135 0.5989519954 4280595313
-0.2899107337 -0.1127597541 0.5990509391 4280792178
-0.2903879285 -0.1122786775 0.6000369787 4280594799
-0.2904353440 -0.1116302237 0.6001349688 4280396905
-0.2904825211 -0.1109814569 0.6002324820 4280594284
-0.2905294597 -0.1103323698 0.6003293991 4280660843
-0.2905761003 -0.1096829772 0.6004258394 4280595050
-0.2901926041 -0.1088719741 0.5996333361 4280332392
-0.2902386487 -0.1082229167 0.5997285247 4280200806
-0.2907145023 -0.1077329144 0.6007118225 4280003427
-0.2907601297 -0.1070822850 0.6008060575 4279806048
-0.2908054888 -0.1064313427 0.6008997560 4279740255
-0.2904203236 -0.1056236178 0.6001039147 4279674462
-0.2904650867 -0.1049730331 0.6001963615 4279937120
-0.2905095816 -0.1043221503 0.6002883315 4279937120
-0.2905538082 -0.1036709696 0.6003797054 4279740255
-0.2910282910 -0.1031721160 0.6013601422 4279871841
-0.2910720408 -0.1025193781 0.6014506221 4280331878
-0.2911155522 -0.1018663421 0.6015405059 4280529257
-0.2911587954 -0.1012130231 0.6016298532 4280726123
-0.2912017703 -0.1005594060 0.6017186642 4280857709
-0.2916752994 -0.1000532955 0.6026971340 4280924531
-0.2917178273 -0.0993981361 0.6027849913 4280924531
-0.2921910286 -0.0988885462 0.6037627459 4280989555
-0.2922330499 -0.0982318521 0.6038495898 4281318520
-0.2922748029 -0.0975748748 0.6039358974 4281580411
-0.2923163176 -0.0969176218 0.6040216684 4281646204
-0.2927887440 -0.0964020565 0.6049978733 4282565768
-0.2928297520 -0.0957432762 0.6050826311 4282894733
-0.2933018208 -0.0952242464 0.6060580611 4283089805
-0.2933423817 -0.0945639387 0.6061418056 4283550356
-0.2933826447 -0.0939033628 0.6062250137 4284139157
-0.2934226394 -0.0932425112 0.6063076854 4284007571
-0.2938939035 -0.0927175432 0.6072815061 4284596374
-0.2935017943 -0.0919200033 0.6064713001 4284793753
-0.2935409844 -0.0912583545 0.6065522432 4285515168
-0.2935798764 -0.0905964375 0.6066325903 4285844133
-0.2936185300 -0.0899342597 0.6067124605 4286040231
-0.2936568856 -0.0892718211 0.6067917347 4286040231
-0.2936949730 -0.0886091217 0.6068704128 4286434476
-0.2937327623 -0.0879461616 0.6069485545 4286763441
-0.2937703133 -0.0872829556 0.6070261002 4287419832
-0.2942396402 -0.0867468715 0.6079959273 4287485625
-0.2942766845 -0.0860821828 0.6080724597 4287812282
-0.2943134606 -0.0854172409 0.6081483960 4288141247
-0.2943499386 -0.0847520456 0.6082237959 4288862149
-0.2939538658 -0.0839631334 0.6074054241 4289520079
-0.2939897478 -0.0832984298 0.6074795723 4290043089
-0.2940253615 -0.0826334879 0.6075531244 4289714124
-0.2940607071 -0.0819683000 0.6076261401 4290040779
-0.2940957546 -0.0813028738 0.6076985598 4289777607
-0.2941305339 -0.0806372091 0.6077704430 4289513924
-0.2937324345 -0.0798537061 0.6069478393 4289579717
-0.2946318984 -0.0794218108 0.6088063717 4289842375
-0.2946658731 -0.0787544623 0.6088766456 4289776582
-0.2946995795 -0.0780868903 0.6089463234 4289250236
-0.2947330177 -0.0774190947 0.6090154052 4288592306
-0.2947661877 -0.0767510608 0.6090838909 4288000939
-0.2952319384 -0.0761945322 0.6100463271 4287606181
-0.2952645719 -0.0755250752 0.6101137400 4287540388
-0.2952969372 -0.0748554021 0.6101806164 4287803560
-0.2948959768 -0.0740767270 0.6093521118 4288328621
-0.2953608036 -0.0735153928 0.6103125811 4288526000
-0.2953923345 -0.0728450641 0.6103777289 4288986037
-0.2958567441 -0.0722803473 0.6113373637 4289512381
-0.2958877385 -0.0716086105 0.6114013791 4290103492
-0.2959184349 -0.0709366575 0.6114648581 4290564043
-0.2959488630 -0.0702645034 0.6115277410 4291352789
-0.2959790230 -0.0695921406 0.6115900278 4292076512
-0.2960088849 -0.0689195767 0.6116517186 4292930535
-0.2851661742 -0.2207552046 0.5906025767 4292864241
-0.2852523625 -0.2201655209 0.5907810330 4292600814
-0.2849259973 -0.2192579806 0.5901051760 4292403435
-0.2850117087 -0.2186680883 0.5902826190 4292403948
-0.2846846282 -0.2177620530 0.5896052718 4292206569
-0.2843571305 -0.2168571949 0.5889269710 4291746534
-0.2844420373 -0.2162674218 0.5891028047 4291483362
-0.2849397361 -0.2159901261 0.5901335478 4291417569
-0.2850244045 -0.2153984308 0.5903089046 4291483362
-0.2851088643 -0.2148062140 0.5904839039 4291746020
-0.2856065035 -0.2145239264 0.5915145278 4291943399
-0.2856907547 -0.2139297873 0.5916889906 4292010217
-0.2857747972 -0.2133351266 0.5918630958 4291878631
-0.2858586609 -0.2127399445 0.5920367837 4292273132
-0.2859423459 -0.2121442407 0.5922101140 4292075753
-0.2860258520 -0.2115480006 0.5923830271 4291944167
-0.2861091793 -0.2109512538 0.5925555825 4291944167
-0.2861922979 -0.2103539854 0.5927277207 4292009960
-0.2858609557 -0.2094526291 0.5920414925 4291746788
-0.2855291665 -0.2085524946 0.5913543105 4292009706
-0.2856114805 -0.2079554051 0.5915248394 4292009706
-0.2856936157 -0.2073577940 0.5916949511 4292009706
-0.2857755721 -0.2067596614 0.5918646455 4292075499
-0.2858573198 -0.2061610222 0.5920339823 4291943913
-0.2859388888 -0.2055618614 0.5922029018 4291878120
-0.2860202491 -0.2049621940 0.5923714042 4292009706
-0.2861014307 -0.2043620199 0.5925395489 4291878120
-0.2865977883 -0.2040570527 0.5935675502 4291681256
-0.2866787016 -0.2034549862 0.5937350988 4291878635
-0.2867594063 -0.2028523982 0.5939022899 4291681256
-0.2868399322 -0.2022493184 0.5940690637 4291681256
-0.2869202793 -0.2016457170 0.5942354202 4291812840
-0.2870004177 -0.2010416090 0.5944014192 4291615461
-0.2866642773 -0.2001465112 0.5937052965 4291353059
-0.2867439091 -0.1995422840 0.5938701630 4291287266
-0.2868233323 -0.1989375353 0.5940346718 4291287266
-0.2869025767 -0.1983322948 0.5941988230 4291155680
-0.2869816124 -0.1977265477 0.5943624973 4291353059
-0.2870604396 -0.1971203089 0.5945257545 4291353059
-0.2871390879 -0.1965135634 0.5946886539 4291287266
-0.2872175276 -0.1959063262 0.5948510766 4291418852
-0.2881297171 -0.1958654970 0.5967403054 4291418852
-0.2873738110 -0.1946903467 0.5951747298 4291484645
-0.2874516249 -0.1940816194 0.5953359604 4291878633
-0.2879465818 -0.1937531978 0.5963610411 4291483875
-0.2880241275 -0.1931426078 0.5965216160 4292010219
-0.2885189950 -0.1928105354 0.5975465775 4292207598
-0.2885962427 -0.1921980679 0.5977065563 4292404975
-0.2899721563 -0.1690929979 0.6005561352 4292929781
-0.2898249924 -0.1663394868 0.6002513170 4292929781
-0.2898930013 -0.1657114327 0.6003921628 4292798195
-0.2899607718 -0.1650829464 0.6005325913 4292535023
-0.2900283337 -0.1644540280 0.6006724834 4292337644
-0.2900956571 -0.1638246626 0.6008119583 4292140001
-0.2901627719 -0.1631948501 0.6009508967 4292008415
-0.2906520963 -0.1628012508 0.6019643545 4291941854
-0.2907188535 -0.1621696502 0.6021026373 4291744475
-0.2907853723 -0.1615376174 0.6022403836 4291416282
-0.2908516526 -0.1609051675 0.6023776531 4291087317
-0.2909177244 -0.1602722704 0.6025144458 4290496720
-0.2909835279 -0.1596389413 0.6026508212 4290299341
-0.2910491228 -0.1590051949 0.6027866602 4290038990
-0.2906913757 -0.1581408232 0.6020457149 4289841611
-0.2907564044 -0.1575071365 0.6021803617 4287343526
-0.2908211946 -0.1568730325 0.6023145914 4285830287
-0.2904623747 -0.1560110748 0.6015713811 4285832850
-0.2901031077 -0.1551505476 0.6008273363 4285174920
-0.2901670337 -0.1545170248 0.6009597182 4284452735
-0.2898070216 -0.1536584347 0.6002141237 4283663219
-0.2894465923 -0.1528012753 0.5994676352 4282088288
-0.2890857458 -0.1519455612 0.5987203121 4281298772
-0.2891484499 -0.1513131559 0.5988501310 4280642125
-0.2887868583 -0.1504593939 0.5981012583 4280642125
-0.2892731428 -0.1500471085 0.5991084576 4279987014
-0.2884866595 -0.1489753127 0.5974795222 4279921221
-0.2885482311 -0.1483431309 0.5976070762 4279333185
-0.2881851494 -0.1474933177 0.5968551040 4279530564
-0.2886706889 -0.1470775604 0.5978606939 4279928654
-0.2883069515 -0.1462288052 0.5971074104 4280191826
-0.2883675098 -0.1455959529 0.5972327590 4279602001
-0.2880030274 -0.1447491944 0.5964779258 4279667794
-0.2884878814 -0.1443290412 0.5974820852 4280195165
-0.2881227732 -0.1434833556 0.5967258811 4280326751
-0.2877572179 -0.1426391602 0.5959688425 4279866459
-0.2873912752 -0.1417964399 0.5952109098 4279800666
-0.2874501348 -0.1411640197 0.5953328013 4279801433
-0.2875087261 -0.1405312121 0.5954542160 4279538261
-0.2875671089 -0.1398980170 0.5955750942 4279603541
-0.2871997654 -0.1390584260 0.5948143005 4279669334
-0.2872575819 -0.1384253949 0.5949340463 4279603028
-0.2877407968 -0.1379961371 0.5959348083 4279603028
-0.2877981961 -0.1373614073 0.5960537195 4279800407
-0.2878553867 -0.1367263049 0.5961720943 4279734614
-0.2879123092 -0.1360908300 0.5962900519 4279668821
-0.2883949876 -0.1356553435 0.5972896814 4279734614
-0.2884514928 -0.1350181699 0.5974067450 4279800407
-0.2880816162 -0.1341821253 0.5966407061 4279734614
-0.2881375849 -0.1335451454 0.5967565775 4279866459
-0.2881932855 -0.1329078078 0.5968719721 4280195424
-0.2882487476 -0.1322700828 0.5969868302 4279866972
-0.2883039713 -0.1316320002 0.5971012115 4279406421
-0.2879323661 -0.1307997704 0.5963315964 4279931995
-0.2879870236 -0.1301618963 0.5964447856 4280063581
-0.2880414128 -0.1295236647 0.5965574384 4279670363
-0.2885223627 -0.1290760189 0.5975535512 4279604570
-0.2885763645 -0.1284361184 0.5976653099 4279540317
-0.2886300981 -0.1277958602 0.5977765918 4279540317
-0.2886835933 -0.1271552444 0.5978873968 4279146840
-0.2887368202 -0.1265142858 0.5979976654 4279410012
-0.2887898088 -0.1258729547 0.5981073976 4279474522
-0.2888425291 -0.1252312809 0.5982165933 4279540315
-0.2888950109 -0.1245892569 0.5983253121 4279736154
-0.2889472544 -0.1239468828 0.5984334946 4280130912
-0.2889992297 -0.1233041584 0.5985411406 4280459361
-0.2886233926 -0.1224796399 0.5977627039 4280393568
-0.2882471383 -0.1216566786 0.5969834328 4279867994
-0.2882981896 -0.1210148260 0.5970892310 4280065373
-0.2883490324 -0.1203726307 0.5971944928 4279474265
-0.2883996069 -0.1197301000 0.5972992182 4279605851
-0.2884499133 -0.1190872341 0.5974034667 4279540315
-0.2889280319 -0.1186197624 0.5983936191 4279803487
-0.2889778912 -0.1179752648 0.5984969735 4280066659
-0.2890275419 -0.1173304394 0.5985997319 4279869280
-0.2890768945 -0.1166852862 0.5987020135 4279672414
-0.2895543575 -0.1162117049 0.5996908545 4279935586
-0.2896032929 -0.1155649349 0.5997921824 4279870561
-0.2896519601 -0.1149178371 0.5998930335 4279344217
-0.2897003889 -0.1142704114 0.5999932885 4279082328
-0.2893199325 -0.1134545803 0.5992053151 4279148121
-0.2893677652 -0.1128074676 0.5993043780 4279213144
-0.2898440957 -0.1123261973 0.6002909541 4279476316
-0.2898915112 -0.1116774902 0.6003890634 4279607389
-0.2899386287 -0.1110284626 0.6004866958 4279278424
-0.2899855077 -0.1103791222 0.6005837917 4279541595
-0.2900321186 -0.1097294614 0.6006802917 4279541595
-0.2900784612 -0.1090794951 0.6007763147 4279410522
-0.2901245356 -0.1084292084 0.6008717418 4279278936
-0.2901703715 -0.1077786237 0.6009666324 4279213143
-0.2902159393 -0.1071277261 0.6010610461 4279213143
-0.2902612388 -0.1064765230 0.6011548638 4279213143
-0.2903062701 -0.1058250144 0.6012481451 4279081557
-0.2899215519 -0.1050176248 0.6004513502 4278949971
-0.2903955877 -0.1045210958 0.6014330983 4278949971
-0.2904398143 -0.1038686857 0.6015247107 4278753620
-0.2904838324 -0.1032159775 0.6016158462 4278819413
-0.2909573317 -0.1027146950 0.6025964618 4278885719
-0.2910008430 -0.1020604372 0.6026866436 4279017305
-0.2910440862 -0.1014058813 0.6027762294 4279214171
-0.2910870910 -0.1007510349 0.6028652787 4279411550
-0.2915598452 -0.1002437472 0.6038444042 4279477085
-0.2916023731 -0.0995873585 0.6039324403 4280003429
-0.2916446328 -0.0989306793 0.6040199995 4279936867
-0.2921168506 -0.0984186605 0.6049979329 4279607902
-0.2921586335 -0.0977604464 0.6050844789 4280132963
-0.2922001481 -0.0971019492 0.6051704884 4280396135
-0.2922413647 -0.0964431763 0.6052559018 4280592744
-0.2927128077 -0.0959251896 0.6062322855 4280790123
-0.2931841016 -0.0954049826 0.6072083712 4281644405
-0.2932246625 -0.0947434306 0.6072923541 4281315440
-0.2928343117 -0.0939434618 0.6064838767 4281313646
-0.2933049500 -0.0934195146 0.6074586511 4281576818
-0.2933447063 -0.0927571505 0.6075409651 4282825088
-0.2933841646 -0.0920945182 0.6076226830 4283483018
-0.2929925025 -0.0912973583 0.6068115234 4283613064
-0.2930313647 -0.0906351730 0.6068919897 4283415685
-0.2930699587 -0.0899727196 0.6069719195 4283416974
-0.2931082547 -0.0893100053 0.6070513129 4283614353
-0.2931463122 -0.0886470377 0.6071301103 4284138644
-0.2931841016 -0.0879838020 0.6072083116 4284336023
-0.2932215929 -0.0873203203 0.6072859764 4285253023
-0.2932588160 -0.0866565853 0.6073631048 4285121437
-0.2937270701 -0.0861190483 0.6083328724 4285578140
-0.2937638164 -0.0854538307 0.6084089875 4285709726
-0.2938002646 -0.0847883672 0.6084844470 4286561700
-0.2934049666 -0.0839991271 0.6076657772 4286956458
-0.2934408188 -0.0833341479 0.6077399850 4287873971
-0.2934763730 -0.0826689228 0.6078136563 4288071350
-0.2935116887 -0.0820034593 0.6078867912 4288727742
-0.2935467064 -0.0813377574 0.6079592705 4289122500
-0.2935814261 -0.0806718171 0.6080312729 4289319366
-0.2936159074 -0.0800056458 0.6081026196 4289385159
-0.2936500907 -0.0793392360 0.6081734300 4289714124
-0.2941158712 -0.0787882879 0.6091381311 4289977296
-0.2941495478 -0.0781204328 0.6092078686 4289911503
-0.2941829562 -0.0774523541 0.6092770696 4289845710
-0.2942160666 -0.0767840520 0.6093456149 4289845196
-0.2942489088 -0.0761155188 0.6094136834 4289318852
-0.2942814827 -0.0754467621 0.6094810963 4288857788
-0.2943137586 -0.0747777894 0.6095479727 4288726202
-0.2943457663 -0.0741085932 0.6096141934 4288527540
-0.2943774760 -0.0734391809 0.6096799374 4288461747
-0.2944089174 -0.0727695525 0.6097450256 4288394927
-0.2948724329 -0.0722055882 0.6107050180 4288065962
-0.2949033380 -0.0715345442 0.6107690334 4287933863
-0.2949339747 -0.0708632991 0.6108325124 4287999656
-0.2949643433 -0.0701918453 0.6108953357 4288262314
-0.2949944139 -0.0695201829 0.6109576225 4288459693
-0.2950241864 -0.0688483194 0.6110193133 4288983984
-0.2950536907 -0.0681762472 0.6110804677 4289312949
-0.2950829268 -0.0675039813 0.6111409664 4289773500
-0.2951118648 -0.0668315142 0.6112008691 4290365637
-0.2955732644 -0.0662558526 0.6121565104 4291154383
-0.2951688766 -0.0654859841 0.6113190055 4291878106
-0.2951969802 -0.0648129359 0.6113771796 4292667620
-0.2838845253 -0.2196149528 0.5893037319 4292798448
-0.2835586071 -0.2187088281 0.5886271596 4292601069
-0.2836439610 -0.2181204557 0.5888043642 4292535534
-0.2837291360 -0.2175315470 0.5889811516 4292469741
-0.2838141322 -0.2169421166 0.5891575813 4292141546
-0.2834869027 -0.2160381377 0.5884782672 4291944167
-0.2835713923 -0.2154485136 0.5886537433 4291812327
-0.2836557329 -0.2148583531 0.5888287425 4291680741
-0.2837398648 -0.2142676562 0.5890034437 4291614948
-0.2842363715 -0.2139870226 0.5900341272 4291680741
-0.2843202651 -0.2133944184 0.5902082920 4291747300
-0.2844039798 -0.2128013074 0.5903820395 4292076265
-0.2844875157 -0.2122076601 0.5905554891 4292207338
-0.2845708728 -0.2116134912 0.5907284617 4291746787
-0.2846540511 -0.2110188007 0.5909011364 4291878373
-0.2847370207 -0.2104235888 0.5910733938 4291878373
-0.2852331996 -0.2101323903 0.5921033621 4291812581
-0.2849024236 -0.2092316002 0.5914167166 4291746788
-0.2845712304 -0.2083320320 0.5907291770 4291746788
-0.2846533358 -0.2077356130 0.5908996463 4291812581
-0.2847352624 -0.2071386725 0.5910696983 4292074983
-0.2852309644 -0.2068414390 0.5920987129 4291943397
-0.2853126228 -0.2062426060 0.5922682881 4292074983
-0.2853941023 -0.2056432515 0.5924373865 4292338155
-0.2854753733 -0.2050433904 0.5926061273 4292140778
-0.2855564654 -0.2044430226 0.5927744508 4292074985
-0.2856373787 -0.2038421482 0.5929423571 4292075753
-0.2857180834 -0.2032407522 0.5931099057 4292075753
-0.2862133980 -0.2029329538 0.5941381454 4291944167
-0.2862938344 -0.2023296654 0.5943050981 4292009960
-0.2863740623 -0.2017258704 0.5944716930 4292141546
-0.2864541113 -0.2011215836 0.5946378112 4292009960
-0.2865339816 -0.2005167753 0.5948035717 4292075753
-0.2861982286 -0.1996217370 0.5941066742 4292273132
-0.2862775922 -0.1990167946 0.5942713618 4292207339
-0.2863567173 -0.1984113604 0.5944356918 4291944167
-0.2864356637 -0.1978054196 0.5945995450 4292141546
-0.2865144312 -0.1971989721 0.5947630405 4292141546
-0.2861770093 -0.1963067055 0.5940626264 4292207596
-0.2866713405 -0.1959845871 0.5950887203 4292339182
-0.2863332927 -0.1950930953 0.5943869948 4292141803
-0.2868274152 -0.1947682202 0.5954127908 4292273389
-0.2869051695 -0.1941592842 0.5955741405 4292404464
-0.2869827151 -0.1935498714 0.5957351327 4292667636
-0.2884344757 -0.1659231037 0.5987487435 4292929779
-0.2885022163 -0.1652966589 0.5988893509 4292600814
-0.2885697186 -0.1646697819 0.5990295410 4292337129
-0.2890583873 -0.1642819345 0.6000438929 4292073957
-0.2891255319 -0.1636532545 0.6001833081 4292139487
-0.2887709141 -0.1627864987 0.5994471908 4291810522
-0.2892591953 -0.1623945981 0.6004607677 4291415510
-0.2893256545 -0.1617646068 0.6005987525 4291020752
-0.2893919349 -0.1611341834 0.6007362604 4290297801
-0.2894579470 -0.1605033427 0.6008733511 4289837250
-0.2895237505 -0.1598720551 0.6010099053 4289116094
-0.2895893157 -0.1592403352 0.6011460423 4288984508
-0.2896546423 -0.1586081982 0.6012816429 4288986304
-0.2897197306 -0.1579756290 0.6014168262 4289183683
-0.2893621922 -0.1571132839 0.6006745696 4288592825
-0.2894267440 -0.1564807892 0.6008085608 4288592825
-0.2894910574 -0.1558478624 0.6009420753 4288526515
-0.2891324162 -0.1549879313 0.6001976132 4288592308
-0.2891961932 -0.1543551087 0.6003299952 4288263341
-0.2892597020 -0.1537218541 0.6004618406 4288131755
-0.2884770334 -0.1526405662 0.5988370776 4287609261
-0.2885398865 -0.1520083249 0.5989676118 4286490780
-0.2886025310 -0.1513756961 0.5990976095 4285701777
-0.2882416844 -0.1505216062 0.5983485579 4284451710
-0.2887271047 -0.1501091719 0.5993562341 4282217308
-0.2883656025 -0.1492561251 0.5986058116 4280967241
-0.2884272039 -0.1486227810 0.5987336636 4279788093
-0.2884885669 -0.1479890347 0.5988610983 4280051265
-0.2885497212 -0.1473548710 0.5989879966 4279135290
-0.2881868184 -0.1465048641 0.5982346535 4280187978
-0.2882473767 -0.1458708346 0.5983603597 4279796557
-0.2883077264 -0.1452364028 0.5984856486 4279730764
-0.2879437506 -0.1443889290 0.5977301002 4279930196
-0.2880035043 -0.1437546462 0.5978541374 4279864403
-0.2876387835 -0.1429091841 0.5970970392 4279536465
-0.2876980007 -0.1422750503 0.5972199440 4280128602
-0.2873325348 -0.1414316148 0.5964612961 4279342679
-0.2873911858 -0.1407976300 0.5965830684 4279276886
-0.2874495983 -0.1401632577 0.5967043042 4279473495
-0.2870830595 -0.1393224001 0.5959434509 4279802460
-0.2871409059 -0.1386881918 0.5960634947 4279472982
-0.2871984839 -0.1380536109 0.5961830616 4279407189
-0.2881057262 -0.1378252059 0.5980663300 4279670361
-0.2881630063 -0.1371879876 0.5981851816 4279538775
-0.2882200181 -0.1365503818 0.5983036160 4279604054
-0.2882768214 -0.1359124035 0.5984215140 4279406675
-0.2879081070 -0.1350745261 0.5976560712 4279603541
-0.2879643142 -0.1344367266 0.5977727771 4279603541
-0.2880202830 -0.1337985694 0.5978890061 4279537748
-0.2880760431 -0.1331600249 0.5980046988 4279669334
-0.2881315053 -0.1325211227 0.5981198549 4279669334
-0.2881867588 -0.1318818480 0.5982345343 4279603541
-0.2878159881 -0.1310483515 0.5974648595 4279866202
-0.2878706455 -0.1304092854 0.5975783467 4280063581
-0.2879250646 -0.1297698617 0.5976913571 4279867742
-0.2879792452 -0.1291300803 0.5978037715 4279801949
-0.2884592712 -0.1286800057 0.5988002419 4279409244
-0.2885130346 -0.1280385554 0.5989118218 4279343451
-0.2885665298 -0.1273967475 0.5990228653 4279080793
-0.2886197865 -0.1267545819 0.5991334319 4279278172
-0.2886728048 -0.1261120588 0.5992435217 4279211093
-0.2887255549 -0.1254691780 0.5993530154 4279079507
-0.2883515060 -0.1246415675 0.5985765457 4279472982
-0.2884036899 -0.1239989474 0.5986848474 4279933533
-0.2884556353 -0.1233559698 0.5987926722 4279605081
-0.2880805135 -0.1225311235 0.5980139971 4279605081
-0.2881318629 -0.1218884066 0.5981205702 4279146070
-0.2881829739 -0.1212453544 0.5982266665 4279014484
-0.2882338166 -0.1206019521 0.5983322263 4278750539
-0.2882843912 -0.1199582145 0.5984372497 4279079504
-0.2883347273 -0.1193141416 0.5985417366 4278882639
-0.2883848250 -0.1186697260 0.5986456871 4278553674
-0.2884346545 -0.1180249825 0.5987491608 4278751053
-0.2893390059 -0.1177276894 0.6006264687 4279014225
-0.2893884778 -0.1170803681 0.6007291675 4278948432
-0.2894376814 -0.1164327115 0.6008312702 4279080018
-0.2894866467 -0.1157847270 0.6009328961 4278948431
-0.2895353436 -0.1151364148 0.6010340452 4278948431
-0.2891560495 -0.1143186614 0.6002466679 4278685772
-0.2892041504 -0.1136706546 0.6003465056 4278619979
-0.2892520130 -0.1130223274 0.6004458666 4278554700
-0.2892996073 -0.1123736799 0.6005446911 4278620493
-0.2893469334 -0.1117247045 0.6006429195 4278752080
-0.2898221314 -0.1112397313 0.6016293168 4278817873
-0.2898690104 -0.1105891690 0.6017266512 4278752333
-0.2899156511 -0.1099382937 0.6018234491 4278818126
-0.2899620235 -0.1092870981 0.6019197106 4278752592
-0.2900081277 -0.1086355969 0.6020154357 4278621006
-0.2900539637 -0.1079837829 0.6021106243 4278686286
-0.2900995612 -0.1073316634 0.6022052765 4278752079
-0.2901448905 -0.1066792309 0.6022993326 4278882638
-0.2901899517 -0.1060265005 0.6023928523 4278751052
-0.2902347445 -0.1053734645 0.6024858952 4279014224
-0.2902792692 -0.1047201231 0.6025783420 4278948431
-0.2903235555 -0.1040664837 0.6026702523 4278817103
-0.2903675735 -0.1034125462 0.6027615666 4278817103
-0.2908402681 -0.1029101014 0.6037428379 4278817105
-0.2908838093 -0.1022546068 0.6038332582 4278817105
-0.2909270823 -0.1015988141 0.6039230824 4278882639
-0.2909701169 -0.1009427384 0.6040123701 4279014225
-0.2914420664 -0.1004342809 0.6049921513 4278817872
-0.2914846241 -0.0997766554 0.6050804257 4278817872
-0.2915268838 -0.0991187394 0.6051682234 4279081558
-0.2919983268 -0.0986055508 0.6061468124 4278949972
-0.2920401096 -0.0979460999 0.6062335372 4278687569
-0.2920816541 -0.0972863659 0.6063197851 4278819155
-0.2921229005 -0.0966263488 0.6064054370 4278753360
-0.2921639085 -0.0959660485 0.6064905524 4278884946
-0.2930640578 -0.0955857933 0.6083590984 4278555467
-0.2931046188 -0.0949229971 0.6084433198 4278818639
-0.2927151024 -0.0941217244 0.6076347232 4279147604
-0.2931849658 -0.0935966000 0.6086100936 4279081811
-0.2932247221 -0.0929329917 0.6086926460 4279277907
-0.2932642102 -0.0922691077 0.6087746024 4279343700
-0.2928733528 -0.0914706513 0.6079632640 4279408721
-0.2929122448 -0.0908072144 0.6080439687 4279803479
-0.2929508388 -0.0901435092 0.6081241369 4279999839
-0.2929891944 -0.0894795507 0.6082037091 4280591976
-0.2930272520 -0.0888153315 0.6082827449 4281378669
-0.2930650413 -0.0881508514 0.6083611846 4281773427
-0.2935329676 -0.0876145810 0.6093325019 4282888576
-0.2931397855 -0.0868211240 0.6085163355 4283085955
-0.2931767702 -0.0861558840 0.6085931063 4283806088
-0.2936440110 -0.0856159329 0.6095630527 4284069260
-0.2936804891 -0.0849492103 0.6096387506 4285053077
-0.2932860255 -0.0841586664 0.6088198423 4285316249
-0.2933218777 -0.0834924281 0.6088943481 4286233761
-0.2933574617 -0.0828259513 0.6089681983 4286562726
-0.2933927774 -0.0821592286 0.6090415120 4287087019
-0.2934277952 -0.0814922750 0.6091142297 4287415984
-0.2934625745 -0.0808250755 0.6091863513 4287678388
-0.2930660546 -0.0800399408 0.6083632708 4287481009
-0.2935312390 -0.0794899762 0.6093289256 4287612595
-0.2935651541 -0.0788220763 0.6093993783 4287744181
-0.2940299511 -0.0782687068 0.6103641391 4287940534
-0.2936321795 -0.0774855837 0.6095384359 4288137913
-0.2940964997 -0.0769298002 0.6105023026 4288991427
-0.2941293418 -0.0762600079 0.6105704904 4289254599
-0.2941619158 -0.0755899921 0.6106381416 4289385159
-0.2941942215 -0.0749197528 0.6107051373 4289582538
-0.2942262292 -0.0742492899 0.6107715964 4289909706
-0.2946894169 -0.0736865029 0.6117331386 4290107085
-0.2947209179 -0.0730146244 0.6117985249 4290237901
-0.2947521210 -0.0723425373 0.6118633151 4289908936
-0.2947830558 -0.0716702342 0.6119275689 4289645764
-0.2948137224 -0.0709977224 0.6119911671 4289514178
-0.2944124043 -0.0702220351 0.6111580729 4289316029
-0.2944424450 -0.0695500895 0.6112204194 4288789685
-0.2944721878 -0.0688779354 0.6112822294 4288590253
-0.2945016623 -0.0682055876 0.6113433838 4288392874
-0.2945308685 -0.0675330311 0.6114040017 4288194725
-0.2945597768 -0.0668602809 0.6114640236 4287668381
-0.2950203419 -0.0662843809 0.6124200821 4287207830
-0.2946167290 -0.0655141920 0.6115822792 4287207830
-0.2946448028 -0.0648408532 0.6116405129 4287668381
-0.2946725786 -0.0641673207 0.6116981506 4288260518
-0.2951321602 -0.0635867044 0.6126522422 4288983984
-0.2951593995 -0.0629118085 0.6127087474 4289773500
-0.2951863706 -0.0622367300 0.6127647161 4290891211
-0.2952130437 -0.0615614653 0.6128200889 4291680727
-0.2956716716 -0.0609751642 0.6137721539 4292535777
-0.2952654958 -0.0602103919 0.6129290462 4293193707
-0.2821214199 -0.2154943943 0.5869971514 4292798193
-0.2826169729 -0.2152195722 0.5880281925 4292666607
-0.2827010751 -0.2146300822 0.5882031918 4292600814
-0.2827849984 -0.2140400708 0.5883778334 4292535021
-0.2828687429 -0.2134495378 0.5885521173 4292403435
-0.2833641768 -0.2131683230 0.5895829201 4292140776
-0.2834476829 -0.2125758678 0.5897566676 4292140776
-0.2835310102 -0.2119829059 0.5899299979 4292140776
-0.2836141288 -0.2113894224 0.5901029706 4292074983
-0.2836970985 -0.2107954025 0.5902755857 4291943397
-0.2837798595 -0.2102008760 0.5904477835 4291877604
-0.2838624418 -0.2096058130 0.5906196237 4291746788
-0.2839448452 -0.2090102434 0.5907910466 4291746788
-0.2836142182 -0.2081112266 0.5901031494 4291680741
-0.2836961150 -0.2075154930 0.5902734995 4291746534
-0.2837778330 -0.2069192380 0.5904435515 4291746534
-0.2838593423 -0.2063224614 0.5906131864 4291812327
-0.2839406729 -0.2057251781 0.5907824039 4291812840
-0.2840218246 -0.2051273882 0.5909512043 4291812840
-0.2841027677 -0.2045290768 0.5911196470 4291812840
-0.2841835320 -0.2039302588 0.5912877321 4291812840
-0.2842641175 -0.2033309340 0.5914553404 4291878633
-0.2847583890 -0.2030261904 0.5924837589 4291812840
-0.2848387063 -0.2024249732 0.5926508904 4291812838
-0.2849188149 -0.2018232346 0.5928175449 4291812838
-0.2849987447 -0.2012210041 0.5929838419 4291747045
-0.2850784659 -0.2006182522 0.5931497216 4291747045
-0.2851579785 -0.2000150084 0.5933151841 4291812581
-0.2852373123 -0.1994112581 0.5934802890 4291878374
-0.2849017680 -0.1985180378 0.5927820802 4292009960
-0.2849805951 -0.1979141682 0.5929460526 4291944167
-0.2850592136 -0.1973097771 0.5931096673 4292009960
-0.2851376534 -0.1967049092 0.5932728648 4292141546
-0.2852158844 -0.1960995197 0.5934356451 4292338924
-0.2852939069 -0.1954936534 0.5935980082 4292470510
-0.2853717506 -0.1948872805 0.5937599540 4292667890
-0.2854493856 -0.1942804009 0.5939215422 4292799476
-0.2879546881 -0.1653642207 0.5991342068 4292863986
-0.2880221307 -0.1647371203 0.5992745161 4292469228
-0.2885099351 -0.1643491387 0.6002894044 4292206056
-0.2881563604 -0.1634815782 0.5995537639 4291680741
-0.2882231176 -0.1628531665 0.5996926427 4291417569
-0.2878687978 -0.1619874835 0.5989554524 4291219676
-0.2879350185 -0.1613591015 0.5990931988 4290627539
-0.2880010009 -0.1607302874 0.5992305279 4289444033
-0.2880667448 -0.1601010561 0.5993673205 4288391345
-0.2881322801 -0.1594713777 0.5995036960 4287075997
-0.2886189222 -0.1590735018 0.6005162001 4286089102
-0.2886840999 -0.1584420651 0.6006518006 4285629317
-0.2883275151 -0.1575798094 0.5999098420 4284905594
-0.2883921266 -0.1569484323 0.6000443101 4284379761
-0.2884564996 -0.1563166231 0.6001782417 4284116589
-0.2885206640 -0.1556843966 0.6003117561 4283721830
-0.2881626785 -0.1548250765 0.5995668769 4283458658
-0.2882262766 -0.1541929245 0.5996991992 4283459171
-0.2882896364 -0.1535603702 0.5998310447 4283722343
-0.2879305780 -0.1527034938 0.5990839601 4283919461
-0.2879933715 -0.1520710289 0.5992146730 4283787875
-0.2880559564 -0.1514381617 0.5993448496 4283395686
-0.2881183028 -0.1508048624 0.5994745493 4283395686
-0.2877578437 -0.1499509811 0.5987246037 4282214746
-0.2878196239 -0.1493178010 0.5988531113 4281556816
-0.2878811657 -0.1486842185 0.5989811420 4281097546
-0.2879424691 -0.1480502337 0.5991087556 4281163339
-0.2880035341 -0.1474158317 0.5992357731 4281359178
-0.2880643606 -0.1467810422 0.5993623734 4281688143
-0.2881249785 -0.1461458355 0.5994884372 4281622096
-0.2877621353 -0.1452965736 0.5987335443 4282082647
-0.2878221869 -0.1446615010 0.5988584757 4283138156
-0.2878819704 -0.1440260410 0.5989828706 4284322430
-0.2875180840 -0.1431793272 0.5982257128 4283866242
-0.2875773013 -0.1425440162 0.5983489752 4283537277
-0.2872126997 -0.1416993141 0.5975903273 4280654950
-0.2872713506 -0.1410641521 0.5977123976 4279668055
-0.2877535522 -0.1406357288 0.5987156630 4278945872
-0.2873879671 -0.1397926658 0.5979549885 4279077458
-0.2874459028 -0.1391563565 0.5980755687 4278881360
-0.2875036001 -0.1385196447 0.5981956124 4279078739
-0.2875610590 -0.1378825605 0.5983151793 4279538775
-0.2876182795 -0.1372450888 0.5984342098 4279670361
-0.2876752615 -0.1366072446 0.5985527635 4279406673
-0.2877319753 -0.1359690130 0.5986707807 4279406673
-0.2877884805 -0.1353304237 0.5987883210 4279144530
-0.2874201834 -0.1344927847 0.5980220437 4279078737
-0.2874760926 -0.1338543743 0.5981383920 4279209810
-0.2875317633 -0.1332155913 0.5982542038 4279341396
-0.2875871956 -0.1325764358 0.5983695388 4279471701
-0.2876423895 -0.1319369227 0.5984843373 4279603287
-0.2876973152 -0.1312970370 0.5985986590 4279209814
-0.2877520025 -0.1306567788 0.5987124443 4279209814
-0.2878064513 -0.1300161630 0.5988256931 4279078739
-0.2878606319 -0.1293751746 0.5989384651 4279078739
-0.2879146039 -0.1287338436 0.5990507603 4279210325
-0.2879683077 -0.1280921400 0.5991624594 4279341911
-0.2880217433 -0.1274500787 0.5992736816 4279407702
-0.2880749404 -0.1268076599 0.5993843675 4279407702
-0.2881278992 -0.1261648834 0.5994945765 4279539290
-0.2881806195 -0.1255217642 0.5996042490 4279276118
-0.2882330716 -0.1248782873 0.5997133851 4279144530
-0.2878594398 -0.1240509525 0.5989359617 4279210323
-0.2879113257 -0.1234077290 0.5990439057 4279342679
-0.2879629433 -0.1227641553 0.5991513133 4279408472
-0.2875882685 -0.1219395846 0.5983717442 4279342677
-0.2876392901 -0.1212962791 0.5984779596 4279408470
-0.2876901031 -0.1206526309 0.5985836387 4279998812
-0.2877406180 -0.1200086400 0.5986887813 4279801433
-0.2877909243 -0.1193643063 0.5987933874 4279408470
-0.2878409624 -0.1187196448 0.5988975167 4279474263
-0.2883172333 -0.1182495654 0.5998885036 4279081045
-0.2887934148 -0.1177772433 0.6008792520 4279015252
-0.2888428271 -0.1171296611 0.6009820700 4278883668
-0.2888920009 -0.1164817512 0.6010843515 4278883668
-0.2889409065 -0.1158335134 0.6011860967 4279344219
-0.2889895439 -0.1151849404 0.6012873650 4279146840
-0.2890379429 -0.1145360395 0.6013880372 4279081045
-0.2886590660 -0.1137185991 0.6005997062 4279081045
-0.2887068689 -0.1130700111 0.6006991863 4278949459
-0.2887544036 -0.1124211028 0.6007981300 4278817873
-0.2892289162 -0.1119372174 0.6017854214 4278948691
-0.2892760336 -0.1112867147 0.6018834114 4278948691
-0.2893228829 -0.1106358916 0.6019808650 4279015765
-0.2893694639 -0.1099847481 0.6020777822 4279081558
-0.2894157767 -0.1093332991 0.6021741629 4279146837
-0.2894618511 -0.1086815298 0.6022700071 4279081044
-0.2895076275 -0.1080294549 0.6023653150 4279343702
-0.2895531654 -0.1073770747 0.6024600863 4279409495
-0.2895984650 -0.1067243814 0.6025542617 4279408982
-0.2900713086 -0.1062280685 0.6035380960 4279277396
-0.2901161313 -0.1055738032 0.6036313772 4279343189
-0.2901606858 -0.1049192324 0.6037240624 4279408982
-0.2902049720 -0.1042643711 0.6038162112 4279540568
-0.2902489901 -0.1036092043 0.6039078236 4279672154
-0.2907209098 -0.1031055897 0.6048897505 4279738460
-0.2907644808 -0.1024488583 0.6049803495 4279804253
-0.2908077836 -0.1017918363 0.6050704718 4279738460
-0.2908508182 -0.1011345237 0.6051599979 4279606874
-0.2913219929 -0.1006248966 0.6061403751 4279146323
-0.2913645506 -0.0999660343 0.6062288880 4279277909
-0.2914068401 -0.0993068889 0.6063169241 4279081044
-0.2918774784 -0.0987925157 0.6072961092 4279081044
-0.2919192910 -0.0981318280 0.6073831320 4279081044
-0.2919608355 -0.0974708498 0.6074695587 4279146837
-0.2924309075 -0.0969517529 0.6084476113 4279343189
-0.2924719751 -0.0962892473 0.6085330844 4279277396
-0.2925127745 -0.0956264660 0.6086179614 4279539541
-0.2925533056 -0.0949634016 0.6087023020 4279539541
-0.2925935686 -0.0943000689 0.6087861061 4279342676
-0.2930626571 -0.0937737525 0.6097620726 4279408469
-0.2931024134 -0.0931088999 0.6098448038 4279080017
-0.2931419313 -0.0924437791 0.6099269986 4278882638
-0.2927519083 -0.0916440114 0.6091154814 4279014737
-0.2927908003 -0.0909793228 0.6091964245 4279014737
-0.2928294241 -0.0903143808 0.6092768312 4279407955
-0.2928677797 -0.0896491706 0.6093566418 4279539541
-0.2924763858 -0.0888532251 0.6085422635 4279407442
-0.2925141454 -0.0881884694 0.6086208224 4279210063
-0.2929812074 -0.0876519829 0.6095926166 4279471952
-0.2930184603 -0.0869857445 0.6096701026 4279471952
-0.2930554450 -0.0863192528 0.6097470522 4279669332
-0.2930921614 -0.0856525078 0.6098234653 4279998297
-0.2931285799 -0.0849855095 0.6098992229 4280655200
-0.2931647301 -0.0843182653 0.6099745035 4280852579
-0.2932006121 -0.0836507753 0.6100491285 4281311849
-0.2932362258 -0.0829830468 0.6101232171 4281640814
-0.2932715416 -0.0823150724 0.6101967096 4282100852
-0.2928765416 -0.0815271363 0.6093748212 4282429817
-0.2929112613 -0.0808596611 0.6094470620 4282956161
-0.2933758795 -0.0803097114 0.6104137301 4283482505
-0.2934100926 -0.0796407834 0.6104849577 4284466330
-0.2934440076 -0.0789716244 0.6105555296 4284926881
-0.2934776843 -0.0783022344 0.6106255651 4286172585
-0.2935110629 -0.0776326135 0.6106950641 4286435757
-0.2935441732 -0.0769627690 0.6107639074 4287417521
-0.2935769856 -0.0762926936 0.6108322144 4287483314
-0.2936095297 -0.0756223947 0.6108999252 4288400054
-0.2936417758 -0.0749518797 0.6109670401 4288663226
-0.2941043675 -0.0743900537 0.6119295359 4289713093
-0.2945667803 -0.0738260448 0.6128916144 4289844679
-0.2941675782 -0.0730459541 0.6120610237 4289974727
-0.2941987514 -0.0723735839 0.6121259332 4290106313
-0.2942296565 -0.0717009977 0.6121902466 4290500301
-0.2942602932 -0.0710282028 0.6122539043 4290566094
-0.2942906320 -0.0703551993 0.6123170257 4290566096
-0.2938897610 -0.0695799589 0.6114829779 4290434510
-0.2939194739 -0.0689075291 0.6115448475 4290303953
-0.2939489186 -0.0682348981 0.6116061211 4290238160
-0.2939780951 -0.0675620586 0.6116667986 4290106574
-0.2940069735 -0.0668890253 0.6117268801 4289580230
-0.2940355539 -0.0662157908 0.6117863655 4288921271
-0.2940638661 -0.0655423626 0.6118452549 4288131755
-0.2940919101 -0.0648687407 0.6119036078 4287801248
-0.2941196561 -0.0641949251 0.6119613051 4287274904
-0.2941471040 -0.0635209233 0.6120184660 4287010192
-0.2941742837 -0.0628467351 0.6120749712 4287010192
-0.2942011654 -0.0621723570 0.6121309400 4287206803
-0.2942277789 -0.0614977963 0.6121862531 4287404182
-0.2942540944 -0.0608230531 0.6122410297 4287537049
-0.2947116196 -0.0602363236 0.6131929755 4288458151
-0.2943058610 -0.0594730303 0.6123487949 4288723629
-0.2947629094 -0.0588839650 0.6132996678 4289907903
-0.2947881222 -0.0582075231 0.6133521199 4291025103
-0.2948130369 -0.0575309098 0.6134039760 4292275170
-0.2820811272 -0.2120410055 0.5882727504 4292864499
-0.2821641266 -0.2114495784 0.5884458423 4292798706
-0.2822469175 -0.2108576298 0.5886185169 4292732913
-0.2823295295 -0.2102651745 0.5887907743 4292732913
-0.2824119627 -0.2096721828 0.5889626741 4292667120
-0.2824942172 -0.2090786695 0.5891342163 4292601327
-0.2825762630 -0.2084846497 0.5893053412 4292535534
-0.2830701768 -0.2081931531 0.5903354287 4292404718
-0.2827398181 -0.2072950453 0.5896464586 4292404718
-0.2824090421 -0.2063981593 0.5889566541 4292338925
-0.2829026580 -0.2061033845 0.5899860263 4292338925
-0.2829837799 -0.2055067718 0.5901551843 4292338925
-0.2830646932 -0.2049096674 0.5903239846 4292338925
-0.2831454575 -0.2043120414 0.5904923677 4292404718
-0.2832260132 -0.2037138939 0.5906603932 4292404718
-0.2833063602 -0.2031152546 0.5908280015 4292404718
-0.2833865583 -0.2025160939 0.5909951925 4292338925
-0.2834665179 -0.2019164264 0.5911619663 4292338925
-0.2839596570 -0.2016097158 0.5921903849 4292338925
-0.2840393782 -0.2010081559 0.5923566222 4292273132
-0.2841188908 -0.2004061043 0.5925224423 4292273132
-0.2841982245 -0.1998035312 0.5926879048 4292338925
-0.2842773497 -0.1992004663 0.5928528905 4292338925
-0.2843562663 -0.1985968947 0.5930175185 4292536304
-0.2840209901 -0.1977046132 0.5923182964 4292602097
-0.2840994298 -0.1971009225 0.5924818516 4292733682
-0.2863020301 -0.1714299023 0.5970753431 4292929779
-0.2863714993 -0.1708079576 0.5972202420 4292929779
-0.2864407599 -0.1701855510 0.5973646641 4292863986
-0.2865098119 -0.1695626974 0.5975086689 4292863986
-0.2865786552 -0.1689393967 0.5976521969 4292863986
-0.2870663106 -0.1685617268 0.5986692309 4292732400
-0.2871347964 -0.1679366082 0.5988120437 4292666607
-0.2872030735 -0.1673110574 0.5989544392 4292600814
-0.2872711122 -0.1666850597 0.5990962982 4292600814
-0.2869194448 -0.1658161879 0.5983629227 4292600814
-0.2869869471 -0.1651902050 0.5985037088 4292600814
-0.2870542109 -0.1645637900 0.5986440182 4292535023
-0.2871212661 -0.1639369428 0.5987837911 4292535023
-0.2867682278 -0.1630708873 0.5980475545 4292272878
-0.2868347168 -0.1624440700 0.5981862545 4292207085
-0.2869009972 -0.1618168205 0.5983244181 4292206569
-0.2869670391 -0.1611891389 0.5984621644 4291943397
-0.2870328426 -0.1605610251 0.5985994339 4291220443
-0.2870984375 -0.1599324793 0.5987362266 4290299341
-0.2871638238 -0.1593035012 0.5988725424 4288918969
-0.2872289419 -0.1586740911 0.5990083814 4287997867
-0.2872938514 -0.1580442637 0.5991437435 4286287760
-0.2873585224 -0.1574140042 0.5992786288 4285432451
-0.2874229848 -0.1567833126 0.5994130373 4284642933
-0.2874872088 -0.1561522037 0.5995469689 4284182382
-0.2871301770 -0.1552929729 0.5988024473 4283656038
-0.2871938348 -0.1546619534 0.5989351869 4283327073
-0.2876784801 -0.1542563587 0.5999459028 4283130206
-0.2873204947 -0.1533986330 0.5991992950 4283130206
-0.2873834670 -0.1527663618 0.5993306041 4282603349
-0.2874462008 -0.1521336585 0.5994614363 4282669142
-0.2875086963 -0.1515005529 0.5995917916 4282276694
-0.2871493101 -0.1506458223 0.5988423228 4282079315
-0.2872112393 -0.1500128210 0.5989714861 4281555024
-0.2872729599 -0.1493794024 0.5991001725 4281423438
-0.2873344421 -0.1487455815 0.5992283821 4281226827
-0.2873956859 -0.1481113583 0.5993561149 4281161034
-0.2874566913 -0.1474767327 0.5994833112 4281685581
-0.2875174582 -0.1468417048 0.5996100903 4281751374
-0.2875779867 -0.1462062597 0.5997362733 4281948240
-0.2872158885 -0.1453566700 0.5989812016 4283724651
-0.2872758806 -0.1447213739 0.5991062522 4286490267
-0.2877581418 -0.1442975551 0.6001120210 4288595643
-0.2873950899 -0.1434495747 0.5993548632 4288270271
-0.2874543369 -0.1428130865 0.5994784832 4287875513
-0.2875133455 -0.1421762109 0.5996015072 4286694830
-0.2875721455 -0.1415389329 0.5997241139 4285576349
-0.2876306772 -0.1409012675 0.5998461843 4284327822
-0.2872658968 -0.1400569528 0.5990854502 4283604099
-0.2873238623 -0.1394194514 0.5992063284 4283012473
-0.2873815894 -0.1387815624 0.5993267298 4282617715
-0.2874390483 -0.1381433010 0.5994465947 4281961065
-0.2874962986 -0.1375046521 0.5995659828 4281368928
-0.2875533104 -0.1368656158 0.5996848345 4280713817
-0.2876100540 -0.1362262070 0.5998032093 4280253266
-0.2872429192 -0.1353867352 0.5990375280 4279468623
-0.2872990966 -0.1347475052 0.5991547108 4279468623
-0.2873550355 -0.1341079175 0.5992713571 4278945611
-0.2874107361 -0.1334679425 0.5993875265 4279406162
-0.2874661684 -0.1328276098 0.5995031595 4279473493
-0.2875213921 -0.1321868896 0.5996182561 4279407700
-0.2875763476 -0.1315458119 0.5997328758 4279339854
-0.2876310647 -0.1309043765 0.5998470187 4279734612
-0.2876855135 -0.1302625537 0.5999605656 4279539029
-0.2877397537 -0.1296203882 0.6000736356 4279341650
-0.2877937257 -0.1289778501 0.6001862288 4279079505
-0.2878474295 -0.1283349544 0.6002982259 4279408470
-0.2879009247 -0.1276917011 0.6004097462 4279408470
-0.2879541516 -0.1270480752 0.6005207896 4279145298
-0.2880071104 -0.1264041066 0.6006312370 4279341909
-0.2880598307 -0.1257597804 0.6007412076 4279341909
-0.2881123126 -0.1251151115 0.6008506417 4279407702
-0.2877395153 -0.1242864951 0.6000732183 4279473495
-0.2877914310 -0.1236420646 0.6001814008 4279342936
-0.2878430784 -0.1229972914 0.6002891064 4279408729
-0.2874692082 -0.1221714392 0.5995094776 4279146840
-0.2875202894 -0.1215269268 0.5996159315 4279015254
-0.2875711024 -0.1208820716 0.5997219086 4279539288
-0.2876216471 -0.1202368736 0.5998273492 4279473495
-0.2880975008 -0.1197682470 0.6008197665 4279276886
-0.2881476283 -0.1191214174 0.6009243131 4279276886
-0.2881975174 -0.1184742451 0.6010283232 4279342679
-0.2882471383 -0.1178267449 0.6011317968 4279342679
-0.2887223363 -0.1173519939 0.6021228433 4279605081
-0.2887715399 -0.1167028695 0.6022254229 4279670874
-0.2888204455 -0.1160534173 0.6023274660 4279539288
-0.2888691127 -0.1154036298 0.6024289727 4279736667
