VERSION 0.7
FIELDS x y z rgba
SIZE 4 4 4 4
TYPE F F F U
COUNT 1 1 1 1
WIDTH 920
HEIGHT 1
VIEWPOINT 0.0 0.0 0.0 1.0 0.0 0.0 0.0
POINTS 920
DATA ascii
-0.2621628642 -0.1233122274 0.5650572777 4282762381
-0.2630389333 -0.1230943874 0.5669455528 4284403871
-0.2635021210 -0.1226801127 0.5679438710 4285061801
-0.2643782794 -0.1224549115 0.5698323846 4287612591
-0.2652545571 -0.1222255602 0.5717210174 4288270521
-0.2661308944 -0.1219920442 0.5736098886 4290240470
-0.2670073211 -0.1217543706 0.5754988790 4291293158
-0.2678838074 -0.1215125322 0.5773880482 4291951089
-0.2687603831 -0.1212665215 0.5792773962 4292214261
-0.2673984468 -0.1408402324 0.5777249336 4292409579
-0.2674552202 -0.1402281076 0.5778475404 4290369996
-0.2675117254 -0.1396155804 0.5779696703 4287217575
-0.2671576738 -0.1387894601 0.5772047043 4285177992
-0.2672136724 -0.1381771117 0.5773257017 4283345280
-0.2672694325 -0.1375643611 0.5774461627 4283082108
-0.2669143379 -0.1367408633 0.5766789913 4280594799
-0.2665588558 -0.1359188706 0.5759109855 4280200041
-0.2662029862 -0.1350983828 0.5751420856 4280593518
-0.2658466995 -0.1342794001 0.5743723512 4280988276
-0.2650790811 -0.1332553476 0.5727137923 4281382523
-0.2638998032 -0.1320290267 0.5701659918 4281250937
-0.2627198100 -0.1308080256 0.5676165819 4281184893
-0.2615391016 -0.1295923293 0.5650655627 4281448065
-0.2603576779 -0.1283819377 0.5625130534 4281250945
-0.2587641478 -0.1269749999 0.5590701699 4281382531
-0.2584041655 -0.1261780411 0.5582923889 4281250943
-0.2580437660 -0.1253826320 0.5575137734 4281645701
-0.2585062683 -0.1249868125 0.5585130453 4281514369
-0.2585569918 -0.1243906692 0.5586225986 4281843334
-0.2586075068 -0.1237941757 0.5587317348 4281843331
-0.2594815493 -0.1235896870 0.5606201291 4281514366
-0.2599437237 -0.1231858134 0.5616186857 4282237579
-0.2608178556 -0.1229739711 0.5635072589 4283619232
-0.2616920769 -0.1227579713 0.5653960705 4286040232
-0.2625663877 -0.1225378141 0.5672850609 4285908646
-0.2634408176 -0.1223134920 0.5691742897 4288596154
-0.2643152773 -0.1220850199 0.5710636377 4289912014
-0.2651898563 -0.1218523830 0.5729531646 4291029984
-0.2660644948 -0.1216155812 0.5748428702 4292016879
-0.2669392228 -0.1213746145 0.5767327547 4292607990
-0.2678140104 -0.1211294830 0.5786227584 4292673527
-0.2663982809 -0.1412919760 0.5769484639 4291620324
-0.2664550841 -0.1406809539 0.5770715475 4288532153
-0.2661023140 -0.1398543715 0.5763074756 4286032019
-0.2661586106 -0.1392434984 0.5764293671 4284131205
-0.2658050954 -0.1384189576 0.5756638050 4283604861
-0.2658608556 -0.1378082633 0.5757845640 4281575286
-0.2655066550 -0.1369857788 0.5750175118 4281641079
-0.2655618787 -0.1363752484 0.5751370788 4280265832
-0.2647970915 -0.1353453249 0.5734807253 4280463211
-0.2644416988 -0.1345273554 0.5727110505 4280463213
-0.2640859485 -0.1337109059 0.5719405413 4280529006
-0.2629094720 -0.1324826032 0.5693926215 4281251964
-0.2617322803 -0.1312595904 0.5668431520 4281515136
-0.2609646618 -0.1302466840 0.5651807189 4281580160
-0.2601965070 -0.1292371899 0.5635170937 4281777539
-0.2590173185 -0.1280282289 0.5609632730 4281383297
-0.2578374147 -0.1268245876 0.5584079027 4281514883
-0.2574780881 -0.1260282844 0.5576297045 4281251711
-0.2575291395 -0.1254335642 0.5577402115 4281317504
-0.2575799227 -0.1248385012 0.5578503013 4281449343
-0.2576305270 -0.1242430881 0.5579598546 4281580929
-0.2576808929 -0.1236473173 0.5580689311 4282106244
-0.2581420839 -0.1232474595 0.5590677261 4282829967
-0.2590143383 -0.1230406463 0.5609568357 4284468386
-0.2594754994 -0.1226353347 0.5619555712 4284797351
-0.2607591450 -0.1226145700 0.5647356510 4286497449
-0.2616316974 -0.1223952919 0.5666252971 4287089586
-0.2625043094 -0.1221718639 0.5685151815 4289910989
-0.2637885511 -0.1221348047 0.5712965131 4291161056
-0.2646614015 -0.1219020933 0.5731868744 4292081391
-0.2655343711 -0.1216652095 0.5750774741 4292673528
-0.2645825744 -0.1413055211 0.5743978024 4290242262
-0.2650476694 -0.1409146041 0.5754075050 4287215784
-0.2651042640 -0.1403052360 0.5755303502 4284654728
-0.2647520304 -0.1394802183 0.5747657418 4283799419
-0.2648080885 -0.1388710141 0.5748873949 4282819193
-0.2644551694 -0.1380480379 0.5741212368 4282950779
-0.2645106912 -0.1374389976 0.5742417574 4281117556
-0.2641570866 -0.1366180927 0.5734741092 4281314935
-0.2638030648 -0.1357986927 0.5727055669 4280923249
-0.2630395889 -0.1347711980 0.5710480809 4280923249
-0.2626847327 -0.1339557469 0.5702776313 4280595313
-0.2619202137 -0.1329341084 0.5686179399 4280924278
-0.2615644634 -0.1321226507 0.5678455830 4281450626
-0.2607989013 -0.1311068833 0.5661836267 4281713798
-0.2592138052 -0.1296847761 0.5627424717 4281909125
-0.2584469914 -0.1286777407 0.5610777140 4281909125
-0.2580892742 -0.1278771013 0.5603011250 4281645953
-0.2577311993 -0.1270780116 0.5595237613 4281514367
-0.2569628954 -0.1260793656 0.5578557849 4281318015
-0.2566039562 -0.1252842993 0.5570765138 4281318015
-0.2566546202 -0.1246899664 0.5571865439 4282039941
-0.2567050457 -0.1240952760 0.5572960377 4282303113
-0.2567552924 -0.1235002354 0.5574050546 4283681428
-0.2572154999 -0.1231011897 0.5584042072 4284602530
-0.2576756775 -0.1226998866 0.5594032407 4286630577
-0.2585461736 -0.1224907562 0.5612930655 4286301612
-0.2594167590 -0.1222774759 0.5631830692 4287612084
-0.2606979907 -0.1222525612 0.5659645200 4289059530
-0.2615688443 -0.1220300123 0.5678551197 4291291875
-0.2628504634 -0.1219939142 0.5706374645 4292212977
-0.2631220818 -0.1421375871 0.5726078153 4291884012
-0.2631789744 -0.1415319890 0.5727316141 4289449671
-0.2632356584 -0.1409259886 0.5728549957 4285837979
-0.2632921338 -0.1403196007 0.5729779005 4284193154
-0.2633483708 -0.1397128254 0.5731003284 4284064901
-0.2634044290 -0.1391056627 0.5732222199 4284262280
-0.2630524039 -0.1382837147 0.5724561810 4282883959
-0.2631078959 -0.1376767159 0.5725769401 4282686580
-0.2627551854 -0.1368568242 0.5718093514 4281968502
-0.2628101408 -0.1362500042 0.5719289780 4282165881
-0.2620485425 -0.1352215558 0.5702716112 4281579641
-0.2625111639 -0.1348255426 0.5712783337 4281316469
-0.2613403499 -0.1335923225 0.5687304139 4280791924
-0.2605772614 -0.1325721741 0.5670697689 4281449854
-0.2602221072 -0.1317622960 0.5662968755 4281778566
-0.2594579756 -0.1307480335 0.5646339655 4281712773
-0.2582845986 -0.1295322329 0.5620805025 4282040200
-0.2587455809 -0.1291377842 0.5630836487 4282040200
-0.2575711012 -0.1279288232 0.5605277419 4281645955
-0.2572137713 -0.1271294206 0.5597501397 4281382783
-0.2564470470 -0.1261304021 0.5580815673 4281712262
-0.2560888529 -0.1253350228 0.5573021173 4281778055
-0.2557303011 -0.1245412081 0.5565217733 4283286417
-0.2557806075 -0.1239472479 0.5566312671 4284075933
-0.2558307052 -0.1233529374 0.5567402244 4285780650
-0.2562899590 -0.1229546964 0.5577397346 4285912236
-0.2571586668 -0.1227496639 0.5596302152 4287282352
-0.2580274642 -0.1225404739 0.5615208745 4287742903
-0.2588963211 -0.1223271266 0.5634117126 4289320138
-0.2597652972 -0.1221096143 0.5653027892 4290899170
-0.2610441744 -0.1220795959 0.5680858493 4292147184
-0.2619133890 -0.1218528077 0.5699774623 4292541942
-0.2621278167 -0.1425789297 0.5718262196 4291027163
-0.2621847987 -0.1419744343 0.5719504952 4287545008
-0.2622415423 -0.1413695514 0.5720742941 4285505425
-0.2622980773 -0.1407642812 0.5721976161 4284458379
-0.2623544037 -0.1401586086 0.5723204613 4283997828
-0.2620036602 -0.1393361837 0.5715553761 4281827939
-0.2620594203 -0.1387306899 0.5716770291 4279327805
-0.2621150017 -0.1381247938 0.5717982650 4278207777
-0.2617632449 -0.1373049766 0.5710309148 4278206235
-0.2610039413 -0.1362740695 0.5693745017 4278211112
-0.2610585988 -0.1356698573 0.5694937110 4279791686
-0.2607056797 -0.1348545551 0.5687238574 4281315701
-0.2603523731 -0.1340407580 0.5679531097 4282105217
-0.2595911324 -0.1330196559 0.5662925243 4281317757
-0.2588293552 -0.1320019662 0.5646306872 4281449343
-0.2584747076 -0.1311946213 0.5638570786 4281646980
-0.2581197023 -0.1303887814 0.5630825758 4281778566
-0.2577642798 -0.1295844913 0.5623072386 4281974918
-0.2574084699 -0.1287817210 0.5615310669 4282172297
-0.2570522726 -0.1279804707 0.5607540607 4281646723
-0.2562876046 -0.1269785762 0.5590859652 4281580930
-0.2555224001 -0.1259801239 0.5574166179 4282303372
-0.2551648915 -0.1251854002 0.5566367507 4282698130
-0.2548070252 -0.1243922263 0.5558560491 4284862117
-0.2548571825 -0.1237989962 0.5559654832 4285388461
-0.2549071312 -0.1232054159 0.5560744405 4287089586
-0.2553654313 -0.1228079870 0.5570742488 4286958000
-0.2562323511 -0.1226038411 0.5589653850 4288200634
-0.2570993304 -0.1223955378 0.5608566999 4289516494
-0.2579664290 -0.1221830770 0.5627482533 4291029986
-0.2592425346 -0.1221591309 0.5655320287 4292016881
-0.2601098716 -0.1219373941 0.5674241185 4292476916
-0.2609772980 -0.1217114851 0.5693163872 4292673527
-0.2606720626 -0.1433981508 0.5700316429 4292279024
-0.2607291937 -0.1427961141 0.5701566339 4290043604
-0.2607861459 -0.1421936750 0.5702810884 4286885540
-0.2608428597 -0.1415908337 0.5704051256 4284651656
-0.2608993649 -0.1409876049 0.5705286860 4283862140
-0.2609556615 -0.1403839886 0.5706518292 4280839251
-0.2610117197 -0.1397799850 0.5707744360 4278931254
-0.2610675693 -0.1391755939 0.5708965659 4278206755
-0.2607170939 -0.1383552998 0.5701301694 4278537262
-0.2607724369 -0.1377510726 0.5702511668 4278274086
-0.2600150108 -0.1367192119 0.5685948133 4278207008
-0.2596633732 -0.1359034181 0.5678258538 4278209571
-0.2593113482 -0.1350891292 0.5670560598 4278210599
-0.2589589059 -0.1342763603 0.5662853718 4279869023
-0.2586061060 -0.1334650964 0.5655139089 4282500743
-0.2578462064 -0.1324464381 0.5638521910 4281713280
-0.2570857704 -0.1314311922 0.5621892214 4281186936
-0.2571385205 -0.1308333874 0.5623045564 4281647233
-0.2567840815 -0.1300291568 0.5615294576 4281910405
-0.2564292550 -0.1292264462 0.5607535839 4281712513
-0.2564811707 -0.1286294311 0.5608670712 4281975685
-0.2557184696 -0.1276256144 0.5591992140 4281908612
-0.2549552023 -0.1266252398 0.5575301647 4282434956
-0.2545987666 -0.1258296221 0.5567507148 4283353239
-0.2542419434 -0.1250355542 0.5559704304 4283945376
-0.2538847625 -0.1242430210 0.5551893115 4286239921
-0.2535271943 -0.1234520525 0.5544074178 4285910956
-0.2535769045 -0.1228601560 0.5545161366 4286955179
-0.2544419169 -0.1226610541 0.5564077497 4287678902
-0.2553070486 -0.1224578023 0.5582995415 4289450955
-0.2561722696 -0.1222503856 0.5601915717 4290964194
-0.2570375502 -0.1220388114 0.5620838404 4292213490
-0.2583110332 -0.1220158339 0.5648686290 4292607992
-0.2588719130 -0.1433850974 0.5674734116 4291754218
-0.2593335211 -0.1430091560 0.5684852600 4289714635
-0.2593904138 -0.1424087584 0.5686100125 4285901466
-0.2594470978 -0.1418079883 0.5687342882 4284519813
-0.2595035732 -0.1412068158 0.5688580871 4284390535
-0.2595598400 -0.1406052411 0.5689814091 4281232471
-0.2596158981 -0.1400032938 0.5691042542 4279589697
-0.2592666149 -0.1391834617 0.5683386326 4280576592
-0.2593221366 -0.1385816783 0.5684603453 4280707919
-0.2593774498 -0.1379794925 0.5685815811 4280444747
-0.2590271533 -0.1371622831 0.5678137541 4279721532
-0.2582710683 -0.1361328512 0.5661562681 4279063602
-0.2579199076 -0.1353195906 0.5653865337 4278210084
-0.2575683892 -0.1345078349 0.5646159649 4278210598
-0.2568107843 -0.1334867030 0.5629552007 4279408472
-0.2564584017 -0.1326789111 0.5621827245 4281908606
-0.2561056316 -0.1318726391 0.5614094138 4281318007
-0.2557524741 -0.1310678869 0.5606352687 4281252214
-0.2553989291 -0.1302646697 0.5598602295 4281647485
-0.2558572590 -0.1298752725 0.5608649254 4281779071
-0.2555030882 -0.1290732026 0.5600886345 4281908863
-0.2551485896 -0.1282726675 0.5593114495 4282369414
-0.2547936738 -0.1274736822 0.5585334897 4283024013
-0.2540319264 -0.1264738590 0.5568636656 4283879322
-0.2536761761 -0.1256788969 0.5560837984 4284992676
-0.2533200383 -0.1248854697 0.5553031564 4285453227
-0.2529635429 -0.1240935996 0.5545216203 4286696370
-0.2530134022 -0.1235018373 0.5546309948 4286367405
-0.2530630827 -0.1229097173 0.5547398329 4287808696
-0.2535194457 -0.1225139126 0.5557402372 4289190349
-0.2543827891 -0.1223115474 0.5576327443 4290898401
-0.2552461922 -0.1221050173 0.5595254898 4291951089
-0.2578836977 -0.1438159943 0.5666868091 4292931560
-0.2579407692 -0.1432180554 0.5668122768 4289910987
-0.2579976320 -0.1426197290 0.5669372082 4286029200
-0.2580543160 -0.1420210004 0.5670617223 4284784010
-0.2581107318 -0.1414218694 0.5671857595 4284520838
-0.2581669688 -0.1408223659 0.5673093200 4280839251
-0.2582229972 -0.1402224600 0.5674324036 4279523391
-0.2582787871 -0.1396221668 0.5675550103 4280577619
-0.2583343685 -0.1390214860 0.5676771998 4279853896
-0.2579853833 -0.1382037997 0.5669102669 4279194680
-0.2576359808 -0.1373876035 0.5661424994 4278668336
-0.2572862208 -0.1365729123 0.5653738976 4278207008
-0.2565314174 -0.1355459243 0.5637152791 4278205980
-0.2561807930 -0.1347351819 0.5629447699 4278209314
-0.2558297813 -0.1339259595 0.5621734262 4279789888
-0.2550734878 -0.1329072714 0.5605115294 4280986734
-0.2547216117 -0.1321020126 0.5597382784 4281776250
-0.2543693483 -0.1312982738 0.5589641929 4280988272
-0.2544218302 -0.1307041943 0.5590795279 4281975167
-0.2540688813 -0.1299025565 0.5583039522 4282040960
-0.2545261383 -0.1295149177 0.5593087673 4281777788
-0.2545779943 -0.1289197356 0.5594226718 4282696325
-0.2542241514 -0.1281198561 0.5586451292 4283420048
-0.2538699210 -0.1273215115 0.5578667521 4284664988
-0.2531096637 -0.1263222545 0.5561961532 4285322918
-0.2527545989 -0.1255279481 0.5554159284 4286566576
-0.2523991466 -0.1247351766 0.5546348095 4286500783
-0.2520433366 -0.1239439547 0.5538529158 4286561450
-0.2520930767 -0.1233529225 0.5539622307 4287022001
-0.2525486052 -0.1229592264 0.5549632907 4289321166
-0.2530041039 -0.1225632727 0.5559641719 4290965991
-0.2538657188 -0.1223608479 0.5578575134 4291950318
-0.2547274232 -0.1221542582 0.5597510934 4292542455
-0.2564939559 -0.1440186948 0.5650119185 4291951336
-0.2565509975 -0.1434228122 0.5651375651 4289319616
-0.2566078305 -0.1428265423 0.5652627945 4286229400
-0.2566644549 -0.1422298700 0.5653874874 4284584575
-0.2567208409 -0.1416328102 0.5655117631 4285375120
-0.2567770481 -0.1410353482 0.5656355619 4283138158
-0.2568330467 -0.1404374987 0.5657588840 4279587646
-0.2568888068 -0.1398392618 0.5658817291 4280574541
-0.2569443583 -0.1392406225 0.5660040975 4279720002
-0.2565962374 -0.1384239644 0.5652372837 4280838483
-0.2562477589 -0.1376087964 0.5644695759 4281164879
-0.2558988631 -0.1367951185 0.5637010336 4279585847
-0.2555495799 -0.1359829605 0.5629316568 4278206236
-0.2551999092 -0.1351722926 0.5621613860 4278206493
-0.2544459999 -0.1341502070 0.5605006218 4278215722
-0.2540954649 -0.1333435029 0.5597285032 4282428530
-0.2533405125 -0.1323272735 0.5580654740 4282104955
-0.2529891431 -0.1315245479 0.5572914481 4281447025
-0.2526374161 -0.1307233423 0.5565166473 4282301565
-0.2530938685 -0.1303400993 0.5575221777 4282630530
-0.2527415156 -0.1295400560 0.5567460060 4282432129
-0.2531977296 -0.1291541755 0.5577509403 4282563715
-0.2532493472 -0.1285606772 0.5578646064 4283745426
-0.2528961003 -0.1277623922 0.5570864677 4284995493
-0.2525424659 -0.1269656420 0.5563074946 4285647783
-0.2521884739 -0.1261704266 0.5555276871 4285910955
-0.2514292002 -0.1251751930 0.5538551807 4286562215
-0.2510743439 -0.1243840307 0.5530734658 4286035871
-0.2511241734 -0.1237940863 0.5531831980 4287479215
-0.2511737645 -0.1232037917 0.5532924533 4289255626
-0.2516283393 -0.1228109077 0.5542938113 4291031010
-0.2520828545 -0.1224157661 0.5552950501 4291623147
-0.2555088997 -0.1444443613 0.5642225146 4292605679
-0.2551641762 -0.1436234266 0.5634612441 4289584330
-0.2552209795 -0.1430292130 0.5635866523 4286426266
-0.2552775443 -0.1424345970 0.5637115836 4284717190
-0.2553339303 -0.1418395936 0.5638360977 4285177741
-0.2553900778 -0.1412441880 0.5639600754 4283730295
-0.2554460168 -0.1406483948 0.5640836358 4281427540
-0.2555017769 -0.1400522143 0.5642067194 4281033811
-0.2555572987 -0.1394556314 0.5643293262 4280836432
-0.2552100718 -0.1386400014 0.5635625720 4282284391
-0.2552650869 -0.1380435824 0.5636840463 4285903006
-0.2549171746 -0.1372299939 0.5629158020 4286625187
-0.2545688450 -0.1364179105 0.5621466637 4285638292
-0.2542201579 -0.1356073320 0.5613766909 4282945391
-0.2534681261 -0.1345842928 0.5597159863 4282024289
-0.2527155280 -0.1335646361 0.5580540895 4281245284
-0.2519623935 -0.1325483918 0.5563909411 4282692730
-0.2512086928 -0.1315355599 0.5547266006 4281906807
-0.2512610555 -0.1309465170 0.5548422337 4281972600
-0.2513132095 -0.1303570867 0.5549573898 4282630019
-0.2513651252 -0.1297673136 0.5550720692 4282827398
-0.2518204153 -0.1293845028 0.5560774207 4282957192
-0.2518720031 -0.1287930459 0.5561913848 4283746708
-0.2519233823 -0.1282012165 0.5563048124 4285387430
-0.2519745529 -0.1276090294 0.5564178228 4285519016
-0.2512177229 -0.1266093850 0.5547465682 4286302121
-0.2508642972 -0.1258157790 0.5539661646 4285775777
-0.2501064837 -0.1248220652 0.5522927046 4286034077
-0.2501563728 -0.1242332086 0.5524028540 4286955179
-0.2502060533 -0.1236439943 0.5525125265 4289517771
-0.2502554953 -0.1230544299 0.5526217222 4291031010
-0.2507091165 -0.1226623654 0.5536234379 4292016881
-0.2515670955 -0.1224649325 0.5555180907 4292542457
-0.2541241944 -0.1446397901 0.5625444055 4292541426
-0.2541812360 -0.1440470964 0.5626707077 4290765015
-0.2538370788 -0.1432277411 0.5619088411 4286560421
-0.2538936138 -0.1426351815 0.5620340109 4284784010
-0.2539499700 -0.1420422345 0.5621587038 4284652424
-0.2540060878 -0.1414488852 0.5622829795 4284849803
-0.2540619969 -0.1408551484 0.5624067187 4282809195
-0.2541176975 -0.1402610242 0.5625300407 4283532918
-0.2541731894 -0.1396664977 0.5626528859 4286689701
-0.2542284727 -0.1390715986 0.5627752542 4286755494
-0.2542835474 -0.1384762973 0.5628971457 4286755239
-0.2539365888 -0.1376627982 0.5621291399 4288597443
-0.2535892725 -0.1368507892 0.5613602400 4288204221
-0.2528395653 -0.1358243525 0.5597007275 4287283119
-0.2524913847 -0.1350162923 0.5589299798 4284855444
-0.2517406940 -0.1339956969 0.5572681427 4284329100
-0.2509894073 -0.1329784989 0.5556051135 4282430846
-0.2506399155 -0.1321768761 0.5548314452 4281970295
-0.2498876452 -0.1311655492 0.5531661510 4282037371
-0.2495372891 -0.1303679049 0.5523905754 4283024266
-0.2499916852 -0.1299904287 0.5533964634 4282958219
-0.2504460514 -0.1296107024 0.5544022322 4282695047
-0.2504976094 -0.1290212870 0.5545164347 4283942292
-0.2505489886 -0.1284315139 0.5546301007 4285192359
-0.2506001294 -0.1278413683 0.5547433496 4286568369
-0.2502480745 -0.1270462871 0.5539640188 4285778853
-0.2498956621 -0.1262527406 0.5531838536 4285641113
-0.2495428622 -0.1254607439 0.5524029136 4285312148
-0.2491896749 -0.1246702820 0.5516210794 4286952871
-0.2488361299 -0.1238813773 0.5508384109 4289058247
-0.2488855720 -0.1232938543 0.5509479046 4291029216
-0.2493382692 -0.1229048595 0.5519500375 4291950318
-0.2527994514 -0.1442404389 0.5609912276 4290635226
-0.2528562546 -0.1436493993 0.5611172318 4287542955
-0.2525126636 -0.1428316087 0.5603547692 4284128133
-0.2525689602 -0.1422407180 0.5604797006 4284588684
-0.2526250482 -0.1416494399 0.5606041551 4284982418
-0.2526809275 -0.1410577595 0.5607281327 4285048211
-0.2527365983 -0.1404656768 0.5608516932 4284979597
-0.2527920604 -0.1398732215 0.5609747171 4287479731
-0.2528472841 -0.1392803639 0.5610973239 4290438107
-0.2529023290 -0.1386871338 0.5612194538 4290306521
-0.2529571652 -0.1380935013 0.5613411069 4289582541
-0.2526108027 -0.1372815818 0.5605725050 4288990404
-0.2522640526 -0.1364711672 0.5598030686 4287941306
-0.2515157759 -0.1354462355 0.5581425428 4287283376
-0.2511681914 -0.1346397698 0.5573711991 4284528532
-0.2504189014 -0.1336206794 0.5557084680 4283739016
-0.2492676675 -0.1323917955 0.5531537533 4281970810
-0.2489186674 -0.1315927058 0.5523792505 4282628740
-0.2485692948 -0.1307951361 0.5516039729 4283416973
-0.2482195497 -0.1299990863 0.5508278012 4283351180
-0.2486728877 -0.1296233833 0.5518338084 4282825607
-0.2491261661 -0.1292454153 0.5528397560 4283483537
-0.2491775155 -0.1286576837 0.5529536605 4285585322
-0.2492286414 -0.1280695945 0.5530671477 4285848494
-0.2488774955 -0.1272755116 0.5522879362 4285776546
-0.2485259771 -0.1264829785 0.5515078306 4284658065
-0.2481740713 -0.1256919950 0.5507269502 4285376401
-0.2482241094 -0.1251053065 0.5508379340 4286823847
-0.2478715330 -0.1243164614 0.5500555634 4289320392
-0.2479210645 -0.1237300262 0.5501654744 4290899424
-0.2479703724 -0.1231432408 0.5502748489 4292278256
-0.2484220862 -0.1227550581 0.5512772799 4292541428
-0.2514206767 -0.1444296092 0.5593100190 4291816933
-0.2514774203 -0.1438406408 0.5594363213 4288005046
-0.2515339851 -0.1432512701 0.5595620871 4285373326
-0.2515903115 -0.1426615119 0.5596874356 4284261000
-0.2512470186 -0.1418458372 0.5589237213 4284589965
-0.2513028383 -0.1412562132 0.5590479374 4283995777
-0.2513584793 -0.1406662017 0.5591716766 4285772188
-0.2514138818 -0.1400758028 0.5592949390 4288006075
-0.2514691055 -0.1394850016 0.5594177842 4289387728
-0.2515240908 -0.1388938278 0.5595400929 4290765791
-0.2515788972 -0.1383022517 0.5596619844 4290963170
-0.2516334653 -0.1377103031 0.5597833991 4290173908
-0.2512876987 -0.1368999630 0.5590142012 4288594876
-0.2505413294 -0.1358740777 0.5573537946 4285838238
-0.2497943789 -0.1348515898 0.5556921959 4285838238
-0.2494473010 -0.1340476573 0.5549200773 4283610253
-0.2486993372 -0.1330310106 0.5532561541 4282689151
-0.2479508370 -0.1320177764 0.5515910387 4282365315
-0.2472017854 -0.1310079545 0.5499247313 4282957452
-0.2472536713 -0.1304243058 0.5500401258 4283679120
-0.2469045073 -0.1296298653 0.5492633581 4282889604
-0.2473567873 -0.1292559206 0.5502694845 4284073110
-0.2474080175 -0.1286711842 0.5503835082 4285388970
-0.2478601187 -0.1282936782 0.5513892174 4285517991
-0.2475098670 -0.1275006235 0.5506100655 4284267924
-0.2471592426 -0.1267091036 0.5498300791 4284459659
-0.2468082458 -0.1259191334 0.5490492582 4284657038
-0.2464568764 -0.1251306981 0.5482675433 4287283628
-0.2465066016 -0.1245466545 0.5483781695 4289125832
-0.2465561032 -0.1239622608 0.5484883189 4290899422
-0.2466054112 -0.1233775094 0.5485979915 4291623145
-0.2500448823 -0.1446146369 0.5576272607 4292081645
-0.2501015961 -0.1440277249 0.5577537417 4289186753
-0.2501581013 -0.1434404105 0.5578796864 4285572758
-0.2502143979 -0.1428527087 0.5580052733 4285243793
-0.2502704859 -0.1422646046 0.5581303239 4284984210
-0.2503263652 -0.1416761130 0.5582549572 4283734143
-0.2503820360 -0.1410872191 0.5583791137 4284389765
-0.2504374981 -0.1404979378 0.5585027933 4287153071
-0.2504927516 -0.1399082690 0.5586260557 4289123787
-0.2505477965 -0.1393182129 0.5587487817 4290242268
-0.2506026626 -0.1387277544 0.5588710904 4290963940
-0.2506572902 -0.1381369233 0.5589929223 4291424491
-0.2503124774 -0.1373266727 0.5582240224 4290109654
-0.2499673069 -0.1365179271 0.5574542284 4288267450
-0.2492223382 -0.1354935467 0.5557928681 4284525710
-0.2484768331 -0.1344725639 0.5541303158 4284065159
-0.2481303364 -0.1336702257 0.5533576012 4282691200
-0.2473838031 -0.1326550841 0.5516927242 4282888579
-0.2466367334 -0.1316433698 0.5500266552 4283548049
-0.2458891124 -0.1306350529 0.5483593941 4283416463
-0.2459407449 -0.1300530881 0.5484745502 4283216776
-0.2459921688 -0.1294707656 0.5485892296 4284137878
-0.2460433990 -0.1288880706 0.5487034917 4285912749
-0.2464945614 -0.1285136491 0.5497096181 4285452198
-0.2461452037 -0.1277216077 0.5489305258 4284133004
-0.2461957932 -0.1271378249 0.5490433574 4283343488
-0.2458457798 -0.1263479143 0.5482627749 4284984464
-0.2454953790 -0.1255595386 0.5474813581 4286958254
-0.2451446056 -0.1247727200 0.5466991067 4289191112
-0.2451941073 -0.1241903678 0.5468094945 4290375386
-0.2452434003 -0.1236076653 0.5469194055 4291753961
-0.2456932813 -0.1232256368 0.5479226708 4292214512
-0.2490693629 -0.1450267881 0.5568309426 4292670959
-0.2491261065 -0.1444410086 0.5569577813 4289780430
-0.2491826415 -0.1438548416 0.5570842028 4286622366
-0.2492389828 -0.1432682574 0.5572101474 4284916111
-0.2492951155 -0.1426812857 0.5573356152 4285376662
-0.2493510395 -0.1420939118 0.5574606657 4284654216
-0.2494067550 -0.1415061504 0.5575852394 4283996286
-0.2490644008 -0.1406932473 0.5568198562 4286888359
-0.2495175749 -0.1403294355 0.5578329563 4288730563
-0.2491746247 -0.1395176202 0.5570662618 4288794311
-0.2496275604 -0.1391511708 0.5580788851 4290439136
-0.2492840290 -0.1383404583 0.5573108792 4291359213
-0.2493384182 -0.1377512962 0.5574324727 4291030248
-0.2489942014 -0.1369426399 0.5566629171 4289585874
-0.2486496121 -0.1361354738 0.5558925271 4287414705
-0.2479060739 -0.1351125985 0.5542302132 4284266128
-0.2471619844 -0.1340931207 0.5525667071 4283739784
-0.2468160838 -0.1332923770 0.5517933965 4283087498
-0.2456721663 -0.1320643723 0.5492359996 4283548049
-0.2449264377 -0.1310551018 0.5475687981 4283940499
-0.2441801578 -0.1300492436 0.5459004045 4283611534
-0.2442314774 -0.1294699162 0.5460151434 4284136598
-0.2446817458 -0.1291008294 0.5470217466 4285189286
-0.2447327375 -0.1285198182 0.5471357703 4285514658
-0.2451828271 -0.1281471699 0.5481420159 4284067212
-0.2448340803 -0.1273567379 0.5473623276 4284720268
-0.2448844463 -0.1267746389 0.5474749207 4285772956
-0.2445350289 -0.1259863377 0.5466937423 4287744179
-0.2441852391 -0.1251995713 0.5459117293 4289389004
-0.2438350618 -0.1244143620 0.5451288819 4290439641
-0.2438843399 -0.1238337010 0.5452390909 4291689708
-0.2443332970 -0.1234547496 0.5462427735 4292673012
-0.2477553785 -0.1446207911 0.5552721024 4291224026
-0.2478118688 -0.1440366805 0.5553987026 4286952358
-0.2478681505 -0.1434521675 0.5555248260 4285373326
-0.2479242235 -0.1428672522 0.5556505322 4285509275
-0.2479801029 -0.1422819495 0.5557757616 4284522380
-0.2480357885 -0.1416962445 0.5559005737 4284061051
-0.2480912507 -0.1411101520 0.5560248494 4286561185
-0.2481465191 -0.1405236721 0.5561487079 4288795075
-0.2478044480 -0.1397128850 0.5553820729 4289518798
-0.2478592098 -0.1391265541 0.5555047989 4289978587
-0.2483110726 -0.1387618631 0.5565175414 4290833896
-0.2483655065 -0.1381738186 0.5566395521 4291096300
-0.2480222583 -0.1373652518 0.5558702350 4290767335
-0.2476786375 -0.1365581751 0.5551001430 4288337347
-0.2469369918 -0.1355343610 0.5534379482 4285903006
-0.2461947948 -0.1345139295 0.5517745018 4283544199
-0.2458498627 -0.1337132752 0.5510014296 4283938957
-0.2455045581 -0.1329141259 0.5502275229 4283417744
-0.2447608858 -0.1319020092 0.5485607982 4283351951
-0.2440166622 -0.1308933198 0.5468928814 4284005009
-0.2432719022 -0.1298880428 0.5452237129 4284136595
-0.2433230728 -0.1293094456 0.5453383923 4285451691
-0.2437723577 -0.1289411783 0.5463452935 4284793761
-0.2438232005 -0.1283609122 0.5464592576 4284262029
-0.2438738346 -0.1277802885 0.5465727448 4284130443
-0.2435256839 -0.1269914657 0.5457924604 4286559394
-0.2435758114 -0.1264110655 0.5459048152 4288270012
-0.2432270050 -0.1256243587 0.5451230407 4289913297
-0.2432766259 -0.1250442117 0.5452342629 4290571227
-0.2429271489 -0.1242596507 0.5444510579 4291622121
-0.2433752567 -0.1238828227 0.5454553366 4292214258
-0.2463876754 -0.1447964013 0.5535848141 4291489508
-0.2464441061 -0.1442143619 0.5537115932 4288397237
-0.2465003431 -0.1436319202 0.5538379550 4285506193
-0.2465563715 -0.1430490762 0.5539638400 4285966744
-0.2466121912 -0.1424658298 0.5540892482 4285573012
-0.2466678172 -0.1418821961 0.5542142391 4284059773
-0.2467232496 -0.1412981600 0.5543387532 4286231456
-0.2467784584 -0.1407137364 0.5544628501 4288271039
-0.2468334734 -0.1401289254 0.5545864105 4288073921
-0.2468882948 -0.1395437121 0.5547096133 4289126609
-0.2465465218 -0.1387350708 0.5539416671 4291226344
-0.2469972968 -0.1383721381 0.5549544692 4291160551
-0.2466549277 -0.1375645995 0.5541852713 4290568666
-0.2467088252 -0.1369787902 0.5543063879 4289450185
-0.2459690720 -0.1359540224 0.5526443124 4285314969
-0.2456255853 -0.1351509988 0.5518725514 4283867523
-0.2448848039 -0.1341320872 0.5502081513 4282890630
-0.2445404679 -0.1333330125 0.5494344831 4283482767
-0.2441957593 -0.1325354576 0.5486599803 4284529554
-0.2434535176 -0.1315248609 0.5469923019 4283937417
-0.2431079596 -0.1307312995 0.5462159514 4283545488
-0.2423647195 -0.1297265887 0.5445460081 4284927141
-0.2428131402 -0.1293604672 0.5455535054 4285906602
-0.2428640425 -0.1287813038 0.5456678867 4284130191
-0.2429147214 -0.1282017827 0.5457817912 4284981393
-0.2429652065 -0.1276218891 0.5458952188 4286626218
-0.2426177412 -0.1268337220 0.5451145172 4288530622
-0.2422699183 -0.1260470897 0.5443329811 4289714896
-0.2419217080 -0.1252620071 0.5435506701 4290898911
-0.2419711202 -0.1246835366 0.5436616540 4291556841
-0.2420203090 -0.1241047159 0.5437721610 4292673012
-0.2424674332 -0.1237287074 0.5447767973 4292804598
-0.2454175651 -0.1452012956 0.5527846217 4292670445
-0.2450793833 -0.1443878710 0.5520228744 4289187780
-0.2451355606 -0.1438074857 0.5521494150 4286227095
-0.2455863655 -0.1434573531 0.5531648397 4285835160
-0.2456422448 -0.1428752393 0.5532906651 4285637781
-0.2453028858 -0.1420639604 0.5525262952 4283927674
-0.2453582585 -0.1414819956 0.5526510477 4284717190
-0.2458086312 -0.1411265284 0.5536654592 4286757800
-0.2458636910 -0.1405428499 0.5537894368 4287810488
-0.2455231696 -0.1397337466 0.5530224442 4289059277
-0.2455777377 -0.1391502172 0.5531453490 4290177758
-0.2456320822 -0.1385663003 0.5532677770 4290634977
-0.2456862330 -0.1379819810 0.5533897877 4290700770
-0.2453444749 -0.1371760368 0.5526199341 4289648334
-0.2453981191 -0.1365919113 0.5527408123 4287082407
-0.2442639023 -0.1353492886 0.5501860976 4283804552
-0.2439209223 -0.1345487982 0.5494135022 4284001931
-0.2435775548 -0.1337498128 0.5486401320 4283415948
-0.2432337999 -0.1329523474 0.5478658676 4283679120
-0.2428896874 -0.1321563870 0.5470907688 4283610505
-0.2421488762 -0.1311473101 0.5454221368 4283676298
-0.2418039292 -0.1303553432 0.5446451306 4285450664
-0.2414585948 -0.1295649111 0.5438673496 4285845422
-0.2419060320 -0.1291996092 0.5448751450 4285048726
-0.2423534393 -0.1288320422 0.5458828807 4285246105
-0.2420073301 -0.1280423999 0.5451033115 4286888108
-0.2416608334 -0.1272543073 0.5443228483 4288401347
-0.2409170866 -0.1262597442 0.5426476002 4290043349
-0.2413637340 -0.1258897781 0.5436536670 4291030244
-0.2410162240 -0.1251053512 0.5428709388 4292081391
-0.2410654873 -0.1245276332 0.5429818630 4292344563
-0.2444486469 -0.1456040442 0.5519830585 4292738805
-0.2445051521 -0.1450242698 0.5521106720 4290501843
-0.2441676408 -0.1442114860 0.5513485670 4286294941
-0.2442236543 -0.1436318457 0.5514750481 4285768597
-0.2442794591 -0.1430518031 0.5516010523 4285967259
-0.2443350703 -0.1424713582 0.5517266393 4283927676
-0.2443904877 -0.1418905258 0.5518517494 4284124542
-0.2444456965 -0.1413092911 0.5519764423 4286887848
-0.2445007116 -0.1407276690 0.5521006584 4288204221
-0.2445555180 -0.1401456594 0.5522243977 4288533186
-0.2446101159 -0.1395632476 0.5523477197 4290110425
-0.2446645200 -0.1389804631 0.5524705648 4290505183
-0.2443240136 -0.1381740570 0.5517016649 4290503902
-0.2439831197 -0.1373691410 0.5509318709 4289911765
-0.2444316149 -0.1370084137 0.5519446135 4286888107
-0.2436951846 -0.1359842122 0.5502817035 4285309075
-0.2425631434 -0.1347439587 0.5477254391 4283478665
-0.2422206551 -0.1339460164 0.5469521284 4284070802
-0.2422730178 -0.1333671361 0.5470703840 4283941264
-0.2419298738 -0.1325712651 0.5462955236 4283349127
-0.2411909550 -0.1315612495 0.5446270108 4283282567
-0.2408469766 -0.1307693571 0.5438502431 4284927392
-0.2405026257 -0.1299789995 0.5430727005 4286827954
-0.2409491986 -0.1296158284 0.5440810919 4285512094
-0.2409999967 -0.1290385127 0.5441957712 4286032286
-0.2410506010 -0.1284608394 0.5443100333 4287348146
-0.2414968908 -0.1280927956 0.5453177691 4289057737
-0.2403592169 -0.1268863231 0.5427488685 4290044632
-0.2400129735 -0.1261013746 0.5419669747 4291226596
-0.2400624901 -0.1255251020 0.5420787930 4291884526
-0.2427518666 -0.1449569166 0.5495298505 4291029984
-0.2428080142 -0.1443797499 0.5496569276 4287674541
-0.2428639680 -0.1438021660 0.5497836471 4285638294
-0.2429197282 -0.1432241946 0.5499098301 4285769880
-0.2429752946 -0.1426458210 0.5500355959 4284585863
-0.2430306524 -0.1420670599 0.5501609445 4284191105
-0.2430858165 -0.1414878964 0.5502858162 4286427297
-0.2431407720 -0.1409083307 0.5504102111 4287940536
-0.2431955338 -0.1403283924 0.5505341887 4289190603
-0.2432500869 -0.1397480518 0.5506576896 4290045912
-0.2433044463 -0.1391673237 0.5507807136 4290438107
-0.2433585972 -0.1385862082 0.5509033203 4290109142
-0.2430186719 -0.1377813816 0.5501338243 4289715667
-0.2430723310 -0.1372004300 0.5502552986 4288005049
-0.2427317500 -0.1363976747 0.5494842529 4284590481
-0.2423907816 -0.1355964243 0.5487124324 4284722067
-0.2408667803 -0.1341380626 0.5452624559 4283809427
-0.2413134128 -0.1337798387 0.5462735295 4284401564
-0.2405768633 -0.1327663958 0.5446061492 4283743116
-0.2406286895 -0.1321897805 0.5447235107 4283282565
-0.2402857691 -0.1313970387 0.5439472198 4284597916
-0.2399424762 -0.1306058019 0.5431700945 4285782190
-0.2399935424 -0.1300299764 0.5432856679 4286626468
-0.2400443852 -0.1294537634 0.5434007645 4286494882
-0.2404899299 -0.1290891618 0.5444093943 4288200118
-0.2409354448 -0.1287223101 0.5454179049 4289450185
-0.2401957214 -0.1277229637 0.5437433720 4290109142
-0.2398506254 -0.1269361824 0.5429621339 4290898658
-0.2395051420 -0.1261509508 0.5421800613 4291884013
-0.2395545989 -0.1255744696 0.5422919989 4292278771
-0.2417872399 -0.1453545094 0.5487257838 4291947236
-0.2418434173 -0.1447784603 0.5488533378 4288464570
-0.2415073514 -0.1439683139 0.5480906367 4285964436
-0.2415630519 -0.1433924139 0.5482169986 4286559396
-0.2416185588 -0.1428161114 0.5483430028 4285440915
-0.2420661896 -0.1424703151 0.5493588448 4283993726
-0.2421213835 -0.1418922842 0.5494841337 4285704344
-0.2421763837 -0.1413138658 0.5496089458 4287612084
-0.2422311753 -0.1407350451 0.5497332811 4289059530
-0.2418930829 -0.1399286687 0.5489660501 4290045144
-0.2419473976 -0.1393500119 0.5490892529 4290439902
-0.2420015037 -0.1387709677 0.5492120385 4289781972
-0.2416624576 -0.1379671842 0.5484426022 4289584593
-0.2421091050 -0.1376117021 0.5494562984 4288072122
-0.2417694926 -0.1368090361 0.5486855507 4285637781
-0.2410362810 -0.1357863545 0.5470215678 4284003986
-0.2406958342 -0.1349876374 0.5462489128 4284793502
-0.2399616241 -0.1339708120 0.5445826054 4284992158
-0.2396203279 -0.1331760585 0.5438081026 4284202642
-0.2392786592 -0.1323828250 0.5430327058 4283018882
-0.2393302619 -0.1318078935 0.5431498289 4284268949
-0.2393816561 -0.1312325895 0.5432664156 4286304686
-0.2394328564 -0.1306569129 0.5433826447 4285975721
-0.2394838482 -0.1300808787 0.5434983373 4287018405
-0.2395346314 -0.1295044720 0.5436136127 4288202679
-0.2403733283 -0.1293517947 0.5455169678 4289711817
-0.2404238731 -0.1287727654 0.5456317067 4290698712
-0.2396857589 -0.1277730465 0.5439565778 4291160290
-0.2393414229 -0.1269859821 0.5431751609 4291818220
-0.2408238202 -0.1457499564 0.5479204655 4292540656
-0.2408800423 -0.1451750547 0.5480483770 4289843143
-0.2409360558 -0.1445997506 0.5481758118 4286359707
-0.2409918755 -0.1440240592 0.5483028293 4286491293
-0.2406561971 -0.1432150900 0.5475390553 4285637781
-0.2407115251 -0.1426395178 0.5476650000 4284453507
-0.2407666743 -0.1420635581 0.5477904081 4285375120
-0.2408216149 -0.1414872110 0.5479154587 4286888359
-0.2408763468 -0.1409104615 0.5480399728 4288467391
-0.2409309000 -0.1403333098 0.5481640697 4289388493
-0.2405934036 -0.1395285428 0.5473961830 4290242523
-0.2410393804 -0.1391778588 0.5484108925 4289979351
-0.2410933375 -0.1385995448 0.5485336781 4289454288
-0.2411470711 -0.1380208433 0.5486559272 4288138428
-0.2404162288 -0.1369947940 0.5469931364 4285772699
-0.2400771081 -0.1361946613 0.5462215543 4285114769
-0.2397376299 -0.1353960484 0.5454491377 4284598429
-0.2393977642 -0.1345989257 0.5446758866 4284927394
-0.2390575260 -0.1338033229 0.5439018011 4284596887
-0.2391095459 -0.1332279891 0.5440201759 4283215234
-0.2383759320 -0.1322166473 0.5423510671 4284331923
-0.2384273857 -0.1316424608 0.5424681306 4285779369
-0.2384786308 -0.1310679018 0.5425847173 4286891437
-0.2385296673 -0.1304929703 0.5427008271 4287023023
-0.2389735579 -0.1301317066 0.5437107682 4288595643
-0.2390242666 -0.1295551062 0.5438261628 4289516745
-0.2394679934 -0.1291902512 0.5448356867 4290763992
-0.2387318015 -0.1281895936 0.5431607366 4291685094
-0.2399619669 -0.1282435358 0.5459595919 4292211950
-0.2384381741 -0.1268264353 0.5424926877 4292475122
-0.2395277619 -0.1453328133 0.5463522673 4290700505
-0.2395837158 -0.1447595805 0.5464799404 4287476648
-0.2396394759 -0.1441859603 0.5466071367 4285834390
-0.2396950424 -0.1436119229 0.5467338562 4285768597
-0.2397504002 -0.1430374980 0.5468601584 4283992954
-0.2401961386 -0.1426946968 0.5478768349 4285374607
-0.2402511984 -0.1421185434 0.5480024219 4287281834
-0.2399153262 -0.1413118392 0.5472363234 4286623904
-0.2399699092 -0.1407358348 0.5473608375 4288860866
-0.2400242835 -0.1401594281 0.5474848747 4290045140
-0.2396874577 -0.1393553019 0.5467165709 4289585107
-0.2397413552 -0.1387790591 0.5468395352 4289387728
-0.2397950590 -0.1382024288 0.5469619632 4288467391
-0.2398485541 -0.1376254112 0.5470840335 4286230429
-0.2391191274 -0.1366008669 0.5454202294 4284790164
-0.2387806177 -0.1358023435 0.5446481109 4285711266
-0.2384417206 -0.1350053102 0.5438750982 4284861597
-0.2381024510 -0.1342097968 0.5431012511 4284006288
-0.2377628088 -0.1334157884 0.5423265100 4283608709
-0.2378145903 -0.1328421533 0.5424446464 4284200846
-0.2378661633 -0.1322681308 0.5425623059 4286630829
-0.2375255823 -0.1314767897 0.5417854190 4286696622
-0.2379687130 -0.1311189830 0.5427961946 4287807667
-0.2380196899 -0.1305438578 0.5429124236 4288728769
-0.2380704582 -0.1299683601 0.5430282354 4290041808
-0.2385133058 -0.1296056658 0.5440384150 4291028703
-0.2385637611 -0.1290284842 0.5441534519 4291553508
-0.2386140078 -0.1284509301 0.5442680717 4292211438
-0.2381785512 -0.1454863846 0.5446546674 4292341480
-0.2382344455 -0.1449152231 0.5447824597 4288530876
-0.2382901460 -0.1443436742 0.5449098349 4285833363
-0.2383456528 -0.1437717229 0.5450367332 4286296222
-0.2384009510 -0.1431993693 0.5451632142 4284059260
-0.2388457060 -0.1428596675 0.5461802483 4284650884
-0.2389007062 -0.1422855854 0.5463060141 4286690467
-0.2389555126 -0.1417111009 0.5464313626 4287873714
-0.2386202216 -0.1409059912 0.5456646085 4287873714
-0.2386745512 -0.1403316557 0.5457888842 4289518539
-0.2383386046 -0.1395285726 0.5450206399 4290044883
-0.2383924425 -0.1389544010 0.5451437831 4289519314
-0.2384460866 -0.1383798420 0.5452664495 4288598212
-0.2384995371 -0.1378048956 0.5453886390 4286033048
-0.2381623536 -0.1370049566 0.5446175933 4285901462
-0.2382153124 -0.1364301741 0.5447387099 4285583269
-0.2374868691 -0.1354095936 0.5430729389 4285188511
-0.2371485829 -0.1346141696 0.5422993302 4284531347
-0.2372006774 -0.1340410858 0.5424184799 4283149694
-0.2368617207 -0.1332477331 0.5416433811 4284201616
-0.2369133532 -0.1326748431 0.5417614579 4285649062
-0.2369647622 -0.1321015656 0.5418789983 4287351218
-0.2366248816 -0.1313108802 0.5411017537 4287285425
-0.2370670140 -0.1309539080 0.5421128273 4289318085
-0.2371178269 -0.1303795278 0.5422289968 4289844429
-0.2375598103 -0.1300189793 0.5432397127 4291159775
-0.2376103103 -0.1294429004 0.5433552265 4291554533
-0.2376606017 -0.1288664788 0.5434702039 4292145645
-0.2377106845 -0.1282896698 0.5435847640 4292408817
-0.2368324548 -0.1456357539 0.5429554582 4292473580
-0.2368882746 -0.1450666785 0.5430834293 4290302411
-0.2373323292 -0.1447340846 0.5441014767 4286556571
-0.2373878658 -0.1441632658 0.5442287922 4286227606
-0.2374431938 -0.1435920596 0.5443556309 4285176201
-0.2374983430 -0.1430204362 0.5444820523 4284386685
-0.2375532836 -0.1424484253 0.5446079969 4285768597
-0.2376080304 -0.1418760270 0.5447335243 4286426527
-0.2376625836 -0.1413032264 0.5448585749 4287939764
-0.2377169430 -0.1407300234 0.5449832082 4289781968
-0.2373819649 -0.1399270445 0.5442152619 4289913297
-0.2374358326 -0.1393540055 0.5443387628 4289386953
-0.2371001989 -0.1385530680 0.5435692668 4288795327
-0.2371535897 -0.1379801929 0.5436916947 4286689951
-0.2372067869 -0.1374069303 0.5438136458 4284855445
-0.2368701994 -0.1366085857 0.5430420041 4285842340
-0.2369229198 -0.1360355020 0.5431628227 4285584811
-0.2365856767 -0.1352392286 0.5423896909 4284466330
-0.2362480611 -0.1344444603 0.5416156650 4284003210
-0.2359100729 -0.1336512119 0.5408408046 4283411073
-0.2359617352 -0.1330794394 0.5409592390 4285317278
-0.2360131890 -0.1325072795 0.5410772562 4286304173
-0.2360644639 -0.1319347620 0.5411947966 4288071093
-0.2357252538 -0.1311447322 0.5404171348 4288531644
-0.2361663878 -0.1307885945 0.5414284468 4289910222
-0.2366074920 -0.1304301918 0.5424396992 4290633945
-0.2366580367 -0.1298552454 0.5425556302 4291226849
-0.2367083877 -0.1292799115 0.5426710248 4291753193
-0.2367585301 -0.1287042350 0.5427860022 4292801007
-0.2355451882 -0.1452139318 0.5413828492 4291422175
-0.2359882593 -0.1448844373 0.5424011946 4287474595
-0.2360437214 -0.1443157047 0.5425286293 4286096020
-0.2364866734 -0.1439826041 0.5435467362 4285043332
-0.2365418375 -0.1434121281 0.5436735153 4283926391
-0.2362089455 -0.1426070929 0.5429084301 4285176458
-0.2362636328 -0.1420367658 0.5430341363 4285373837
-0.2367061675 -0.1416983306 0.5440512300 4286294939
-0.2363724262 -0.1408949047 0.5432841778 4289123781
-0.2364265323 -0.1403234005 0.5434085131 4290110676
-0.2360921353 -0.1395220160 0.5426399708 4289517510
-0.2361457646 -0.1389506608 0.5427631736 4288925373
-0.2361992002 -0.1383789033 0.5428860188 4286756771
-0.2362524271 -0.1378067732 0.5430083871 4285638290
-0.2359168082 -0.1370085478 0.5422369838 4285778600
-0.2355808169 -0.1362118125 0.5414646864 4286502323
-0.2356332839 -0.1356404126 0.5415853262 4284860061
-0.2352966368 -0.1348457336 0.5408115387 4283412615
-0.2353486270 -0.1342745125 0.5409310460 4283544712
-0.2350113243 -0.1334819198 0.5401557684 4284860572
-0.2350628227 -0.1329108924 0.5402741432 4286498730
-0.2351141423 -0.1323394924 0.5403921008 4287156660
-0.2347759008 -0.1315495521 0.5396146774 4288793535
-0.2348267287 -0.1309783608 0.5397315025 4289451465
-0.2352668643 -0.1306230426 0.5407431126 4290502872
-0.2357069701 -0.1302654743 0.5417546630 4291095009
-0.2361470461 -0.1299056262 0.5427661538 4291949291
-0.2358075529 -0.1291166842 0.5419858694 4292344049
-0.2345916927 -0.1455968618 0.5405712724 4292144617
-0.2346472740 -0.1450306028 0.5406993628 4288924094
-0.2347026765 -0.1444639415 0.5408269763 4286423960
-0.2347578704 -0.1438968778 0.5409541726 4285702291
-0.2348128855 -0.1433294266 0.5410809517 4283991673
-0.2352546304 -0.1429967582 0.5420988798 4284321919
-0.2349223346 -0.1421933025 0.5413331389 4284782470
-0.2353638709 -0.1418579817 0.5423505902 4285769878
-0.2354182005 -0.1412879974 0.5424757600 4288598977
-0.2354723364 -0.1407176107 0.5426005125 4289913297
-0.2351388931 -0.1399163455 0.5418322086 4289386953
-0.2351925522 -0.1393461078 0.5419558287 4289122239
-0.2348584682 -0.1385468841 0.5411859751 4287411621
-0.2349116504 -0.1379768103 0.5413085222 4285114258
-0.2349646389 -0.1374063641 0.5414305925 4286495911
-0.2346296012 -0.1366097331 0.5406585932 4286044082
-0.2342942059 -0.1358146071 0.5398857594 4285057187
-0.2339584380 -0.1350209713 0.5391120315 4283871883
-0.2340103835 -0.1344518214 0.5392317176 4283542918
-0.2340621203 -0.1338822991 0.5393509269 4284466843
-0.2337254137 -0.1330913156 0.5385751128 4285585324
-0.2337766886 -0.1325219721 0.5386932492 4287745208
-0.2338277549 -0.1319522709 0.5388109088 4288205759
-0.2338786274 -0.1313821822 0.5389280915 4289778637
-0.2339292914 -0.1308117360 0.5390448570 4290568153
-0.2343684286 -0.1304572523 0.5400567651 4291226596
-0.2348075509 -0.1301005185 0.5410686135 4291621354
-0.2348577827 -0.1295270622 0.5411844254 4292539886
-0.2332539111 -0.1457367539 0.5388677120 4292344563
-0.2333094180 -0.1451725811 0.5389959812 4290107601
-0.2333647311 -0.1446079910 0.5391237736 4286623906
-0.2334198654 -0.1440430135 0.5392511487 4285242253
-0.2334748060 -0.1434776187 0.5393780470 4284190335
-0.2335295677 -0.1429118365 0.5395045280 4283927163
-0.2335841209 -0.1423456669 0.5396305919 4284586117
-0.2336384952 -0.1417790949 0.5397561789 4285244047
-0.2340789437 -0.1414455324 0.5407736897 4288138426
-0.2341330051 -0.1408772320 0.5408986211 4290112216
-0.2341868877 -0.1403085291 0.5410231352 4289518537
-0.2338540405 -0.1395088434 0.5402541757 4288992193
-0.2339074463 -0.1389403045 0.5403775573 4287938478
-0.2335739583 -0.1381426752 0.5396071076 4286359446
-0.2336268872 -0.1375743002 0.5397293568 4285907365
-0.2336796224 -0.1370055377 0.5398511887 4287025846
-0.2333451807 -0.1362105012 0.5390785933 4285188772
-0.2330103815 -0.1354169846 0.5383051038 4283609740
-0.2326752096 -0.1346249580 0.5375307798 4283281286
-0.2323396802 -0.1338344365 0.5367556214 4284070802
-0.2323910892 -0.1332675517 0.5368744135 4285846189
-0.2324423045 -0.1327002794 0.5369927287 4286372533
-0.2324933261 -0.1321326494 0.5371106267 4288532673
-0.2325441539 -0.1315646321 0.5372280478 4289124810
-0.2325947881 -0.1309962422 0.5373449922 4290698971
-0.2326452136 -0.1304274946 0.5374615192 4291291108
-0.2330832779 -0.1300747991 0.5384735465 4291883243
-0.2335212976 -0.1297198385 0.5394854546 4292278001
-0.2319746763 -0.1453103423 0.5372910500 4290767838
-0.2320299149 -0.1447478384 0.5374190211 4287675567
-0.2324698716 -0.1444240510 0.5384379625 4285572758
-0.2325248271 -0.1438598037 0.5385652781 4283796347
-0.2325796038 -0.1432951689 0.5386921167 4283664504
-0.2326341867 -0.1427301317 0.5388185382 4284190848
-0.2326885760 -0.1421646923 0.5389445424 4284980875
-0.2327427715 -0.1415988654 0.5390700698 4287678388
-0.2327967882 -0.1410326511 0.5391951799 4290045908
-0.2328506112 -0.1404660195 0.5393198133 4289322185
-0.2329042405 -0.1398990154 0.5394440293 4289123009
-0.2325719744 -0.1391009390 0.5386744738 4288530872
-0.2326251268 -0.1385340840 0.5387976170 4286032535
-0.2322922200 -0.1377380341 0.5380265117 4287085223
-0.2323449105 -0.1371713579 0.5381485224 4286569145
-0.2323973924 -0.1366042793 0.5382701159 4285384871
-0.2320635617 -0.1358108521 0.5374969244 4284594325
-0.2317293584 -0.1350189298 0.5367228389 4283804809
-0.2313947827 -0.1342285126 0.5359479189 4283283083
-0.2310598493 -0.1334396154 0.5351721644 4284664736
-0.2311110198 -0.1328744143 0.5352906585 4287025587
-0.2311619967 -0.1323088408 0.5354087353 4287880896
-0.2308261245 -0.1315225959 0.5346308351 4289517517
-0.2308766246 -0.1309572309 0.5347477794 4290307033
-0.2309269309 -0.1303914934 0.5348643064 4291487974
-0.2309770435 -0.1298253834 0.5349803567 4291816939
-0.2314139307 -0.1294754148 0.5359922647 4292539888
-0.2310268283 -0.1456859112 0.5364757180 4292669932
-0.2310820967 -0.1451245546 0.5366040468 4288401087
-0.2311371714 -0.1445627958 0.5367319584 4285374609
-0.2311920524 -0.1440006346 0.5368594527 4283666044
-0.2312467545 -0.1434380710 0.5369864702 4283534458
-0.2313012779 -0.1428751200 0.5371130705 4284322691
-0.2313555926 -0.1423117667 0.5372391939 4285112207
-0.2314097285 -0.1417480111 0.5373649001 4287546802
-0.2314636707 -0.1411838681 0.5374901891 4289783764
-0.2315174341 -0.1406193227 0.5376150012 4290110674
-0.2315709889 -0.1400543898 0.5377393961 4289452744
-0.2316243649 -0.1394890696 0.5378633142 4288596665
-0.2316775471 -0.1389233619 0.5379868150 4287017633
-0.2313456088 -0.1381274164 0.5372160077 4286233250
-0.2313983142 -0.1375618726 0.5373383760 4287878075
-0.2310657203 -0.1367679834 0.5365660787 4285517738
-0.2311179638 -0.1362026036 0.5366873741 4284201878
-0.2311700135 -0.1356368512 0.5368082523 4283804039
-0.2304511219 -0.1346204728 0.5351388454 4284198797
-0.2301171422 -0.1338316649 0.5343633294 4284728734
-0.2297828048 -0.1330443621 0.5335869789 4285978801
