VERSION 0.7
FIELDS x y z rgba
SIZE 4 4 4 4
TYPE F F F U
COUNT 1 1 1 1
WIDTH 920
HEIGHT 1
VIEWPOINT 0.0 0.0 0.0 1.0 0.0 0.0 0.0
POINTS 920
DATA ascii
-0.2100821584 -0.1162751839 0.4903688133 4289243045
-0.2101267129 -0.1157548949 0.4904727936 4291874765
-0.2101710737 -0.1152342707 0.4905763865 4292664789
-0.2102152705 -0.1147133186 0.4906795323 4292664789
-0.2102592736 -0.1141920388 0.4907822609 4292994267
-0.2103030980 -0.1136704311 0.4908845425 4293191646
-0.2103467435 -0.1131485030 0.4909864068 4293388263
-0.2111608684 -0.1130387932 0.4928867221 4293322470
-0.2112043053 -0.1125143021 0.4929881096 4292927201
-0.2116330415 -0.1121938452 0.4939888716 4292861408
-0.2120617628 -0.1118711531 0.4949895442 4292927453
-0.2121047974 -0.1113437787 0.4950900078 4292993246
-0.2133048177 -0.1114205346 0.4978910685 4292665049
-0.2137335241 -0.1110901609 0.4988917410 4292796635
-0.2137763053 -0.1105579883 0.4989916086 4292732125
-0.2145908177 -0.1104226932 0.5008928180 4292600539
-0.2142473459 -0.1096903160 0.5000910759 4292862428
-0.2154479623 -0.1097462624 0.5028935671 4292862428
-0.2151041180 -0.1090132520 0.5020909309 4292862428
-0.2159187049 -0.1088661030 0.5039923191 4292928221
-0.2167333961 -0.1087147892 0.5058940053 4292994269
-0.2160025686 -0.1077880114 0.5041881204 4292994269
-0.2172036618 -0.1078240648 0.5069916844 4293060062
-0.2176318914 -0.1074722335 0.5079911947 4293060062
-0.2176734358 -0.1069282293 0.5080882311 4293059807
-0.2181015015 -0.1065728739 0.5090873837 4293059807
-0.2185295075 -0.1062152758 0.5100864172 4293059809
-0.2189574689 -0.1058554351 0.5110853910 4293059809
-0.2193853855 -0.1054933444 0.5120841861 4293125600
-0.2198132426 -0.1051290110 0.5130828619 4293125600
-0.2202410400 -0.1047624275 0.5140814185 4293125855
-0.2206687778 -0.1043936089 0.5150798559 4293125855
-0.2210964710 -0.1040225327 0.5160781741 4293191136
-0.2215240896 -0.1036492214 0.5170763135 4293191136
-0.2211769670 -0.1029131860 0.5162660480 4293256929
-0.2219917476 -0.1027165875 0.5181679130 4293256929
-0.2224191129 -0.1023375019 0.5191654563 4293322722
-0.2228464186 -0.1019561738 0.5201628804 4293322722
-0.2232736647 -0.1015725955 0.5211601257 4293388515
-0.2237008363 -0.1011867747 0.5221572518 4293388515
-0.2237401903 -0.1006243154 0.5222490430 4293520101
-0.2245549858 -0.1004083902 0.5241509676 4293388515
-0.2245940566 -0.0998433903 0.5242421031 4293454308
-0.2250208706 -0.0994495600 0.5252383947 4293520101
-0.2254476249 -0.0990534797 0.5262345076 4293520101
-0.2258743048 -0.0986551493 0.5272304416 4293520101
-0.2266890705 -0.0984231159 0.5291322470 4293454565
-0.2271156460 -0.0980193168 0.5301280022 4293454565
-0.2279304564 -0.0977798477 0.5320298672 4293520101
-0.2283569425 -0.0973705798 0.5330253839 4293520101
-0.2283949256 -0.0967944488 0.5331140757 4293585893
-0.2288211882 -0.0963816643 0.5341089964 4293520100
-0.2288587987 -0.0958039761 0.5341967940 4293520100
-0.2296734452 -0.0955493599 0.5360983610 4293520100
-0.2300994396 -0.0951298326 0.5370926857 4293520101
-0.2305253595 -0.0947080627 0.5380868316 4293520101
-0.2309511751 -0.0942840502 0.5390807986 4293520101
-0.2313768864 -0.0938577875 0.5400744677 4293454308
-0.2314135879 -0.0932725146 0.5401601195 4293520101
-0.2322280556 -0.0929985195 0.5420612693 4293520101
-0.2318753898 -0.0922559351 0.5412380695 4293520101
-0.2323006094 -0.0918226615 0.5422306061 4293520101
-0.2327257246 -0.0913871378 0.5432229042 4293651433
-0.2335399836 -0.0911012143 0.5451235175 4293585640
-0.2339649647 -0.0906602144 0.5461154580 4293191395
-0.2343898267 -0.0902169794 0.5471072197 4292862430
-0.2352040112 -0.0899203718 0.5490076542 4292599258
-0.2360181957 -0.0896195397 0.5509080887 4292796637
-0.2352742851 -0.0887269005 0.5491716862 4293454567
-0.2246174961 -0.2157543600 0.5256596208 4292533993
-0.2243254930 -0.2148905993 0.5249763131 4292468200
-0.2247688770 -0.2147308737 0.5260139108 4292468200
-0.2252123654 -0.2145689726 0.5270517468 4292533993
-0.2266569138 -0.1953180730 0.5304323435 4290888905
-0.2263548970 -0.1944692433 0.5297255516 4290691526
-0.2267973125 -0.1942596287 0.5307609439 4290756805
-0.2264947742 -0.1934115589 0.5300529003 4290625219
-0.2265644819 -0.1928819865 0.5302160382 4290427840
-0.2258885503 -0.1917191893 0.5286341906 4290230461
-0.2259577364 -0.1911903769 0.5287961364 4289967027
-0.2260267735 -0.1906610876 0.5289577246 4289638062
-0.2260956764 -0.1901313066 0.5291188955 4289374890
-0.2254180014 -0.1889753044 0.5275329947 4288980132
-0.2258596867 -0.1887583137 0.5285666585 4288190616
-0.2255545706 -0.1879168451 0.5278526545 4287269514
-0.2256226391 -0.1873868853 0.5280119181 4286151033
-0.2256905586 -0.1868564636 0.5281708241 4285295724
-0.2257583141 -0.1863255501 0.5283294320 4285427308
-0.2258259207 -0.1857941598 0.5284876227 4285624687
-0.2255193740 -0.1849555671 0.5277702808 4286348410
-0.2255865782 -0.1844241023 0.5279275179 4287269512
-0.2252793908 -0.1835872084 0.5272086263 4287993235
-0.2253461629 -0.1830556840 0.5273649096 4288124821
-0.2254127860 -0.1825236827 0.5275207758 4287664270
-0.2251046896 -0.1816889048 0.5267997980 4287466891
-0.2244215757 -0.1805540025 0.5252011418 4288124815
-0.2241126299 -0.1797227114 0.5244780779 4288322194
-0.2253028154 -0.1800913364 0.5272634625 4288322194
-0.2238685936 -0.1783628166 0.5239070058 4288322194
-0.2239337265 -0.1778324544 0.5240594745 4288453778
-0.2243739218 -0.1775985956 0.5250896215 4288519571
-0.2236882150 -0.1764742136 0.5234848857 4288650387
-0.2237527817 -0.1759433597 0.5236359835 4288716180
-0.2234416455 -0.1751177162 0.5229078531 4288913813
-0.2235057801 -0.1745868176 0.5230579376 4288979606
-0.2228182554 -0.1734704226 0.5214489698 4289111192
-0.2232577205 -0.1732320338 0.5224773884 4288979606
-0.2229453027 -0.1724099368 0.5217462778 4288979605
-0.2226325274 -0.1715891659 0.5210143328 4289045398
-0.2226955444 -0.1710586846 0.5211617947 4289110678
-0.2231346816 -0.1708158106 0.5221894979 4289308057
-0.2220683247 -0.1694220752 0.5196939707 4289045147
-0.2221306562 -0.1688920408 0.5198398232 4289110940
-0.2210630327 -0.1675055027 0.5173413157 4289045147
-0.2207480222 -0.1666928232 0.5166041255 4289045147
-0.2215630710 -0.1667321771 0.5185115337 4289045145
-0.2208707184 -0.1656368673 0.5168912411 4289110938
-0.2205547988 -0.1648264676 0.5161519051 4289110938
-0.2202385217 -0.1640174389 0.5154117346 4289110938
-0.2202990949 -0.1634897292 0.5155535340 4289308571
-0.2203595042 -0.1629615873 0.5156948566 4289242778
-0.2204197496 -0.1624330133 0.5158358812 4289308571
-0.2197247595 -0.1613495499 0.5142094493 4289308571
-0.2197844833 -0.1608219147 0.5143492222 4289176985
-0.2202217728 -0.1605692804 0.5153725743 4289176985
-0.2195255756 -0.1594908535 0.5137432814 4289242778
-0.2195847034 -0.1589628607 0.5138816833 4289242778
-0.2192656100 -0.1581617296 0.5131349564 4289176985
-0.2193243057 -0.1576337814 0.5132722855 4289242778
-0.2190045863 -0.1568345428 0.5125240684 4289308571
-0.2190628499 -0.1563066691 0.5126603842 4289308571
-0.2187425047 -0.1555093229 0.5119106770 4289308571
-0.2184217870 -0.1547133774 0.5111601353 4289374364
-0.2184793502 -0.1541860551 0.5112948418 4289308571
-0.2181579918 -0.1533920318 0.5105428100 4289242778
-0.2182151228 -0.1528647989 0.5106765032 4289242778
-0.2171352506 -0.1515437365 0.5081493855 4289242778
-0.2171917558 -0.1510184258 0.5082815886 4289308571
-0.2168689519 -0.1502300799 0.5075261593 4289308571
-0.2169250101 -0.1497048736 0.5076573491 4289308571
-0.2166015804 -0.1489184648 0.5069004297 4289308571
-0.2170366496 -0.1486532390 0.5079185963 4289374364
-0.2170922160 -0.1481268257 0.5080486536 4289374364
-0.2167679816 -0.1473419517 0.5072898269 4289374110
-0.2160636634 -0.1463014185 0.5056415796 4289374110
-0.2161184251 -0.1457765549 0.5057697296 4289308317
-0.2161730230 -0.1452512890 0.5058975220 4289308317
-0.2158474326 -0.1444712728 0.5051355362 4289308317
-0.2162817121 -0.1441995800 0.5061518550 4289374110
-0.2155753970 -0.1431681216 0.5044988990 4289374364
-0.2156291157 -0.1426431239 0.5046246052 4289374364
-0.2153022736 -0.1418671012 0.5038597584 4289440157
-0.2153555751 -0.1413422525 0.5039844513 4289374364
-0.2150281072 -0.1405682117 0.5032181144 4289374364
-0.2150809616 -0.1400435269 0.5033417940 4289374364
-0.2143721133 -0.1390245706 0.5016829371 4289374364
-0.2144244313 -0.1385009587 0.5018053651 4289374364
-0.2144765854 -0.1379769593 0.5019274354 4289374364
-0.2145285606 -0.1374525875 0.5020490885 4289308571
-0.2141992301 -0.1366846263 0.5012783408 4289439646
-0.2142507732 -0.1361604333 0.5013989806 4289439646
-0.2143021524 -0.1356358528 0.5015192032 4289373853
-0.2139719278 -0.1348704845 0.5007464290 4289373853
-0.2136413604 -0.1341066062 0.4999727905 4289373853
-0.2136920244 -0.1335827708 0.5000913739 4289373853
-0.2133608311 -0.1328209639 0.4993162751 4289308060
-0.2134110481 -0.1322973222 0.4994338155 4289373853
-0.2130792439 -0.1315375865 0.4986572862 4289373853
-0.2127470672 -0.1307793558 0.4978799522 4289439646
-0.2124145478 -0.1300226301 0.4971017838 4289439646
-0.2128459364 -0.1297332495 0.4981113076 4289373853
-0.2125128955 -0.1289776862 0.4973319173 4289373853
-0.2121794969 -0.1282236278 0.4965516627 4289373853
-0.2122281343 -0.1277011931 0.4966655076 4289373853
-0.2118941247 -0.1269492507 0.4958838224 4289308060
-0.2115597576 -0.1261988282 0.4951013327 4289374110
-0.2112250328 -0.1254499555 0.4943180084 4289374110
-0.2116554528 -0.1251552403 0.4953252971 4289308317
-0.2113202065 -0.1244075298 0.4945407212 4289242524
-0.2113675326 -0.1238857955 0.4946514666 4289176731
-0.2106486708 -0.1229167432 0.4929691851 4289176731
-0.2106954604 -0.1223962009 0.4930786788 4289110938
-0.2107420862 -0.1218753159 0.4931877851 4289176731
-0.2104052603 -0.1211334392 0.4923995435 4289308060
-0.2104514390 -0.1206128076 0.4925076067 4289242267
-0.2104974389 -0.1200918406 0.4926152527 4289308060
-0.2105432451 -0.1195705235 0.4927224815 4289373853
-0.2102053016 -0.1188320294 0.4919315875 4289373853
-0.2098670006 -0.1180950925 0.4911398888 4289439646
-0.2099121213 -0.1175746694 0.4912454486 4289439392
-0.2099570483 -0.1170539111 0.4913506210 4288913048
-0.2096178830 -0.1163197756 0.4905568659 4289309349
-0.2096623778 -0.1157993078 0.4906609952 4291941069
-0.2097066790 -0.1152785048 0.4907646775 4292335827
-0.2097508013 -0.1147573665 0.4908679426 4292598999
-0.2097947448 -0.1142359078 0.4909707904 4292664792
-0.2098385096 -0.1137141213 0.4910732210 4292796378
-0.2098820955 -0.1131920069 0.4911752045 4292730585
-0.2103099674 -0.1128759235 0.4921765327 4292796378
-0.2111223787 -0.1127629951 0.4940777719 4292730585
-0.2119349241 -0.1126459166 0.4959793091 4292730585
-0.2115934491 -0.1119142398 0.4951801896 4292796124
-0.2124060094 -0.1117917225 0.4970817864 4292796124
-0.2124489546 -0.1112619191 0.4971822798 4292730844
-0.2128766626 -0.1109323949 0.4981832206 4292796637
-0.2136893719 -0.1108002737 0.5000851750 4292796637
-0.2141170800 -0.1104653105 0.5010861158 4292796637
-0.2141595930 -0.1099303812 0.5011855960 4292927964
-0.2145871520 -0.1095918939 0.5021861792 4292993757
-0.2150146812 -0.1092511639 0.5031867027 4292993757
-0.2146713585 -0.1085185334 0.5023832321 4292993757
-0.2166405916 -0.1089506894 0.5069917440 4293059550
-0.2162970304 -0.1082155034 0.5061877370 4293125343
-0.2171100229 -0.1080577224 0.5080903172 4293125343
-0.2175374180 -0.1077048033 0.5090904832 4293125343
-0.2171932012 -0.1069696397 0.5082849860 4293125343
-0.2180061936 -0.1068031937 0.5101875663 4293125343
-0.2184333652 -0.1064445078 0.5111872554 4293125343
-0.2188604921 -0.1060835719 0.5121868253 4293125343
-0.2185154259 -0.1053481326 0.5113793015 4293125343
-0.2197145820 -0.1053549573 0.5141856074 4293191136
-0.2197553217 -0.1048030928 0.5142809749 4293191136
-0.2197958678 -0.1042509228 0.5143758655 4293191136
-0.2202225775 -0.1038806885 0.5153744221 4293190882
-0.2210356444 -0.1036894917 0.5172772408 4293190882
-0.2214623094 -0.1033137962 0.5182756782 4293256675
-0.2218888998 -0.1029358581 0.5192740560 4293256675
-0.2223154306 -0.1025556698 0.5202721953 4293322468
-0.2227418870 -0.1021732315 0.5212702751 4293322468
-0.2231682837 -0.1017885432 0.5222681165 4293388261
-0.2228209376 -0.1010507420 0.5214552283 4293388261
-0.2236339748 -0.1008379683 0.5233579278 4293454054
-0.2236731201 -0.1002740338 0.5234495401 4293454054
-0.2252602428 -0.1003998369 0.5271638036 4293519847
-0.2241379172 -0.0993168056 0.5245372653 4293519847
-0.2253380418 -0.0992626697 0.5273458958 4293585640
-0.2261511236 -0.0990328044 0.5292487144 4293585640
-0.2265769392 -0.0986301303 0.5302451849 4293519847
-0.2270026803 -0.0982252136 0.5312415361 4293454054
-0.2270409018 -0.0976513997 0.5313310027 4293520101
-0.2274664193 -0.0972429663 0.5323268175 4293454308
-0.2278918624 -0.0968322828 0.5333224535 4293520101
-0.2279295623 -0.0962556526 0.5334106684 4293585894
-0.2287424654 -0.0960041657 0.5353130698 4293520101
-0.2291676402 -0.0955867395 0.5363081098 4293520101
-0.2295927405 -0.0951670632 0.5373029113 4293520101
-0.2296298444 -0.0945853665 0.5373897552 4293520101
-0.2300546914 -0.0941621810 0.5383840203 4293454308
-0.2304794490 -0.0937367454 0.5393780470 4293454308
-0.2305160314 -0.0931522474 0.5394636393 4293388261
-0.2309405357 -0.0927233025 0.5404570699 4293322468
-0.2309767455 -0.0921372622 0.5405418277 4293257188
-0.2325657755 -0.0921664089 0.5442605019 4293191395
-0.2329901010 -0.0917287618 0.5452535748 4293191395
-0.2334143370 -0.0912888646 0.5462463498 4293191395
-0.2338384539 -0.0908467174 0.5472389460 4292730333
-0.2342624813 -0.0904023275 0.5482312441 4292796126
-0.2342978567 -0.0898067579 0.5483140349 4293322470
-0.2431176007 -0.0185938012 0.5689544082 4294705151
-0.2183755040 -0.2387700379 0.5123836398 4293521148
-0.2244140655 -0.2137805521 0.5265522003 4292533993
-0.2256157994 -0.1931630522 0.5293718576 4290954698
-0.2256852835 -0.1926341951 0.5295349360 4290757319
-0.2253827155 -0.1917883754 0.5288249850 4290625733
-0.2258238345 -0.1915750355 0.5298599601 4290559423
-0.2258928865 -0.1910447180 0.5300220251 4290362044
-0.2255895287 -0.1902000457 0.5293102264 4290164665
-0.2252857834 -0.1893566549 0.5285975337 4289967286
-0.2253541648 -0.1888266355 0.5287579894 4289704368
-0.2250497937 -0.1879848987 0.5280438066 4289243817
-0.2247450352 -0.1871444434 0.5273287892 4288716960
-0.2248127311 -0.1866147369 0.5274875760 4288190616
-0.2248802781 -0.1860845536 0.5276460648 4287072133
-0.2249476761 -0.1855538934 0.5278041959 4286085238
-0.2250149250 -0.1850227565 0.5279619694 4285295722
-0.2250820100 -0.1844911426 0.5281193852 4285098343
-0.2247755677 -0.1836539805 0.5274003744 4285822066
-0.2244687378 -0.1828181148 0.5266804695 4286743168
-0.2245351523 -0.1822868437 0.5268362761 4287401352
-0.2246014029 -0.1817551106 0.5269917250 4287796110
-0.2242936790 -0.1809213609 0.5262697339 4288256147
-0.2239855826 -0.1800889224 0.5255467892 4288387733
-0.2244251817 -0.1798573136 0.5265783072 4288124561
-0.2237424105 -0.1787268370 0.5249762535 4287861389
-0.2234333009 -0.1778974384 0.5242509842 4288190608
-0.2234981805 -0.1773664504 0.5244032145 4288585366
-0.2231884301 -0.1765387803 0.5236763954 4288651159
-0.2232528925 -0.1760077626 0.5238276720 4288519573
-0.2229425013 -0.1751818508 0.5230993629 4288716950
-0.2230065316 -0.1746508032 0.5232496262 4288651157
-0.2226954997 -0.1738266647 0.5225198865 4288782227
-0.2223841101 -0.1730038524 0.5217891932 4288848020
-0.2228225768 -0.1727640778 0.5228180289 4288979606
-0.2221354246 -0.1716521978 0.5212057233 4289045399
-0.2218230069 -0.1708324999 0.5204727054 4288913813
-0.2226365507 -0.1708786339 0.5223815441 4288782227
-0.2215726227 -0.1694844067 0.5198851824 4288914331
-0.2216348499 -0.1689542234 0.5200312138 4288914331
-0.2213211805 -0.1681381315 0.5192952156 4288848538
-0.2210071236 -0.1673233807 0.5185583234 4288848538
-0.2214446366 -0.1670773327 0.5195848942 4289045147
-0.2200018317 -0.1654152125 0.5161995888 4289045147
-0.2204389125 -0.1651691794 0.5172251463 4289110938
-0.2197472006 -0.1640780270 0.5156021118 4289110938
-0.2201840729 -0.1638302058 0.5166271925 4289242524
-0.2198680043 -0.1630218625 0.5158855915 4289176731
-0.2195515782 -0.1622148752 0.5151430964 4289176731
-0.2196114659 -0.1616866142 0.5152836442 4289242524
-0.2192943990 -0.1608814895 0.5145397186 4289176985
-0.2193538696 -0.1603532583 0.5146792531 4289176985
-0.2190361768 -0.1595499963 0.5139337778 4289242778
-0.2190952003 -0.1590218246 0.5140722990 4289242778
-0.2187768817 -0.1582204401 0.5133253932 4289176985
-0.2188354731 -0.1576923281 0.5134629011 4289242778
-0.2185165137 -0.1568928212 0.5127145052 4289308571
-0.2185746878 -0.1563647836 0.5128509998 4289308571
-0.2182551026 -0.1555671692 0.5121011138 4289308571
-0.2183128446 -0.1550391912 0.5122365952 4289308571
-0.2179926187 -0.1542434841 0.5114852786 4289308571
-0.2180499285 -0.1537155807 0.5116197467 4289242778
-0.2177290618 -0.1529217809 0.5108668804 4289308571
-0.2174078524 -0.1521293968 0.5101131797 4289308571
-0.2174644619 -0.1516021043 0.5102460384 4289308571
-0.2171426117 -0.1508116424 0.5094908476 4289308571
-0.2168203890 -0.1500226110 0.5087348223 4289308571
-0.2168763131 -0.1494959146 0.5088660121 4289308571
-0.2165534645 -0.1487088352 0.5081085563 4289308571
-0.2166089416 -0.1481822431 0.5082387328 4289308571
-0.2162854820 -0.1473971158 0.5074797273 4289308317
-0.2159616500 -0.1466134191 0.5067198873 4289308317
-0.2160164267 -0.1460874677 0.5068484545 4289308317
-0.2156919688 -0.1453057379 0.5060871840 4289374110
-0.2157463133 -0.1447799206 0.5062146783 4289374110
-0.2154212296 -0.1440001726 0.5054519176 4289374110
-0.2150957882 -0.1432218701 0.5046883225 4289374110
-0.2151494324 -0.1426967084 0.5048142076 4289374110
-0.2148233652 -0.1419204175 0.5040491223 4289374110
-0.2148765773 -0.1413953900 0.5041739941 4289374110
-0.2145498842 -0.1406210959 0.5034074187 4289374110
-0.2146026641 -0.1400962323 0.5035312772 4289374110
-0.2138954252 -0.1390769184 0.5018718243 4289374110
-0.2143276781 -0.1387992352 0.5028860569 4289374110
-0.2139997482 -0.1380289793 0.5021166205 4289374110
-0.2140516490 -0.1375044286 0.5022383928 4289374110
-0.2141033858 -0.1369795054 0.5023598075 4289308317
-0.2141549438 -0.1364541948 0.5024807453 4289308317
-0.2134453803 -0.1354456395 0.5008158684 4289308317
-0.2134964019 -0.1349214464 0.5009356141 4289308317
-0.2131666094 -0.1341573149 0.5001617670 4289373853
-0.2132171988 -0.1336333007 0.5002804995 4289439646
-0.2128867805 -0.1328712255 0.4995052218 4289439646
-0.2129369229 -0.1323474050 0.4996228814 4289439646
-0.2126058936 -0.1315874010 0.4988461733 4289439646
-0.2126556039 -0.1310637891 0.4989627898 4289439646
-0.2123239487 -0.1303058714 0.4981846213 4289439646
-0.2123732269 -0.1297824532 0.4983002543 4289373853
-0.2120409459 -0.1290266216 0.4975206256 4289373853
-0.2120897770 -0.1285034269 0.4976351857 4289373853
-0.2117569000 -0.1277496964 0.4968541265 4289373853
-0.2118052840 -0.1272267252 0.4969676733 4289373853
-0.2114717960 -0.1264750957 0.4961851835 4289242524
-0.2111379355 -0.1257250160 0.4954018593 4289308317
-0.2108037323 -0.1249764487 0.4946177006 4289308317
-0.2104691863 -0.1242294237 0.4938327372 4289308317
-0.2101342976 -0.1234839410 0.4930469394 4289242524
-0.2101811916 -0.1229635701 0.4931569993 4289242524
-0.2102279216 -0.1224428564 0.4932666421 4289176731
-0.2102744728 -0.1219217852 0.4933758378 4289176731
-0.2099384367 -0.1211796477 0.4925873876 4289242267
-0.2099845409 -0.1206588447 0.4926955700 4289242267
-0.2100304663 -0.1201376915 0.4928033352 4289242267
-0.2100762129 -0.1196162030 0.4929106832 4289176474
-0.2097390592 -0.1188774407 0.4921195805 4289176220
-0.2097843587 -0.1183562204 0.4922258854 4289307806
-0.2098294944 -0.1178346649 0.4923317730 4289505185
-0.2094914466 -0.1170987040 0.4915386438 4289242013
-0.2091530710 -0.1163643077 0.4907446802 4289506728
-0.2091974914 -0.1158436537 0.4908488989 4292138448
-0.2092417479 -0.1153226718 0.4909527302 4292467413
-0.2092858106 -0.1148013547 0.4910561144 4292598999
-0.2093296796 -0.1142797172 0.4911590815 4292664792
-0.2093733847 -0.1137577444 0.4912616014 4292730585
-0.2101839930 -0.1136502326 0.4931635857 4292730585
-0.2098438591 -0.1129192635 0.4923655093 4292862171
-0.2102708071 -0.1126008332 0.4933672547 4292796378
-0.2106977105 -0.1122801676 0.4943689406 4292796378
-0.2107407302 -0.1117537022 0.4944698811 4292796124
-0.2115514576 -0.1116321161 0.4963721037 4292796124
-0.2123622894 -0.1115063652 0.4982745945 4292796637
-0.2124050707 -0.1109750941 0.4983749688 4292796637
-0.2128318250 -0.1106432229 0.4993762970 4292796637
-0.2132585645 -0.1103091016 0.5003775358 4292862430
-0.2136852443 -0.1099727452 0.5013787150 4292927710
-0.2141119093 -0.1096341386 0.5023797750 4292993503
-0.2145385146 -0.1092932969 0.5033807755 4292993503
-0.2149650902 -0.1089502051 0.5043816566 4292993503
-0.2157762498 -0.1087988019 0.5062849522 4293059296
-0.2162028253 -0.1084502563 0.5072857738 4293125089
-0.2158597857 -0.1077154502 0.5064809322 4293125089
-0.2174406797 -0.1079374626 0.5101901889 4293125089
-0.2170973271 -0.1072010621 0.5093846321 4293190882
-0.2171386331 -0.1066553891 0.5094815493 4293190882
-0.2175648212 -0.1062975451 0.5104815364 4293190882
-0.2183761001 -0.1061246246 0.5123850703 4293190882
-0.2188022584 -0.1057613119 0.5133849382 4293190882
-0.2196136415 -0.1055809855 0.5152887702 4293190882
-0.2192690521 -0.1048436984 0.5144802332 4293190882
-0.2196949720 -0.1044746116 0.5154795647 4293190882
-0.2205063254 -0.1042856053 0.5173832774 4293256675
-0.2201610655 -0.1035483629 0.5165731907 4293256675
-0.2205867320 -0.1031735092 0.5175719261 4293256675
-0.2210123390 -0.1027964056 0.5185706019 4293256675
-0.2214378864 -0.1024170592 0.5195690393 4293322468
-0.2218633741 -0.1020354629 0.5205674171 4293388261
-0.2222887874 -0.1016516164 0.5215655565 4293454054
-0.2227141410 -0.1012655199 0.5225635767 4293454054
-0.2227533758 -0.1007026508 0.5226556063 4293388261
-0.2231785208 -0.1003130376 0.5236531496 4293454054
-0.2236035913 -0.0999211743 0.5246505141 4293585640
-0.2244148552 -0.0996986553 0.5265540481 4293585640
-0.2252261788 -0.0994719416 0.5284576416 4293585640
-0.2256511599 -0.0990713760 0.5294548273 4293585640
-0.2260760665 -0.0986685604 0.5304518342 4293519847
-0.2261143774 -0.0980958119 0.5305417180 4293454054
-0.2269256562 -0.0978561863 0.5324452519 4293520101
-0.2273503244 -0.0974466205 0.5334416628 4293520101
-0.2273881882 -0.0968700647 0.5335305333 4293585894
-0.2274258584 -0.0962932184 0.5336188674 4293585894
-0.2278501391 -0.0958788693 0.5346143842 4293520101
-0.2282743454 -0.0954622701 0.5356097221 4293454308
-0.2286984622 -0.0950434282 0.5366048217 4293520101
-0.2295095176 -0.0947821662 0.5385078788 4293520101
-0.2303206176 -0.0945166945 0.5404109359 4293519847
-0.2295831144 -0.0936155319 0.5386805534 4293454054
-0.2300067991 -0.0931886807 0.5396746397 4293322468
-0.2315922379 -0.0932272822 0.5433946252 4293322468
-0.2312412411 -0.0924831480 0.5425710678 4293191395
-0.2312773019 -0.0918946415 0.5426557064 4292994016
-0.2324755192 -0.0917646885 0.5454671383 4292665051
-0.2328988463 -0.0913246274 0.5464603901 4292533465
-0.2333220690 -0.0908823237 0.5474534035 4293519849
-0.2421833873 -0.0192019828 0.5682451129 4294508028
-0.2233243287 -0.2121308744 0.5253643990 4292599786
-0.2233988196 -0.2116177231 0.5255396366 4292468200
-0.2245741189 -0.1910126358 0.5283045173 4290889160
-0.2239002138 -0.1898542196 0.5267191529 4290691781
-0.2239685655 -0.1893267632 0.5268799067 4290625216
-0.2244082838 -0.1891119331 0.5279144049 4290427837
-0.2237331420 -0.1879581958 0.5263261199 4290296251
-0.2234291732 -0.1871188283 0.5256110430 4290098872
-0.2234966904 -0.1865912080 0.5257698894 4289770161
-0.2243080288 -0.1866822839 0.5276785493 4289506989
-0.2240033746 -0.1858432442 0.5269618630 4289112231
-0.2240705639 -0.1853133142 0.5271198750 4288651680
-0.2241375893 -0.1847829074 0.5272775292 4288059028
-0.2242044657 -0.1842520088 0.5274348855 4287006340
-0.2242711782 -0.1837206632 0.5275918245 4285887859
-0.2239650935 -0.1828845292 0.5268718004 4285295722
-0.2240314037 -0.1823531091 0.5270277858 4285295722
-0.2240975648 -0.1818212122 0.5271834135 4285493101
-0.2237905711 -0.1809871942 0.5264612436 4286809215
-0.2242293954 -0.1807560176 0.5274935365 4287598731
-0.2239218801 -0.1799228340 0.5267701149 4288190868
-0.2228673697 -0.1784930080 0.5242894292 4288322454
-0.2229323089 -0.1779623181 0.5244421959 4288256660
-0.2233706266 -0.1777283847 0.5254732966 4288190867
-0.2226880789 -0.1766032577 0.5238676667 4288256147
-0.2227524519 -0.1760720760 0.5240190625 4288453526
-0.2224428058 -0.1752458960 0.5232906342 4288519573
-0.2225067466 -0.1747146994 0.5234410167 4288585366
-0.2225705236 -0.1741830409 0.5235911012 4288585364
-0.2222599834 -0.1733590662 0.5228605270 4288651157
-0.2223233432 -0.1728273779 0.5230095983 4288651157
-0.2220121473 -0.1720051914 0.5222775340 4288716950
-0.2220750898 -0.1714735031 0.5224255919 4288914329
-0.2217632681 -0.1706530899 0.5216920376 4288848536
-0.2218257785 -0.1701213866 0.5218390822 4288848538
-0.2207636982 -0.1687298417 0.5193405747 4288782745
-0.2204506546 -0.1679143757 0.5186041594 4288782745
-0.2212623060 -0.1679542810 0.5205135345 4288848538
-0.2209488451 -0.1671388298 0.5197761059 4288848538
-0.2198845446 -0.1657589972 0.5172724128 4288914331
-0.2195701301 -0.1649480760 0.5165327787 4288914331
-0.2200062275 -0.1647006422 0.5175586343 4288980124
-0.2193157375 -0.1636104882 0.5159342885 4288980122
-0.2193759680 -0.1630820334 0.5160759687 4288914329
-0.2194360346 -0.1625531316 0.5162172914 4289110938
-0.2191201001 -0.1617463529 0.5154740810 4289110938
-0.2188037932 -0.1609409600 0.5147299170 4289176731
-0.2188631594 -0.1604125798 0.5148696303 4289176731
-0.2185462117 -0.1596090496 0.5141240358 4289176731
-0.2186051607 -0.1590807140 0.5142626762 4289176731
-0.2182875872 -0.1582790613 0.5135155916 4289176985
-0.2183461040 -0.1577507854 0.5136532784 4289176985
-0.2180279046 -0.1569510102 0.5129047036 4289242778
-0.2177093327 -0.1561526507 0.5121552348 4289242778
-0.2177671492 -0.1556249261 0.5122912526 4289308571
-0.2178248018 -0.1550967842 0.5124269128 4289242778
-0.2178822905 -0.1545682251 0.5125621557 4289242778
-0.2175625563 -0.1537727565 0.5118100047 4289242778
-0.2176196277 -0.1532442719 0.5119442344 4289242778
-0.2172992676 -0.1524507105 0.5111905932 4289242778
-0.2169785351 -0.1516585648 0.5104360580 4289242778
-0.2170348912 -0.1511306763 0.5105686784 4289242778
-0.2167135477 -0.1503404677 0.5098127127 4289242778
-0.2163918167 -0.1495516896 0.5090558529 4289242778
-0.2164474875 -0.1490244120 0.5091868043 4289242778
-0.2165029794 -0.1484967321 0.5093173385 4289242778
-0.2154793739 -0.1466682255 0.5069093108 4289308317
-0.2151559442 -0.1458857059 0.5061484575 4289308317
-0.2159668207 -0.1458710432 0.5080560446 4289374110
-0.2152646482 -0.1448341161 0.5064042211 4289374110
-0.2149403244 -0.1440540999 0.5056412220 4289374110
-0.2146156430 -0.1432755440 0.5048774481 4289308317
-0.2146692127 -0.1427502185 0.5050034523 4289308317
-0.2143439054 -0.1419736594 0.5042381883 4289374110
-0.2143970430 -0.1414484680 0.5043631792 4289439903
-0.2144500017 -0.1409228891 0.5044878125 4289374110
-0.2141238153 -0.1401488632 0.5037204623 4289374110
-0.2137972713 -0.1393763125 0.5029522777 4289374112
-0.2134703696 -0.1386052370 0.5021831989 4289374112
-0.2135223746 -0.1380809098 0.5023055673 4289374112
-0.2135742009 -0.1375561953 0.5024274588 4289439905
-0.2132464051 -0.1367876977 0.5016563535 4289242524
-0.2129182667 -0.1360206902 0.5008844137 4289242524
-0.2129693925 -0.1354966909 0.5010046959 4289308317
-0.2130203396 -0.1349723339 0.5011245608 4289308317
-0.2126913071 -0.1342079341 0.5003505349 4289373853
-0.2127418220 -0.1336837411 0.5004693270 4289373853
-0.2124121785 -0.1329214126 0.4996938705 4289439646
-0.2124622613 -0.1323974133 0.4998116791 4289439646
-0.2121320069 -0.1316371560 0.4990347326 4289439646
-0.2121816427 -0.1311133653 0.4991515279 4289439646
-0.2122310996 -0.1305892020 0.4992678761 4289439646
-0.2118999660 -0.1298315823 0.4984888732 4289439646
-0.2115684748 -0.1290754974 0.4977090657 4289373853
-0.2116172314 -0.1285521239 0.4978237748 4289373853
-0.2112851292 -0.1277981251 0.4970424771 4289373853
-0.2113334388 -0.1272749752 0.4971561730 4289373853
-0.2113815993 -0.1267514676 0.4972694218 4289373599
-0.2106676549 -0.1257727295 0.4955899119 4289373599
-0.2103342265 -0.1250239164 0.4948055446 4289373599
-0.2103815973 -0.1245021746 0.4949169457 4289373599
-0.2100475580 -0.1237554848 0.4941311479 4289373599
-0.2100944817 -0.1232339889 0.4942415357 4289373599
-0.2097598463 -0.1224894375 0.4934543073 4289373599
-0.2098063231 -0.1219681948 0.4935636520 4289307806
-0.2098526210 -0.1214466095 0.4936725497 4289176733
-0.2095171064 -0.1207048073 0.4928832948 4289242526
-0.2095629722 -0.1201834828 0.4929911792 4289242524
-0.2092268467 -0.1194438487 0.4922004640 4289176731
-0.2088903934 -0.1187057793 0.4914089441 4289045145
-0.2093175054 -0.1184013933 0.4924137294 4289176731
-0.2089805305 -0.1176645458 0.4916209877 4289374110
-0.2086877376 -0.1164087728 0.4909321964 4289901486
-0.2087320983 -0.1158879399 0.4910365641 4292335827
-0.2087762654 -0.1153667793 0.4911404848 4292598999
-0.2088202685 -0.1148452833 0.4912439883 4292730585
-0.2092466205 -0.1145328432 0.4922469556 4292730585
-0.2092903405 -0.1140097305 0.4923498034 4292796378
-0.2097165585 -0.1136937663 0.4933525026 4292796378
-0.2097599953 -0.1131690517 0.4934546649 4292862171
-0.2101860940 -0.1128495634 0.4944570661 4292796378
-0.2109951079 -0.1127324253 0.4963602126 4292796378
-0.2110382169 -0.1122038588 0.4964616597 4292861917
-0.2114642262 -0.1118776426 0.4974638522 4292861917
-0.2115070522 -0.1113474667 0.4975645840 4292796637
-0.2115496844 -0.1108169705 0.4976648688 4292862430
-0.2127420902 -0.1108855382 0.5004699826 4292862430
-0.2131679803 -0.1105503514 0.5014718771 4292862430
-0.2135938406 -0.1102129146 0.5024736524 4292993503
-0.2144031972 -0.1100701392 0.5043776631 4293059296
-0.2144454271 -0.1095313057 0.5044770241 4293059296
-0.2144874632 -0.1089921594 0.5045759082 4293059296
-0.2149130851 -0.1086467057 0.5055771470 4293125089
-0.2157225013 -0.1084920540 0.5074812770 4293125089
-0.2161481082 -0.1081411391 0.5084825158 4293190882
-0.2169576734 -0.1079790890 0.5103870034 4293190882
-0.2166151106 -0.1072424278 0.5095811486 4293256675
-0.2170405090 -0.1068857387 0.5105818510 4293256675
-0.2174658477 -0.1065267995 0.5115824938 4293256675
-0.2178911418 -0.1061656177 0.5125829577 4293256675
-0.2179320306 -0.1056159139 0.5126791596 4293256675
-0.2183571458 -0.1052512005 0.5136792064 4293190882
-0.2191667110 -0.1050685719 0.5155836940 4293190882
-0.2195917815 -0.1046983898 0.5165836811 4293190882
-0.2204014510 -0.1045083478 0.5184884071 4293322468
-0.2200570405 -0.1037698686 0.5176782012 4293322468
-0.2204818726 -0.1033939123 0.5186775923 4293322468
-0.2212914973 -0.1031951755 0.5205821991 4293388261
-0.2209464163 -0.1024567559 0.5197704434 4293454054
-0.2217559814 -0.1022525430 0.5216748714 4293454054
-0.2217954993 -0.1016910449 0.5217678547 4293519847
-0.2226050645 -0.1014803797 0.5236723423 4293519847
-0.2230294943 -0.1010909304 0.5246708393 4293519847
-0.2230686098 -0.1005256027 0.5247628093 4293519847
-0.2238781601 -0.1003052667 0.5266672969 4293585640
-0.2243023962 -0.0999090597 0.5276652575 4293585640
-0.2243410796 -0.0993399173 0.5277562737 4293585640
-0.2251506150 -0.0991098955 0.5296607018 4293519847
-0.2248034179 -0.0983694717 0.5288438797 4293519847
-0.2248415351 -0.0977984741 0.5289335847 4293454054
-0.2264223695 -0.0978942662 0.5326524377 4293454308
-0.2256887406 -0.0969871879 0.5309266448 4293454308
-0.2268839478 -0.0969077870 0.5337383151 4293520101
-0.2273074687 -0.0964945555 0.5347346067 4293520101
-0.2273449302 -0.0959162340 0.5348227620 4293454308
-0.2281542718 -0.0956613496 0.5367267132 4293520101
-0.2285775393 -0.0952413678 0.5377224088 4293585894
-0.2286145389 -0.0946592465 0.5378094912 4293585894
-0.2298100293 -0.0945535749 0.5406218171 4293388261
-0.2290741950 -0.0936520770 0.5388907790 4293585640
-0.2298833430 -0.0933820158 0.5407942533 4293519847
-0.2310789227 -0.0932636932 0.5436068773 4293059296
-0.2307287306 -0.0925192833 0.5427830219 4292533465
-0.2319243699 -0.0923925191 0.5455957651 4292467672
-0.2315737307 -0.0916475579 0.5447708964 4293125602
-0.2163880914 -0.2372695506 0.5103806257 4293390588
-0.2226015329 -0.2108315080 0.5250358582 4292599786
-0.2226755172 -0.2103180438 0.5252103806 4292468200
-0.2239026129 -0.1891800910 0.5281046629 4290823112
-0.2239706665 -0.1886506379 0.5282651782 4290625988
-0.2236676514 -0.1878092587 0.5275504589 4290428609
-0.2229932100 -0.1866585761 0.5259596705 4290427839
-0.2238027751 -0.1867497265 0.5278691649 4290362046
-0.2231276035 -0.1856016070 0.5262766480 4290164665
-0.2231945693 -0.1850723922 0.5264346004 4289638321
-0.2232613862 -0.1845427155 0.5265921950 4289309610
-0.2233280391 -0.1840125620 0.5267494321 4289112231
-0.2233945578 -0.1834819317 0.5269063115 4288980132
-0.2234609127 -0.1829508245 0.5270628333 4288190616
-0.2235271186 -0.1824192554 0.5272189975 4286808961
-0.2232211381 -0.1815845668 0.5264972448 4285756273
-0.2232869118 -0.1810529381 0.5266524553 4285295722
-0.2229802907 -0.1802199632 0.5259292126 4285427308
-0.2234180272 -0.1799882650 0.5269616842 4286019445
-0.2227384150 -0.1788570434 0.5253586769 4287072133
-0.2224307805 -0.1780271083 0.5246331096 4287796110
-0.2228681594 -0.1777931154 0.5256646872 4287927696
-0.2221871912 -0.1766676158 0.5240585804 4287861903
-0.2222514600 -0.1761362851 0.5242101550 4288125075
-0.2219425589 -0.1753098518 0.5234815478 4288124561
-0.2220063955 -0.1747784913 0.5236321688 4288321940
-0.2220700830 -0.1742466688 0.5237823725 4288322194
-0.2217602879 -0.1734224260 0.5230516791 4288387987
-0.2218235433 -0.1728905886 0.5232008696 4288387987
-0.2218866497 -0.1723583043 0.5233497024 4288453780
-0.2215759456 -0.1715362817 0.5226168633 4288716950
-0.2216386348 -0.1710039824 0.5227647424 4288716950
-0.2209534198 -0.1698962748 0.5211485624 4288651159
-0.2206416130 -0.1690783054 0.5204131007 4288651159
-0.2199553549 -0.1679760069 0.5187944770 4288716952
-0.2200168669 -0.1674464047 0.5189395547 4288848538
-0.2197039425 -0.1666324884 0.5182014704 4288848538
-0.2197650373 -0.1661029011 0.5183455944 4288782745
-0.2198259681 -0.1655728817 0.5184893012 4288914329
-0.2198867351 -0.1650424153 0.5186326504 4288980122
-0.2195726484 -0.1642312557 0.5178918242 4288914329
-0.2196329981 -0.1637008190 0.5180341601 4288848536
-0.2185684741 -0.1623346061 0.5155233145 4288979352
-0.2182531804 -0.1615284681 0.5147796869 4289045145
-0.2186877280 -0.1612769812 0.5158046484 4289045145
-0.2183719128 -0.1604718119 0.5150597095 4289110938
-0.2180557251 -0.1596680135 0.5143139362 4289110938
-0.2184899896 -0.1594134271 0.5153382421 4289110938
-0.2177977562 -0.1583375931 0.5137054920 4289110938
-0.2178561836 -0.1578091532 0.5138432980 4289110938
-0.2175387293 -0.1570091248 0.5130945444 4289176985
-0.2175967395 -0.1564807445 0.5132313967 4289242778
-0.2172786593 -0.1556826085 0.5124811530 4289242778
-0.2173362225 -0.1551543027 0.5126169324 4289176985
-0.2173936367 -0.1546255797 0.5127522945 4289111192
-0.2170746624 -0.1538298279 0.5119999647 4289176985
-0.2167553157 -0.1530354917 0.5112468004 4289111192
-0.2168120295 -0.1525073498 0.5113805532 4289111192
-0.2164920717 -0.1517149508 0.5106258392 4289111192
-0.2165483385 -0.1511868984 0.5107585788 4289176985
-0.2162277550 -0.1503964216 0.5100024343 4289242778
-0.2155299932 -0.1493462771 0.5083566904 4289242778
-0.2159623802 -0.1490799338 0.5093765259 4289308571
-0.2160177827 -0.1485520899 0.5095071793 4289308571
-0.2153188586 -0.1475071758 0.5078586936 4289308571
-0.2153737396 -0.1469803602 0.5079880953 4289308571
-0.2154284567 -0.1464531422 0.5081171989 4289308571
-0.2151056230 -0.1456699669 0.5073557496 4289308571
-0.2147824317 -0.1448882371 0.5065934062 4289374364
-0.2152140141 -0.1446153820 0.5076113939 4289308571
-0.2141349614 -0.1433291435 0.5050663352 4289308317
-0.2141884565 -0.1428036392 0.5051924586 4289308317
-0.2138639241 -0.1420268118 0.5044270158 4289439903
-0.2139169723 -0.1415014565 0.5045521259 4289439903
-0.2143478990 -0.1412247717 0.5055685639 4289374110
-0.2136444300 -0.1402014196 0.5039093494 4289374110
-0.2136968821 -0.1396758258 0.5040330291 4289374112
-0.2133708447 -0.1389035583 0.5032640100 4289374112
-0.2130444497 -0.1381327659 0.5024941564 4289308319
-0.2130962014 -0.1376078725 0.5026162267 4289308319
-0.2131477743 -0.1370826066 0.5027378798 4289242524
-0.2128205001 -0.1363143921 0.5019659400 4289242524
-0.2128716409 -0.1357893050 0.5020865798 4289308317
-0.2125437409 -0.1350231320 0.5013132095 4289308317
-0.2125944346 -0.1344982237 0.5014327765 4289242524
-0.2126449794 -0.1339729279 0.5015519857 4289242524
-0.2119370550 -0.1329715103 0.4998822510 4289373853
-0.2119870633 -0.1324473470 0.5000001788 4289373853
-0.2116575688 -0.1316868216 0.4992230535 4289439646
-0.2117071450 -0.1311628520 0.4993399680 4289439646
-0.2121360302 -0.1308726519 0.5003515482 4289439646
-0.2118057460 -0.1301138252 0.4995725453 4289373853
-0.2114751190 -0.1293565333 0.4987927079 4289373853
-0.2111441344 -0.1286007464 0.4980120361 4289373853
-0.2108128071 -0.1278464794 0.4972305596 4289373853
-0.2108610570 -0.1273231655 0.4973443747 4289373853
-0.2105291188 -0.1265710145 0.4965614378 4289439392
-0.2101968378 -0.1258203983 0.4957776964 4289373599
-0.2106245756 -0.1255244613 0.4967865646 4289373599
-0.2099114805 -0.1245493963 0.4951046407 4289373599
-0.2099585980 -0.1240271255 0.4952157736 4289373853
-0.2096250802 -0.1232807711 0.4944291413 4289373853
-0.2096717507 -0.1227587461 0.4945392311 4289373853
-0.2093376368 -0.1220145375 0.4937511683 4289373853
-0.2093838751 -0.1214927658 0.4938602149 4289242524
-0.2090491354 -0.1207507104 0.4930707216 4289308317
-0.2090949416 -0.1202291995 0.4931787252 4289308317
-0.2087596059 -0.1194893122 0.4923878014 4289374110
-0.2088049501 -0.1189680696 0.4924947619 4289242524
-0.2084690183 -0.1182303503 0.4917024076 4289242524
-0.2085139304 -0.1177093908 0.4918083251 4289176731
-0.2085586637 -0.1171880886 0.4919138551 4288781973
-0.2082218528 -0.1164531708 0.4911194444 4290230451
-0.2082661539 -0.1159321591 0.4912239313 4292467413
-0.2083102614 -0.1154108196 0.4913279712 4292598999
-0.2083542049 -0.1148891374 0.4914315939 4292730585
-0.2083979547 -0.1143671349 0.4915347993 4292796378
-0.2084415257 -0.1138448045 0.4916375577 4292862171
-0.2088667601 -0.1135296971 0.4926405251 4292796378
-0.2092919648 -0.1132123396 0.4936434329 4292862171
-0.2097171396 -0.1128927469 0.4946462810 4292862171
-0.2105243802 -0.1127755865 0.4965502620 4292862171
-0.2105674297 -0.1122468337 0.4966517985 4292861917
-0.2113747597 -0.1121232659 0.4985559881 4292927710
-0.2121822238 -0.1119955331 0.5004605055 4292862430
-0.2118426412 -0.1112611368 0.4996595383 4292862430
-0.2118851691 -0.1107282043 0.4997598827 4292928223
-0.2126926035 -0.1105927750 0.5016643405 4292928223
-0.2135001570 -0.1104531735 0.5035690665 4293059550
-0.2139251381 -0.1101124138 0.5045713782 4293059550
-0.2135845274 -0.1093773767 0.5037680268 4293059550
-0.2143921107 -0.1092291027 0.5056728125 4293125343
-0.2144339830 -0.1086884812 0.5057715774 4293125343
-0.2152416259 -0.1085337847 0.5076765418 4293125343
-0.2149001807 -0.1077984497 0.5068711638 4293191136
-0.2157078236 -0.1076382920 0.5087761283 4293191136
-0.2157491297 -0.1070935056 0.5088735223 4293322722
-0.2161735445 -0.1067376658 0.5098745823 4293256929
-0.2173646092 -0.1067561433 0.5126838684 4293256929
-0.2174056321 -0.1062065512 0.5127806067 4293256929
-0.2178299576 -0.1058429927 0.5137814283 4293256929
-0.2182542235 -0.1054771841 0.5147821307 4293256929
-0.2186784446 -0.1051091254 0.5157827139 4293256929
-0.2187188864 -0.1045553908 0.5158780813 4293256929
-0.2191429138 -0.1041838005 0.5168782473 4293322468
-0.2199507505 -0.1039914489 0.5187836289 4293388261
-0.2203747332 -0.1036143899 0.5197836161 4293388261
-0.2204146534 -0.1030555442 0.5198777914 4293454054
-0.2208384424 -0.1026749536 0.5208773613 4293519847
-0.2208780348 -0.1021145210 0.5209707618 4293519847
-0.2213016152 -0.1017304063 0.5219698548 4293519847
-0.2221094221 -0.1015196815 0.5238751173 4293519847
-0.2225329429 -0.1011300907 0.5248740911 4293585640
-0.2225719839 -0.1005645618 0.5249661803 4293585640
-0.2229952961 -0.1001714393 0.5259646177 4293651433
-0.2234185487 -0.0997760743 0.5269628763 4293585640
-0.2238417119 -0.0993784517 0.5279610157 4293519847
-0.2242648154 -0.0989785790 0.5289589167 4293454054
-0.2246878296 -0.0985764563 0.5299566388 4293454054
-0.2247259617 -0.0980042666 0.5300465822 4293454054
-0.2255336195 -0.0977654606 0.5319516063 4293454308
-0.2259564102 -0.0973565876 0.5329487920 4293520101
-0.2267640978 -0.0971103311 0.5348538160 4293520101
-0.2264166474 -0.0963681862 0.5340343118 4293520101
-0.2272242457 -0.0961164534 0.5359391570 4293520101
-0.2276466936 -0.0956985727 0.5369355083 4293585894
-0.2276837826 -0.0951174945 0.5370230675 4293651687
-0.2284913063 -0.0948560610 0.5389276743 4293651687
-0.2296842337 -0.0947493762 0.5417413712 4293585640
-0.2293355614 -0.0940045491 0.5409190059 4293322468
-0.2293720543 -0.0934184119 0.5410050750 4292927710
-0.2297938913 -0.0929880142 0.5419999957 4292730331
-0.2298299968 -0.0924003348 0.5420851707 4292928225
-0.2302515805 -0.0919664204 0.5430795550 4293454569
-0.2399354875 -0.0197522026 0.5659203529 4294967295
-0.2213666737 -0.2073044330 0.5234946609 4292599786
-0.2214395404 -0.2067908347 0.5236669779 4292468200
-0.2220517993 -0.1869421899 0.5251148343 4290823114
-0.2221190035 -0.1864151508 0.5252737999 4290757319
-0.2221860588 -0.1858876348 0.5254323483 4290757319
-0.2218825370 -0.1850506961 0.5247145891 4290560195
-0.2219491750 -0.1845231056 0.5248721838 4290428609
-0.2220156640 -0.1839950383 0.5250294209 4290427839
-0.2228235155 -0.1840790808 0.5269398093 4290164667
-0.2221481949 -0.1829374880 0.5253428221 4289967286
-0.2225852013 -0.1827125102 0.5263762474 4289638321
-0.2226511985 -0.1821816713 0.5265322924 4289243563
-0.2223458290 -0.1813476086 0.5258101821 4288980391
-0.2224114090 -0.1808167100 0.5259652734 4288585374
-0.2224768400 -0.1802853346 0.5261200070 4287006342
-0.2221705765 -0.1794534177 0.5253957510 4285558894
-0.2222355902 -0.1789219975 0.5255494714 4285164136
-0.2223004401 -0.1783901155 0.5257028341 4285427308
-0.2223651260 -0.1778577715 0.5258558393 4286085238
-0.2220577151 -0.1770284176 0.5251288414 4286940801
-0.2213778645 -0.1759047657 0.5235211253 4287532938
-0.2214417607 -0.1753737032 0.5236722231 4288058769
-0.2215055078 -0.1748421788 0.5238229632 4287992976
-0.2215691060 -0.1743102074 0.5239733458 4287795596
-0.2212600410 -0.1734857112 0.5232424736 4287992975
-0.2213232070 -0.1729537100 0.5233918428 4288256401
-0.2210135162 -0.1721309870 0.5226594806 4288387987
-0.2207034528 -0.1713096052 0.5219262242 4288519573
-0.2207659334 -0.1707780361 0.5220739841 4288322194
-0.2204552293 -0.1699584424 0.5213392377 4288453778
-0.2205172926 -0.1694268733 0.5214859843 4288519571
-0.2202059627 -0.1686090827 0.5207497478 4288716950
-0.2202675939 -0.1680775285 0.5208955407 4288782743
-0.2199556231 -0.1672615409 0.5201577544 4288782743
-0.2188962102 -0.1658807695 0.5176523924 4288782743
-0.2197042406 -0.1659158319 0.5195632577 4288913559
-0.2193912715 -0.1651030332 0.5188231468 4288979352
-0.2183302194 -0.1637308896 0.5163139701 4288979352
-0.2183902711 -0.1632020921 0.5164559484 4288979352
-0.2191982716 -0.1632299721 0.5183667541 4288979352
-0.2177615613 -0.1615879238 0.5149691701 4288979352
-0.2178209126 -0.1610596478 0.5151095390 4289045145
-0.2182544768 -0.1608067751 0.5161348581 4289045145
-0.2175646722 -0.1597268879 0.5145035982 4289045145
-0.2176234424 -0.1591982245 0.5146425366 4289045145
-0.2173073888 -0.1583960354 0.5138950944 4289045145
-0.2173657268 -0.1578674465 0.5140330791 4289045145
-0.2170490324 -0.1570671350 0.5132841468 4289110938
-0.2171069384 -0.1565386057 0.5134211183 4289176731
-0.2171646953 -0.1560096294 0.5135576725 4289176731
-0.2168471068 -0.1552117169 0.5128066540 4289110938
-0.2169044316 -0.1546828300 0.5129421949 4289111192
-0.2165862173 -0.1538868248 0.5121896863 4289111192
-0.2162676305 -0.1530922204 0.5114362836 4289045399
-0.2163242549 -0.1525639147 0.5115702152 4289045399
-0.2160050571 -0.1517712474 0.5108153224 4289111192
-0.2160612494 -0.1512430310 0.5109482408 4289176985
-0.2157414109 -0.1504522860 0.5101918578 4289242778
-0.2157971710 -0.1499241740 0.5103237629 4289308571
-0.2151006758 -0.1488751024 0.5086766481 4289308571
-0.2155320495 -0.1486073583 0.5096967816 4289308571
-0.2152109742 -0.1478205025 0.5089374781 4289308571
-0.2148895264 -0.1470350921 0.5081772804 4289308571
-0.2145677209 -0.1462511271 0.5074163079 4289308571
-0.2149986178 -0.1459799260 0.5084353089 4289308571
-0.2142996639 -0.1449422836 0.5067824125 4289308571
-0.2143536061 -0.1444155425 0.5069099069 4289308571
-0.2140305638 -0.1436355412 0.5061459541 4289308571
-0.2140840590 -0.1431089342 0.5062724948 4289308571
-0.2137603909 -0.1423309147 0.5055070519 4289439903
-0.2134363651 -0.1415543556 0.5047408342 4289374110
-0.2138663530 -0.1412776113 0.5057576895 4289374110
-0.2131645232 -0.1402538866 0.5040979385 4289374110
-0.2128395140 -0.1394808143 0.5033293366 4289308317
-0.2132690847 -0.1392019689 0.5043452382 4289374110
-0.2129435539 -0.1384299845 0.5035753846 4289374110
-0.2129953206 -0.1379039884 0.5036978126 4289308317
-0.2122914195 -0.1368904561 0.5020332336 4289308317
-0.2127204984 -0.1366082132 0.5030478835 4289308317
-0.2127716541 -0.1360820085 0.5031688809 4289308317
-0.2124446183 -0.1353146434 0.5023955107 4289308317
-0.2121172249 -0.1345487833 0.5016213059 4289242524
-0.2117894888 -0.1337844133 0.5008462071 4289242524
-0.2118396759 -0.1332595199 0.5009649396 4289242524
-0.2115113139 -0.1324972212 0.5001884103 4289242524
-0.2111826092 -0.1317364126 0.4994110763 4289373853
-0.2112320960 -0.1312122792 0.4995281100 4289373853
-0.2112814188 -0.1306877732 0.4996447265 4289373853
-0.2109518349 -0.1299296319 0.4988653362 4289373853
-0.2106218934 -0.1291730106 0.4980850816 4289439646
-0.2110494226 -0.1288806796 0.4990960956 4289373853
-0.2107189596 -0.1281252056 0.4983146191 4289439646
-0.2107672244 -0.1276007742 0.4984287620 4289439646
-0.2104361504 -0.1268474162 0.4976458251 4289373853
-0.2101047337 -0.1260955930 0.4968620539 4289373853
-0.2097729594 -0.1253452897 0.4960774779 4289373853
-0.2098202556 -0.1248222589 0.4961893559 4289439646
-0.2094878852 -0.1240740940 0.4954033196 4289439646
-0.2091551572 -0.1233274788 0.4946164787 4289439646
-0.2092017531 -0.1228052825 0.4947266877 4289373853
-0.2088684142 -0.1220608056 0.4939383864 4289373853
-0.2089145780 -0.1215388626 0.4940475821 4289374110
-0.2085806429 -0.1207965389 0.4932578504 4289374110
-0.2082463503 -0.1200557798 0.4924673140 4289374110
-0.2082918137 -0.1195347011 0.4925748408 4289439903
-0.2083370984 -0.1190132871 0.4926819205 4289374364
-0.2083822191 -0.1184915304 0.4927886128 4289308571
-0.2084271461 -0.1179694384 0.4928948581 4289176985
-0.2080914676 -0.1172326878 0.4921010435 4288650641
-0.2081359625 -0.1167108715 0.4922062457 4290493623
-0.2077996880 -0.1159763187 0.4914110303 4292533206
-0.2078437358 -0.1154547930 0.4915151894 4292664792
-0.2078876048 -0.1149329394 0.4916189313 4292862171
-0.2083121091 -0.1146202907 0.4926228225 4292796378
-0.2079747915 -0.1138882339 0.4918251336 4292862171
-0.2091610730 -0.1139882803 0.4946304858 4292862171
-0.2088233978 -0.1132555678 0.4938319325 4292862171
-0.2096288055 -0.1131415814 0.4957365692 4292862171
-0.2096718997 -0.1126139313 0.4958384931 4292862171
-0.2097148001 -0.1120859534 0.4959399700 4292861917
-0.2101389021 -0.1117604822 0.4969428778 4292927710
-0.2117073387 -0.1120383814 0.5006519556 4292928223
-0.2117500901 -0.1115046293 0.5007530451 4292928223
-0.2121742517 -0.1111705005 0.5017561316 4292928223
-0.2129800618 -0.1110331118 0.5036617517 4292994016
-0.2126407027 -0.1102974787 0.5028592348 4293059550
-0.2134465277 -0.1101546288 0.5047648549 4293059550
-0.2134886235 -0.1096154153 0.5048643947 4293125343
