VERSION 0.7
FIELDS x y z rgba
SIZE 4 4 4 4
TYPE F F F U
COUNT 1 1 1 1
WIDTH 920
HEIGHT 1
VIEWPOINT 0.0 0.0 0.0 1.0 0.0 0.0 0.0
POINTS 920
DATA ascii
-0.2429923415 -0.1335871965 0.5151059628 4281153121
-0.2430465221 -0.1330445409 0.5152208805 4281087328
-0.2431005239 -0.1325015277 0.5153353214 4281153121
-0.2435699552 -0.1321837157 0.5163304806 4281284707
-0.2436236441 -0.1316390485 0.5164442658 4281350749
-0.2436771393 -0.1310940087 0.5165576339 4281284956
-0.2437304258 -0.1305486262 0.5166706443 4281218910
-0.2446155399 -0.1304465681 0.5185469389 4281284703
-0.2446686178 -0.1298986077 0.5186594725 4281547366
-0.2447214872 -0.1293502897 0.5187715292 4281613159
-0.2447741628 -0.1288016140 0.5188831687 4281941093
-0.2448266298 -0.1282525808 0.5189943910 4282270058
-0.2448789030 -0.1277032048 0.5191051960 4282730599
-0.2449309677 -0.1271534711 0.5192155838 4283191150
-0.2453994602 -0.1268186867 0.5202087164 4283651687
-0.2450344861 -0.1260529459 0.5194350481 4283980652
-0.2455027550 -0.1257156134 0.5204277039 4284310108
-0.2455541044 -0.1251635402 0.5205365419 4284836452
-0.2451882511 -0.1243995726 0.5197609663 4287533949
-0.2456561625 -0.1240583807 0.5207529068 4291086771
-0.2457068861 -0.1235052869 0.5208604336 4292663967
-0.2461746484 -0.1231605932 0.5218520164 4292598174
-0.2462250441 -0.1226058751 0.5219588280 4291677321
-0.2462752461 -0.1220508143 0.5220652223 4290756219
-0.2463252246 -0.1214954183 0.5221711993 4292269708
-0.2467925847 -0.1211446598 0.5231618881 4292203915
-0.2468422353 -0.1205876470 0.5232671499 4292401296
-0.2468916774 -0.1200302988 0.5233719945 4292401296
-0.2469409108 -0.1194726080 0.5234763622 4292400528
-0.2474078536 -0.1191157997 0.5244662166 4292334735
-0.2474567443 -0.1185565069 0.5245698094 4292268942
-0.2475054264 -0.1179968864 0.5246730447 4292203149
-0.2475538999 -0.1174369305 0.5247758031 4292137354
-0.2480204105 -0.1170740724 0.5257647038 4292071561
-0.2480685413 -0.1165125147 0.5258667469 4291939975
-0.2481164485 -0.1159506366 0.5259683132 4291874182
-0.2481641620 -0.1153884232 0.5260694623 4291808383
-0.2482116520 -0.1148258969 0.5261701345 4291742590
-0.2482589185 -0.1142630428 0.5262703300 4291610499
-0.2483059913 -0.1136998683 0.5263701081 4291544706
-0.2483528256 -0.1131363735 0.5264694095 4291479177
-0.2483994663 -0.1125725582 0.5265682340 4291347591
-0.2484458834 -0.1120084301 0.5266666412 4291281547
-0.2484920770 -0.1114439890 0.5267645717 4291149961
-0.2485380620 -0.1108792275 0.5268620849 4291083918
-0.2485838234 -0.1103141531 0.5269590616 4291018125
-0.2490486503 -0.1099338457 0.5279444456 4290886802
-0.2490940541 -0.1093671992 0.5280407071 4290952595
-0.2491392493 -0.1088002399 0.5281364918 4290952599
-0.2491842210 -0.1082329750 0.5282317996 4290886806
-0.2492289692 -0.1076654047 0.5283266902 4290886551
-0.2496931553 -0.1072778329 0.5293107033 4291018137
-0.2497375458 -0.1067086980 0.5294047594 4290755486
-0.2497817129 -0.1061392576 0.5294983983 4290755486
-0.2498256564 -0.1055695191 0.5295915604 4290755486
-0.2502893209 -0.1051759422 0.5305745006 4290755486
-0.2503328919 -0.1046046466 0.5306668282 4290755488
-0.2503762543 -0.1040330529 0.5307587385 4290689695
-0.2504193783 -0.1034611613 0.5308501720 4290689443
-0.2508825362 -0.1030616090 0.5318319798 4290689443
-0.2509253025 -0.1024881676 0.5319226384 4290755239
-0.2509678304 -0.1019144356 0.5320127606 4290623653
-0.2514305711 -0.1015101597 0.5329937339 4290623399
-0.2514727414 -0.1009348854 0.5330831409 4290623399
-0.2515146732 -0.1003593206 0.5331720114 4290492585
-0.2515563667 -0.0997834727 0.5332604051 4290426792
-0.2515978515 -0.0992073342 0.5333483219 4290492331
-0.2516390979 -0.0986309126 0.5334357619 4290426538
-0.2516801059 -0.0980542153 0.5335227251 4290623399
-0.2521418333 -0.0976402313 0.5345014930 4290557606
-0.2521824837 -0.0970619991 0.5345876813 4290492583
-0.2522228956 -0.0964834914 0.5346733332 4290492583
-0.2522630692 -0.0959047079 0.5347585082 4290558376
-0.2523030043 -0.0953256488 0.5348431468 4290558376
-0.2523427308 -0.0947463140 0.5349273682 4290689194
-0.2523822188 -0.0941667035 0.5350110531 4290689194
-0.2528428733 -0.0937430635 0.5359876156 4290754987
-0.2533034384 -0.0933172107 0.5369639397 4290820780
-0.2533423603 -0.0927348584 0.5370464325 4290820780
-0.2533810735 -0.0921522304 0.5371284485 4290689194
-0.2534195185 -0.0915693417 0.5372099876 4290754989
-0.2534577549 -0.0909861848 0.5372910500 4290754989
-0.2534957528 -0.0904027671 0.5373715758 4290820269
-0.2535335124 -0.0898190886 0.5374516845 4290820269
-0.2539929748 -0.0893836245 0.5384256244 4290689960
-0.2540303171 -0.0887984559 0.5385047793 4290689960
-0.2540674508 -0.0882130265 0.5385835171 4290756008
-0.2541043460 -0.0876273438 0.5386617184 4290756008
-0.2541410029 -0.0870414078 0.5387393832 4290756008
-0.2541774213 -0.0864552185 0.5388166308 4290821801
-0.2546358705 -0.0860114172 0.5397884846 4291018411
-0.2546718717 -0.0854237452 0.5398648381 4291018411
-0.2547076643 -0.0848358348 0.5399406552 4290952617
-0.2551656365 -0.0843873844 0.5409114957 4290952617
-0.2556235194 -0.0839367434 0.5418821573 4290952617
-0.2552361190 -0.0832083747 0.5410608649 4290952617
-0.2552709877 -0.0826185048 0.5411348343 4290952617
-0.2553056180 -0.0820283964 0.5412082672 4290886824
-0.2553400397 -0.0814380497 0.5412811637 4290886311
-0.2557969987 -0.0809813142 0.5422498584 4290886311
-0.2558309734 -0.0803895146 0.5423219204 4290886825
-0.2558647096 -0.0797974765 0.5423933864 4290886825
-0.2558982074 -0.0792052001 0.5424644351 4290886824
-0.2559314668 -0.0786127001 0.5425348878 4290886824
-0.2563875616 -0.0781489313 0.5435017347 4290886824
-0.2564203739 -0.0775549859 0.5435713530 4290886824
-0.2568761408 -0.0770878196 0.5445375443 4290886825
-0.2573317885 -0.0766184554 0.5455033779 4290821032
-0.2573640049 -0.0760218799 0.5455716848 4291084204
-0.2573959529 -0.0754250735 0.5456393957 4290952618
-0.2574276626 -0.0748280510 0.5457066298 4290952617
-0.2574591339 -0.0742308050 0.5457733870 4290952617
-0.2579138875 -0.0737544522 0.5467373133 4290886824
-0.2579449117 -0.0731557831 0.5468031168 4290886824
-0.2579756975 -0.0725569054 0.5468683839 4290952618
-0.2580062449 -0.0719578192 0.5469331145 4290952618
-0.2580365241 -0.0713585094 0.5469973683 4291084455
-0.2580665946 -0.0707589984 0.5470610857 4291084455
-0.2580963969 -0.0701592788 0.5471242070 4291150246
-0.2585498095 -0.0696735680 0.5480853915 4291150246
-0.2585791647 -0.0690724477 0.5481476188 4291084453
-0.2586082816 -0.0684711188 0.5482093096 4291084453
-0.2590611279 -0.0679808557 0.5491693020 4291084455
-0.2590897977 -0.0673781410 0.5492300987 4291018662
-0.2591181993 -0.0667752326 0.5492902994 4291018662
-0.2591463625 -0.0661721230 0.5493500233 4291018662
-0.2591742575 -0.0655688196 0.5494091511 4291018662
-0.2596261501 -0.0650716424 0.5503671169 4291018662
-0.2596535981 -0.0644669607 0.5504252911 4291019176
-0.2596808076 -0.0638620928 0.5504829884 4291084969
-0.2597077787 -0.0632570311 0.5505400896 4291150764
-0.2601588964 -0.0627541542 0.5514963865 4291150764
-0.2601853907 -0.0621477328 0.5515525341 4291216816
-0.2602116168 -0.0615411252 0.5516082048 4291151023
-0.2602376044 -0.0609343350 0.5516632795 4291151023
-0.2602633536 -0.0603273623 0.5517178774 4291151023
-0.2602888346 -0.0597202145 0.5517718792 4290888622
-0.2603140771 -0.0591128841 0.5518254042 4290822829
-0.2603390515 -0.0585053824 0.5518783331 4290822829
-0.2607885301 -0.0579921529 0.5528311133 4290822829
-0.2608130276 -0.0573833138 0.5528830886 4290559916
-0.2612621188 -0.0568667650 0.5538350940 4290559916
-0.2617110014 -0.0563480668 0.5547866821 4290494125
-0.2617348433 -0.0557367317 0.5548371673 4290494125
-0.2617584169 -0.0551252328 0.5548871160 4290625711
-0.2617817223 -0.0545135699 0.5549365878 4290625711
-0.2622298002 -0.0539892465 0.5558863878 4290559664
-0.2622526288 -0.0533762649 0.5559348464 4290559664
-0.2622752190 -0.0527631268 0.5559827089 4290624949
-0.2627226710 -0.0522343479 0.5569311976 4290427570
-0.2631699145 -0.0517034307 0.5578793287 4290427827
-0.2631918192 -0.0510878339 0.5579257011 4290427827
-0.2632134259 -0.0504720844 0.5579715371 4290296241
-0.2636600435 -0.0499367267 0.5589183569 4290362034
-0.2636812031 -0.0493196845 0.5589631200 4290427570
-0.2637020648 -0.0487024933 0.5590074062 4290361777
-0.2637226880 -0.0480851531 0.5590510964 4290295984
-0.2637430429 -0.0474676713 0.5590943098 4290295984
-0.2641885877 -0.0469256155 0.5600387454 4290230450
-0.2646339238 -0.0463814214 0.5609827638 4290164657
-0.2646535635 -0.0457615256 0.5610244274 4290098864
-0.2646729350 -0.0451414958 0.5610654950 4290098864
-0.2646920681 -0.0445213281 0.5611060262 4290098605
-0.2647109032 -0.0439010262 0.5611460209 4290098605
-0.2647294998 -0.0432805941 0.5611854196 4289443506
-0.2647478580 -0.0426600277 0.5612242818 4289509299
-0.2656172514 -0.0421745144 0.5630673170 4289509299
-0.2656351328 -0.0415517017 0.5631051660 4289509299
-0.2656527162 -0.0409287624 0.5631424785 4289575349
-0.2656700611 -0.0403057002 0.5631792545 4289706935
-0.2656871378 -0.0396825187 0.5632154346 4289838523
-0.2657039464 -0.0390592180 0.5632510781 4289772730
-0.2657205164 -0.0384357981 0.5632861853 4289378488
-0.2657367885 -0.0378122665 0.5633206964 4289312695
-0.2661786973 -0.0372482128 0.5642574430 4289444792
-0.2661944628 -0.0366234556 0.5642908812 4289642171
-0.2662099898 -0.0359985866 0.5643237829 4289576380
-0.2666511834 -0.0354302041 0.5652590990 4289642173
-0.2666662037 -0.0348041207 0.5652909279 4289839553
-0.2666809559 -0.0341779329 0.5653221607 4289905346
-0.2666954100 -0.0335516408 0.5653528571 4289840582
-0.2671356797 -0.0329778418 0.5662861466 4289972168
-0.2671496570 -0.0323503502 0.5663157701 4290103754
-0.2671633661 -0.0317227580 0.5663447976 4290301133
-0.2676028907 -0.0311446656 0.5672765374 4289906634
-0.2676160932 -0.0305158850 0.5673044920 4289380290
-0.2676289976 -0.0298870113 0.5673319101 4289709255
-0.2676416636 -0.0292580482 0.5673587322 4290367185
-0.2680802345 -0.0286745839 0.5682884455 4289973197
-0.2685185969 -0.0280890297 0.5692176819 4289907404
-0.2685304880 -0.0274578035 0.5692428946 4289907663
-0.2685420811 -0.0268264934 0.5692675114 4289973456
-0.2685534358 -0.0261951033 0.5692915320 4289973456
-0.2685645223 -0.0255636349 0.5693150163 4289907663
-0.2685753107 -0.0249320883 0.5693379641 4289841870
-0.2685858607 -0.0243004654 0.5693602562 4289841870
-0.2694488168 -0.0237439089 0.5711895823 4290038220
-0.2694588304 -0.0231101383 0.5712108612 4290038220
-0.2694686055 -0.0224762950 0.5712315440 4290169804
-0.2694780827 -0.0218423847 0.5712516904 4290235597
-0.2694873214 -0.0212084092 0.5712711811 4290234827
-0.2694962621 -0.0205743685 0.5712901950 4290629585
-0.2688956559 -0.2268948853 0.5713622570 4284117680
-0.2685807347 -0.2259950638 0.5706930757 4281814925
-0.2682653964 -0.2250963897 0.5700230598 4281946270
-0.2675485313 -0.2238632292 0.5684998035 4282012063
-0.2664297521 -0.2222981155 0.5661225319 4281683865
-0.2657113969 -0.2210714519 0.5645961761 4281618072
-0.2621818781 -0.2175159156 0.5570964813 4281553056
-0.2574450076 -0.2129782587 0.5470314026 4281487263
-0.2599366009 -0.2144258022 0.5523256063 4281553303
-0.2555975020 -0.2102429867 0.5431057215 4281619096
-0.2536675632 -0.2080566287 0.5390048623 4281618332
-0.2513340414 -0.2055493444 0.5340465307 4281618332
-0.2485966235 -0.2027236819 0.5282298923 4281749411
-0.2466620654 -0.2005637735 0.5241192579 4281683618
-0.2451286167 -0.1987381876 0.5208609104 4281618332
-0.2431913912 -0.1965934336 0.5167446136 4281684125
-0.2416555136 -0.1947813481 0.5134810805 4281683868
-0.2397156209 -0.1926517934 0.5093591213 4281749661
-0.2405953854 -0.1927908212 0.5112285018 4281881247
-0.2394598424 -0.1913155764 0.5088156462 4281881247
-0.2391299158 -0.1904874295 0.5081145763 4281815454
-0.2383962125 -0.1893401444 0.5065555573 4281881247
-0.2384688705 -0.1888348609 0.5067099929 4281815454
-0.2377341390 -0.1876917928 0.5051487684 4281749661
-0.2386137396 -0.1878229231 0.5070177913 4281815454
-0.2386859506 -0.1873162538 0.5071712136 4281881247
-0.2383540124 -0.1864930391 0.5064659119 4281750172
-0.2384257913 -0.1859863102 0.5066184402 4281750172
-0.2384974211 -0.1854791194 0.5067706108 4281750172
-0.2385689020 -0.1849714816 0.5069224834 4281750172
-0.2386402190 -0.1844633967 0.5070740581 4281684379
-0.2387113869 -0.1839548349 0.5072252750 4281684379
-0.2387824059 -0.1834458262 0.5073761940 4281486499
-0.2388532758 -0.1829363704 0.5075267553 4281552292
-0.2385190129 -0.1821172684 0.5068165064 4281618336
-0.2385894507 -0.1816077679 0.5069661736 4281618336
-0.2382545322 -0.1807903498 0.5062544942 4281618332
-0.2383245230 -0.1802808046 0.5064032674 4281552539
-0.2383943647 -0.1797708273 0.5065516233 4281618073
-0.2384640574 -0.1792603880 0.5066997409 4281552280
-0.2381279022 -0.1784455180 0.5059854984 4281486489
-0.2381971627 -0.1779350638 0.5061326027 4281354903
-0.2382662594 -0.1774241626 0.5062794089 4281617303
-0.2383351922 -0.1769128144 0.5064259171 4281683096
-0.2384039611 -0.1764010340 0.5065720081 4281354386
-0.2384725809 -0.1758888066 0.5067178011 4281749144
-0.2385410219 -0.1753761321 0.5068632960 4282538656
-0.2386093289 -0.1748630255 0.5070083737 4282538656
-0.2386774570 -0.1743494719 0.5071531534 4282406562
-0.2387454212 -0.1738354713 0.5072975755 4281551253
-0.2392200679 -0.1736163050 0.5083061457 4281748378
-0.2392878234 -0.1731005609 0.5084501505 4282143136
-0.2393554300 -0.1725843698 0.5085937381 4281682585
-0.2390156835 -0.1717751175 0.5078718662 4281748378
-0.2386755347 -0.1709671915 0.5071491003 4281879964
-0.2387424111 -0.1704514623 0.5072911978 4281748378
-0.2384016067 -0.1696452945 0.5065670013 4281879448
-0.2388756722 -0.1694186926 0.5075743198 4281879448
-0.2385343015 -0.1686134338 0.5068489909 4281879701
-0.2386004031 -0.1680968553 0.5069894195 4281879701
-0.2386663407 -0.1675798595 0.5071295500 4282011026
-0.2383240163 -0.1667768508 0.5064021349 4282076819
-0.2383895069 -0.1662598699 0.5065413117 4282208404
-0.2384548187 -0.1657424718 0.5066801310 4282274197
-0.2385199666 -0.1652246416 0.5068185329 4282208664
-0.2385849506 -0.1647063941 0.5069566369 4282077078
-0.2386497706 -0.1641877145 0.5070943236 4282011285
-0.2387144119 -0.1636686176 0.5072317123 4281945492
-0.2391877621 -0.1634284705 0.5082374811 4281945494
-0.2392521799 -0.1629076451 0.5083743930 4282011287
-0.2393164188 -0.1623864025 0.5085108876 4282142358
-0.2393804938 -0.1618647277 0.5086470246 4282208151
-0.2394443899 -0.1613426358 0.5087828040 4281813647
-0.2399175316 -0.1610950381 0.5097881556 4281879440
-0.2395716757 -0.1602972150 0.5090532303 4281945233
-0.2396350503 -0.1597738862 0.5091879368 4281879440
-0.2396982610 -0.1592501253 0.5093222260 4281879439
-0.2397612929 -0.1587259620 0.5094561577 4281879439
-0.2398241609 -0.1582013965 0.5095897317 4281944973
-0.2398868352 -0.1576763988 0.5097229481 4282010766
-0.2399493456 -0.1571509987 0.5098557472 4281813904
-0.2400116771 -0.1566251814 0.5099881887 4281748111
-0.2400738299 -0.1560989618 0.5101202726 4281813647
-0.2401358038 -0.1555723399 0.5102519393 4281747854
-0.2397870123 -0.1547802687 0.5095108151 4281747340
-0.2398485243 -0.1542537212 0.5096415281 4281681547
-0.2399098575 -0.1537267864 0.5097718239 4281616265
-0.2399710268 -0.1531994343 0.5099018216 4281616265
-0.2400320023 -0.1526716799 0.5100313425 4281879178
-0.2400927991 -0.1521435231 0.5101605654 4281944971
-0.2401534170 -0.1516149789 0.5102893710 4282009994
-0.2402138561 -0.1510860175 0.5104177594 4282075787
-0.2402741164 -0.1505566686 0.5105458498 4282010248
-0.2403341830 -0.1500269175 0.5106734633 4281812869
-0.2403940856 -0.1494967639 0.5108007193 4281549694
-0.2404537946 -0.1489662230 0.5109276175 4281483901
-0.2405133247 -0.1484352797 0.5110540986 4281746044
-0.2405726761 -0.1479039490 0.5111802220 4281746044
-0.2406318337 -0.1473722309 0.5113059282 4281614460
-0.2406908125 -0.1468401104 0.5114312172 4281548667
-0.2411618382 -0.1465581357 0.5124320984 4281548667
-0.2412205487 -0.1460243165 0.5125568509 4281351288
-0.2412790805 -0.1454901248 0.5126812458 4281219189
-0.2413374186 -0.1449555308 0.5128051639 4281087603
-0.2413955629 -0.1444205642 0.5129287243 4281482359
-0.2414535284 -0.1438852102 0.5130518675 4281548152
-0.2415113002 -0.1433494538 0.5131746531 4281482613
-0.2415688783 -0.1428133249 0.5132970214 4281285234
-0.2416262776 -0.1422768235 0.5134189725 4281219694
-0.2416834980 -0.1417399198 0.5135405660 4281219694
-0.2417405099 -0.1412026435 0.5136616826 4281548657
-0.2417973429 -0.1406649947 0.5137824416 4281877622
-0.2418539822 -0.1401269585 0.5139027834 4282270062
-0.2419104278 -0.1395885497 0.5140227675 4282335855
-0.2419666797 -0.1390497684 0.5141422749 4282401895
-0.2420227528 -0.1385105997 0.5142614245 4282467688
-0.2420786172 -0.1379710585 0.5143801570 4282731615
-0.2421343029 -0.1374311596 0.5144984722 4283060580
-0.2421897948 -0.1368908733 0.5146163702 4283521118
-0.2422450930 -0.1363502145 0.5147338510 4283718497
-0.2427143753 -0.1360413581 0.5157310367 4283982176
-0.2427693754 -0.1354990304 0.5158478618 4284311141
-0.2428241819 -0.1349563450 0.5159643292 4284771692
-0.2428787947 -0.1344133019 0.5160803795 4285166450
-0.2429332137 -0.1338698864 0.5161960125 4285757563
-0.2429874241 -0.1333260983 0.5163112283 4286152321
-0.2430414557 -0.1327819526 0.5164259672 4286678668
-0.2430952787 -0.1322374493 0.5165403485 4287007633
-0.2435638309 -0.1319173127 0.5175359845 4287600011
-0.2436173558 -0.1313711554 0.5176497102 4287731597
-0.2436706722 -0.1308246404 0.5177630186 4287863189
-0.2437237948 -0.1302777529 0.5178758502 4288192154
-0.2441920042 -0.1299515367 0.5188707709 4288652198
-0.2442448288 -0.1294030100 0.5189829469 4288849577
-0.2442974299 -0.1288541406 0.5190947652 4289177773
-0.2443498373 -0.1283048987 0.5192061067 4289375152
-0.2444020510 -0.1277553141 0.5193170905 4289769910
-0.2444540560 -0.1272053868 0.5194275975 4289901496
-0.2445058674 -0.1266551018 0.5195376277 4290033081
-0.2445574701 -0.1261044592 0.5196473002 4290164667
-0.2446088642 -0.1255534738 0.5197564960 4290362037
-0.2446600646 -0.1250021458 0.5198652744 4290164658
-0.2447110415 -0.1244504675 0.5199736357 4290428079
-0.2451781034 -0.1241091639 0.5209660530 4291086009
-0.2452287674 -0.1235558614 0.5210736990 4291807927
-0.2456956655 -0.1232110485 0.5220657587 4291807927
-0.2457460016 -0.1226561219 0.5221727490 4291544752
-0.2457961291 -0.1221008524 0.5222792625 4291018408
-0.2458460629 -0.1215452477 0.5223853588 4291676338
-0.2458957732 -0.1209893003 0.5224910378 4291215787
-0.2463621497 -0.1206371486 0.5234819651 4291149996
-0.2464115322 -0.1200795844 0.5235869288 4291149996
-0.2464607060 -0.1195216924 0.5236914158 4291018410
-0.2465096712 -0.1189634651 0.5237954259 4291084203
-0.2469756305 -0.1186052561 0.5247855186 4291150248
-0.2470242530 -0.1180454195 0.5248888135 4291084455
-0.2470726669 -0.1174852550 0.5249917507 4291083942
-0.2475383133 -0.1171222627 0.5259811282 4291018149
-0.2475863844 -0.1165604964 0.5260832906 4290952356
-0.2476342469 -0.1159984022 0.5261849761 4290886563
-0.2476819009 -0.1154359803 0.5262862444 4290622615
-0.2477293313 -0.1148732379 0.5263870358 4290622615
-0.2477765530 -0.1143101677 0.5264874101 4290557337
-0.2478235662 -0.1137467772 0.5265872478 4290557337
-0.2478703558 -0.1131830662 0.5266866684 4290557339
-0.2479169369 -0.1126190424 0.5267856717 4290557339
-0.2479633093 -0.1120546982 0.5268841982 4290557339
-0.2480094582 -0.1114900336 0.5269822478 4290557339
-0.2480553836 -0.1109250635 0.5270798206 4290688671
-0.2481011003 -0.1103597730 0.5271769762 4290688671
-0.2485650629 -0.1099793240 0.5281628370 4290623393
-0.2486104071 -0.1094124541 0.5282592177 4290754979
-0.2486555576 -0.1088452786 0.5283551216 4290820518
-0.2487004697 -0.1082777977 0.5284505486 4290820518
-0.2487451732 -0.1077100113 0.5285455585 4290886311
-0.2487896532 -0.1071419120 0.5286400914 4290952104
-0.2496717423 -0.1069323495 0.5305143595 4291018660
-0.2497159392 -0.1063617319 0.5306082368 4291018660
-0.2497599125 -0.1057908088 0.5307016969 4291084453
-0.2498036623 -0.1052195951 0.5307946801 4291150246
-0.2498471886 -0.1046480760 0.5308871269 4291216041
-0.2498904914 -0.1040762588 0.5309791565 4291281834
-0.2499335706 -0.1035041437 0.5310707092 4291347375
-0.2503958642 -0.1031044349 0.5320529938 4291347375
-0.2504385710 -0.1025307700 0.5321437716 4291215790
-0.2504810393 -0.1019568145 0.5322340131 4291281583
-0.2505233288 -0.1013825685 0.5323238373 4291347122
-0.2509850562 -0.1009768918 0.5333049297 4291478708
-0.2510269284 -0.1004010960 0.5333939195 4291610296
-0.2510685921 -0.0998250246 0.5334824324 4291676089
-0.2511100173 -0.0992486626 0.5335704684 4291741884
-0.2511512339 -0.0986720100 0.5336580276 4291807677
-0.2511922121 -0.0980950817 0.5337451100 4291611064
-0.2512329519 -0.0975178704 0.5338317156 4291611064
-0.2516936660 -0.0971024856 0.5348106027 4291611064
-0.2517340183 -0.0965237468 0.5348963737 4291676857
-0.2517741621 -0.0959447324 0.5349816680 4291742650
-0.2518140674 -0.0953654423 0.5350664258 4291808443
-0.2518537343 -0.0947858766 0.5351507664 4291874236
-0.2523137033 -0.0943633094 0.5361281037 4291940029
-0.2523529828 -0.0937822312 0.5362116098 4291873468
-0.2523920238 -0.0932008848 0.5362945795 4291939261
-0.2528515756 -0.0927736312 0.5372710228 4291874238
-0.2528902292 -0.0921907723 0.5373531580 4291874238
-0.2529286444 -0.0916076526 0.5374347568 4291940031
-0.2529668212 -0.0910242647 0.5375159383 4291940031
-0.2530047894 -0.0904406160 0.5375965834 4292005054
-0.2530425191 -0.0898566991 0.5376767516 4292070847
-0.2530800104 -0.0892725289 0.5377563834 4291940031
-0.2535384297 -0.0888356641 0.5387304425 4291940031
-0.2535755038 -0.0882500038 0.5388092399 4291940029
-0.2536123395 -0.0876640826 0.5388875604 4291940029
-0.2536489666 -0.0870779082 0.5389653444 4291940029
-0.2536853552 -0.0864914879 0.5390426517 4291874236
-0.2537214756 -0.0859048069 0.5391194224 4291874238
-0.2541789114 -0.0854596049 0.5400913954 4291808445
-0.2542146444 -0.0848714486 0.5401673317 4291742652
-0.2546717823 -0.0844228268 0.5411386490 4291742652
-0.2551288009 -0.0839719996 0.5421097875 4291807673
-0.2551639378 -0.0833811611 0.5421844125 4291807673
-0.2547770143 -0.0826532319 0.5413622856 4291741880
-0.2548116148 -0.0820628852 0.5414357781 4291741880
-0.2548459768 -0.0814722925 0.5415087938 4291741882
-0.2553020716 -0.0810153782 0.5424779654 4291741882
-0.2553360164 -0.0804233402 0.5425500870 4291939261
-0.2553697228 -0.0798310563 0.5426216722 4291939261
-0.2554031909 -0.0792385489 0.5426927805 4291939259
-0.2554363906 -0.0786458030 0.5427633524 4291939259
-0.2554693818 -0.0780528337 0.5428334475 4291939259
-0.2559244335 -0.0775876641 0.5438003540 4291939259
-0.2563793659 -0.0771203041 0.5447670221 4291873468
-0.2568341494 -0.0766507536 0.5457333326 4291873468
-0.2568663061 -0.0760539323 0.5458016992 4291676089
-0.2568982244 -0.0754568875 0.5458695292 4291676089
-0.2569299042 -0.0748596191 0.5459368825 4291741880
-0.2569613457 -0.0742621273 0.5460036397 4291741880
-0.2569925487 -0.0736644194 0.5460699201 4291741880
-0.2574462295 -0.0731866658 0.5470339656 4291741880
-0.2574769855 -0.0725875422 0.5470992923 4291676089
-0.2575075030 -0.0719882101 0.5471641421 4291676089
-0.2575377524 -0.0713886619 0.5472284555 4291544754
-0.2575677633 -0.0707888976 0.5472922325 4291544754
-0.2580205202 -0.0703041852 0.5482542515 4291544752
-0.2580501139 -0.0697030202 0.5483170748 4291478959
-0.2580794394 -0.0691016540 0.5483794212 4291348143
-0.2581084967 -0.0685000792 0.5484411716 4291216557
-0.2585605085 -0.0680096149 0.5494016409 4291150766
-0.2585891485 -0.0674066544 0.5494624376 4291084973
-0.2586175203 -0.0668034926 0.5495227575 4291084973
-0.2586456537 -0.0662001297 0.5495825410 4291150766
-0.2586735189 -0.0655965805 0.5496417880 4291216559
-0.2591245770 -0.0650992021 0.5506001711 4291282352
-0.2591519952 -0.0644942671 0.5506584644 4291348145
-0.2596026659 -0.0639935434 0.5516160727 4291348145
-0.2596296370 -0.0633872449 0.5516733527 4291347890
-0.2596563697 -0.0627807528 0.5517301559 4291347890
-0.2596828341 -0.0621740781 0.5517863631 4291085233
-0.2597090304 -0.0615672208 0.5518420935 4291085233
-0.2597350180 -0.0609601773 0.5518972278 4291085233
-0.2597607076 -0.0603529550 0.5519518852 4291151026
-0.2597861886 -0.0597455502 0.5520060062 4291151026
-0.2598113716 -0.0591379702 0.5520595312 4291151026
-0.2598363459 -0.0585302114 0.5521125793 4291216565
-0.2607088685 -0.0581112616 0.5539665818 4291150772
-0.2607333958 -0.0575011745 0.5540186763 4290954165
-0.2607576847 -0.0568909161 0.5540702939 4291019958
-0.2607817054 -0.0562804863 0.5541213155 4291019958
-0.2612295151 -0.0557604134 0.5550729036 4291019958
-0.2612530887 -0.0551486574 0.5551229119 4291019958
-0.2612763643 -0.0545367375 0.5551723838 4290954165
-0.2617235780 -0.0540121943 0.5561226606 4290953910
-0.2617464066 -0.0533989556 0.5561711788 4291019703
-0.2617689669 -0.0527855605 0.5562191010 4291085498
-0.2622155547 -0.0522565618 0.5571680665 4291085498
-0.2626619935 -0.0517254211 0.5581166148 4291085757
-0.2626838386 -0.0511095673 0.5581630468 4291151550
-0.2631298304 -0.0505751334 0.5591107607 4291085757
-0.2631512284 -0.0499579795 0.5591561794 4291151550
-0.2631723285 -0.0493406765 0.5592010617 4291217084
-0.2631931901 -0.0487232246 0.5592453480 4291151291
-0.2632137835 -0.0481056273 0.5592891574 4291217086
-0.2632341385 -0.0474878848 0.5593323708 4291282879
-0.2641034126 -0.0470211953 0.5611794591 4291283136
-0.2641232908 -0.0464011803 0.5612217188 4291348929
-0.2641429305 -0.0457810238 0.5612633824 4291480515
-0.2641622722 -0.0451607294 0.5613045692 4291546308
-0.2641813755 -0.0445403010 0.5613451600 4291677637
-0.2646249831 -0.0439903475 0.5622876883 4291677637
-0.2646435797 -0.0433686525 0.5623272657 4291415752
-0.2650867403 -0.0428154469 0.5632688999 4291481545
-0.2651048601 -0.0421924964 0.5633074045 4291350472
-0.2651227117 -0.0415694192 0.5633453131 4291284679
-0.2651402950 -0.0409462191 0.5633826852 4291218886
-0.2651576102 -0.0403228924 0.5634194613 4291153093
-0.2651746869 -0.0396994464 0.5634557009 4291087046
-0.2651914656 -0.0390758812 0.5634914041 4291087046
-0.2652080059 -0.0384522006 0.5635265112 4290824644
-0.2656492889 -0.0378890261 0.5644642115 4290693058
-0.2656653225 -0.0372641124 0.5644983053 4290693058
-0.2656810880 -0.0366390869 0.5645318031 4290693058
-0.2656965852 -0.0360139534 0.5645647049 4290496192
-0.2661369741 -0.0354453325 0.5655004382 4290430399
-0.2661519647 -0.0348189846 0.5655322671 4290430401
-0.2661666870 -0.0341925286 0.5655635595 4290364608
-0.2661811411 -0.0335659683 0.5655943155 4290101695
-0.2666205764 -0.0329919308 0.5665280223 4290233281
-0.2666345239 -0.0323641710 0.5665576458 4290233281
-0.2666482031 -0.0317363106 0.5665867329 4290299074
-0.2670869231 -0.0311579742 0.5675189495 4290102465
-0.2671000957 -0.0305289254 0.5675469637 4289970879
-0.2671130002 -0.0298997834 0.5675743818 4290102211
-0.2671256363 -0.0292705521 0.5676012039 4290299590
-0.2671380043 -0.0286412332 0.5676274896 4290036418
-0.2680009007 -0.0281010363 0.5694609880 4290036418
-0.2680127621 -0.0274695419 0.5694862604 4290036931
-0.2680243850 -0.0268379636 0.5695108771 4290036931
-0.2680357099 -0.0262063053 0.5695349574 4290102724
-0.2680467665 -0.0255745668 0.5695585012 4290168517
-0.2680575550 -0.0249427501 0.5695814490 4290300104
-0.2680681050 -0.0243108589 0.5696038008 4290365897
-0.2689293921 -0.0237540659 0.5714339018 4290432459
-0.2689394057 -0.0231200233 0.5714551806 4290366666
-0.2689491510 -0.0224859100 0.5714759231 4290497482
-0.2689586282 -0.0218517296 0.5714960694 4290629068
-0.2693934143 -0.0212510545 0.5724199414 4290562762
-0.2689767778 -0.0205831733 0.5715346336 4290694348
-0.2689854503 -0.0199487992 0.5715530515 4292140765
-0.2671628594 -0.2259660065 0.5690231919 4284117678
-0.2668482363 -0.2250684202 0.5683530569 4282078095
-0.2661330104 -0.2238353789 0.5668297410 4282077347
-0.2666180730 -0.2236124277 0.5678629279 4282077347
-0.2655014396 -0.2220476121 0.5654845834 4281815452
-0.2647844553 -0.2208213806 0.5639575124 4281618073
-0.2636661232 -0.2192647755 0.5615755916 4281618082
-0.2621460259 -0.2173803002 0.5583379269 4281552289
-0.2594218552 -0.2145074308 0.5525358319 4281553305
-0.2574979663 -0.2123072594 0.5484381914 4281684891
-0.2551714182 -0.2097851783 0.5434829593 4281684129
-0.2532445788 -0.2076017559 0.5393790007 4281618336
-0.2509148419 -0.2050981522 0.5344169736 4281749409
-0.2489850372 -0.2029315233 0.5303067565 4281749409
-0.2462504208 -0.2001199722 0.5244823694 4281814684
-0.2447194159 -0.1982966512 0.5212215185 4281880477
-0.2427853048 -0.1961549073 0.5171020627 4281684125
-0.2412518710 -0.1943450868 0.5138360858 4281684125
-0.2401195318 -0.1928646713 0.5114243031 4281749918
-0.2389862835 -0.1913889050 0.5090106726 4281815711
-0.2386570722 -0.1905604899 0.5083094835 4281881247
-0.2383274585 -0.1897333115 0.5076074004 4281881247
-0.2379974425 -0.1889073849 0.5069045424 4281815454
-0.2372642159 -0.1877639145 0.5053428411 4281815454
-0.2373362333 -0.1872592717 0.5054962635 4281881247
-0.2374081165 -0.1867541671 0.5056493282 4281881247
-0.2374798357 -0.1862486154 0.5058020949 4281881247
-0.2371481061 -0.1854272336 0.5050955415 4281815454
-0.2372194082 -0.1849216223 0.5052474141 4281815452
-0.2372905463 -0.1844155490 0.5053989291 4281749659
-0.2373615503 -0.1839090288 0.5055501461 4281815452
-0.2374323905 -0.1834020466 0.5057010651 4281749659
-0.2375030816 -0.1828946173 0.5058516264 4281749661
-0.2375736088 -0.1823867261 0.5060018301 4281815454
-0.2376439869 -0.1818783879 0.5061517358 4281815452
-0.2377142161 -0.1813695878 0.5063012838 4281815452
-0.2369755059 -0.1802451760 0.5047279596 4281815705
-0.2370451689 -0.1797372252 0.5048763156 4281684119
-0.2371146977 -0.1792288274 0.5050244331 4281749142
-0.2371840626 -0.1787199676 0.5051721334 4281683349
-0.2372532636 -0.1782106757 0.5053195357 4281880728
-0.2369173318 -0.1773976833 0.5046040416 4281814935
-0.2369861007 -0.1768883616 0.5047505498 4281814424
-0.2370547205 -0.1763786077 0.5048966408 4281880217
-0.2375285178 -0.1761690378 0.5059058070 4281946011
-0.2375969291 -0.1756575108 0.5060515404 4282077597
-0.2372596264 -0.1748466790 0.5053330660 4282143390
-0.2373276055 -0.1743351519 0.5054778457 4282077597
-0.2378012240 -0.1741203219 0.5064865947 4282010521
-0.2378689945 -0.1736070365 0.5066309571 4282076314
-0.2379366010 -0.1730933189 0.5067749619 4282076826
-0.2380040586 -0.1725791693 0.5069186091 4281747861
-0.2380713373 -0.1720645726 0.5070619583 4281748629
-0.2377320826 -0.1712567955 0.5063393712 4282011801
-0.2377989292 -0.1707422137 0.5064817667 4282078105
-0.2378656119 -0.1702271998 0.5066237450 4282012312
-0.2379321307 -0.1697117537 0.5067654252 4281880726
-0.2375916541 -0.1689066440 0.5060402751 4281814933
-0.2376577258 -0.1683912128 0.5061810017 4281946008
-0.2377236336 -0.1678753644 0.5063213706 4282011801
-0.2373822033 -0.1670724899 0.5055941939 4282208153
-0.2374476790 -0.1665566713 0.5057336092 4282339739
-0.2375129759 -0.1660404056 0.5058726668 4282471327
-0.2375781089 -0.1655237228 0.5060114264 4282405534
-0.2376430631 -0.1650066227 0.5061497688 4281945490
-0.2377078682 -0.1644890904 0.5062877536 4281879697
-0.2377724946 -0.1639711261 0.5064254403 4282011285
-0.2378369421 -0.1634527594 0.5065627098 4282142871
-0.2383093089 -0.1632134318 0.5075687766 4282208666
-0.2383735329 -0.1626933217 0.5077055693 4282208666
-0.2384375930 -0.1621727943 0.5078420043 4282273946
-0.2385014743 -0.1616518497 0.5079780817 4282142360
-0.2385651916 -0.1611304879 0.5081138015 4282208155
-0.2386287302 -0.1606087089 0.5082491040 4282339741
-0.2391008288 -0.1603606194 0.5092546344 4282339741
-0.2387553006 -0.1595638841 0.5085186958 4282273948
-0.2388183326 -0.1590408683 0.5086529255 4282208153
-0.2388811857 -0.1585174203 0.5087867975 4282010774
-0.2389438599 -0.1579935700 0.5089203119 4281813393
-0.2390063554 -0.1574693024 0.5090534091 4281879186
-0.2390686870 -0.1569446176 0.5091861486 4282011285
-0.2391308397 -0.1564195305 0.5093185306 4281945492
-0.2391928136 -0.1558940262 0.5094505548 4282011285
-0.2392546088 -0.1553681195 0.5095821619 4282011285
-0.2393162400 -0.1548418105 0.5097134113 4282010772
-0.2389677912 -0.1540508568 0.5089712739 4281944979
-0.2390289456 -0.1535246372 0.5091015100 4282010512
-0.2390899211 -0.1529980153 0.5092313886 4281944719
-0.2391507328 -0.1524709910 0.5093609095 4281812607
-0.2392113507 -0.1519435495 0.5094900131 4281812607
-0.2392718047 -0.1514157206 0.5096187592 4282075252
-0.2393320650 -0.1508875042 0.5097471476 4282075252
-0.2393921465 -0.1503588706 0.5098751187 4282338163
-0.2394520491 -0.1498298496 0.5100026727 4282469749
-0.2395117730 -0.1493004262 0.5101298690 4282601337
-0.2395713180 -0.1487706006 0.5102567077 4282667130
-0.2396306694 -0.1482404023 0.5103831291 4282601102
-0.2396898419 -0.1477097869 0.5105091333 4282798481
-0.2397488356 -0.1471787989 0.5106347799 4283127691
-0.2398076504 -0.1466474086 0.5107600689 4283390863
-0.2398662716 -0.1461156160 0.5108849406 4283982216
-0.2403362393 -0.1458331645 0.5118858814 4284179595
-0.2403946072 -0.1452997029 0.5120102167 4284508035
-0.2404527664 -0.1447658390 0.5121340752 4284705414
-0.2405107468 -0.1442315876 0.5122575760 4285428363
-0.2405685484 -0.1436969638 0.5123806596 4285428363
-0.2406261563 -0.1431619376 0.5125033855 4285428617
-0.2406835854 -0.1426265389 0.5126256943 4285625996
-0.2407408059 -0.1420907527 0.5127475858 4286086547
-0.2407978624 -0.1415545940 0.5128690600 4286678684
-0.2408547103 -0.1410180479 0.5129901767 4287205026
-0.2409113795 -0.1404811293 0.5131108761 4287533991
-0.2409678549 -0.1399438232 0.5132311583 4287992747
-0.2410241514 -0.1394061446 0.5133510232 4288058540
-0.2410802394 -0.1388680786 0.5134705305 4288321959
-0.2411361486 -0.1383296549 0.5135895610 4288585131
-0.2411918640 -0.1377908438 0.5137082338 4288914598
-0.2416604757 -0.1374866813 0.5147063732 4289375149
-0.2417159081 -0.1369462162 0.5148243904 4289967530
-0.2417711318 -0.1364053637 0.5149420500 4290164909
-0.2418261766 -0.1358641535 0.5150592327 4290230951
-0.2418810129 -0.1353225708 0.5151760578 4290296744
-0.2419356704 -0.1347806156 0.5152924657 4290559405
-0.2424037755 -0.1344677657 0.5162894726 4290625198
-0.2424581349 -0.1339241564 0.5164052248 4290427568
-0.2425122857 -0.1333801746 0.5165206194 4290295982
-0.2425662428 -0.1328358352 0.5166355371 4290229938
-0.2430340350 -0.1325168759 0.5176318288 4290098352
-0.2430876940 -0.1319708824 0.5177461505 4289834653
-0.2431411445 -0.1314245313 0.5178599954 4289834653
-0.2431944162 -0.1308778077 0.5179734230 4289702815
-0.2432474792 -0.1303307265 0.5180864334 4289571229
-0.2437148094 -0.1300043911 0.5190818310 4289505437
-0.2437675744 -0.1294556707 0.5191941857 4289373851
-0.2438201159 -0.1289065927 0.5193061233 4289242265
-0.2438724637 -0.1283571571 0.5194175839 4289242265
-0.2439246178 -0.1278073788 0.5195286870 4288716434
-0.2439765632 -0.1272572428 0.5196393132 4288519055
-0.2440283149 -0.1267067492 0.5197495222 4288387215
-0.2440798581 -0.1261559129 0.5198593140 4288321422
-0.2441311926 -0.1256047189 0.5199686885 4288321422
-0.2441823334 -0.1250531971 0.5200775862 4288650387
-0.2442332655 -0.1245013103 0.5201860666 4288781973
-0.2446994483 -0.1241598874 0.5211789608 4288518801
-0.2447500527 -0.1236063763 0.5212867260 4288782218
-0.2452160716 -0.1232614443 0.5222793221 4288650632
-0.2452663630 -0.1227063090 0.5223864317 4288979344
-0.2453164309 -0.1221508384 0.5224930644 4289110930
-0.2453663051 -0.1215950251 0.5225992799 4289308057
-0.2454159707 -0.1210388765 0.5227050781 4289110678
-0.2458814681 -0.1206865907 0.5236965418 4289308058
-0.2459308058 -0.1201288253 0.5238015652 4289505437
-0.2459799200 -0.1195707172 0.5239062309 4289637276
-0.2460288256 -0.1190122813 0.5240104198 4289637276
-0.2460775375 -0.1184535176 0.5241141319 4289703065
-0.2465424836 -0.1180939004 0.5251044035 4289703065
-0.2465908527 -0.1175335199 0.5252074003 4289768858
-0.2466389984 -0.1169728115 0.5253099799 4289768858
-0.2471036464 -0.1166084185 0.5262995958 4289900446
-0.2471514493 -0.1160461158 0.5264014006 4289966239
-0.2471990436 -0.1154834777 0.5265027881 4290491302
-0.2472464293 -0.1149205193 0.5266036987 4290557095
-0.2472936064 -0.1143572405 0.5267041922 4290623142
-0.2473405600 -0.1137936339 0.5268042088 4290623142
-0.2473872900 -0.1132297143 0.5269037485 4290623140
-0.2474338263 -0.1126654670 0.5270028710 4290688933
-0.2474801391 -0.1121009067 0.5271014571 4290689443
-0.2475262284 -0.1115360335 0.5271996856 4290755236
-0.2475721091 -0.1109708399 0.5272973776 4290689443
-0.2476177663 -0.1104053333 0.5273946524 4290623650
-0.2480808645 -0.1100247428 0.5283809900 4290689443
-0.2481261641 -0.1094576642 0.5284774303 4290689443
-0.2481712550 -0.1088902727 0.5285735130 4290623652
-0.2482161373 -0.1083225682 0.5286690593 4290557859
-0.2482607812 -0.1077545583 0.5287641883 4290557859
-0.2483052164 -0.1071862429 0.5288587809 4290492066
-0.2491856217 -0.1069766060 0.5307339430 4290492066
-0.2492297590 -0.1064057723 0.5308279991 4290426273
-0.2492736876 -0.1058346331 0.5309215188 4290426273
-0.2493173927 -0.1052631885 0.5310146213 4290360480
-0.2493608594 -0.1046914458 0.5311071873 4290360480
-0.2494041175 -0.1041194126 0.5311993361 4290294687
-0.2494471520 -0.1035470739 0.5312910080 4290228641
-0.2499085814 -0.1031472161 0.5322737694 4290228641
-0.2499512434 -0.1025733277 0.5323646069 4290228641
-0.2499936819 -0.1019991487 0.5324550271 4290228641
-0.2500358820 -0.1014246792 0.5325449109 4290228643
-0.2504967749 -0.1010188460 0.5335265398 4290228643
-0.2505386174 -0.1004428267 0.5336156487 4290228643
-0.2505802214 -0.0998665243 0.5337042809 4290097057
-0.2506215870 -0.0992899388 0.5337923765 4290031266
-0.2506627440 -0.0987130627 0.5338800550 4290097059
-0.2507036924 -0.0981359109 0.5339672565 4289900448
-0.2507443726 -0.0975584686 0.5340539217 4289834655
-0.2512042224 -0.0971429273 0.5350333452 4289834655
-0.2508251071 -0.0964027494 0.5342258811 4289834655
-0.2508651316 -0.0958244726 0.5343111157 4289768862
-0.2517440617 -0.0955644697 0.5361831188 4289703069
-0.2517837584 -0.0949837044 0.5362676978 4289703069
-0.2518232465 -0.0944026709 0.5363517404 4289703069
-0.2518624663 -0.0938213617 0.5364353061 4289703069
-0.2519014776 -0.0932397842 0.5365183949 4289768862
-0.2519402504 -0.0926579311 0.5366010070 4289768862
-0.2523987591 -0.0922292769 0.5375775695 4289768862
-0.2524371445 -0.0916459188 0.5376592875 4289769119
-0.2524752915 -0.0910622999 0.5377405286 4289834912
-0.2525132000 -0.0904784203 0.5378212929 4289900448
-0.2525509000 -0.0898942724 0.5379015207 4289900448
-0.2525883317 -0.0893098637 0.5379813313 4290031780
-0.2526255548 -0.0887252018 0.5380605459 4290031780
-0.2530829310 -0.0882869363 0.5390347242 4290031780
-0.2531197369 -0.0877007842 0.5391131043 4290031780
-0.2531563044 -0.0871143714 0.5391910076 4290097573
-0.2531926632 -0.0865277126 0.5392684340 4290097573
-0.2532287538 -0.0859408006 0.5393453240 4290163366
-0.2536853254 -0.0854954198 0.5403177738 4290163366
-0.2541417778 -0.0850478411 0.5412899852 4290163366
-0.2541773021 -0.0844582245 0.5413656235 4290229159
-0.2546334565 -0.0840072259 0.5423371792 4290229159
-0.2546685636 -0.0834161416 0.5424119234 4290229159
-0.2547034025 -0.0828248188 0.5424861312 4290229159
-0.2543169856 -0.0820973366 0.5416631103 4290294952
-0.2543512881 -0.0815065056 0.5417361856 4290360746
-0.2543853819 -0.0809154436 0.5418087840 4290426539
-0.2548404634 -0.0804571286 0.5427780151 4290426539
-0.2548741102 -0.0798646063 0.5428497195 4290360746
-0.2549075484 -0.0792718530 0.5429208875 4290360746
-0.2553621233 -0.0788089186 0.5438891053 4290294953
-0.2553951144 -0.0782147273 0.5439593792 4290294953
-0.2554278672 -0.0776203051 0.5440291166 4290294953
-0.2558819354 -0.0771527514 0.5449962616 4290491562
-0.2563358545 -0.0766830146 0.5459630489 4290491562
-0.2563679814 -0.0760859475 0.5460314751 4290623148
-0.2563998699 -0.0754886568 0.5460994244 4290688941
-0.2564315200 -0.0748911500 0.5461668372 4290689196
-0.2564629316 -0.0742934123 0.5462337136 4290623403
-0.2564940751 -0.0736954585 0.5463000536 4290689196
-0.2569469213 -0.0732175186 0.5472645164 4290623403
-0.2569776475 -0.0726181492 0.5473299623 4290623403
-0.2570081055 -0.0720185637 0.5473948717 4290623403
-0.2570383549 -0.0714187697 0.5474592447 4290492583
-0.2570683360 -0.0708187670 0.5475231409 4290558376
-0.2575202286 -0.0703338534 0.5484856367 4290558376
-0.2575497627 -0.0697324425 0.5485485196 4290558376
-0.2575790584 -0.0691308305 0.5486109257 4290624169
-0.2576081157 -0.0685290098 0.5486727953 4290624169
-0.2580592632 -0.0680383444 0.5496336818 4290492583
-0.2580878735 -0.0674351305 0.5496945977 4290558376
-0.2581162155 -0.0668317229 0.5497549772 4290492585
-0.2581443191 -0.0662281141 0.5498148203 4290558378
-0.2581721544 -0.0656243116 0.5498741269 4290558376
-0.2581997514 -0.0650203079 0.5499329567 4290624169
-0.2586497366 -0.0645215437 0.5508913398 4290624171
-0.2590995729 -0.0640206113 0.5518494248 4290624171
-0.2591265142 -0.0634140596 0.5519067645 4290558635
-0.2591531873 -0.0628073215 0.5519636273 4290558635
-0.2591796517 -0.0622003973 0.5520199537 4290756016
-0.2592058182 -0.0615932867 0.5520757437 4290690223
-0.2592317760 -0.0609859899 0.5521309376 4290756016
-0.2596803904 -0.0604770109 0.5530864596 4290821809
-0.2592828870 -0.0597708598 0.5522398353 4290821809
-0.2593080699 -0.0591630265 0.5522934794 4290887602
-0.2593329847 -0.0585550182 0.5523465276 4290887602
-0.2602038383 -0.0581358932 0.5542013645 4290821809
-0.2602283359 -0.0575255528 0.5542535782 4290821809
-0.2606757581 -0.0570075847 0.5552065372 4290887602
-0.2606998086 -0.0563959070 0.5552576780 4290690738
-0.2607235909 -0.0557840653 0.5553083420 4290624945
-0.2607471049 -0.0551720560 0.5553584099 4290624945
-0.2611936927 -0.0546484515 0.5563096404 4290690738
-0.2612167299 -0.0540351197 0.5563586950 4290756531
-0.2612395287 -0.0534216240 0.5564072728 4290822324
-0.2616854906 -0.0528935604 0.5573571324 4290821556
-0.2621313035 -0.0523633473 0.5583065748 4290887349
-0.2621533871 -0.0517473891 0.5583536625 4290756533
-0.2621752322 -0.0511312783 0.5584001541 4290756533
-0.2626203895 -0.0505966172 0.5593482852 4290756533
-0.2626417279 -0.0499792062 0.5593937635 4290690740
-0.2626628280 -0.0493616425 0.5594387054 4290624947
-0.2626836598 -0.0487439334 0.5594831109 4290624947
-0.2631279528 -0.0482036993 0.5604293942 4290624947
-0.2635720670 -0.0476613306 0.5613752604 4290624947
-0.2635921836 -0.0470411927 0.5614181161 4290559413
-0.2636120319 -0.0464209132 0.5614604354 4290493620
-0.2636316419 -0.0458004959 0.5615021586 4290493620
-0.2636509836 -0.0451799408 0.5615433455 4290493620
-0.2636700571 -0.0445592515 0.5615839958 4290559154
-0.2641128302 -0.0440090671 0.5625270009 4290559154
-0.2641313970 -0.0433871113 0.5625665784 4290296241
-0.2645737231 -0.0428336710 0.5635086894 4290296241
-0.2645918131 -0.0422104597 0.5635471940 4290362034
-0.2650336921 -0.0416537672 0.5644883513 4290427827
-0.2650512755 -0.0410293005 0.5645258427 4290559413
-0.2646445036 -0.0403400660 0.5636594296 4290625206
-0.2646615505 -0.0397163592 0.5636957288 4290691001
-0.2646783292 -0.0390925296 0.5637314320 4290756794
-0.2651190162 -0.0385302305 0.5646700859 4290823100
-0.2651352882 -0.0379051715 0.5647047758 4290757307
-0.2655755579 -0.0373396426 0.5656424165 4290757307
-0.2655913234 -0.0367133543 0.5656760335 4290823100
-0.2656068206 -0.0360869542 0.5657090545 4290954431
-0.2656220794 -0.0354604423 0.5657415390 4291020224
-0.2656370401 -0.0348338298 0.5657734275 4291020224
-0.2656517625 -0.0342071094 0.5658047795 4290954431
-0.2660906017 -0.0336339287 0.5667393804 4290955203
-0.2661047876 -0.0330060013 0.5667696595 4290955203
-0.2665431499 -0.0324296132 0.5677033067 4290955203
-0.2665568590 -0.0318004899 0.5677325130 4290757824
-0.2665702701 -0.0311712660 0.5677610636 4290823617
-0.2665834427 -0.0305419508 0.5677890778 4290955203
-0.2670208514 -0.0299601741 0.5687206984 4290823617
-0.2674580216 -0.0293763019 0.5696518421 4290757824
-0.2674704194 -0.0287447106 0.5696782470 4290889410
-0.2674825490 -0.0281130318 0.5697041154 4290889410
-0.2674944103 -0.0274812691 0.5697293282 4290823874
-0.2675060034 -0.0268494207 0.5697540045 4290823874
-0.2675172985 -0.0262174942 0.5697781444 4290889667
-0.2675283551 -0.0255854856 0.5698016882 4290955460
-0.2679638267 -0.0249930099 0.5707291365 4290955460
-0.2679743469 -0.0243598465 0.5707515478 4291021253
-0.2684093118 -0.0237642117 0.5716779828 4290758851
-0.2684193254 -0.0231298991 0.5716993213 4290693058
-0.2684290409 -0.0224955156 0.5717200041 4290627265
-0.2684385180 -0.0218610652 0.5717402101 4290890437
-0.2688724697 -0.0212601349 0.5726644993 4290890437
-0.2688814104 -0.0206245482 0.5726835132 4290890437
-0.2688900828 -0.0199889001 0.5727019906 4291284427
-0.2658333480 -0.2253746539 0.5675340295 4284118183
-0.2663177252 -0.2251535803 0.5685681701 4282210186
-0.2660033703 -0.2242568582 0.5678970814 4282077345
-0.2648895681 -0.2226895094 0.5655191541 4282011552
-0.2637748122 -0.2211266756 0.5631392598 4282012061
-0.2610600293 -0.2182315737 0.5573433638 4281814682
-0.2627423406 -0.2190146446 0.5609349608 4281618334
-0.2588249445 -0.2151352763 0.5525716543 4281618334
-0.2549048960 -0.2112722844 0.5442026258 4281619098
-0.2569865286 -0.2123880088 0.5486467481 4281619098
-0.2506605089 -0.2065652609 0.5351412296 4281684127
-0.2527416945 -0.2076808214 0.5395843983 4281684127
-0.2484133244 -0.2035348862 0.5303436518 4281946272
-0.2460860014 -0.2010442913 0.5253750086 4281880479
-0.2437570393 -0.1985633969 0.5204027891 4281946011
-0.2422285080 -0.1967436820 0.5171394944 4282011804
-0.2402976602 -0.1946054101 0.5130172968 4281815454
-0.2383654416 -0.1924751848 0.5088921785 4281749661
-0.2392417043 -0.1926152557 0.5107629299 4281749661
-0.2381106466 -0.1911398172 0.5083481669 4281881247
-0.2377820164 -0.1903119832 0.5076466203 4281881247
-0.2374529839 -0.1894853860 0.5069441199 4281881247
-0.2367216647 -0.1883402765 0.5053828359 4281815454
-0.2363917232 -0.1875170469 0.5046784282 4281815454
-0.2360613942 -0.1866950542 0.5039731860 4281815452
-0.2361329347 -0.1861915141 0.5041259527 4281815452
-0.2362043262 -0.1856875271 0.5042783618 4281815452
-0.2362755686 -0.1851830781 0.5044304729 4281815452
-0.2363466620 -0.1846781671 0.5045822263 4281815452
-0.2360148579 -0.1838590503 0.5038738251 4281749659
-0.2364884019 -0.1836669892 0.5048848391 4281946268
-0.2365590334 -0.1831607074 0.5050356388 4281946268
-0.2366295159 -0.1826539934 0.5051860809 4282076829
-0.2366998494 -0.1821468174 0.5053362250 4282142622
-0.2367700189 -0.1816391796 0.5054860711 4282142620
-0.2368400395 -0.1811311096 0.5056355596 4282142620
-0.2365063131 -0.1803148687 0.5049230456 4282208412
-0.2365759164 -0.1798067540 0.5050716400 4282142619
-0.2362415195 -0.1789922267 0.5043577552 4282011033
-0.2363106757 -0.1784840822 0.5045053959 4281945240
-0.2363796830 -0.1779755056 0.5046527386 4281879448
-0.2360443473 -0.1771631092 0.5039368272 4281945241
-0.2361129224 -0.1766545027 0.5040832162 4281945243
-0.2361813337 -0.1761454642 0.5042292476 4282011036
-0.2362495959 -0.1756359637 0.5043749809 4282208415
-0.2363176942 -0.1751260459 0.5045203567 4282142622
-0.2363856435 -0.1746156663 0.5046654344 4282010782
-0.2364534140 -0.1741048545 0.5048101544 4282142368
-0.2365210354 -0.1735936105 0.5049545169 4282076314
-0.2365885079 -0.1730819196 0.5050985217 4281944728
-0.2366558015 -0.1725697964 0.5052422285 4282010521
-0.2371282876 -0.1723518521 0.5062509179 4281813142
-0.2371953875 -0.1718379706 0.5063941479 4282208412
-0.2372623086 -0.1713236719 0.5065370798 4282142619
-0.2373290807 -0.1708089262 0.5066795945 4281946523
-0.2369898707 -0.1700026393 0.5059554577 4281946523
-0.2370561957 -0.1694879085 0.5060970187 4281946523
-0.2367163301 -0.1686834097 0.5053714514 4281946523
-0.2367822081 -0.1681686938 0.5055121183 4281881244
-0.2368479371 -0.1676535457 0.5056523681 4281947037
-0.2365071177 -0.1668512970 0.5049247742 4282143647
-0.2365723848 -0.1663361788 0.5050641298 4282209440
-0.2366375029 -0.1658206433 0.5052031279 4282209440
-0.2367024422 -0.1653046757 0.5053417683 4282143647
