VERSION 0.7
FIELDS x y z rgba
SIZE 4 4 4 4
TYPE F F F U
COUNT 1 1 1 1
WIDTH 920
HEIGHT 1
VIEWPOINT 0.0 0.0 0.0 1.0 0.0 0.0 0.0
POINTS 920
DATA ascii
-0.2587932944 -0.1278208196 0.4949917793 4292792671
-0.2588486075 -0.1272980571 0.4950975776 4293055845
-0.2593555450 -0.1269961894 0.4960671961 4293121638
-0.2594105601 -0.1264718473 0.4961723983 4292529247
-0.2594653368 -0.1259471625 0.4962771833 4292529247
-0.2595199347 -0.1254221350 0.4963816106 4292727141
-0.2586698830 -0.1244616061 0.4947556853 4292200797
-0.2587238550 -0.1239377633 0.4948589504 4293121646
-0.2602423728 -0.1230060309 0.4977634251 4293515899
-0.2602958381 -0.1224781275 0.4978656471 4293713031
-0.2608018517 -0.1221619844 0.4988334775 4293647238
-0.2608549595 -0.1216325164 0.4989350736 4293778321
-0.2609078586 -0.1211027205 0.4990362823 4293909907
-0.2615185678 -0.1197188944 0.5002043843 4294040739
-0.2620761096 -0.1188602298 0.5012707710 4293975199
-0.2643954754 -0.1193502620 0.5057069659 4294238371
-0.2639939189 -0.1186079755 0.5049389601 4294238371
-0.2635920048 -0.1178672314 0.5041701794 4293975199
-0.2654585540 -0.1181377321 0.5077403188 4293909919
-0.2664178610 -0.1179984882 0.5095751882 4293844126
-0.2655614913 -0.1170548424 0.5079372525 4293778079
-0.2687909305 -0.1179070994 0.5141141415 4293712286
-0.2697507143 -0.1177548692 0.5159499645 4293778080
-0.2675311565 -0.1162174121 0.5117046237 4293712287
-0.2684906125 -0.1160636246 0.5135397315 4293646242
-0.2694501579 -0.1159058064 0.5153750777 4294106793
-0.2708643079 -0.1159384921 0.5180798769 4294040749
-0.2846577168 -0.1200276911 0.5444624424 4293909681
-0.2884018719 -0.1203806475 0.5516238213 4294239151
-0.2898196280 -0.1203565225 0.5543355346 4293778849
-0.2916926742 -0.1205144748 0.5579181314 4294436779
-0.2926558852 -0.1202904955 0.5597604513 4293713056
-0.2936191559 -0.1200624481 0.5616028905 4294107814
-0.2918506861 -0.1187190935 0.5582203269 4294436526
-0.2950905561 -0.1194099039 0.5644172430 4293778596
-0.2960540056 -0.1191706061 0.5662599802 4294173354
-0.2970175147 -0.1189272478 0.5681028962 4294041768
-0.2975254655 -0.1184983477 0.5690744519 4293779101
-0.2980333269 -0.1180672571 0.5700458288 4294042273
-0.2980853021 -0.1174543798 0.5701452494 4293779101
-0.2981370389 -0.1168411821 0.5702441931 4294173859
-0.2986444533 -0.1164053828 0.5712147355 4293976229
-0.2991517782 -0.1159673855 0.5721850991 4293581471
-0.2992028892 -0.1153513566 0.5722828507 4293779099
-0.2992537618 -0.1147350147 0.5723801851 4293581720
-0.2997606397 -0.1142923161 0.5733496547 4293450387
-0.2993547320 -0.1135013849 0.5725733042 4293647766
-0.2994048297 -0.1128841043 0.5726691484 4293713557
-0.2994546890 -0.1122665107 0.5727644563 4293450385
-0.2995042801 -0.1116486192 0.5728592873 4293450387
-0.2995536029 -0.1110304147 0.5729536414 4293647766
-0.3000593781 -0.1105802134 0.5739210844 4293976729
-0.3001082838 -0.1099604592 0.5740145445 4293581971
-0.3001568913 -0.1093404070 0.5741075873 4293121671
-0.2997483313 -0.1085545644 0.5733261108 4293516429
-0.2997963727 -0.1079348549 0.5734180212 4293582476
-0.2998441458 -0.1073148474 0.5735093951 4293714062
-0.2998916507 -0.1066945419 0.5736002922 4293779602
-0.3003961444 -0.1062356383 0.5745651722 4293582223
-0.2999859154 -0.1054530516 0.5737805367 4293516693
-0.3000326455 -0.1048318669 0.5738699436 4293582486
-0.3000791073 -0.1042103991 0.5739588141 4293384592
-0.3001253307 -0.1035886332 0.5740472078 4293581971
-0.2997137010 -0.1028096303 0.5732598901 4293516178
-0.2997592986 -0.1021882445 0.5733470917 4293516178
-0.2993469536 -0.1014115140 0.5725584030 4293450898
-0.2989341915 -0.1006364077 0.5717688799 4293779863
-0.2989788651 -0.1000160798 0.5718543530 4293714070
-0.2990233004 -0.0993954763 0.5719393492 4293516691
-0.2990674675 -0.0987745970 0.5720238090 4293779863
-0.2986533046 -0.0980031267 0.5712316632 4293977242
-0.2986968756 -0.0973826498 0.5713149905 4293582484
-0.2987401783 -0.0967619047 0.5713977814 4293845656
-0.2974084318 -0.0956985280 0.5688506365 4293845654
-0.2983676493 -0.0953731090 0.5706853271 4293779861
-0.2984100878 -0.0947525129 0.5707665086 4293911198
-0.2979938090 -0.0939870551 0.5699702501 4293582233
-0.2980356812 -0.0933668837 0.5700502992 4293582231
-0.2980772555 -0.0927464589 0.5701298714 4293845403
-0.2981185615 -0.0921257734 0.5702088475 4293450393
-0.2977009118 -0.0913640484 0.5694100261 4293516186
-0.2977416217 -0.0907438025 0.5694879293 4294042281
-0.2973232567 -0.0899844393 0.5686876774 4293910695
-0.2969044745 -0.0892267376 0.5678867102 4294174132
-0.2969442904 -0.0886076540 0.5679628253 4294239925
-0.2965247929 -0.0878523216 0.5671604872 4293976755
-0.2965640128 -0.0872336999 0.5672354698 4294239927
-0.2966029346 -0.0866148323 0.5673099160 4293977007
-0.2966416180 -0.0859957188 0.5673838854 4293648042
-0.2966800034 -0.0853763670 0.5674573779 4293516455
-0.2971774638 -0.0848879740 0.5684088469 4293253283
-0.2972153723 -0.0842671841 0.5684813857 4293450144
-0.2972530425 -0.0836461559 0.5685533881 4293713316
-0.2972904146 -0.0830248967 0.5686249137 4293844900
-0.2973275483 -0.0824033991 0.5686959028 4293910693
-0.2973643839 -0.0817816705 0.5687663555 4293976486
-0.2974009514 -0.0811597109 0.5688363314 4293910693
-0.2974372804 -0.0805375278 0.5689057708 4293779362
-0.2979330719 -0.0800386295 0.5698540807 4293845155
-0.2984287441 -0.0795375779 0.5708021522 4293976739
-0.2989242077 -0.0790343806 0.5717498660 4293910946
-0.2994195521 -0.0785290375 0.5726972222 4293845921
-0.3003746867 -0.0781412050 0.5745241642 4293845921
-0.3008697331 -0.0776306018 0.5754710436 4293714589
-0.3013646007 -0.0771178454 0.5764175653 4293648796
-0.3023194671 -0.0767197236 0.5782439113 4293648796
-0.3032742739 -0.0763175189 0.5800701380 4293648796
-0.3042289913 -0.0759112388 0.5818962455 4293910946
-0.3056439459 -0.0756147653 0.5846025944 4293779360
-0.3070589304 -0.0753122866 0.5873090029 4293648542
-0.3103155494 -0.0754515752 0.5935379863 4293714335
-0.3071261942 -0.0740234107 0.5874376893 4293584569
-0.3353892267 -0.2438599914 0.6428618431 4289173348
-0.3346118629 -0.2425821573 0.6413717866 4289239141
-0.3342724442 -0.2416241914 0.6407212019 4289108307
-0.3334937394 -0.2403510958 0.6392286420 4289042514
-0.3292028308 -0.2365575135 0.6310039759 4289108307
-0.3319341838 -0.2378133088 0.6362393498 4288910928
-0.2688663900 -0.1914833635 0.5153532624 4288779094
-0.2680661082 -0.1903425157 0.5138193369 4289239384
-0.2668255568 -0.1888934076 0.5114414692 4289173591
-0.2660237849 -0.1877592802 0.5099046826 4289239384
-0.2652213573 -0.1866280884 0.5083665848 4289107798
-0.2639782727 -0.1851911843 0.5059838891 4289042013
-0.2636144161 -0.1843745261 0.5052865148 4289370978
-0.2632501721 -0.1835591346 0.5045883060 4289437287
-0.2633258402 -0.1830511093 0.5047333837 4289174115
-0.2634013593 -0.1825426370 0.5048781037 4289107544
-0.2630361021 -0.1817293316 0.5041779876 4289041751
-0.2626704276 -0.1809172928 0.5034770966 4288646993
-0.2627451718 -0.1804092228 0.5036203861 4288646993
-0.2628197670 -0.1799007058 0.5037633181 4288975442
-0.2624530792 -0.1790907830 0.5030605197 4288646477
-0.2620860040 -0.1782821268 0.5023568869 4288448585
-0.2621598244 -0.1777740419 0.5024983883 4288448585
-0.2613505423 -0.1766686738 0.5009471774 4288776521
-0.2609821856 -0.1758638620 0.5002411604 4288513349
-0.2610551417 -0.1753570735 0.5003809929 4288644676
-0.2606860697 -0.1745539904 0.4996735752 4288710469
-0.2607585788 -0.1740472019 0.4998125136 4288512320
-0.2603887916 -0.1732458472 0.4991037548 4287920183
-0.2600186169 -0.1724458039 0.4983941913 4288314941
-0.2600903511 -0.1719394624 0.4985316694 4289236043
-0.2597194612 -0.1711411625 0.4978207648 4289237313
-0.2597907186 -0.1706348509 0.4979573488 4288447797
-0.2594191134 -0.1698383093 0.4972450733 4287987498
-0.2594899237 -0.1693320274 0.4973807931 4287855912
-0.2595605254 -0.1688253433 0.4975161552 4287131672
-0.2591879368 -0.1680310071 0.4968019724 4288118567
-0.2592580914 -0.1675243676 0.4969364405 4288645162
-0.2588847876 -0.1667318046 0.4962208867 4288842541
-0.2589544654 -0.1662251949 0.4963544905 4289369135
-0.2590239942 -0.1657181829 0.4964877069 4289040170
-0.2586496770 -0.1649278700 0.4957702458 4288579106
-0.2582749426 -0.1641388983 0.4950519800 4288250141
-0.2578998208 -0.1633512527 0.4943329394 4288118557
-0.2579682767 -0.1628452241 0.4944641590 4288184350
-0.2580365539 -0.1623387933 0.4945950508 4288447270
-0.2581046522 -0.1618319750 0.4947255850 4288381477
-0.2577282190 -0.1610470712 0.4940040410 4289171243
-0.2577958703 -0.1605403125 0.4941336811 4289368622
-0.2578633130 -0.1600331664 0.4942629933 4289697587
-0.2574858963 -0.1592505723 0.4935395420 4289500208
-0.2575528622 -0.1587434858 0.4936679304 4289566001
-0.2580645978 -0.1585093141 0.4946488142 4289171243
-0.2576862872 -0.1577281654 0.4939236939 4289105962
-0.2577527463 -0.1572199017 0.4940510392 4289500720
-0.2573737204 -0.1564406008 0.4933245480 4288645411
-0.2574396729 -0.1559324414 0.4934509993 4288974376
-0.2575054765 -0.1554238796 0.4935770929 4290093627
-0.2575710714 -0.1549149454 0.4937028587 4289896248
-0.2576365173 -0.1544056088 0.4938282371 4289764662
-0.2572558820 -0.1536296457 0.4930987060 4290422592
-0.2573208511 -0.1531204283 0.4932231903 4290291006
-0.2573856115 -0.1526108086 0.4933473170 4289698869
-0.2574501932 -0.1521008313 0.4934711158 4288974630
-0.2575145662 -0.1515904516 0.4935945570 4289172009
-0.2566859722 -0.1505560279 0.4920063019 4288843040
-0.2567497790 -0.1500466615 0.4921286106 4288974626
-0.2568134069 -0.1495369077 0.4922505319 4289632810
-0.2568768263 -0.1490267813 0.4923721254 4289830189
-0.2569400668 -0.1485162824 0.4924933612 4289436206
-0.2570031285 -0.1480054110 0.4926142395 4289633585
-0.2570660114 -0.1474941522 0.4927347600 4290620747
-0.2571287155 -0.1469825208 0.4928549230 4291344470
-0.2571912110 -0.1464705169 0.4929747283 4291278939
-0.2572535276 -0.1459581405 0.4930941463 4290752595
-0.2573156357 -0.1454453915 0.4932132363 4289766213
-0.2569299638 -0.1446802169 0.4924739897 4289634627
-0.2569915950 -0.1441676319 0.4925921261 4289239609
-0.2570530474 -0.1436546594 0.4927099049 4289897539
-0.2571143210 -0.1431413293 0.4928273261 4290423875
-0.2571753860 -0.1426276416 0.4929443896 4290226496
-0.2572362721 -0.1421135664 0.4930610955 4290292285
-0.2572969496 -0.1415991485 0.4931774139 4290752836
-0.2573574483 -0.1410843581 0.4932933748 4291213639
-0.2574177682 -0.1405691952 0.4934089482 4291411018
-0.2574778795 -0.1400536895 0.4935241640 4291148099
-0.2575377822 -0.1395378113 0.4936390221 4290753341
-0.2575975060 -0.1390215755 0.4937534928 4290753339
-0.2572081685 -0.1382636875 0.4930072129 4290884925
-0.2572673857 -0.1377476305 0.4931207597 4290819130
-0.2573264241 -0.1372312307 0.4932339191 4290950716
-0.2573852837 -0.1367144585 0.4933467209 4291477062
-0.2574439347 -0.1361973435 0.4934591353 4292134992
-0.2575023770 -0.1356798708 0.4935711622 4292595543
-0.2575606406 -0.1351620555 0.4936828315 4292727129
-0.2576186955 -0.1346438825 0.4937941134 4292002890
-0.2576765716 -0.1341253668 0.4939050376 4290884409
-0.2577342391 -0.1336064935 0.4940155745 4290358579
-0.2577916980 -0.1330872774 0.4941257238 4290490165
-0.2578489780 -0.1325677037 0.4942354858 4291411267
-0.2579060495 -0.1320478022 0.4943448901 4292529748
-0.2579629123 -0.1315275431 0.4944538772 4292529750
-0.2580195665 -0.1310069412 0.4945625067 4292661336
-0.2580760419 -0.1304859966 0.4946707487 4292990303
-0.2581323087 -0.1299647242 0.4947786033 4293253475
-0.2581883967 -0.1294430941 0.4948861003 4293121889
-0.2582442760 -0.1289211363 0.4949931800 4292529752
-0.2582999170 -0.1283988357 0.4950998724 4292200533
-0.2583553791 -0.1278761923 0.4952061772 4292463705
-0.2584106624 -0.1273532212 0.4953121245 4292858463
-0.2584657073 -0.1268299073 0.4954176545 4293121635
-0.2585205734 -0.1263062656 0.4955227971 4292924257
-0.2585752308 -0.1257822961 0.4956275523 4292792671
-0.2586296797 -0.1252579838 0.4957319200 4292726626
-0.2586839199 -0.1247333437 0.4958359003 4292200282
-0.2587379515 -0.1242083758 0.4959394634 4292923754
-0.2587917745 -0.1236830801 0.4960426390 4293581684
-0.2592971623 -0.1233723909 0.4970113039 4293844607
-0.2593506575 -0.1228455231 0.4971138835 4294107779
-0.2594039738 -0.1223183274 0.4972160459 4293909897
-0.2594570518 -0.1217908114 0.4973178208 4293778311
-0.2599620521 -0.1214742288 0.4982858002 4293777808
-0.2600148320 -0.1209451482 0.4983869493 4293843601
-0.2605196834 -0.1206251606 0.4993546307 4293974938
-0.2601197660 -0.1198860183 0.4985880554 4294040731
-0.2606243789 -0.1195635423 0.4995552897 4294106272
-0.2611289620 -0.1192389131 0.5005224943 4294172065
-0.2607282102 -0.1185006574 0.4997543395 4293646236
-0.2621380389 -0.1185831577 0.5024566650 4294040994
-0.2608312070 -0.1174365059 0.4999517500 4294304166
-0.2613353133 -0.1171069145 0.5009179711 4294304166
-0.2636514008 -0.1175832897 0.5053573847 4294304424
-0.2618902922 -0.1162401363 0.5019817948 4294304424
-0.2623941898 -0.1159049794 0.5029476285 4294304426
-0.2660709620 -0.1169624403 0.5099951029 4294238633
-0.2683888376 -0.1174097806 0.5144379139 4294041000
-0.2698004544 -0.1174527258 0.5171436667 4293777828
-0.2671305835 -0.1157215461 0.5120261312 4293843623
-0.2708100975 -0.1167387888 0.5190789104 4294304174
-0.2726759613 -0.1169624031 0.5226553679 4294173105
-0.2718703151 -0.1154588461 0.5211111307 4294765503
-0.2871123850 -0.1188746393 0.5503265262 4294370986
-0.2889820039 -0.1190332919 0.5539101958 4293844640
-0.2867619395 -0.1175081283 0.5496548414 4294107812
-0.2899952829 -0.1182154790 0.5558523536 4294239401
-0.2927748859 -0.1187250689 0.5611802340 4293713057
-0.2941911221 -0.1186728477 0.5638948083 4293844643
-0.2946980298 -0.1182497218 0.5648664236 4293910436
-0.2952048481 -0.1178243980 0.5658378601 4293844894
-0.2957115769 -0.1173968837 0.5668091774 4294173859
-0.2957631946 -0.1167875007 0.5669081211 4293975708
-0.2967247665 -0.1165352687 0.5687512159 4294304673
-0.2967760563 -0.1159233749 0.5688495040 4294304423
-0.2968270779 -0.1153111681 0.5689473152 4293975458
-0.2973331809 -0.1148745567 0.5699173808 4293713308
-0.2973837852 -0.1142607778 0.5700143576 4293581722
-0.2974341214 -0.1136466861 0.5701108575 4293516180
-0.2974841893 -0.1130322814 0.5702068806 4293713559
-0.2975340188 -0.1124175712 0.5703023672 4293845143
-0.2975836098 -0.1118025482 0.5703973770 4293647764
-0.2976329327 -0.1111872196 0.5704919100 4293647766
-0.2976819873 -0.1105715930 0.5705859661 4293713559
-0.2977308035 -0.1099556535 0.5706795454 4293910936
-0.2964113057 -0.1088370904 0.5681503415 4293581971
-0.2982837260 -0.1088893712 0.5717393756 4293384843
-0.2978756726 -0.1081060395 0.5709572434 4293911187
-0.2979234457 -0.1074889004 0.5710487962 4293845648
-0.2979709804 -0.1068714708 0.5711398721 4293779855
-0.2980182469 -0.1062537432 0.5712304711 4293779601
-0.2985216975 -0.1057974920 0.5721954703 4293516429
-0.2985685170 -0.1051782295 0.5722852349 4293713559
-0.2981584668 -0.1043988094 0.5714992881 4293713559
-0.2982046902 -0.1037799194 0.5715878606 4293450387
-0.2982506454 -0.1031607389 0.5716759562 4293647766
-0.2978395522 -0.1023842469 0.5708879828 4293516180
-0.2978849113 -0.1017654464 0.5709749460 4293516180
-0.2974730730 -0.1009912342 0.5701855421 4293581971
-0.2970608473 -0.1002186462 0.5693953633 4293910936
-0.2971052825 -0.0996009037 0.5694805384 4293911449
-0.2971494794 -0.0989828929 0.5695652366 4293845656
-0.2971933782 -0.0983645990 0.5696494579 4293976729
-0.2967797518 -0.0975956544 0.5688565969 4294108315
-0.2968230844 -0.0969777778 0.5689396858 4293450898
-0.2968661785 -0.0963596180 0.5690222383 4293516691
-0.2964514792 -0.0955936760 0.5682274103 4293779863
-0.2964939773 -0.0949759483 0.5683088303 4293779863
-0.2965361774 -0.0943579450 0.5683897138 4293779099
-0.2961204350 -0.0935950205 0.5675928593 4293581720
-0.2961620688 -0.0929774567 0.5676726103 4293515925
-0.2962034345 -0.0923596248 0.5677518845 4294042269
-0.2957866490 -0.0915997401 0.5669530630 4293516186
-0.2958274186 -0.0909823552 0.5670312047 4293516186
-0.2958679199 -0.0903647095 0.5671088099 4294173865
-0.2954500914 -0.0896078870 0.5663079619 4293976486
-0.2954899967 -0.0889906958 0.5663844347 4294108593
-0.2950714529 -0.0882362500 0.5655821562 4294437558
-0.2951107621 -0.0876195207 0.5656575561 4294108339
-0.2946915030 -0.0868674442 0.5648539066 4294371511
-0.2947302461 -0.0862511843 0.5649281740 4294174386
-0.2947686911 -0.0856346861 0.5650018454 4293582249
-0.2952653766 -0.0851501599 0.5659539104 4293516966
-0.2953033745 -0.0845322236 0.5660266876 4293253794
-0.2953410745 -0.0839140415 0.5660989881 4293318558
-0.2953785360 -0.0832956284 0.5661708117 4293581730
-0.2958744466 -0.0828053579 0.5671213269 4293779107
-0.2959114015 -0.0821855143 0.5671921968 4293910693
-0.2959481180 -0.0815654397 0.5672625303 4293910948
-0.2959845364 -0.0809451342 0.5673323870 4293845155
-0.2960207164 -0.0803245977 0.5674017072 4293779362
-0.2965156138 -0.0798274130 0.5683503151 4293779362
-0.2970103621 -0.0793280751 0.5692986250 4293910946
-0.2975049317 -0.0788265839 0.5702465773 4293910946
-0.2984585166 -0.0784436315 0.5720744133 4293845921
-0.2989528179 -0.0779368803 0.5730218887 4293845921
-0.2999062240 -0.0775467381 0.5748493075 4293780382
-0.3004002571 -0.0770347267 0.5757962465 4293714589
-0.3013534844 -0.0766373947 0.5776233673 4293714589
-0.3023066819 -0.0762359798 0.5794503689 4293648796
-0.3037192523 -0.0759453923 0.5821579695 4293845151
-0.3051318824 -0.0756487921 0.5848656297 4293845151
-0.3065445125 -0.0753461793 0.5875733495 4293779358
-0.3038204312 -0.0740295872 0.5823519230 4293779358
-0.3084504902 -0.0745008588 0.5912266374 4293518255
-0.3052656949 -0.0730815157 0.5851221681 4293978806
-0.3342747390 -0.2442815900 0.6420925856 4288453513
-0.3339367807 -0.2433219254 0.6414434314 4288909397
-0.3335983753 -0.2423633635 0.6407933831 4289106776
-0.3323836327 -0.2407714725 0.6384600401 4288647758
-0.3320440352 -0.2398168147 0.6378076673 4288779344
-0.3281984925 -0.2363389581 0.6304209828 4288911446
-0.3239121437 -0.2325610071 0.6221874952 4288648274
-0.2700792253 -0.1933338940 0.5187824368 4288647508
-0.2692813277 -0.1921880245 0.5172497630 4289108059
-0.2680440545 -0.1907329112 0.5148731470 4289108057
-0.2663669884 -0.1889710873 0.5116518140 4288779092
-0.2655666769 -0.1878365278 0.5101144910 4289173337
-0.2647656798 -0.1867049038 0.5085758567 4289502302
-0.2639639974 -0.1855762452 0.5070359707 4289305183
-0.2636009753 -0.1847584397 0.5063386559 4289239390
-0.2632375360 -0.1839419156 0.5056405663 4289305183
-0.2633132637 -0.1834328622 0.5057860017 4289042011
-0.2629491091 -0.1826179922 0.5050865412 4289304409
-0.2630243897 -0.1821089238 0.5052311420 4289172823
-0.2626595497 -0.1812957376 0.5045303106 4288580173
-0.2622942626 -0.1804838330 0.5038286448 4288580173
-0.2623687685 -0.1799751520 0.5039718151 4288974929
-0.2624431252 -0.1794660538 0.5041146278 4288843343
-0.2625173032 -0.1789565086 0.5042570829 4288579912
-0.2621507347 -0.1781471372 0.5035529733 4288448326
-0.2622244656 -0.1776375920 0.5036945939 4288447809
-0.2609754801 -0.1762345433 0.5012955070 4288513602
-0.2610484958 -0.1757267118 0.5014357567 4288842308
-0.2606802583 -0.1749224812 0.5007284284 4288908101
-0.2607527971 -0.1744146645 0.5008677244 4288644157
-0.2603838444 -0.1736121625 0.5001590252 4288446778
-0.2600144744 -0.1728109568 0.4994495511 4288381239
-0.2605278492 -0.1725961268 0.5004356503 4288644411
-0.2597161829 -0.1715041250 0.4988765717 4288644408
-0.2597875297 -0.1709967852 0.4990135729 4288644408
-0.2594167292 -0.1701990813 0.4983013570 4288447281
-0.2594875991 -0.1696917713 0.4984374642 4288118316
-0.2595582604 -0.1691840440 0.4985732138 4287789602
-0.2596287727 -0.1686758995 0.4987086654 4288842290
-0.2592566907 -0.1678808630 0.4979939461 4288908081
-0.2588841915 -0.1670871377 0.4972784519 4288644909
-0.2589539587 -0.1665794998 0.4974124134 4289039408
-0.2590235174 -0.1660714447 0.4975460768 4288578857
-0.2590929270 -0.1655629873 0.4976793826 4288381477
-0.2578331232 -0.1642076820 0.4952594638 4288907821
-0.2583449483 -0.1639822870 0.4962425828 4288381731
-0.2579703331 -0.1631939411 0.4955230057 4287394836
-0.2580386698 -0.1626864672 0.4956542850 4287658006
-0.2581068277 -0.1621785909 0.4957852066 4288513315
-0.2577311993 -0.1613925248 0.4950637221 4288644899
-0.2573551834 -0.1606077999 0.4943414330 4289039657
-0.2578664124 -0.1603765041 0.4953234196 4289697587
-0.2574898005 -0.1595927477 0.4945999980 4289829173
-0.2575568259 -0.1590846181 0.4947287738 4289631794
-0.2576237023 -0.1585760862 0.4948571920 4289039657
-0.2576903701 -0.1580671668 0.4949852824 4288842791
-0.2573124766 -0.1572862118 0.4942593873 4289105963
-0.2573786676 -0.1567773819 0.4943865538 4288974377
-0.2570000589 -0.1559982598 0.4936592877 4288974377
-0.2570658028 -0.1554895341 0.4937855601 4289763892
-0.2571313381 -0.1549804062 0.4939114749 4289566513
-0.2571967244 -0.1544708908 0.4940370321 4289830455
-0.2572619021 -0.1539610028 0.4941622317 4290225213
-0.2568817139 -0.1531852186 0.4934319258 4290027834
-0.2569464147 -0.1526754349 0.4935562313 4289962041
-0.2570109367 -0.1521652639 0.4936801791 4289962042
-0.2570752800 -0.1516547054 0.4938037694 4289567284
-0.2571394444 -0.1511437595 0.4939270020 4288974628
-0.2567576468 -0.1503713727 0.4931936264 4289172007
-0.2563754618 -0.1496003866 0.4924595058 4289764142
-0.2564388216 -0.1490900815 0.4925812483 4289698349
-0.2565020323 -0.1485793889 0.4927026331 4289107245
-0.2565650344 -0.1480683237 0.4928236604 4289502003
-0.2561815381 -0.1473002583 0.4920870364 4290225992
-0.2566905022 -0.1470450610 0.4930646420 4290883922
-0.2563064098 -0.1462780386 0.4923268855 4291081821
-0.2563685775 -0.1457663625 0.4924462736 4291213407
-0.2564305365 -0.1452543288 0.4925653040 4290489936
-0.2564923167 -0.1447419077 0.4926839471 4290292557
-0.2565538883 -0.1442291290 0.4928022623 4289700669
-0.2566152811 -0.1437159777 0.4929201901 4290227013
-0.2566764951 -0.1432024539 0.4930377603 4290357310
-0.2567375004 -0.1426885575 0.4931549728 4289633587
-0.2567983270 -0.1421743035 0.4932717979 4290225722
-0.2564114928 -0.1414128989 0.4925287068 4290488894
-0.2564718425 -0.1408988088 0.4926446378 4290752318
-0.2565319836 -0.1403843611 0.4927601516 4291476041
-0.2565919459 -0.1398695558 0.4928753376 4291410499
-0.2566516995 -0.1393543780 0.4929901361 4291278913
-0.2567112744 -0.1388388574 0.4931045473 4291344960
-0.2567706406 -0.1383229643 0.4932186007 4291542339
-0.2563816011 -0.1375662237 0.4924713373 4291410753
-0.2564404905 -0.1370505244 0.4925844371 4290884409
-0.2564992011 -0.1365344673 0.4926971793 4290687030
-0.2565576732 -0.1360180527 0.4928095341 4291279167
-0.2566159964 -0.1355012953 0.4929215312 4292266062
-0.2566740811 -0.1349841803 0.4930331409 4292726613
-0.2567320168 -0.1344667226 0.4931443930 4292529233
-0.2567897141 -0.1339489073 0.4932552278 4291673924
-0.2568472326 -0.1334307492 0.4933657348 4291344959
-0.2569045424 -0.1329122335 0.4934758246 4291213373
-0.2569616735 -0.1323933750 0.4935855567 4291871304
-0.2570185959 -0.1318741739 0.4936949015 4292463441
-0.2570753098 -0.1313546300 0.4938038588 4291871818
-0.2571318448 -0.1308347434 0.4939124286 4291871818
-0.2571881711 -0.1303144991 0.4940206110 4292529750
-0.2572442889 -0.1297939271 0.4941284359 4292463957
-0.2573002279 -0.1292730123 0.4942358434 4292661338
-0.2573559582 -0.1287517697 0.4943428934 4292792924
-0.2574114799 -0.1282301694 0.4944495559 4292595545
-0.2574667931 -0.1277082413 0.4945558012 4292134994
-0.2575219274 -0.1271859854 0.4946616888 4292266326
-0.2575768232 -0.1266633868 0.4947671890 4293253221
-0.2576315403 -0.1261404455 0.4948722720 4293384293
-0.2576860487 -0.1256171912 0.4949769974 4293252707
-0.2577403784 -0.1250935942 0.4950813055 4293120614
-0.2577944696 -0.1245696619 0.4951852262 4293054821
-0.2578483820 -0.1240454018 0.4952887595 4293449328
-0.2583529353 -0.1237367690 0.4962579608 4293515121
-0.2584065199 -0.1232109368 0.4963608980 4293712253
-0.2584598958 -0.1226847768 0.4964634180 4293778046
-0.2585130632 -0.1221582964 0.4965655506 4293711748
-0.2590172887 -0.1218437627 0.4975340664 4293711748
-0.2590701282 -0.1213157177 0.4976355731 4293579912
-0.2591227591 -0.1207873449 0.4977366924 4293448326
-0.2596267164 -0.1204681620 0.4987047017 4293579661
-0.2592274249 -0.1197296381 0.4979377091 4293842833
-0.2597311437 -0.1194079667 0.4989052713 4293843605
-0.2597830296 -0.1188773960 0.4990049601 4293777812
-0.2598347068 -0.1183465049 0.4991042316 4293317269
-0.2607901394 -0.1182250902 0.5009394288 4293712027
-0.2612936497 -0.1178956926 0.5019066334 4294304424
-0.2604406476 -0.1169549897 0.5002681017 4294699182
-0.2623005211 -0.1172304004 0.5038406849 4294764723
-0.2628039420 -0.1168945059 0.5048076510 4294633137
-0.2619500160 -0.1159556359 0.5031674504 4294633137
-0.2642630935 -0.1164155528 0.5076104999 4294567344
-0.2647664547 -0.1160722375 0.5085774064 4294567346
-0.2630063891 -0.1147393137 0.5051965117 4294304174
-0.2662258148 -0.1155756414 0.5113805532 4294172588
-0.2631063163 -0.1136598587 0.5053884983 4294435760
-0.2649676800 -0.1138984710 0.5089639425 4294436275
-0.2659235001 -0.1137417927 0.5107998848 4294765240
-0.2668794096 -0.1135810837 0.5126360655 4294897339
-0.2732737362 -0.1157192215 0.5249186158 4294239409
-0.2751374245 -0.1159212142 0.5284985304 4294699698
-0.2895051241 -0.1182674542 0.5560967326 4294239401
-0.2881954312 -0.1171173528 0.5535809994 4293910436
-0.2905164659 -0.1174405515 0.5580393672 4294370986
-0.2855738401 -0.1148330420 0.5485453010 4294107814
-0.2919815481 -0.1167865098 0.5608535409 4294041503
-0.2924869657 -0.1163644493 0.5618244410 4294436261
-0.2934465706 -0.1161199510 0.5636677146 4294173087
-0.2939519286 -0.1156925634 0.5646383762 4294633638
-0.2944571674 -0.1152629852 0.5656088591 4294567849
-0.2945078611 -0.1146542802 0.5657061934 4293975712
-0.2950128317 -0.1142212600 0.5666761994 4293975710
-0.2950630784 -0.1136109829 0.5667726994 4293909917
-0.2955677807 -0.1131745204 0.5677422285 4293844375
-0.2956176102 -0.1125626862 0.5678378940 4293975961
-0.2956671715 -0.1119505391 0.5679330826 4294041752
-0.2957164645 -0.1113380939 0.5680277944 4294041752
-0.2957655191 -0.1107253358 0.5681220293 4294107548
-0.2958143353 -0.1101122797 0.5682157874 4293975962
-0.2958628833 -0.1094989181 0.5683090091 4294173338
-0.2959111631 -0.1088852510 0.5684017539 4293844373
-0.2959592044 -0.1082712933 0.5684940219 4293844624
-0.2960069776 -0.1076570302 0.5685858130 4294370968
-0.2955990136 -0.1068777889 0.5678021908 4293976464
-0.2961017489 -0.1064276174 0.5687679052 4293844878
-0.2961487770 -0.1058124751 0.5688582063 4293976211
-0.2961955070 -0.1051970348 0.5689479709 4293778832
-0.2962419987 -0.1045813039 0.5690372586 4294041752
-0.2958323956 -0.1038053408 0.5682504773 4293844373
-0.2958783209 -0.1031899825 0.5683386922 4293646994
-0.2945560515 -0.1021001860 0.5657988191 4293910166
-0.2959693372 -0.1019584090 0.5685135126 4293647764
-0.2960144579 -0.1013422012 0.5686001778 4293581971
-0.2956031561 -0.1005705073 0.5678101182 4293712787
-0.2951914370 -0.0998004377 0.5670192838 4293778580
-0.2952356339 -0.0991852880 0.5671042204 4293647764
-0.2952795923 -0.0985698625 0.5671886206 4293647764
-0.2953232825 -0.0979541689 0.5672725439 4293581971
-0.2949101925 -0.0971877500 0.5664790273 4293845143
-0.2949532866 -0.0965724662 0.5665618181 4293450385
-0.2949961126 -0.0959569067 0.5666441321 4293516178
-0.2950387001 -0.0953410789 0.5667259097 4293647764
-0.2950810194 -0.0947249904 0.5668071508 4293253006
-0.2946662009 -0.0939629599 0.5660104156 4293779097
-0.2951648533 -0.0934920236 0.5669682026 4293647511
-0.2947493792 -0.0927313715 0.5661702156 4293450132
-0.2947905958 -0.0921151862 0.5662493110 4294173855
-0.2948315144 -0.0914987475 0.5663279295 4293648026
-0.2939578593 -0.0906002522 0.5646497607 4293582233
-0.2939981520 -0.0899852142 0.5647271276 4294108327
-0.2940381467 -0.0893699229 0.5648040175 4293779362
-0.2940779030 -0.0887543783 0.5648803711 4294239408
-0.2941173911 -0.0881385952 0.5649562478 4294634166
-0.2936991453 -0.0873864442 0.5641528368 4294239925
-0.2937380373 -0.0867711157 0.5642275810 4294305718
-0.2933190763 -0.0860213488 0.5634227991 4294240178
-0.2933574021 -0.0854065046 0.5634963512 4293648041
-0.2933954298 -0.0847914144 0.5635694265 4293714086
-0.2934332192 -0.0841760859 0.5636420250 4293648293
-0.2939285636 -0.0836908817 0.5645934939 4293450142
-0.2939658761 -0.0830741152 0.5646651983 4293450142
-0.2940029204 -0.0824571252 0.5647363067 4293647521
-0.2940396965 -0.0818398967 0.5648069382 4293779107
-0.2945342660 -0.0813489482 0.5657569170 4293845155
-0.2945705354 -0.0807303041 0.5658266544 4293845155
-0.2946065664 -0.0801114216 0.5658958554 4293845153
-0.2946423292 -0.0794923231 0.5659645200 4293845153
-0.2946778238 -0.0788729936 0.5660327077 4293910944
-0.2951713800 -0.0783751383 0.5669807792 4293910944
-0.2956647873 -0.0778751448 0.5679284930 4293911198
-0.2961580157 -0.0773729905 0.5688759685 4293911198
-0.2971096039 -0.0769875050 0.5707038045 4293976989
-0.2980611026 -0.0765979365 0.5725315213 4293976989
-0.2985539436 -0.0760874227 0.5734782219 4293780380
-0.2995052934 -0.0756906644 0.5753055811 4293714587
-0.3004565537 -0.0752898306 0.5771328211 4293713565
-0.3018665314 -0.0749989003 0.5798411369 4293845151
-0.3046529591 -0.0750410035 0.5851935148 4293779360
-0.3033099473 -0.0740628690 0.5826137662 4293713567
-0.3116035461 -0.0754229948 0.5985445380 4293518249
-0.3088835180 -0.0741053969 0.5933197737 4294044593
-0.3327246606 -0.2443802804 0.6404815316 4289110655
-0.3323874474 -0.2434217036 0.6398323774 4288452725
-0.3320497572 -0.2424642146 0.6391823292 4289435480
-0.3317115903 -0.2415078431 0.6385314465 4289632859
-0.3304986656 -0.2399178892 0.6361965537 4288910676
-0.3297220170 -0.2386489064 0.6347015500 4289042262
-0.3236955702 -0.2335947156 0.6231008768 4289043034
-0.2721595168 -0.1958216727 0.5238960385 4288779862
-0.2679414153 -0.1916405708 0.5157763958 4289700196
-0.2658301890 -0.1895620078 0.5117123723 4289107544
-0.2650317252 -0.1884257942 0.5101753473 4288975958
-0.2642326057 -0.1872925013 0.5086370707 4289239643
-0.2634327710 -0.1861621588 0.5070974231 4289502815
-0.2635091841 -0.1856525838 0.5072445273 4289370716
-0.2631468773 -0.1848344952 0.5065470934 4289107544
-0.2632228136 -0.1843248755 0.5066933036 4289238101
-0.2628597915 -0.1835084558 0.5059944391 4288909136
-0.2624963224 -0.1826932877 0.5052947998 4288974418
-0.2630106211 -0.1824887097 0.5062847733 4288974418
-0.2626465559 -0.1816743761 0.5055840015 4288645707
-0.2622821033 -0.1808613241 0.5048824549 4288448328
-0.2623566687 -0.1803516299 0.5050259829 4288776521
-0.2624310851 -0.1798415035 0.5051692128 4288776521
-0.2620656192 -0.1790305525 0.5044656992 4288710981
-0.2616997361 -0.1782208830 0.5037614107 4288710981
-0.2622133493 -0.1780098379 0.5047500730 4288315962
-0.2618468702 -0.1772010177 0.5040446520 4288381755
-0.2610397935 -0.1760965288 0.5024910569 4288645180
-0.2606723607 -0.1752911508 0.5017837286 4288710973
-0.2607449591 -0.1747823060 0.5019235015 4288579385
-0.2603768408 -0.1739786416 0.5012148619 4288908350
-0.2600082755 -0.1731762886 0.5005053878 4288775994
-0.2605209351 -0.1729605496 0.5014922619 4288644408
-0.2597108483 -0.1718672812 0.4999329150 4288644410
-0.2593411803 -0.1710679680 0.4992212951 4288841789
-0.2598534524 -0.1708501130 0.5002073646 4288513076
-0.2594831884 -0.1700516939 0.4994946420 4288513076
-0.2595539391 -0.1695429236 0.4996308088 4288908085
-0.2596245110 -0.1690337360 0.4997666478 4288973878
-0.2592532337 -0.1682375371 0.4990519881 4288118567
-0.2588815689 -0.1674426645 0.4983365238 4287723809
-0.2589513659 -0.1669339687 0.4984709024 4288184360
-0.2590209842 -0.1664248705 0.4986049235 4288315946
-0.2590904534 -0.1659153700 0.4987386465 4288513066
-0.2587174773 -0.1651231945 0.4980206788 4288644652
-0.2583440840 -0.1643323451 0.4973019361 4288381477
-0.2579703033 -0.1635428369 0.4965823889 4288578856
-0.2580386996 -0.1630343050 0.4967140555 4289105454
-0.2576642036 -0.1622466147 0.4959931374 4289566005
-0.2577321231 -0.1617381573 0.4961239100 4288908075
-0.2577998638 -0.1612292975 0.4962543249 4288447524
-0.2574243546 -0.1604438871 0.4955314994 4289237038
-0.2574916482 -0.1599351019 0.4956609905 4289894968
-0.2575587332 -0.1594259143 0.4957901537 4289500210
-0.2576256692 -0.1589163393 0.4959189594 4289302831
-0.2572488487 -0.1581337154 0.4951936603 4289631796
-0.2573153079 -0.1576242149 0.4953215420 4289631796
-0.2569378018 -0.1568434387 0.4945948720 4288777000
-0.2570037842 -0.1563340425 0.4947218597 4289171758
-0.2570695579 -0.1558242440 0.4948485196 4289434928
-0.2571351528 -0.1553140581 0.4949747920 4288711205
-0.2572005987 -0.1548034847 0.4951007366 4288908584
-0.2568215132 -0.1540260464 0.4943709970 4289303342
-0.2568864524 -0.1535155773 0.4944960177 4289369135
-0.2569512129 -0.1530047208 0.4946206808 4289698100
-0.2570157945 -0.1524934769 0.4947450161 4289435446
-0.2570801973 -0.1519818455 0.4948689640 4288974895
-0.2566995025 -0.1512077749 0.4941361845 4288777765
-0.2567634284 -0.1506962627 0.4942592084 4289501488
-0.2563820481 -0.1499240994 0.4935250878 4290028084
-0.2564454973 -0.1494127065 0.4936471879 4289764912
-0.2565087378 -0.1489009559 0.4937689602 4289370162
-0.2565717995 -0.1483888030 0.4938903451 4289764920
-0.2561891377 -0.1476195604 0.4931537211 4290028361
-0.2562517226 -0.1471075565 0.4932741821 4290488912
-0.2563140988 -0.1465951800 0.4933942854 4290620758
-0.2563763261 -0.1460824311 0.4935140312 4290620758
-0.2564383447 -0.1455693096 0.4936334193 4290489934
-0.2565001547 -0.1450558156 0.4937524498 4291016278
-0.2565618157 -0.1445419490 0.4938710928 4291016782
-0.2561769485 -0.1437772214 0.4931302965 4291345747
-0.2562381029 -0.1432635188 0.4932480156 4290291515
-0.2562990785 -0.1427494437 0.4933653474 4289370413
-0.2563598454 -0.1422349960 0.4934823513 4289962804
-0.2564204335 -0.1417201757 0.4935989678 4289962804
-0.2560340166 -0.1409590095 0.4928551018 4290160436
-0.2560940981 -0.1404443681 0.4929707944 4291081538
-0.2561540008 -0.1399293691 0.4930860996 4290950202
-0.2562137246 -0.1394139975 0.4932010472 4291213374
-0.2562732399 -0.1388982832 0.4933156073 4291344959
-0.2563325763 -0.1383821964 0.4934298098 4291739717
-0.2563917041 -0.1378657669 0.4935436547 4291871303
-0.2560030818 -0.1371092647 0.4927955568 4291081787
-0.2560617328 -0.1365930140 0.4929084480 4290160172
-0.2561201751 -0.1360764056 0.4930209517 4290094379
-0.2561784089 -0.1355594546 0.4931330979 4290883896
-0.2562364638 -0.1350421458 0.4932448566 4291541826
-0.2562943399 -0.1345244795 0.4933562279 4292002890
-0.2563520074 -0.1340064704 0.4934672415 4291937097
-0.2564094663 -0.1334881186 0.4935778677 4292331855
-0.2564667463 -0.1329694092 0.4936881065 4292529234
-0.2565238178 -0.1324503571 0.4937979579 4292792152
-0.2565806806 -0.1319309473 0.4939074516 4292660566
-0.2566373646 -0.1314112097 0.4940165579 4291936843
-0.2566938400 -0.1308911145 0.4941252768 4291871050
-0.2567501366 -0.1303706914 0.4942336082 4291542087
-0.2568061948 -0.1298499107 0.4943415523 4291739466
-0.2568620741 -0.1293288022 0.4944491088 4292397396
-0.2569177747 -0.1288073510 0.4945563078 4292989533
-0.2569732368 -0.1282855570 0.4946630895 4292923742
-0.2570285201 -0.1277634203 0.4947694838 4292594777
-0.2570835948 -0.1272409558 0.4948755205 4292463705
-0.2571384609 -0.1267181635 0.4949811399 4292990049
-0.2571931183 -0.1261950284 0.4950863719 4293251939
-0.2572475970 -0.1256715506 0.4951912165 4293120353
-0.2573018670 -0.1251477599 0.4952956736 4292725599
-0.2573559284 -0.1246236190 0.4953997135 4292988771
-0.2574097812 -0.1240991578 0.4955033958 4293185645
-0.2579135299 -0.1237904057 0.4964731038 4292988266
-0.2579670548 -0.1232643723 0.4965761602 4292922737
-0.2580204010 -0.1227380112 0.4966788292 4292659565
-0.2580735087 -0.1222113222 0.4967810810 4292922486
-0.2585769296 -0.1218966767 0.4977501035 4293251451
-0.2586297393 -0.1213684157 0.4978517592 4293448580
-0.2586823106 -0.1208398342 0.4979529977 4293448580
-0.2587347031 -0.1203109324 0.4980538487 4293579912
-0.2592377365 -0.1199903935 0.4990221560 4293843084
-0.2592898011 -0.1194599271 0.4991223514 4294040464
-0.2588905990 -0.1187223122 0.4983539581 4294106257
-0.2589421570 -0.1181921288 0.4984531701 4293712027
-0.2589935064 -0.1176616400 0.4985520244 4293909406
-0.2590446174 -0.1171308309 0.4986504316 4294436010
-0.2604497075 -0.1172091141 0.5013551116 4294896561
-0.2595977187 -0.1162704825 0.4997151196 4294962356
-0.2619569302 -0.1162066087 0.5042564869 4294830516
-0.2615557611 -0.1154692471 0.5034843087 4294830516
-0.2634133697 -0.1157259345 0.5070600510 4294764723
-0.2625599504 -0.1147894561 0.5054172873 4294698930
-0.2639659643 -0.1148395985 0.5081238151 4294370735
-0.2649202049 -0.1146881357 0.5099607110 4294239149
-0.2636137307 -0.1135587320 0.5074457526 4294304942
-0.2668290436 -0.1143731326 0.5136350989 4294568114
-0.2682359815 -0.1144025028 0.5163434148 4294633905
-0.2696431875 -0.1144259721 0.5190522671 4294502319
-0.2678831518 -0.1131061465 0.5156642199 4294633905
-0.2724584639 -0.1144552156 0.5244715214 4294699698
-0.2817156017 -0.1159338802 0.5422911048 4294239400
-0.2804073393 -0.1147957668 0.5397728086 4294173608
-0.2836291790 -0.1155081391 0.5459746718 4294042022
-0.2863987386 -0.1160235032 0.5513060093 4294502573
-0.2873560786 -0.1157967448 0.5531488061 4294436780
-0.2883134782 -0.1155659109 0.5549917817 4294567849
-0.2892709374 -0.1153310165 0.5568348765 4294831021
-0.2902284861 -0.1150920615 0.5586780906 4294173089
-0.2871040702 -0.1132389978 0.5526637435 4294436261
-0.2907828987 -0.1140680686 0.5597453117 4294436009
-0.2912866771 -0.1136427075 0.5607150793 4293975458
-0.2917903960 -0.1132151484 0.5616846681 4293909919
-0.2922939956 -0.1127854064 0.5626541376 4293975712
-0.2927975059 -0.1123534665 0.5636233687 4293975961
-0.2928469181 -0.1117460877 0.5637184381 4293975961
-0.2928960621 -0.1111384034 0.5638130307 4293975961
-0.2933991253 -0.1107017770 0.5647814274 4294041754
-0.2934478223 -0.1100925431 0.5648751855 4294107548
-0.2934962809 -0.1094830036 0.5649684668 4293910169
-0.2935445011 -0.1088731587 0.5650612712 4294041754
-0.2935924530 -0.1082630157 0.5651535988 4293712789
-0.2936401665 -0.1076525822 0.5652453899 4293844624
-0.2936876118 -0.1070418432 0.5653367639 4294239382
-0.2941894829 -0.1065955684 0.5663028359 4293713038
-0.2942364812 -0.1059832945 0.5663933754 4293581452
-0.2947380841 -0.1055335924 0.5673589110 4293910420
-0.2947846651 -0.1049197912 0.5674485564 4293778834
-0.2948309779 -0.1043056995 0.5675376654 4294107545
-0.2948770225 -0.1036913171 0.5676263571 4293844373
-0.2944676876 -0.1029175818 0.5668383837 4293646994
-0.2940579653 -0.1021454558 0.5660496950 4293910166
-0.2941030860 -0.1015321165 0.5661365390 4293778580
-0.2932372987 -0.1006060541 0.5644699335 4293712787
-0.2941925824 -0.1003045961 0.5663088560 4293646994
-0.2942369580 -0.0996904150 0.5663942099 4293646994
-0.2942810655 -0.0990759581 0.5664791465 4293712787
-0.2943249047 -0.0984612331 0.5665635467 4293515408
-0.2939127982 -0.0976947621 0.5657702684 4292989832
-0.2939560711 -0.0970804319 0.5658535361 4293318797
-0.2939990461 -0.0964658409 0.5659363270 4293318797
-0.2940417826 -0.0958509743 0.5660185814 4293713555
-0.2940842807 -0.0952358395 0.5661002994 4293976213
-0.2936704755 -0.0944737419 0.5653038025 4293318283
-0.2937123477 -0.0938590392 0.5653843880 4293845143
-0.2932978570 -0.0930992737 0.5645864606 4293647764
-0.2933391333 -0.0924850032 0.5646659732 4293187726
-0.2933801711 -0.0918704644 0.5647449493 4293977242
-0.2929646075 -0.0911137536 0.5639450550 4293384852
-0.2925486863 -0.0903586969 0.5631443858 4293253266
-0.2925888002 -0.0897453129 0.5632215738 4293845153
-0.2926286459 -0.0891316757 0.5632983446 4293384602
-0.2926682532 -0.0885177851 0.5633745790 4293844904
-0.2927075922 -0.0879036486 0.5634502769 4294371248
-0.2922899723 -0.0871530920 0.5626463294 4294042800
-0.2918719351 -0.0864042044 0.5618416667 4293911214
-0.2919103801 -0.0857912451 0.5619156361 4294174385
-0.2919485271 -0.0851780549 0.5619891286 4293648041
-0.2919864357 -0.0845646188 0.5620620847 4293582498
-0.2920240462 -0.0839509442 0.5621345043 4293582498
-0.2920614183 -0.0833370388 0.5622064471 4293581983
-0.2920985222 -0.0827228948 0.5622778535 4293516190
-0.2921353579 -0.0821085125 0.5623487830 4293647776
-0.2921719253 -0.0814939067 0.5624191761 4293845155
-0.2926655412 -0.0810056403 0.5633693337 4293845153
-0.2927016318 -0.0803896114 0.5634387732 4293845153
-0.2927374542 -0.0797733516 0.5635077357 4293910944
-0.2927730083 -0.0791568682 0.5635762215 4293845151
-0.2928083241 -0.0785401613 0.5636441708 4293845405
-0.2933008969 -0.0780449882 0.5645923615 4293911198
-0.2937933505 -0.0775476694 0.5655403137 4293976991
-0.2942856252 -0.0770481974 0.5664879084 4293976991
-0.2956931889 -0.0767842978 0.5691974163 4294042782
-0.2961852551 -0.0762786046 0.5701445937 4293976989
-0.2971349657 -0.0758876875 0.5719727874 4293780380
-0.2976267338 -0.0753767267 0.5729194283 4293780380
-0.2985762656 -0.0749786273 0.5747472644 4293844894
-0.2999837399 -0.0746904686 0.5774565935 4293844894
-0.3013912439 -0.0743963048 0.5801659226 4293778849
-0.3069215715 -0.0751049966 0.5908116102 4293713056
-0.3028318584 -0.0734565407 0.5829390883 4293518500
-0.3079048097 -0.0740285292 0.5927042961 4294110637
-0.3310777843 -0.2451109290 0.6386768818 4290952867
-0.3307416439 -0.2441531569 0.6380283833 4289308042
-0.3308409154 -0.2435173392 0.6382198930 4289043555
-0.3300679326 -0.2422409356 0.6367287636 4288583004
-0.3292942345 -0.2409673184 0.6352362037 4288909388
-0.3280835450 -0.2393781692 0.6329007149 4289172560
-0.3264354467 -0.2374760211 0.6297214031 4288712786
-0.2693454921 -0.1953667849 0.5195900798 4288975958
-0.3235722482 -0.2340060323 0.6241980195 4288910680
-0.2743095458 -0.1977915168 0.5291661024 4288976473
-0.2673995197 -0.1922358871 0.5158360600 4289239130
-0.2661669254 -0.1907792687 0.5134583116 4289699681
-0.2666821182 -0.1905769706 0.5144522190 4289239132
-0.2654481828 -0.1891262084 0.5120717883 4289502304
-0.2650881708 -0.1883015484 0.5113773346 4289437024
-0.2647277713 -0.1874781251 0.5106820464 4289173852
-0.2639292181 -0.1863469183 0.5091416240 4289304405
-0.2631300092 -0.1852186471 0.5075998902 4289304405
-0.2632060349 -0.1847080141 0.5077465177 4289368652
-0.2628438175 -0.1838904619 0.5070477724 4288973894
-0.2629193664 -0.1833797842 0.5071935058 4288907850
-0.2629947662 -0.1828686744 0.5073389411 4288776264
-0.2626315355 -0.1820532084 0.5066382289 4288776775
-0.2627064586 -0.1815420687 0.5067827702 4288776775
-0.2623425126 -0.1807282865 0.5060807467 4288710468
-0.2624169886 -0.1802171320 0.5062243938 4288776261
-0.2620523274 -0.1794050336 0.5055209398 4288842054
-0.2616872489 -0.1785942167 0.5048167109 4288907847
-0.2622001767 -0.1783822775 0.5058061481 4288842306
-0.2618345022 -0.1775723100 0.5051007271 4288776513
-0.2610290051 -0.1764665395 0.5035468340 4288710973
-0.2611019611 -0.1759562343 0.5036875606 4288776766
-0.2607350349 -0.1751501262 0.5029798150 4288842557
-0.2603677213 -0.1743453145 0.5022711754 4289303108
-0.2604399323 -0.1738354415 0.5024104714 4288974143
-0.2600719035 -0.1730323732 0.5017005205 4288908350
-0.2601436377 -0.1725225151 0.5018388629 4289302341
-0.2597748935 -0.1717211902 0.5011275411 4289170755
-0.2594057322 -0.1709211767 0.5004154444 4288907580
-0.2594767213 -0.1704117805 0.5005523562 4288578615
-0.2595475018 -0.1699019819 0.5006889105 4288907832
-0.2596181333 -0.1693917662 0.5008251667 4289302590
-0.2592476904 -0.1685944051 0.5001105666 4289171257
-0.2593178451 -0.1680842191 0.5002458692 4288052776
-0.2589466870 -0.1672886312 0.4995298982 4287723807
-0.2590163946 -0.1667784899 0.4996643364 4287789600
-0.2590858936 -0.1662679315 0.4997984469 4287855393
-0.2587137520 -0.1654745936 0.4990805089 4288052772
-0.2583411634 -0.1646825820 0.4983617961 4288118565
-0.2579681873 -0.1638918966 0.4976423085 4289237046
-0.2580366433 -0.1633823216 0.4977743626 4289895230
-0.2576629519 -0.1625934541 0.4970534742 4289961023
-0.2572888732 -0.1618059278 0.4963318110 4288710443
-0.2573565543 -0.1612968892 0.4964624047 4287920927
-0.2574240565 -0.1607874632 0.4965926409 4288184098
-0.2574914098 -0.1602776200 0.4967225194 4288578856
-0.2571160197 -0.1594928652 0.4959983528 4288447524
-0.2571828663 -0.1589831114 0.4961273372 4288776489
-0.2572495639 -0.1584729552 0.4962559640 4289171247
-0.2568731606 -0.1576905102 0.4955298901 4289039661
-0.2569393814 -0.1571804434 0.4956576228 4288908075
-0.2565622926 -0.1563998610 0.4949301779 4289434419
-0.2566280067 -0.1558898836 0.4950569570 4289237551
-0.2566935718 -0.1553795189 0.4951834083 4288053277
-0.2567589283 -0.1548687667 0.4953095317 4287526931
-0.2568241060 -0.1543576121 0.4954352677 4287526931
-0.2564454377 -0.1535803676 0.4947047532 4288119068
-0.2565101385 -0.1530693322 0.4948295951 4288513826
-0.2565746605 -0.1525579095 0.4949540496 4288974128
-0.2566390038 -0.1520460993 0.4950781763 4288513577
-0.2562590539 -0.1512717307 0.4943451881 4288843560
-0.2567671239 -0.1510213166 0.4953253567 4289830455
-0.2563865781 -0.1502479613 0.4945912063 4290159670
-0.2560056150 -0.1494760066 0.4938563108 4289764912
-0.2560687959 -0.1489640623 0.4939782023 4289567541
-0.2561318278 -0.1484517306 0.4940997660 4289633334
-0.2557498515 -0.1476821899 0.4933629334 4289632836
-0.2562572658 -0.1474259496 0.4943417907 4290159180
-0.2558747232 -0.1466574371 0.4936038256 4290093905
-0.2559368610 -0.1461444944 0.4937237203 4289764940
-0.2559988499 -0.1456311792 0.4938432574 4289699905
-0.2560606301 -0.1451174915 0.4939624071 4290292042
-0.2561222017 -0.1446034461 0.4940812290 4290687556
-0.2561835945 -0.1440890133 0.4941996634 4290753349
-0.2557991743 -0.1433245242 0.4934580624 4291146824
-0.2558600903 -0.1428102553 0.4935755730 4290159929
-0.2559207976 -0.1422956288 0.4936927259 4289962804
-0.2559813261 -0.1417806298 0.4938094914 4289633839
-0.2560416758 -0.1412652582 0.4939258993 4290094643
-0.2556556463 -0.1405043155 0.4931812286 4290620987
-0.2557155192 -0.1399891227 0.4932966828 4290292272
-0.2557751834 -0.1394735724 0.4934117794 4290884409
-0.2562811375 -0.1392001659 0.4943878055 4291213373
-0.2558939159 -0.1384413838 0.4936408401 4291476545
-0.2559530139 -0.1379247457 0.4937548339 4291937096
-0.2560119033 -0.1374077648 0.4938684106 4291542338
-0.2556236982 -0.1366515160 0.4931195378 4290554931
-0.2556820810 -0.1361347139 0.4932322204 4289962794
-0.2557402849 -0.1356175691 0.4933444858 4290160173
-0.2557983100 -0.1351000518 0.4934563935 4290883896
-0.2558560967 -0.1345822066 0.4935679138 4291213120
-0.2559137344 -0.1340639889 0.4936790466 4291147327
-0.2559711337 -0.1335454434 0.4937898219 4291476292
-0.2560283542 -0.1330265403 0.4939002097 4291805257
-0.2560853958 -0.1325072795 0.4940102100 4292068429
-0.2561422288 -0.1319876909 0.4941198230 4291871050
-0.2561988533 -0.1314677447 0.4942290783 4291278915
-0.2562552691 -0.1309474558 0.4943379462 4291015743
-0.2563115060 -0.1304268241 0.4944463968 4290884157
-0.2563675344 -0.1299058497 0.4945544899 4291278915
-0.2564233840 -0.1293845326 0.4946621954 4292134224
-0.2564789951 -0.1288628876 0.4947695136 4292594775
-0.2565344274 -0.1283408850 0.4948764443 4292594777
-0.2565896511 -0.1278185546 0.4949829876 4292989535
-0.2566446960 -0.1272958815 0.4950891435 4293384293
-0.2566995025 -0.1267728806 0.4951949120 4293384293
-0.2567541301 -0.1262495518 0.4953002632 4293251941
-0.2568085492 -0.1257258803 0.4954052567 4292791390
-0.2568627596 -0.1252018660 0.4955098331 4292330841
-0.2569167912 -0.1246775314 0.4956140518 4292265048
-0.2569705844 -0.1241528690 0.4957178533 4292659555
-0.2570241988 -0.1236278713 0.4958212376 4292988520
-0.2570776045 -0.1231025532 0.4959242642 4292791149
-0.2571308017 -0.1225768998 0.4960268736 4292725356
-0.2571837902 -0.1220509261 0.4961290956 4292922485
-0.2576862872 -0.1217370853 0.4970984459 4293119864
-0.2577389479 -0.1212095395 0.4972000420 4293448578
-0.2577914000 -0.1206816733 0.4973012507 4293580164
-0.2578436434 -0.1201534867 0.4974020422 4293579912
-0.2578957081 -0.1196249723 0.4975024462 4293711498
-0.2583976984 -0.1193039939 0.4984708428 4293975187
