VERSION 0.7
FIELDS x y z rgba
SIZE 4 4 4 4
TYPE F F F U
COUNT 1 1 1 1
WIDTH 920
HEIGHT 1
VIEWPOINT 0.0 0.0 0.0 1.0 0.0 0.0 0.0
POINTS 920
DATA ascii
-0.2651055455 -0.0802394822 0.5580409169 4287524629
-0.2655649781 -0.0797574446 0.5590080619 4287261457
-0.2660242915 -0.0792732164 0.5599748492 4287392791
-0.2669091225 -0.0789126456 0.5618374348 4287721756
-0.2673681974 -0.0784230605 0.5628037453 4287195925
-0.2678271234 -0.0779312775 0.5637697577 4287195925
-0.2682859004 -0.0774373040 0.5647354722 4287195925
-0.2683185935 -0.0768192112 0.5648043156 4286801167
-0.2687770128 -0.0763218477 0.5657693148 4286406155
-0.2692352831 -0.0758222938 0.5667338967 4285879811
-0.2692673504 -0.0752015635 0.5668013692 4285156096
-0.2692991495 -0.0745806098 0.5668683052 4284761344
-0.2697568238 -0.0740764663 0.5678317547 4284564480
-0.2702143788 -0.0735701397 0.5687949061 4285025024
-0.2706717551 -0.0730616227 0.5697576404 4285420032
-0.2707026601 -0.0724368542 0.5698227286 4285946375
-0.2707333267 -0.0718118772 0.5698872805 4286736144
-0.2707637250 -0.0711866841 0.5699512959 4287525660
-0.2707938850 -0.0705612823 0.5700147152 4288446758
-0.2708237469 -0.0699356720 0.5700775981 4289104688
-0.2708533704 -0.0693098530 0.5701400042 4290026043
-0.2708827555 -0.0686838329 0.5702017546 4290683973
-0.2709118426 -0.0680576041 0.5702630281 4290815557
-0.2709406912 -0.0674311817 0.5703237653 4291144522
-0.2709692717 -0.0668045580 0.5703839064 4291539282
-0.2718511224 -0.0663861707 0.5722401738 4291934040
-0.2718792558 -0.0657571778 0.5722994208 4291934040
-0.2719071507 -0.0651279911 0.5723581314 4292131419
-0.2719347775 -0.0644986108 0.5724163055 4291802714
-0.2723890841 -0.0639693066 0.5733726025 4291934300
-0.2724162042 -0.0633385554 0.5734297037 4292131679
-0.2728701234 -0.0628059134 0.5743851662 4292460644
-0.2728967667 -0.0621737987 0.5744412541 4292592743
-0.2733502686 -0.0616378151 0.5753958821 4292461157
-0.2738035917 -0.0610996671 0.5763500929 4292527719
-0.2738295197 -0.0604650266 0.5764046907 4292988270
-0.2742824256 -0.0599235483 0.5773580670 4293054063
-0.2747351527 -0.0593799129 0.5783110261 4293317235
-0.2747603655 -0.0587427579 0.5783640742 4293317492
-0.2747853100 -0.0581054315 0.5784166455 4293251699
-0.2752373815 -0.0575573035 0.5793682337 4293318262
-0.2752618492 -0.0569186434 0.5794196725 4293384055
-0.2757135034 -0.0563671999 0.5803704262 4293252469
-0.2761649489 -0.0558136068 0.5813207030 4293252469
-0.2766162157 -0.0552578643 0.5822705626 4293383285
-0.2766396999 -0.0546155572 0.5823200345 4293185906
-0.2770905197 -0.0540565066 0.5832690001 4293712250
-0.2771134973 -0.0534128845 0.5833173990 4294172801
-0.2775638998 -0.0528505333 0.5842654705 4293713021
-0.2775863707 -0.0522055998 0.5843127370 4293713021
-0.2780362964 -0.0516399555 0.5852598548 4293976193
-0.2784860432 -0.0510721691 0.5862065554 4293910400
-0.2789355814 -0.0505022407 0.5871528387 4294107779
-0.2793849111 -0.0499301739 0.5880986452 4294436744
-0.2798340321 -0.0493559688 0.5890440345 4294897041
-0.2798550427 -0.0487051532 0.5890882611 4294765455
-0.2803036869 -0.0481276698 0.5900326967 4294107525
-0.2807521522 -0.0475480482 0.5909766555 4293515388
-0.2812003791 -0.0469662957 0.5919201970 4293252216
-0.2820764482 -0.0464529023 0.5937642455 4293186423
-0.2829523385 -0.0459353849 0.5956079960 4292857712
-0.2833999991 -0.0453452468 0.5965502858 4293120884
-0.2838474214 -0.0447529778 0.5974920988 4293121656
-0.2847227752 -0.0442250893 0.5993347168 4293253242
-0.2851697803 -0.0436275713 0.6002756357 4293384590
-0.2860447466 -0.0430924371 0.6021174788 4293647762
-0.2864913344 -0.0424896739 0.6030575037 4293648024
-0.2873659432 -0.0419473015 0.6048985124 4293450645
-0.2882403731 -0.0414008163 0.6067392230 4293188763
-0.2886863053 -0.0407896936 0.6076778769 4293320349
-0.2895603478 -0.0402359739 0.6095177531 4293650629
-0.2917193174 -0.0398537032 0.6140623093 4294571731
-0.2710292339 -0.2569494843 0.5718470812 4290890188
-0.2711240351 -0.2564037442 0.5720471144 4290954181
-0.2712186873 -0.2558574677 0.5722467899 4290756802
-0.2705187201 -0.2545629740 0.5707699060 4290558915
-0.2710101902 -0.2543901503 0.5718069077 4290229950
-0.2711042762 -0.2538429201 0.5720054507 4289703853
-0.2711982429 -0.2532951534 0.5722036958 4289243302
-0.2712920904 -0.2527468204 0.5724016428 4288586150
-0.2713857591 -0.2521978915 0.5725993514 4288257185
-0.2714793086 -0.2516483963 0.5727967024 4287730065
-0.2711745203 -0.2507301569 0.5721536279 4287664272
-0.2712676525 -0.2501803637 0.5723500848 4289767795
-0.2713606358 -0.2496299744 0.5725463033 4290688897
-0.2710548639 -0.2487132847 0.5719012022 4291081311
-0.2707487047 -0.2477976382 0.5712551475 4290949725
-0.2684476972 -0.2450623810 0.5664002895 4291476056
-0.2637508214 -0.2401563525 0.5564903021 4291541849
-0.2658361495 -0.2414319515 0.5608901381 4291608157
-0.2619333565 -0.2372734100 0.5526556373 4291805536
-0.2568294704 -0.2320479453 0.5418868661 4291936609
-0.2557175159 -0.2304438055 0.5395407081 4291673437
-0.2542048991 -0.2284847945 0.5363492966 4291278677
-0.2530909181 -0.2268902063 0.5339989066 4291015505
-0.2523759604 -0.2256576270 0.5324903727 4291146575
-0.2524605095 -0.2251413912 0.5326687694 4291146575
-0.2525449395 -0.2246246487 0.5328469276 4291672921
-0.2526292205 -0.2241073847 0.5330247283 4291870300
-0.2523128688 -0.2232352495 0.5323572755 4291343956
-0.2523967326 -0.2227177769 0.5325341821 4291080784
-0.2520796955 -0.2218470871 0.5318652987 4291343695
-0.2521631718 -0.2213293910 0.5320413709 4291409488
-0.2522464693 -0.2208112031 0.5322172046 4291411028
-0.2523296475 -0.2202924788 0.5323926806 4291213649
-0.2524127066 -0.2197732627 0.5325678587 4291410517
-0.2524955869 -0.2192535102 0.5327427983 4291344724
-0.2525783479 -0.2187332660 0.5329173803 4291015759
-0.2526609600 -0.2182125002 0.5330916643 4291081552
-0.2523415983 -0.2173451334 0.5324178934 4291213136
-0.2524237931 -0.2168241888 0.5325912833 4291147343
-0.2529079318 -0.2166471630 0.5336127877 4291278159
-0.2529899478 -0.2161243558 0.5337858796 4291343952
-0.2530718446 -0.2156010419 0.5339586139 4291541333
-0.2531535923 -0.2150772214 0.5341311097 4291409747
-0.2536377907 -0.2148940116 0.5351527333 4291343954
-0.2537193596 -0.2143683434 0.5353248715 4291409747
-0.2542036772 -0.2141816020 0.5363466740 4291409234
-0.2542850673 -0.2136540860 0.5365184546 4291146062
-0.2543663383 -0.2131260633 0.5366898775 4291408718
-0.2540442050 -0.2122606188 0.5360102057 4291408718
-0.2541250587 -0.2117324173 0.5361807942 4291014730
-0.2542057335 -0.2112037241 0.5363510251 4290685765
-0.2542862594 -0.2106745243 0.5365209579 4290882890
-0.2543666661 -0.2101448178 0.5366905332 4290948683
-0.2544468939 -0.2096146196 0.5368598700 4290488136
-0.2549309731 -0.2094157934 0.5378812551 4290224964
-0.2550110221 -0.2088837326 0.5380501151 4290027330
-0.2546866834 -0.2080210000 0.5373657942 4290027330
-0.2551706731 -0.2078181356 0.5383870006 4290224713
-0.2552502751 -0.2072845846 0.5385549068 4290158920
-0.2545204163 -0.2060952187 0.5370150208 4289632576
-0.2545994520 -0.2055623680 0.5371817350 4289500990
-0.2542734444 -0.2047030628 0.5364938974 4289369404
-0.2543520331 -0.2041700631 0.5366597176 4288777267
-0.2544304729 -0.2036365718 0.5368251801 4289303609
-0.2536982000 -0.2024557590 0.5352801681 4290027332
-0.2537760735 -0.2019229978 0.5354444981 4290158402
-0.2534482777 -0.2010680139 0.5347528458 4289961023
-0.2531200647 -0.2002142668 0.5340603590 4289237816
-0.2527914643 -0.1993617266 0.5333670378 4289237816
-0.2524624467 -0.1985104084 0.5326728225 4290356556
-0.2529450357 -0.1982969046 0.5336910486 4290488142
-0.2522093058 -0.1971288919 0.5321387649 4289106491
-0.2518792152 -0.1962804049 0.5314422846 4289896007
-0.2511422932 -0.1951174289 0.5298874974 4289830212
-0.2512177527 -0.1945871264 0.5300467014 4289698626
-0.2512930632 -0.1940563619 0.5302055478 4290159177
-0.2509614527 -0.1932119578 0.5295059085 4290488142
-0.2510363162 -0.1926810890 0.5296638012 4290882903
-0.2507040203 -0.1918383241 0.5289627314 4291606626
-0.2507784367 -0.1913073808 0.5291197300 4291672933
-0.2504454553 -0.1904662549 0.5284171700 4291936105
-0.2505193949 -0.1899352223 0.5285732150 4291409763
-0.2501857281 -0.1890957505 0.5278692245 4291212384
-0.2498516738 -0.1882575303 0.5271643400 4291672933
-0.2495172024 -0.1874205768 0.5264586210 4291409761
-0.2491823137 -0.1865848899 0.5257520676 4290620500
-0.2492549866 -0.1860549897 0.5259054303 4290357328
-0.2489194274 -0.1852209717 0.5251973867 4290882902
-0.2489916533 -0.1846910119 0.5253497958 4291211867
-0.2490637004 -0.1841605902 0.5255017877 4291277660
-0.2487271726 -0.1833286732 0.5247917771 4291804004
-0.2487987727 -0.1827982068 0.5249428153 4292067176
-0.2484615594 -0.1819679886 0.5242313743 4291409246
-0.2489414811 -0.1817358881 0.5252439380 4291277658
-0.2486037016 -0.1809065044 0.5245312452 4291869795
-0.2482655197 -0.1800784171 0.5238177180 4292200041
-0.2483360469 -0.1795474142 0.5239665508 4292463213
-0.2484064251 -0.1790159643 0.5241150260 4292792176
-0.2476579100 -0.1778959632 0.5225357413 4293186934
-0.2477277070 -0.1773653626 0.5226829648 4293318773
-0.2477973402 -0.1768343151 0.5228298903 4293055601
-0.2478667945 -0.1763028204 0.5229764581 4292857963
-0.2475262731 -0.1754803509 0.5222579837 4292792170
-0.2475952804 -0.1749488413 0.5224035382 4293186674
-0.2476641089 -0.1744168848 0.5225487947 4293252467
-0.2477327734 -0.1738844812 0.5226936340 4293318773
-0.2478012592 -0.1733516455 0.5228381753 4292858222
-0.2478695661 -0.1728183627 0.5229822993 4292462954
-0.2479377091 -0.1722846478 0.5231260657 4292199782
-0.2484162897 -0.1720348448 0.5241358280 4291935588
-0.2484841943 -0.1714993566 0.5242791176 4291672416
-0.2489627600 -0.1712460220 0.5252888203 4291475040
-0.2490304261 -0.1707087755 0.5254315734 4290817110
-0.2499200255 -0.1707327068 0.5273085833 4290356558
-0.2495764047 -0.1699128896 0.5265835524 4289961800
-0.2504661977 -0.1699315012 0.5284609199 4289304120
-0.2505334914 -0.1693898439 0.5286028981 4288646190
-0.2510120869 -0.1691250056 0.5296127200 4288514344
-0.2510791421 -0.1685815901 0.5297542214 4288382758
-0.2511460185 -0.1680377275 0.5298953056 4287922209
-0.2516245246 -0.1677680165 0.5309048891 4287330072
-0.2512792051 -0.1669487059 0.5301762819 4286277133
-0.2513455153 -0.1664035469 0.5303162336 4285684996
-0.2514116466 -0.1658579707 0.5304557681 4286407700
-0.2510653436 -0.1650409400 0.5297250748 4285552391
-0.2511309981 -0.1644953936 0.5298636556 4284762624
-0.2511965036 -0.1639494151 0.5300018191 4284828416
-0.2512618005 -0.1634030044 0.5301395655 4285092608
-0.2513269186 -0.1628561765 0.5302769542 4285026816
-0.2513918281 -0.1623089314 0.5304139256 4284565504
-0.2514565885 -0.1617612541 0.5305505395 4283907584
-0.2511081398 -0.1609484255 0.5298153758 4284301568
-0.2515855134 -0.1606646180 0.5308225751 4284827904
-0.2512364686 -0.1598527580 0.5300861597 4285024769
-0.2513003647 -0.1593043059 0.5302209854 4285419527
-0.2513640821 -0.1587554216 0.5303553939 4286339854
-0.2510140538 -0.1579459161 0.5296168923 4286603026
-0.2510772645 -0.1573971063 0.5297502875 4287194896
-0.2511403263 -0.1568478942 0.5298832655 4287655447
-0.2512031496 -0.1562982500 0.5300158858 4287918609
-0.2512658238 -0.1557482034 0.5301480889 4288050195
-0.2513282895 -0.1551977545 0.5302798748 4288182032
-0.2513905764 -0.1546468884 0.5304113030 4288116239
-0.2510384023 -0.1538417488 0.5296682119 4288049931
-0.2511001825 -0.1532909721 0.5297986269 4288313103
-0.2511617839 -0.1527397931 0.5299285650 4288838933
-0.2512232065 -0.1521881968 0.5300581455 4288312589
-0.2508697510 -0.1513859779 0.5293124318 4288575761
-0.2509306967 -0.1508345008 0.5294409990 4288970519
-0.2505765557 -0.1500342190 0.5286937952 4288971033
-0.2506369948 -0.1494828463 0.5288212895 4288839447
-0.2502821684 -0.1486845016 0.5280726552 4288773654
-0.2499269694 -0.1478875875 0.5273231864 4288510482
-0.2499866188 -0.1473368555 0.5274490714 4288247310
-0.2496307343 -0.1465418935 0.5266981721 4287984138
-0.2496898919 -0.1459912956 0.5268230438 4288576275
-0.2493333220 -0.1451983005 0.5260706544 4288905240
-0.2489763498 -0.1444067657 0.5253174901 4288049931
-0.2486189902 -0.1436166614 0.5245634913 4287655173
-0.2478453815 -0.1425887644 0.5229312778 4288444942
-0.2483190298 -0.1422791481 0.5239306092 4289102872
-0.2471285164 -0.1410176754 0.5214187503 4289037079
-0.2463533729 -0.1399978399 0.5197832584 4288773907
-0.2468263358 -0.1396880001 0.5207811594 4288379407
-0.2460503131 -0.1386720091 0.5191438198 4288510993
-0.2452737093 -0.1376593411 0.5175052881 4288249106
-0.2449130565 -0.1368827820 0.5167443156 4288183313
-0.2445520163 -0.1361076981 0.5159825683 4289038883
-0.2441905886 -0.1353341043 0.5152199864 4290091571
-0.2438287884 -0.1345619857 0.5144566298 4290947396
-0.2434665859 -0.1337913573 0.5136924386 4291276361
-0.2431040108 -0.1330222040 0.5129274130 4291408207
-0.2427410632 -0.1322545558 0.5121616125 4292263516
-0.2423777282 -0.1314883977 0.5113949776 4293184880
-0.2420140058 -0.1307237446 0.5106275678 4293316466
-0.2420672625 -0.1301850379 0.5107399225 4293710200
-0.2417028695 -0.1294224560 0.5099711418 4293907579
-0.2417556494 -0.1288839728 0.5100824833 4293842309
-0.2413905859 -0.1281234771 0.5093122125 4293250172
-0.2410251647 -0.1273644865 0.5085412264 4291474539
-0.2410771549 -0.1268268228 0.5086508989 4291277160
-0.2402931601 -0.1258510649 0.5069967508 4292264573
-0.2403445840 -0.1253145635 0.5071052313 4291738229
-0.2399777323 -0.1245607212 0.5063312054 4290553953
-0.2396105081 -0.1238083988 0.5055564046 4290685539
-0.2396611571 -0.1232727468 0.5056632757 4291474537
-0.2392932624 -0.1225225478 0.5048870444 4291277158
-0.2393434346 -0.1219871566 0.5049929023 4290158669
-0.2389748842 -0.1212390959 0.5042153001 4289434946
-0.2386059612 -0.1204925776 0.5034369230 4290289223
-0.2382366657 -0.1197475940 0.5026577115 4290355016
-0.2382857800 -0.1192136779 0.5027613640 4289895219
-0.2383346856 -0.1186794266 0.5028645396 4290158391
-0.2379644513 -0.1179372147 0.5020834208 4289764146
-0.2384319156 -0.1176099479 0.5030696988 4289435181
-0.2388993502 -0.1172804758 0.5040559173 4290027316
-0.2389475405 -0.1167439818 0.5041576028 4289566765
-0.2389955372 -0.1162071601 0.5042588711 4289237541
-0.2390433252 -0.1156700179 0.5043597221 4289500713
-0.2390909195 -0.1151325554 0.5044601560 4290027057
-0.2391383052 -0.1145947725 0.5045601130 4289961264
-0.2391854823 -0.1140566692 0.5046596527 4290290486
-0.2392324656 -0.1135182455 0.5047587752 4289961521
-0.2392792404 -0.1129795089 0.5048574805 4289764396
-0.2397456765 -0.1126377210 0.5058416128 4289632810
-0.2397921234 -0.1120974123 0.5059396029 4289961774
-0.2398383766 -0.1115567833 0.5060371757 4290224946
-0.2403045148 -0.1112102643 0.5070207119 4290619453
-0.2403504252 -0.1106680706 0.5071175694 4290553660
-0.2408163995 -0.1103180870 0.5081007481 4290224443
-0.2408619821 -0.1097743213 0.5081968904 4290092857
-0.2413277775 -0.1094208807 0.5091797113 4290356032
-0.2413730174 -0.1088755503 0.5092751384 4290750790
-0.2418386340 -0.1085186452 0.5102575421 4290619720
-0.2418835312 -0.1079717502 0.5103523135 4290159169
-0.2423489541 -0.1076113805 0.5113343000 4290093125
-0.2428143322 -0.1072488055 0.5123162270 4290290504
-0.2432796508 -0.1068840176 0.5132979751 4290356046
-0.2437449098 -0.1065170243 0.5142796636 4290290253
-0.2437890470 -0.1059648097 0.5143727660 4290355794
-0.2442541122 -0.1055943593 0.5153540373 4290421587
-0.2447191179 -0.1052216962 0.5163351297 4290356048
-0.2451840490 -0.1048468277 0.5173161030 4290421841
-0.2456489056 -0.1044697538 0.5182968974 4290290512
-0.2461137027 -0.1040904671 0.5192775726 4290158926
-0.2465784401 -0.1037089750 0.5202581286 4290224459
-0.2466215193 -0.1031489521 0.5203490257 4290027080
-0.2470860332 -0.1027640030 0.5213291049 4289894719
-0.2471287549 -0.1022024378 0.5214192271 4289828926
-0.2475930601 -0.1018140242 0.5223988891 4289959480
-0.2484791428 -0.1015959010 0.5242684484 4289893687
-0.2485214174 -0.1010305807 0.5243576169 4290156853
-0.2489854842 -0.1006355509 0.5253367424 4290156853
-0.2490273863 -0.1000687033 0.5254251957 4290223153
-0.2490690649 -0.0995015725 0.5255131125 4290223153
-0.2491105199 -0.0989341512 0.5256006122 4290026797
-0.2495740503 -0.0985331759 0.5265786052 4290092590
-0.2496151328 -0.0979642272 0.5266652703 4290092847
-0.2500784099 -0.0975598022 0.5276427269 4289961261
-0.2501191199 -0.0969893336 0.5277286172 4290026025
-0.2501595914 -0.0964185894 0.5278140306 4289894439
-0.2506224811 -0.0960094780 0.5287906528 4289959973
-0.2506625652 -0.0954372138 0.5288752317 4289894180
-0.2511251867 -0.0950246528 0.5298513770 4289762594
-0.2515877187 -0.0946098864 0.5308272839 4289894180
-0.2516272664 -0.0940348804 0.5309106708 4290091557
-0.2520895302 -0.0936166719 0.5318860412 4290157350
-0.2521286905 -0.0930401534 0.5319686532 4290025764
-0.2525907159 -0.0926185101 0.5329434872 4289696799
-0.2534757853 -0.0923488364 0.5348109007 4289630491
-0.2539376616 -0.0919218138 0.5357854366 4289630491
-0.2543994486 -0.0914925933 0.5367597342 4289695771
-0.2544377744 -0.0909099057 0.5368405581 4289629978
-0.2548992634 -0.0904772431 0.5378143191 4289433112
-0.2553606629 -0.0900423899 0.5387877822 4289301526
-0.2558219433 -0.0896053240 0.5397610664 4289498392
-0.2562831044 -0.0891660675 0.5407341123 4289629978
-0.2567441761 -0.0887245983 0.5417069197 4289630232
-0.2572051287 -0.0882809386 0.5426794887 4289301267
-0.2576659620 -0.0878350735 0.5436517596 4289761564
-0.2577028275 -0.0872435197 0.5437295437 4289629978
-0.2581633627 -0.0867942274 0.5447012186 4289367320
-0.2586237788 -0.0863427371 0.5456726551 4289433113
-0.2590840757 -0.0858890489 0.5466438532 4289037588
-0.2599683404 -0.0855727568 0.5485095978 4288840209
-0.2604284286 -0.0851136968 0.5494803786 4288906002
-0.2608884275 -0.0846524388 0.5504509211 4288971795
-0.2613482773 -0.0841889828 0.5514211655 4288971795
-0.2618080080 -0.0837233365 0.5523911119 4288774416
-0.2622676194 -0.0832554847 0.5533608198 4288380173
-0.2627270818 -0.0827854425 0.5543302894 4288182794
-0.2631863952 -0.0823131949 0.5552994013 4287984914
-0.2636455894 -0.0818387568 0.5562682748 4287655949
-0.2641046643 -0.0813621283 0.5572368503 4287326733
-0.2645635903 -0.0808833018 0.5582051873 4287063561
-0.2650223672 -0.0804022849 0.5591731668 4286537482
-0.2663305700 -0.0801748112 0.5619332790 4286340103
-0.2663643360 -0.0795605555 0.5620045662 4286339850
-0.2668227553 -0.0790719762 0.5629717708 4286208264
-0.2672810256 -0.0785812065 0.5639386773 4285813767
-0.2677391469 -0.0780882388 0.5649052858 4285616388
-0.2677720785 -0.0774701238 0.5649747849 4285222400
-0.2682298422 -0.0769737586 0.5659406185 4284893440
-0.2682623267 -0.0763542056 0.5660091639 4284827904
-0.2682945430 -0.0757344216 0.5660771728 4285025280
-0.2683265209 -0.0751144215 0.5661445856 4285157120
-0.2687835097 -0.0746122524 0.5671088099 4285288704
-0.2688150406 -0.0739908293 0.5671753287 4286144264
-0.2688462734 -0.0733691826 0.5672412515 4287196952
-0.2697281539 -0.0729775354 0.5691019297 4288315433
-0.2697589993 -0.0723534971 0.5691669583 4288907570
-0.2697895765 -0.0717292428 0.5692315102 4289236789
-0.2693943083 -0.0709926188 0.5683975220 4289499961
-0.2694243193 -0.0703689307 0.5684608817 4289960509
-0.2694540620 -0.0697450340 0.5685236454 4290750025
-0.2694835663 -0.0691209286 0.5685858727 4291013451
-0.2695128024 -0.0684966147 0.5686475635 4291539795
-0.2695418000 -0.0678721070 0.5687087178 4291868760
-0.2695704997 -0.0672473982 0.5687693357 4292263518
-0.2695989609 -0.0666224808 0.5688293576 4292460897
-0.2704790831 -0.0662058964 0.5706862807 4292592483
-0.2705070972 -0.0655786246 0.5707454085 4292329309
-0.2705348730 -0.0649511516 0.5708039999 4292460895
-0.2709884644 -0.0644247830 0.5717610717 4292197984
-0.2710157335 -0.0637959391 0.5718186498 4292329570
-0.2710427642 -0.0631669015 0.5718756318 4292395363
-0.2714957297 -0.0626360103 0.5728313923 4292526949
-0.2715222836 -0.0620056167 0.5728873610 4292658535
-0.2724011540 -0.0615677387 0.5747417212 4292526949
-0.2724272609 -0.0609349944 0.5747967362 4292527464
-0.2724530697 -0.0603020713 0.5748512745 4292988015
-0.2729050517 -0.0597623512 0.5758048892 4292988528
-0.2733568549 -0.0592204668 0.5767581463 4293383286
-0.2733819783 -0.0585850291 0.5768111348 4293580665
-0.2734068036 -0.0579494163 0.5768635869 4293712251
-0.2738579810 -0.0574030466 0.5778154731 4293778814
-0.2738823295 -0.0567661002 0.5778668523 4293778814
-0.2747597098 -0.0563038401 0.5797179937 4293581181
-0.2747835815 -0.0556645729 0.5797684193 4293581181
-0.2752339244 -0.0551105812 0.5807186365 4293712250
-0.2752573192 -0.0544699878 0.5807679892 4293317492
-0.2757072449 -0.0539126918 0.5817172527 4293580665
-0.2761569321 -0.0533532463 0.5826660991 4293975423
-0.2761795819 -0.0527101867 0.5827139020 4293713021
-0.2766288817 -0.0521474406 0.5836617947 4293713021
-0.2770779431 -0.0515825525 0.5846093297 4294041986
-0.2775268257 -0.0510155223 0.5855563879 4294041986
-0.2779754698 -0.0504463501 0.5865030289 4294304904
-0.2784239352 -0.0498750359 0.5874492526 4294502283
-0.2792992294 -0.0493770838 0.5892960429 4294568591
-0.2797473073 -0.0488004982 0.5902414322 4294634384
-0.2801951766 -0.0482217744 0.5911863446 4294436751
-0.2810699642 -0.0477134250 0.5930321217 4294107786
-0.2815174162 -0.0471294336 0.5939761996 4293910661
-0.2819646597 -0.0465433113 0.5949198604 4293647489
-0.2832661867 -0.0460941009 0.5976659656 4293120892
-0.2828584909 -0.0453646630 0.5968057513 4292857720
-0.2833050787 -0.0447721481 0.5977480412 4292859002
-0.2837514281 -0.0441774987 0.5986897945 4292924795
-0.2850522995 -0.0437117964 0.6014345288 4292792968
-0.2859256566 -0.0431754403 0.6032772064 4293319312
-0.2863714397 -0.0425714217 0.6042177677 4293647774
-0.2868169844 -0.0419652797 0.6051577926 4293450395
-0.2876897454 -0.0414185598 0.6069992781 4293123487
-0.2885623574 -0.0408677235 0.6088403463 4293386659
-0.2890072465 -0.0402532220 0.6097790599 4293782987
-0.2903069854 -0.0397536978 0.6125214100 4294572503
-0.2696072161 -0.2568352520 0.5701829791 4290955981
-0.2697017491 -0.2562915385 0.5703828335 4290692809
-0.2686076164 -0.2546206415 0.5680689216 4290757570
-0.2690977752 -0.2544529736 0.5691055059 4290625984
-0.2695880532 -0.2542831004 0.5701424479 4290689988
-0.2696819007 -0.2537379265 0.5703408718 4290426816
-0.2697756290 -0.2531921864 0.5705390573 4290098862
-0.2698691785 -0.2526458800 0.5707369447 4289835690
-0.2687716186 -0.2509868145 0.5684157610 4289507252
-0.2700559199 -0.2515515685 0.5711318851 4289178287
-0.2701490819 -0.2510035336 0.5713288784 4288848548
-0.2702420950 -0.2504549623 0.5715256333 4288782755
-0.2699374259 -0.2495383024 0.5708812475 4289964906
-0.2700300217 -0.2489894032 0.5710771084 4290228078
-0.2697246671 -0.2480740398 0.5704312921 4291146326
-0.2694188952 -0.2471597493 0.5697846413 4290948947
-0.2687146068 -0.2458822280 0.5682951808 4290949964
-0.2668149471 -0.2435170263 0.5642776489 4291147343
-0.2593366504 -0.2360823452 0.5484620333 4291344983
-0.2614171207 -0.2373619974 0.5528619885 4291410776
-0.2543301582 -0.2303295583 0.5378740430 4291410263
-0.2528210282 -0.2283687592 0.5346823931 4291541849
-0.2521084547 -0.2271327227 0.5331754088 4291672917
-0.2517942786 -0.2262580097 0.5325109959 4291146573
-0.2514797151 -0.2253844142 0.5318456888 4291080780
-0.2511647046 -0.2245119363 0.5311795473 4291475538
-0.2512487471 -0.2239966840 0.5313572884 4291607126
-0.2513326705 -0.2234809250 0.5315347314 4291409747
-0.2514164448 -0.2229646444 0.5317118764 4291343954
-0.2511002421 -0.2220941931 0.5310431719 4291278161
-0.2511835992 -0.2215777040 0.5312194824 4291343692
-0.2512668371 -0.2210606933 0.5313954949 4291212106
-0.2513498962 -0.2205431759 0.5315712094 4291411027
-0.2514328659 -0.2200251520 0.5317466259 4291411027
-0.2515156567 -0.2195066065 0.5319217443 4291674200
-0.2515983284 -0.2189875543 0.5320965648 4291345235
-0.2516808510 -0.2184679955 0.5322710872 4290818891
-0.2517632246 -0.2179479152 0.5324453115 4291082063
-0.2514444292 -0.2170810997 0.5317710638 4291410515
-0.2515263855 -0.2165608406 0.5319444537 4291213136
-0.2516082227 -0.2160400599 0.5321174860 4291344722
-0.2520913184 -0.2158625126 0.5331391692 4291278929
-0.2521729767 -0.2153398842 0.5333118439 4291672919
-0.2518528104 -0.2144746929 0.5326347351 4291541333
-0.2523358464 -0.2142931223 0.5336562991 4291343954
-0.2524170876 -0.2137689739 0.5338280797 4291475540
-0.2524981499 -0.2132443190 0.5339995623 4291343952
-0.2529812753 -0.2130578905 0.5350213051 4291014987
-0.2530621886 -0.2125314027 0.5351924300 4291343695
-0.2531429529 -0.2120043933 0.5353631973 4291475281
-0.2532235682 -0.2114768922 0.5355337262 4291277902
-0.2533040345 -0.2109488845 0.5357038975 4291212109
-0.2533843219 -0.2104203701 0.5358737111 4291541073
-0.2534644902 -0.2098913640 0.5360432267 4291738452
-0.2535445094 -0.2093618512 0.5362124443 4291277902
-0.2536243498 -0.2088318318 0.5363813639 4290554179
-0.2541074157 -0.2086324692 0.5374029279 4290224962
-0.2541870773 -0.2081006169 0.5375714302 4290093376
-0.2538630068 -0.2072387785 0.5368860960 4290159431
-0.2543459833 -0.2070353925 0.5379074812 4289896259
-0.2544251978 -0.2065020353 0.5380750299 4289303868
-0.2545042634 -0.2059681714 0.5382422209 4289303868
-0.2537749708 -0.2047816515 0.5366998315 4289501249
-0.2538534701 -0.2042485029 0.5368658900 4288974905
-0.2535274625 -0.2033904642 0.5361763835 4289302839
-0.2536055148 -0.2028571814 0.5363414884 4289631804
-0.2532788217 -0.2020007074 0.5356506109 4289961023
-0.2529517114 -0.2011454552 0.5349588394 4289895230
-0.2526242137 -0.2002914250 0.5342661738 4289368886
-0.2522962987 -0.1994386017 0.5335726738 4289566265
-0.2519679964 -0.1985870004 0.5328783393 4290027334
-0.2512340546 -0.1974182129 0.5313261747 4289632576
-0.2513101399 -0.1968874782 0.5314871073 4289172284
-0.2509806156 -0.1960395724 0.5307902098 4290159179
-0.2506506741 -0.1951928884 0.5300924182 4289961541
-0.2507260442 -0.1946624368 0.5302518010 4289632576
-0.2503954470 -0.1938173771 0.5295525789 4289961798
-0.2504703701 -0.1932868212 0.5297110677 4290027591
-0.2501390576 -0.1924433857 0.5290104151 4290093901
-0.2498073429 -0.1916012019 0.5283088684 4290817624
-0.2502878606 -0.1913816333 0.5293250680 4290752086
-0.2495491505 -0.1902303994 0.5277628303 4290488914
-0.2496229112 -0.1897000670 0.5279188156 4290488914
-0.2496965080 -0.1891692728 0.5280744433 4291015258
-0.2493631542 -0.1883307695 0.5273694396 4291672418
-0.2494362891 -0.1877999008 0.5275241733 4291080281
-0.2491022497 -0.1869630665 0.5268176794 4290488142
-0.2487678081 -0.1861274987 0.5261103511 4290817107
-0.2484329492 -0.1852932125 0.5254022479 4291014740
-0.2485050857 -0.1847630888 0.5255547762 4291212119
-0.2485770583 -0.1842325032 0.5257070065 4291540571
-0.2482412457 -0.1834003031 0.5249967575 4291869536
-0.2479050308 -0.1825693846 0.5242857337 4291540571
-0.2479762584 -0.1820391566 0.5244363546 4290619469
-0.2480473369 -0.1815084815 0.5245866776 4290487881
-0.2477101535 -0.1806796789 0.5238735676 4291211604
-0.2477807701 -0.1801489592 0.5240229368 4291739490
-0.2478512228 -0.1796177924 0.5241719484 4292002662
-0.2479215115 -0.1790861785 0.5243206024 4292397673
-0.2475830764 -0.1782599390 0.5236048102 4292595052
-0.2468355596 -0.1771417260 0.5220239758 4292462951
-0.2469049990 -0.1766113937 0.5221707821 4292397158
-0.2465653569 -0.1757890731 0.5214524865 4292594537
-0.2466343343 -0.1752587259 0.5215983987 4292660330
-0.2462940216 -0.1744381636 0.5208786726 4293384307
-0.2463625520 -0.1739078015 0.5210235715 4293252721
-0.2464309037 -0.1733769923 0.5211681128 4293779576
-0.2464990765 -0.1728457510 0.5213123560 4294108541
-0.2465670854 -0.1723140627 0.5214561820 4293713270
-0.2470446229 -0.1720672846 0.5224660635 4293121133
-0.2467025965 -0.1712493747 0.5217427611 4292528228
-0.2471799999 -0.1709999442 0.5227524042 4292462435
-0.2472474277 -0.1704656184 0.5228949785 4292265574
-0.2477248311 -0.1702126712 0.5239046216 4292002402
-0.2477920204 -0.1696765870 0.5240467191 4291476059
-0.2482693940 -0.1694200933 0.5250563025 4291344473
-0.2483363450 -0.1688822508 0.5251979232 4291343451
-0.2488137037 -0.1686222255 0.5262074471 4291014486
-0.2488804162 -0.1680826247 0.5263485312 4291146072
-0.2493577451 -0.1678190529 0.5273579955 4291343451
-0.2494242042 -0.1672776937 0.5274985433 4290948436
-0.2499015033 -0.1670105904 0.5285080075 4290553678
-0.2495565712 -0.1661936790 0.5277785063 4290487115
-0.2496224940 -0.1656510234 0.5279179215 4290421322
-0.2496882379 -0.1651079357 0.5280569792 4290355527
-0.2497537881 -0.1645644158 0.5281956196 4289237046
-0.2498191595 -0.1640204787 0.5283338428 4288710955
-0.2498843521 -0.1634761095 0.5284717083 4288908334
-0.2499493659 -0.1629313082 0.5286092162 4288514869
-0.2500141859 -0.1623860896 0.5287463069 4288317490
-0.2500788271 -0.1618404537 0.5288830400 4287198245
-0.2501432896 -0.1612943858 0.5290193558 4285027076
-0.2502075434 -0.1607479006 0.5291552544 4284236800
-0.2502716482 -0.1602009982 0.5292907953 4284368384
-0.2503355443 -0.1596536636 0.5294259191 4284301312
-0.2503992617 -0.1591059268 0.5295606852 4284301312
-0.2500501573 -0.1582965404 0.5288223624 4284630016
-0.2501133978 -0.1577488631 0.5289561152 4284958977
-0.2501764297 -0.1572007835 0.5290894508 4285945347
-0.2506522536 -0.1569107771 0.5300956964 4286866449
-0.2507150173 -0.1563609540 0.5302284956 4287260938
-0.2507776022 -0.1558107138 0.5303608179 4287326731
-0.2508400083 -0.1552600712 0.5304927826 4287524102
-0.2504888475 -0.1544541419 0.5297501683 4287195137
-0.2505507767 -0.1539035738 0.5298811197 4287457794
-0.2506124973 -0.1533526033 0.5300116539 4287655173
-0.2506740391 -0.1528012305 0.5301417708 4288049931
-0.2507353723 -0.1522494555 0.5302715302 4288115724
-0.2507965267 -0.1516972780 0.5304008126 4288378898
-0.2504435182 -0.1508952677 0.5296542645 4288378898
-0.2505041659 -0.1503431946 0.5297825933 4288707863
-0.2505646348 -0.1497907192 0.5299104452 4288642070
-0.2502106726 -0.1489911675 0.5291618705 4288379411
-0.2502706349 -0.1484388113 0.5292887092 4288247825
-0.2499159873 -0.1476412117 0.5285386443 4288247312
-0.2499754727 -0.1470889747 0.5286644697 4287852554
-0.2496201247 -0.1462933272 0.5279129148 4288115726
-0.2496791333 -0.1457412243 0.5280377269 4288510484
-0.2493230999 -0.1449475437 0.5272847414 4287984653
-0.2489666641 -0.1441553235 0.5265309215 4287787274
-0.2477797717 -0.1428858638 0.5240207911 4288115726
-0.2482526451 -0.1425752193 0.5250208974 4288115726
-0.2474798113 -0.1415498555 0.5233864784 4288050444
-0.2467063963 -0.1405277848 0.5217508078 4288116237
-0.2459324151 -0.1395090222 0.5201138854 4287326980
-0.2455733716 -0.1387283057 0.5193545818 4288313875
-0.2447983176 -0.1377152503 0.5177154541 4290222644
-0.2440226972 -0.1367055178 0.5160751343 4291538504
-0.2436623126 -0.1359310746 0.5153129101 4292526429
-0.2428856343 -0.1349270642 0.5136703849 4292592222
-0.2433563620 -0.1346167326 0.5146659017 4292987498
-0.2425788343 -0.1336166263 0.5130215287 4293119084
-0.2422169149 -0.1328481138 0.5122561455 4292659054
-0.2418546081 -0.1320811063 0.5114899278 4292527468
-0.2414919287 -0.1313155890 0.5107228756 4292526963
-0.2411288619 -0.1305515766 0.5099550486 4292592756
-0.2407654226 -0.1297890544 0.5091864467 4292789359
-0.2408182472 -0.1292516589 0.5092981458 4292460394
-0.2404541373 -0.1284912229 0.5085281134 4292855928
-0.2405064702 -0.1279540658 0.5086387396 4292263791
-0.2401416898 -0.1271957159 0.5078673363 4291145572
-0.2401935458 -0.1266587824 0.5079770088 4291211365
-0.2394110113 -0.1256835759 0.5063220263 4291212135
-0.2390451133 -0.1249297857 0.5055481791 4291277928
-0.2390961051 -0.1243946180 0.5056560636 4291672685
-0.2387295365 -0.1236429438 0.5048807859 4290225239
-0.2387800515 -0.1231080294 0.5049875975 4290158930
-0.2384128273 -0.1223584861 0.5042110085 4290685274
-0.2388804704 -0.1220371798 0.5052000284 4289894727
-0.2380949706 -0.1210764199 0.5035387874 4289368383
-0.2381445020 -0.1205420271 0.5036435127 4290223173
-0.2377759665 -0.1197967604 0.5028641224 4290091587
-0.2378250211 -0.1192626432 0.5029678941 4289632047
-0.2378738821 -0.1187281981 0.5030711889 4289171496
-0.2379225343 -0.1181934252 0.5031741261 4288908837
-0.2379709929 -0.1176583171 0.5032765865 4289172009
-0.2384375632 -0.1173287258 0.5042633414 4289961525
-0.2384857088 -0.1167920306 0.5043651462 4290027318
-0.2385336459 -0.1162550077 0.5044665337 4289764142
-0.2385813892 -0.1157176644 0.5045675039 4289303591
-0.2386289239 -0.1151800007 0.5046679974 4289303591
-0.2390949875 -0.1148431376 0.5056536794 4289500970
-0.2391421944 -0.1143038869 0.5057535172 4290422842
-0.2391892076 -0.1137643233 0.5058529377 4289962291
-0.2396549881 -0.1134227216 0.5068380237 4289238566
-0.2397016734 -0.1128815785 0.5069367290 4288975394
-0.2397481501 -0.1123401076 0.5070350170 4289632809
-0.2402136475 -0.1119937822 0.5080195069 4290027567
-0.2402597964 -0.1114507392 0.5081170797 4290158651
-0.2407251149 -0.1111009493 0.5091011524 4290158651
-0.2407709211 -0.1105563343 0.5091980696 4290223933
-0.2412360609 -0.1102030724 0.5101817846 4290026554
-0.2412815392 -0.1096568853 0.5102779269 4289894970
-0.2417465150 -0.1093001589 0.5112612844 4290289728
-0.2422114164 -0.1089412123 0.5122445226 4290816329
-0.2422564179 -0.1083922088 0.5123397112 4290750536
-0.2427211404 -0.1080298051 0.5133225322 4290685262
-0.2431858182 -0.1076651886 0.5143052340 4290816848
-0.2436504215 -0.1072983593 0.5152878165 4290553425
-0.2441149801 -0.1069293246 0.5162702799 4290224460
-0.2445794642 -0.1065580770 0.5172526240 4290421841
-0.2446235716 -0.1060024872 0.5173459053 4290421841
-0.2450878620 -0.1056277826 0.5183278322 4289632322
-0.2455520928 -0.1052508578 0.5193095803 4288908599
-0.2460162342 -0.1048717275 0.5202912092 4289698629
-0.2460597157 -0.1043120772 0.5203831196 4289698629
-0.2465236634 -0.1039294824 0.5213643312 4289894976
-0.2469875365 -0.1035446823 0.5223453641 4289631804
-0.2474513352 -0.1031576693 0.5233262181 4289631287
-0.2479150593 -0.1027684435 0.5243069530 4289828666
-0.2479577363 -0.1022034883 0.5243971944 4289959221
-0.2484212369 -0.1018108055 0.5253774524 4289893428
-0.2484635413 -0.1012443155 0.5254669189 4289958704
-0.2489268184 -0.1008481681 0.5264466405 4290156083
-0.2489687353 -0.1002801359 0.5265353322 4290157103
-0.2494317889 -0.0998805389 0.5275146365 4290157103
-0.2494733334 -0.0993109718 0.5276024938 4290092335
-0.2495146692 -0.0987411216 0.5276898742 4290223921
-0.2499773204 -0.0983368158 0.5286683440 4290027055
-0.2500182688 -0.0977654457 0.5287549496 4289829676
-0.2504806817 -0.0973576903 0.5297328830 4289762342
-0.2505212426 -0.0967847928 0.5298186541 4289828135
-0.2505615652 -0.0962116122 0.5299039483 4289893412
-0.2510235906 -0.0957991704 0.5308810472 4289761826
-0.2510635257 -0.0952244774 0.5309655666 4289761313
-0.2515252829 -0.0948085785 0.5319420695 4289827106
-0.2519869208 -0.0943904817 0.5329183936 4289696031
-0.2524484992 -0.0939701796 0.5338945389 4289630238
-0.2529099286 -0.0935476720 0.5348704457 4289761565
-0.2533712983 -0.0931229591 0.5358461738 4289761565
-0.2534101903 -0.0925417989 0.5359284282 4289629466
-0.2538712919 -0.0921136439 0.5369035602 4289563673
-0.2543322742 -0.0916832834 0.5378785133 4289629465
-0.2547931671 -0.0912507176 0.5388531685 4289366293
-0.2552539110 -0.0908159539 0.5398276448 4289168914
-0.2557145953 -0.0903789774 0.5408018827 4289234707
-0.2561751306 -0.0899398029 0.5417758822 4289169168
-0.2566355765 -0.0894984305 0.5427497029 4288905996
-0.2570959032 -0.0890548453 0.5437232256 4289234961
-0.2571332157 -0.0884635597 0.5438020825 4289169168
-0.2575932443 -0.0880165473 0.5447750092 4289103888
-0.2580531538 -0.0875673294 0.5457476974 4288709130
-0.2585129738 -0.0871159136 0.5467200875 4288708877
-0.2589726448 -0.0866622999 0.5476922393 4288840463
-0.2594322264 -0.0862064809 0.5486641526 4288642573
-0.2603149414 -0.0858881176 0.5505309701 4288379401
-0.2607742846 -0.0854269266 0.5515025258 4288510987
-0.2612335384 -0.0849635303 0.5524737239 4288445194
-0.2616926730 -0.0844979361 0.5534446836 4288181768
-0.2621516585 -0.0840301439 0.5544154048 4287918596
-0.2626104951 -0.0835601538 0.5553858280 4287393280
-0.2630692422 -0.0830879658 0.5563559532 4287261696
-0.2635278106 -0.0826135725 0.5573258400 4286866180
-0.2639862895 -0.0821369886 0.5582954288 4286866180
-0.2644445896 -0.0816582069 0.5592646599 4286931721
-0.2649027705 -0.0811772346 0.5602336526 4286602756
-0.2657847106 -0.0808229670 0.5620988607 4285747968
-0.2662426829 -0.0803366154 0.5630673766 4285419008
-0.2662764788 -0.0797211304 0.5631388426 4285024256
-0.2667340934 -0.0792313740 0.5641066432 4284432128
-0.2667674422 -0.0786144361 0.5641772151 4284234496
-0.2672246993 -0.0781212747 0.5651442409 4284300288
-0.2672576010 -0.0775028989 0.5652137995 4284695808
-0.2677145302 -0.0770063326 0.5661801696 4285353737
-0.2677469850 -0.0763865262 0.5662487745 4285880841
-0.2677791715 -0.0757664889 0.5663168430 4286407185
-0.2678110898 -0.0751462355 0.5663843751 4286934032
-0.2678427696 -0.0745257512 0.5664513707 4287526169
-0.2682987154 -0.0740221813 0.5674156547 4288184609
-0.2683299482 -0.0734002814 0.5674816370 4288776746
-0.2683609128 -0.0727781653 0.5675471425 4289434676
-0.2683916092 -0.0721558332 0.5676121116 4289697848
-0.2684220672 -0.0715332925 0.5676764846 4290224194
-0.2684522569 -0.0709105358 0.5677403212 4290553159
-0.2680573761 -0.0701763555 0.5669052005 4290684745
-0.2680869997 -0.0695541725 0.5669679046 4291276882
-0.2681163847 -0.0689317808 0.5670300126 4291737434
-0.2681455016 -0.0683091879 0.5670915842 4292000606
-0.2681743503 -0.0676863939 0.5671526194 4292263265
-0.2682029307 -0.0670633987 0.5672130585 4292526437
-0.2690814734 -0.0666507930 0.5690710545 4292526690
-0.2691096365 -0.0660254210 0.5691305995 4292526690
-0.2691375315 -0.0653998628 0.5691896081 4292329307
-0.2691651881 -0.0647741035 0.5692481399 4292855651
-0.2696178555 -0.0642494932 0.5702053905 4292329570
-0.2696450353 -0.0636223704 0.5702629089 4292724328
-0.2696719468 -0.0629950538 0.5703197718 4292790121
-0.2696985900 -0.0623675473 0.5703761578 4292921707
-0.2701503932 -0.0618372411 0.5713316798 4293053808
-0.2701765597 -0.0612083785 0.5713870525 4292988015
-0.2710535228 -0.0607701354 0.5732416511 4292922222
-0.2710792422 -0.0601389296 0.5732960701 4293185394
-0.2715303004 -0.0596009642 0.5742499828 4292791151
-0.2719811499 -0.0590608381 0.5752034783 4293120116
-0.2720061839 -0.0584271178 0.5752564073 4293317495
-0.2724566162 -0.0578836650 0.5762090683 4293646460
-0.2724811435 -0.0572486073 0.5762609243 4293975171
-0.2729311883 -0.0567018390 0.5772126913 4293975171
-0.2729552090 -0.0560654476 0.5772634745 4293712769
-0.2738306820 -0.0556018353 0.5791150331 4293844355
-0.2738542557 -0.0549631268 0.5791648626 4293909630
-0.2743034661 -0.0544087365 0.5801149011 4293778044
-0.2743265331 -0.0537687093 0.5801636577 4293514872
-0.2747753263 -0.0532110147 0.5811128020 4293778044
-0.2747978866 -0.0525696725 0.5811605453 4294107525
-0.2752462626 -0.0520086810 0.5821087360 4294041732
-0.2761205435 -0.0515250601 0.5839577317 4293975939
-0.2782731056 -0.0512728617 0.5885101557 4294370697
-0.2765901387 -0.0503128469 0.5849508643 4294502285
-0.2774638832 -0.0498198085 0.5867987275 4294370699
-0.2779112756 -0.0492471121 0.5877448916 4294173579
-0.2783584297 -0.0486722738 0.5886905789 4294568337
-0.2788053751 -0.0480952971 0.5896357894 4294765717
-0.2792521119 -0.0475161858 0.5905806422 4294305166
-0.2801250219 -0.0470064841 0.5924266577 4293976200
-0.2805713713 -0.0464221053 0.5933706164 4293713028
-0.2814439237 -0.0459051467 0.5952159762 4293581704
-0.2818898559 -0.0453155078 0.5961590409 4292529016
-0.2827620506 -0.0447912924 0.5980036259 4292332916
-0.2832075655 -0.0441963971 0.5989458561 4292530295
-0.2849325240 -0.0437960587 0.6025938392 4292332934
-0.2853776813 -0.0431939103 0.6035352945 4292859278
-0.2866758108 -0.0427167714 0.6062806845 4293385121
-0.2862672806 -0.0419832394 0.6054167747 4293450914
-0.2871384323 -0.0414362885 0.6072590351 4293255075
-0.2880093455 -0.0408852175 0.6091009974 4293715626
-0.2893068194 -0.0403895974 0.6118449569 4294177491
-0.2901774347 -0.0398292914 0.6136861444 4294901214
-0.2675862908 -0.2548799813 0.5672413707 4290889417
-0.2676800191 -0.2543387711 0.5674400330 4290822348
-0.2685646713 -0.2545467913 0.5693153143 4290690762
-0.2686583996 -0.2540028393 0.5695140362 4290624967
-0.2683561742 -0.2530850470 0.5688734055 4290361795
-0.2684494853 -0.2525407672 0.5690711737 4290295992
-0.2685426772 -0.2519959509 0.5692687035 4290295992
-0.2686357200 -0.2514505386 0.5694659352 4289968569
-0.2687286139 -0.2509045601 0.5696629286 4289639604
-0.2688213885 -0.2503580153 0.5698595643 4289441447
-0.2685174048 -0.2494424582 0.5692151189 4289375654
-0.2686097324 -0.2488956004 0.5694109201 4290817897
-0.2683050632 -0.2479813397 0.5687650442 4290752104
-0.2679999471 -0.2470681369 0.5681182742 4290817877
-0.2676944435 -0.2461559772 0.5674706101 4290817877
-0.2673885226 -0.2452448905 0.5668221116 4290752333
-0.2646975219 -0.2421533018 0.5611176491 4290752333
-0.2572335601 -0.2347191721 0.5452951789 4291542101
-0.2545368671 -0.2316590101 0.5395786166 4291278929
-0.2530317307 -0.2296931744 0.5363879204 4291016012
-0.2523213029 -0.2284540087 0.5348819494 4291344977
-0.2512121201 -0.2268580496 0.5325306654 4291739480
-0.2505002320 -0.2256251723 0.5310215950 4291213136
-0.2509828508 -0.2254687101 0.5320445895 4291344722
-0.2506685257 -0.2245959640 0.5313783288 4291871066
-0.2507524788 -0.2240805775 0.5315563083 4291081805
-0.2508362830 -0.2235646844 0.5317339301 4290884426
-0.2509199679 -0.2230482548 0.5319113135 4291344975
-0.2506044507 -0.2221775353 0.5312424898 4291410768
-0.2506876886 -0.2216609120 0.5314189792 4291542354
-0.2503715158 -0.2207916379 0.5307486653 4291279182
-0.2504543662 -0.2202748060 0.5309243202 4291410000
-0.2505370677 -0.2197574526 0.5310996771 4291607379
-0.2506196499 -0.2192395926 0.5312746763 4292002135
-0.2507020831 -0.2187212259 0.5314494371 4291607377
-0.2507843673 -0.2182023525 0.5316238403 4291146826
-0.2508665025 -0.2176829576 0.5317980051 4291344205
-0.2509485185 -0.2171630561 0.5319718719 4291410770
-0.2506300211 -0.2162971199 0.5312966704 4291739735
-0.2507115901 -0.2157770395 0.5314696431 4291542356
-0.2511936724 -0.2156002969 0.5324915648 4291213391
-0.2512750924 -0.2150783688 0.5326641798 4291016010
-0.2505546212 -0.2138715386 0.5311368704 4291081803
-0.2514375448 -0.2140329778 0.5330085158 4291147596
-0.2515185177 -0.2135095149 0.5331801772 4291213389
-0.2515993714 -0.2129855603 0.5333516002 4291081805
-0.2520814836 -0.2127999514 0.5343735814 4290884426
-0.2521621585 -0.2122741342 0.5345445871 4291146828
-0.2522427142 -0.2117478251 0.5347152948 4291081035
-0.2519212961 -0.2108846754 0.5340340137 4291343952
-0.2524033189 -0.2106937021 0.5350558162 4291672917
-0.2524833977 -0.2101658732 0.5352255702 4291672917
-0.2525633574 -0.2096375525 0.5353950262 4291080780
-0.2526431382 -0.2091087252 0.5355641842 4290620484
-0.2527227700 -0.2085794061 0.5357329845 4290488898
-0.2532047927 -0.2083808631 0.5367548466 4290356800
-0.2532842457 -0.2078496963 0.5369232893 4289962042
-0.2529607713 -0.2069884241 0.5362374783 4290422343
-0.2534427047 -0.2067858577 0.5372591615 4290093378
-0.2535217106 -0.2062531859 0.5374265909 4289435195
-0.2527941763 -0.2050659060 0.5358843803 4289566781
-0.2528726161 -0.2045339495 0.5360506773 4289434425
-0.2525474727 -0.2036761194 0.5353614092 4288973874
-0.2526254654 -0.2031440139 0.5355267525 4289631804
-0.2522996366 -0.2022877634 0.5348359942 4289697597
-0.2523771822 -0.2017555237 0.5350004435 4289303093
-0.2520506680 -0.2009008378 0.5343082547 4288974128
-0.2517237365 -0.2000473738 0.5336152315 4289434425
-0.2513964176 -0.1991951317 0.5329213142 4289697597
-0.2514729798 -0.1986635029 0.5330836177 4289829185
-0.2507405281 -0.1974943131 0.5315309763 4289105462
-0.2512210906 -0.1972811073 0.5325496793 4289500220
-0.2500830591 -0.1957983971 0.5301371813 4290552908
-0.2501584888 -0.1952682585 0.5302971005 4290223943
-0.2498288602 -0.1944225430 0.5295983553 4289960771
-0.2499038577 -0.1938923150 0.5297573209 4289894978
-0.2495735437 -0.1930482090 0.5290571451 4290026564
-0.2496480942 -0.1925178766 0.5292151570 4289894980
-0.2493170947 -0.1916754097 0.5285134912 4290618703
-0.2493912131 -0.1911450028 0.5286706090 4290422349
-0.2494651675 -0.1906141192 0.5288273692 4290817107
-0.2491331995 -0.1897736788 0.5281236768 4290752082
-0.2488008291 -0.1889345050 0.5274190903 4291278426
-0.2488740534 -0.1884039342 0.5275743008 4291607391
-0.2485410124 -0.1875664145 0.5268682837 4290554703
-0.2478013188 -0.1864245534 0.5253002644 4289896259
-0.2478736937 -0.1858951896 0.5254536867 4289764673
-0.2475394458 -0.1850614846 0.5247451663 4289961539
-0.2476113737 -0.1845320612 0.5248976350 4290027332
-0.2476831377 -0.1840021759 0.5250497460 4290751566
-0.2477547526 -0.1834718287 0.5252015591 4290817359
-0.2474192381 -0.1826406419 0.5244903564 4290291015
-0.2474903911 -0.1821102500 0.5246411562 4290093636
-0.2475613803 -0.1815793961 0.5247916579 4290224709
-0.2476322055 -0.1810480952 0.5249418020 4290422088
-0.2472954541 -0.1802194417 0.5242279172 4290292036
-0.2473658174 -0.1796880960 0.5243771076 4290555208
-0.2474360168 -0.1791563034 0.5245259404 4291541331
-0.2470982969 -0.1783297956 0.5238099694 4291541331
-0.2467601895 -0.1775045842 0.5230932236 4291278159
-0.2468296438 -0.1769731939 0.5232405066 4292067675
-0.2460827529 -0.1758580804 0.5216571689 4292660584
-0.2457434386 -0.1750367880 0.5209378600 4292857963
-0.2462203801 -0.1747965813 0.5219489336 4292397410
-0.2454720587 -0.1736871749 0.5203626156 4292528996
-0.2455402166 -0.1731570810 0.5205070972 4293187181
-0.2456081957 -0.1726265401 0.5206512213 4293779318
-0.2456760257 -0.1720955670 0.5207949877 4293647732
-0.2457436621 -0.1715641618 0.5209383965 4293581939
-0.2458111346 -0.1710323095 0.5210813880 4293516404
-0.2458784431 -0.1705000103 0.5212240815 4293319025
-0.2459455729 -0.1699672788 0.5213663578 4293186674
-0.2460125238 -0.1694341302 0.5215083361 4292989295
-0.2464887500 -0.1691815555 0.5225178599 4292726125
-0.2469650358 -0.1689267755 0.5235275030 4292265574
-0.2466220111 -0.1681112796 0.5228003263 4292265574
-0.2475079298 -0.1681322306 0.5246783495 4292265574
-0.2475743443 -0.1675942242 0.5248191357 4291805023
-0.2476405799 -0.1670558006 0.5249595046 4292133988
-0.2477066219 -0.1665169299 0.5250995755 4292002403
-0.2481827289 -0.1662524343 0.5261088014 4291739231
-0.2482485324 -0.1657118052 0.5262482762 4291804772
-0.2483141571 -0.1651707590 0.5263873935 4291475807
-0.2483796030 -0.1646292806 0.5265261531 4291278428
-0.2480342090 -0.1638161689 0.5257939696 4291015256
-0.2480991781 -0.1632747352 0.5259317160 4291211865
-0.2481639832 -0.1627328694 0.5260690451 4291211865
-0.2482285947 -0.1621905863 0.5262060165 4291473759
-0.2482930124 -0.1616478860 0.5263426304 4291013208
-0.2483572662 -0.1611047536 0.5264788270 4290684241
-0.2484213263 -0.1605612040 0.5266146064 4289828932
-0.2484852076 -0.1600172371 0.5267500281 4288579120
-0.2485489100 -0.1594728529 0.5268850327 4286868502
-0.2486124188 -0.1589280367 0.5270196795 4286670357
-0.2486757487 -0.1583828181 0.5271539092 4285815048
-0.2487388849 -0.1578371823 0.5272877812 4285025536
-0.2488018423 -0.1572911143 0.5274212360 4284630784
-0.2488646060 -0.1567446440 0.5275542736 4284564480
-0.2493393123 -0.1564563811 0.5285605788 4284696064
-0.2494018078 -0.1559081674 0.5286930799 4284630272
-0.2494641244 -0.1553595662 0.5288251638 4284696064
-0.2495262474 -0.1548105478 0.5289568305 4285090816
-0.2495881766 -0.1542611122 0.5290881395 4285222402
-0.2496499121 -0.1537112743 0.5292190313 4286405120
-0.2497114688 -0.1531610191 0.5293495059 4286734085
-0.2497728318 -0.1526103616 0.5294795632 4286931460
-0.2498340011 -0.1520593017 0.5296092629 4287128839
-0.2498949766 -0.1515078396 0.5297384858 4287260419
-0.2499557585 -0.1509559751 0.5298673511 4287655177
-0.2500163615 -0.1504037082 0.5299957991 4287589634
-0.2500767410 -0.1498510391 0.5301238298 4287458048
-0.2501369715 -0.1492979676 0.5302514434 4287786242
-0.2497834265 -0.1484986395 0.5295020342 4287654656
