VERSION 0.7
FIELDS x y z rgba
SIZE 4 4 4 4
TYPE F F F U
COUNT 1 1 1 1
WIDTH 920
HEIGHT 1
VIEWPOINT 0.0 0.0 0.0 1.0 0.0 0.0 0.0
POINTS 920
DATA ascii
-0.2658009231 -0.1509321183 0.5770427585 4285757051
-0.2662682533 -0.1505552232 0.5780573487 4285691258
-0.2663283646 -0.1499467939 0.5781878233 4285428341
-0.2663882375 -0.1493379474 0.5783178210 4285428341
-0.2664478719 -0.1487286985 0.5784473419 4285559157
-0.2665073276 -0.1481190324 0.5785763264 4285493364
-0.2665665448 -0.1475089639 0.5787048936 4285361778
-0.2666255534 -0.1468984932 0.5788329840 4285230192
-0.2666843235 -0.1462876201 0.5789605975 4284769641
-0.2667428851 -0.1456763297 0.5790877342 4283585367
-0.2668012381 -0.1450646520 0.5792144537 4282466886
-0.2664513290 -0.1442316771 0.5784547925 4282072128
-0.2661010027 -0.1434001923 0.5776942372 4282006333
-0.2649338543 -0.1421321779 0.5751603842 4281808954
-0.2637659609 -0.1408693939 0.5726249814 4282072126
-0.2625972927 -0.1396118551 0.5700878501 4281940540
-0.2610194385 -0.1381433606 0.5666623712 4282005822
-0.2598492205 -0.1368972510 0.5641219020 4281874236
-0.2586782873 -0.1356564015 0.5615798235 4281874236
-0.2575065792 -0.1344208121 0.5590361357 4281808443
-0.2575606406 -0.1338277757 0.5591534972 4281611575
-0.2572055757 -0.1330228895 0.5583826900 4281216817
-0.2572591305 -0.1324300468 0.5584989190 4280888369
-0.2573124468 -0.1318368316 0.5586146712 4280427818
-0.2573655546 -0.1312432587 0.5587299466 4280427818
-0.2570092082 -0.1304416060 0.5579563379 4280164646
-0.2570617795 -0.1298482269 0.5580704808 4280033060
-0.2571141422 -0.1292545050 0.5581842065 4279769888
-0.2571662962 -0.1286604106 0.5582973957 4280625197
-0.2576278150 -0.1282698810 0.5592993498 4282335815
-0.2580892742 -0.1278771013 0.5603011250 4283980126
-0.2589604259 -0.1276841015 0.5621923804 4284374884
-0.2590120435 -0.1270847917 0.5623043776 4285624951
-0.2574237585 -0.1256845742 0.5588563085 4286414467
-0.2578845918 -0.1252875179 0.5598567724 4286546053
-0.2579352856 -0.1246899813 0.5599668026 4286348674
-0.2583958805 -0.1242893785 0.5609667897 4286085502
-0.2584462166 -0.1236901879 0.5610759854 4285032814
-0.2584963143 -0.1230906472 0.5611847639 4283190610
-0.2585461736 -0.1224907562 0.5612930655 4282335301
-0.2581853569 -0.1216970459 0.5605097413 4282269508
-0.2586452663 -0.1212899461 0.5615081191 4282072129
-0.2591050863 -0.1208805889 0.5625063777 4281545784
-0.2591541409 -0.1202783734 0.5626128912 4281216819
-0.2592029572 -0.1196758077 0.5627188683 4283190609
-0.2592515349 -0.1190729141 0.5628243685 4288322463
-0.2588889897 -0.1182819232 0.5620372891 4291415504
-0.2637446821 -0.1533150673 0.5739627481 4289112757
-0.2642114758 -0.1529475600 0.5749785304 4288191653
-0.2642722726 -0.1523437798 0.5751109123 4287138965
-0.2643328905 -0.1517395675 0.5752427578 4286743948
-0.2643932700 -0.1511349529 0.5753741860 4286086018
-0.2648596466 -0.1507611424 0.5763891339 4285822844
-0.2649196982 -0.1501547694 0.5765197873 4285691258
-0.2645731270 -0.1493186206 0.5757656097 4285559927
-0.2650391459 -0.1489407867 0.5767797828 4285494134
-0.2650985420 -0.1483331770 0.5769090056 4285559155
-0.2651577294 -0.1477251649 0.5770378113 4285559155
-0.2648099363 -0.1468911022 0.5762809515 4285756536
-0.2652754486 -0.1465079188 0.5772939920 4285361778
-0.2653339803 -0.1458986849 0.5774213672 4284769641
-0.2649852633 -0.1450662166 0.5766624808 4283980125
-0.2650432587 -0.1444571167 0.5767887235 4282927437
-0.2651010454 -0.1438476294 0.5769144893 4282203714
-0.2647513151 -0.1430176944 0.5761533380 4281874749
-0.2639937699 -0.1419701725 0.5745047927 4281808956
-0.2632356584 -0.1409259886 0.5728549957 4281940542
-0.2620694041 -0.1396679580 0.5703170300 4281743163
-0.2609024346 -0.1384151876 0.5677773952 4281742650
-0.2593269348 -0.1369523257 0.5643488169 4281742650
-0.2581583858 -0.1357109994 0.5618057847 4281742650
-0.2573970258 -0.1346883923 0.5601488948 4281611064
-0.2570430934 -0.1338816732 0.5593786836 4281611318
-0.2570968866 -0.1332880557 0.5594957471 4281545525
-0.2567422688 -0.1324834228 0.5587240458 4281151541
-0.2567955256 -0.1318899989 0.5588399172 4280756783
-0.2564402223 -0.1310874671 0.5580667257 4280756783
-0.2564929724 -0.1304942518 0.5581815243 4280493611
-0.2561369836 -0.1296938062 0.5574068427 4280427304
-0.2565978169 -0.1293067187 0.5584096313 4280427304
-0.2566498816 -0.1287124008 0.5585229993 4282269508
-0.2571105361 -0.1283217371 0.5595254302 4283322196
-0.2575711012 -0.1279288232 0.5605277419 4282927438
-0.2584405541 -0.1277357638 0.5624198318 4283585368
-0.2584920824 -0.1271362305 0.5625320077 4284506470
-0.2569070458 -0.1257354617 0.5590826273 4284835435
-0.2569577992 -0.1251389980 0.5591930747 4284769642
-0.2570083439 -0.1245421916 0.5593031049 4284901228
-0.2574680150 -0.1241424009 0.5603033900 4284901228
-0.2575182021 -0.1235439330 0.5604125857 4284177505
-0.2575681508 -0.1229451224 0.5605213046 4283322196
-0.2576178908 -0.1223459616 0.5606295466 4282861645
-0.2576673925 -0.1217464581 0.5607373118 4282532680
-0.2577166855 -0.1211466044 0.5608445406 4282203715
-0.2581755519 -0.1207380593 0.5618431568 4280624682
-0.2586343288 -0.1203272641 0.5628415942 4281151026
-0.2586831152 -0.1197244748 0.5629476905 4286085501
-0.2587316334 -0.1191213503 0.5630533099 4290756804
-0.2587799430 -0.1185178831 0.5631584525 4292599776
-0.2624626160 -0.1523033082 0.5725566149 4288389032
-0.2629282176 -0.1519362032 0.5735722780 4287467930
-0.2633937597 -0.1515668184 0.5745878816 4286809739
-0.2634539902 -0.1509629190 0.5747192502 4286151809
-0.2635139823 -0.1503586024 0.5748501420 4285823099
-0.2635737658 -0.1497538686 0.5749805570 4285757306
-0.2636333406 -0.1491487324 0.5751104951 4285625720
-0.2636927068 -0.1485431790 0.5752400160 4285559927
-0.2637518644 -0.1479372233 0.5753690600 4285624948
-0.2638107836 -0.1473308653 0.5754975677 4285559155
-0.2638694942 -0.1467240900 0.5756256580 4285690744
-0.2639279962 -0.1461169124 0.5757532716 4285690744
-0.2639862895 -0.1455093324 0.5758804083 4285032813
-0.2640443444 -0.1449013501 0.5760071278 4284243297
-0.2636958957 -0.1440709829 0.5752469301 4283716953
-0.2637534142 -0.1434631348 0.5753724575 4282730058
-0.2634042501 -0.1426347792 0.5746107697 4281874749
-0.2634612620 -0.1420270801 0.5747351050 4281743163
-0.2627047300 -0.1409825087 0.5730847716 4281874749
-0.2615408897 -0.1397240013 0.5705458522 4281940542
-0.2603763044 -0.1384707540 0.5680053234 4281808956
-0.2592109740 -0.1372227371 0.5654631853 4281677370
-0.2584519088 -0.1361944824 0.5638073087 4281611577
-0.2568781078 -0.1347425282 0.5603740811 4281545784
-0.2565249205 -0.1339355111 0.5596036315 4281347892
-0.2565786541 -0.1333416700 0.5597208142 4281282099
-0.2562247813 -0.1325367391 0.5589488745 4281414199
-0.2562779784 -0.1319431067 0.5590649247 4281216820
-0.2563309669 -0.1313490868 0.5591804981 4281282613
-0.2559761107 -0.1305468231 0.5584064126 4281085234
-0.2560285926 -0.1299530268 0.5585208535 4280822062
-0.2564885914 -0.1295648515 0.5595244169 4281085234
-0.2565407157 -0.1289693713 0.5596380830 4283059024
-0.2565926015 -0.1283735335 0.5597512722 4282269508
-0.2570522726 -0.1279804707 0.5607540607 4281611578
-0.2579200268 -0.1277873665 0.5626469851 4282466887
-0.2579714954 -0.1271875948 0.5627592802 4283190610
-0.2567979395 -0.1259865910 0.5601992607 4283519575
-0.2564404011 -0.1251896173 0.5594192147 4283519062
-0.2564908862 -0.1245925799 0.5595293641 4283519062
-0.2569496632 -0.1241926402 0.5605301857 4283453269
-0.2569997609 -0.1235939562 0.5606395006 4283255890
-0.2570496798 -0.1229949221 0.5607483387 4283059024
-0.2570993304 -0.1223955378 0.5608566999 4282664266
-0.2567399740 -0.1216021776 0.5600727797 4283256403
-0.2571980357 -0.1211957335 0.5610719919 4282532680
-0.2576560080 -0.1207870394 0.5620710850 4281545785
-0.2577048540 -0.1201853231 0.5621776581 4284572263
-0.2581626177 -0.1197730824 0.5631762147 4289177772
-0.2582111061 -0.1191697270 0.5632820129 4292138457
-0.2619307041 -0.1523638070 0.5727840662 4288389286
-0.2623954117 -0.1519965827 0.5738002062 4287468184
-0.2624556720 -0.1513938159 0.5739319921 4286743946
-0.2625157237 -0.1507906318 0.5740633011 4286151809
-0.2625755668 -0.1501870304 0.5741941929 4285888892
-0.2630398571 -0.1498134881 0.5752094984 4285757306
-0.2630993426 -0.1492081434 0.5753396153 4285625720
-0.2627537847 -0.1483737528 0.5745838881 4285625720
-0.2632177174 -0.1479962021 0.5755984187 4285624948
-0.2632765770 -0.1473896205 0.5757271647 4285624948
-0.2629300952 -0.1465568244 0.5749694705 4285624951
-0.2629884183 -0.1459503621 0.5750970244 4285559158
-0.2630465329 -0.1453434974 0.5752241015 4285559157
-0.2631044388 -0.1447362453 0.5753507614 4285032813
-0.2631621361 -0.1441285759 0.5754768848 4284045918
-0.2632195950 -0.1435205191 0.5756025314 4283256402
-0.2628711760 -0.1426918507 0.5748406649 4282466887
-0.2621166110 -0.1416454017 0.5731905699 4281611578
-0.2617673278 -0.1408206373 0.5724267960 4281282100
-0.2610117197 -0.1397799850 0.5707744360 4281808444
-0.2598495185 -0.1385262460 0.5682329535 4281808956
-0.2586866021 -0.1372777671 0.5656899214 4281677370
-0.2579291165 -0.1362491101 0.5640334487 4281414198
-0.2567647994 -0.1350102127 0.5614873767 4281479991
-0.2564124763 -0.1342019737 0.5607169271 4281479478
-0.2564662099 -0.1336069703 0.5608344078 4281545271
-0.2557066977 -0.1325899959 0.5591734648 4281348406
-0.2557598054 -0.1319961399 0.5592896938 4281282613
-0.2554060221 -0.1311929971 0.5585160255 4281348406
-0.2554586530 -0.1305993497 0.5586310625 4281282613
-0.2551041842 -0.1297983080 0.5578559637 4281216820
-0.2555632293 -0.1294109374 0.5588597655 4281808957
-0.2560222149 -0.1290213168 0.5598635077 4283322196
-0.2560740411 -0.1284252554 0.5599768162 4281348406
-0.2565328479 -0.1280320734 0.5609801412 4281216307
-0.2573988736 -0.1278388947 0.5628738999 4281676858
-0.2578576505 -0.1274402440 0.5638771653 4281940030
-0.2562791407 -0.1260374337 0.5604253411 4282532167
-0.2559223473 -0.1252401620 0.5596451163 4282663753
-0.2559727728 -0.1246429086 0.5597553849 4282532167
-0.2564306557 -0.1242428273 0.5607566833 4282466374
-0.2564807236 -0.1236439198 0.5608661175 4282729546
-0.2565305531 -0.1230446622 0.5609751344 4282137922
-0.2565801740 -0.1224450544 0.5610836148 4282532680
-0.2562215626 -0.1216513887 0.5602993965 4283980126
-0.2562706470 -0.1210520416 0.5604067445 4283980126
-0.2567276657 -0.1206441596 0.5614061952 4284638056
-0.2571846247 -0.1202340201 0.5624054074 4289046187
-0.2576414943 -0.1198216304 0.5634045005 4292204250
-0.2605913877 -0.1519537866 0.5712426305 4288257446
-0.2610549927 -0.1515883058 0.5722589493 4287270551
-0.2611149848 -0.1509871781 0.5723904371 4286612362
-0.2615784407 -0.1506180763 0.5734063983 4286151811
-0.2616381347 -0.1500151902 0.5735372305 4285954430
-0.2616975904 -0.1494119018 0.5736675262 4285822844
-0.2617568374 -0.1488081962 0.5737974048 4285625720
-0.2618158460 -0.1482040733 0.5739268064 4285625720
-0.2618746758 -0.1475995630 0.5740557909 4285756536
-0.2619332969 -0.1469946355 0.5741842389 4285624950
-0.2619916797 -0.1463892907 0.5743122101 4285822330
-0.2620498538 -0.1457835585 0.5744397640 4285624951
-0.2621078193 -0.1451774091 0.5745667815 4285888122
-0.2617609799 -0.1443477720 0.5738065243 4285822329
-0.2618184090 -0.1437417567 0.5739324093 4284769641
-0.2618756294 -0.1431353539 0.5740578771 4284045918
-0.2615278065 -0.1423082650 0.5732953548 4283848540
-0.2611795664 -0.1414826512 0.5725319982 4283585368
-0.2608309388 -0.1406585276 0.5717678070 4282137409
-0.2588615119 -0.1389659941 0.5674505830 4281808444
-0.2601325214 -0.1390147358 0.5702367425 4281414198
-0.2581616044 -0.1373327225 0.5659163594 4281743163
-0.2574057281 -0.1363036782 0.5642593503 4281677370
-0.2562437952 -0.1350643039 0.5617123246 4281677370
-0.2558922470 -0.1342557520 0.5609416366 4281413686
-0.2559459209 -0.1336605400 0.5610592961 4281413686
-0.2551879585 -0.1326431781 0.5593978167 4281479992
-0.2552410364 -0.1320491135 0.5595141053 4281348406
-0.2548879981 -0.1312456727 0.5587402582 4281348406
-0.2545346022 -0.1304437518 0.5579655766 4281151027
-0.2545868456 -0.1298504621 0.5580800772 4281216820
-0.2550449967 -0.1294629574 0.5590844154 4281743164
-0.2555030882 -0.1290732026 0.5600886345 4282532680
-0.2555548549 -0.1284769326 0.5602021217 4281216820
-0.2560127676 -0.1280836016 0.5612058640 4280624683
-0.2568770945 -0.1278903633 0.5631005168 4281151027
-0.2573349774 -0.1274915636 0.5641042590 4281479479
-0.2557597160 -0.1260882169 0.5606511831 4281874237
-0.2554036975 -0.1252906471 0.5598707199 4282005823
-0.2554540634 -0.1246931702 0.5599811077 4282268995
-0.2559110522 -0.1242929474 0.5609828830 4282137409
-0.2559610605 -0.1236938164 0.5610924959 4281808444
-0.2560108304 -0.1230943352 0.5612016320 4281940543
-0.2560603917 -0.1224945113 0.5613102317 4282203715
-0.2557025254 -0.1217005402 0.5605258346 4283980126
-0.2561588287 -0.1212938130 0.5615260005 4286414467
-0.2562077045 -0.1206929386 0.5616331697 4288519843
-0.2566637695 -0.1202826574 0.5626329184 4292401630
-0.2620836794 -0.1158010587 0.5745139122 4294769919
-0.2596572936 -0.1517786384 0.5705842376 4288323239
-0.2597172260 -0.1511795819 0.5707159638 4287270551
-0.2597769797 -0.1505800933 0.5708472133 4286612362
-0.2602393627 -0.1502127349 0.5718632936 4286151811
-0.2602987587 -0.1496115029 0.5719938278 4286086018
-0.2603579760 -0.1490098685 0.5721239448 4285954432
-0.2604169548 -0.1484078020 0.5722535849 4285691258
-0.2604757249 -0.1478053480 0.5723826885 4285691258
-0.2605342865 -0.1472024769 0.5725114346 4285822330
-0.2601892650 -0.1463722736 0.5717532039 4285756537
-0.2602472901 -0.1457695216 0.5718807578 4285953916
-0.2607087195 -0.1453914344 0.5728946924 4286151295
-0.2607664168 -0.1447869539 0.5730214715 4285822329
-0.2604201436 -0.1439588815 0.5722606182 4285953915
-0.2604773343 -0.1433545202 0.5723862648 4286085501
-0.2601304054 -0.1425284594 0.5716238618 4285098606
-0.2601870596 -0.1419242620 0.5717483759 4285098094
-0.2598394156 -0.1411002278 0.5709844232 4286742919
-0.2594913542 -0.1402776688 0.5702196360 4287466642
-0.2591429353 -0.1394566000 0.5694539547 4284111199
-0.2583897412 -0.1384204179 0.5677988529 4281151027
-0.2576359808 -0.1373876035 0.5661424994 4280887855
-0.2568816841 -0.1363581717 0.5644849539 4281216820
-0.2561267912 -0.1353321224 0.5628261566 4281545785
-0.2557760775 -0.1345223337 0.5620554686 4281479479
-0.2550201714 -0.1335021406 0.5603944063 4281611065
-0.2546685934 -0.1326963007 0.5596218109 4281282613
-0.2543166280 -0.1318919957 0.5588484406 4281151027
-0.2543693483 -0.1312982738 0.5589641929 4281216820
-0.2540166974 -0.1304960698 0.5581892729 4280822062
-0.2540688813 -0.1299025565 0.5583039522 4280822062
-0.2545261383 -0.1295149177 0.5593087673 4281085234
-0.2549833655 -0.1291250288 0.5603135228 4281414199
-0.2550350726 -0.1285285354 0.5604271293 4281216820
-0.2554920912 -0.1281350553 0.5614314079 4281019441
-0.2563546598 -0.1279417723 0.5633268952 4281085234
-0.2568116784 -0.1275428385 0.5643311143 4281151027
-0.2552396655 -0.1261389405 0.5608767271 4281677371
-0.2548843920 -0.1253410727 0.5600960255 4281479992
-0.2549346983 -0.1247433722 0.5602065325 4281808957
-0.2549847662 -0.1241453290 0.5603166223 4281940543
-0.2554407418 -0.1237436607 0.5613185763 4281940543
-0.2554904521 -0.1231439561 0.5614278316 4281940542
-0.2555399537 -0.1225439012 0.5615365505 4282401093
-0.2551828921 -0.1217496321 0.5607519150 4285164400
-0.2556382716 -0.1213427559 0.5617526174 4288585636
-0.2560935915 -0.1209336221 0.5627532005 4290691011
-0.2606898844 -0.1161028147 0.5728533268 4294770684
-0.2583224475 -0.1513678133 0.5690398216 4288586665
-0.2583821416 -0.1507704109 0.5691713095 4287599770
-0.2584416270 -0.1501725763 0.5693023205 4286941327
-0.2589029074 -0.1498069614 0.5703184605 4286743948
-0.2589620650 -0.1492073834 0.5704487562 4286086018
-0.2590210140 -0.1486073881 0.5705786347 4286086018
-0.2590797544 -0.1480069906 0.5707079768 4286151809
-0.2591382563 -0.1474061757 0.5708369017 4285757051
-0.2591965795 -0.1468049586 0.5709653497 4286085502
-0.2592546642 -0.1462033391 0.5710933208 4286085502
-0.2593125701 -0.1456013173 0.5712208152 4285887612
-0.2593702376 -0.1449988931 0.5713478923 4286216577
-0.2594276965 -0.1443960667 0.5714744329 4285821819
-0.2594849467 -0.1437928379 0.5716005564 4285887612
-0.2591389418 -0.1429668665 0.5708383918 4286348163
-0.2587925792 -0.1421423703 0.5700753927 4285624440
-0.2588489950 -0.1415398270 0.5701996684 4285229682
-0.2585019171 -0.1407173723 0.5694351196 4285624440
-0.2581544518 -0.1398963928 0.5686697364 4289769399
-0.2578065991 -0.1390769035 0.5679034591 4289374641
-0.2574583590 -0.1382589191 0.5671363473 4284966510
-0.2567061186 -0.1372266561 0.5654792786 4282137411
-0.2563570142 -0.1364126056 0.5647102594 4280953394
-0.2556037307 -0.1353861690 0.5630509257 4281348152
-0.2552537620 -0.1345760673 0.5622799993 4280756015
-0.2549034059 -0.1337674856 0.5615082383 4280756015
-0.2541486323 -0.1327493638 0.5598455667 4281150514
-0.2537974119 -0.1319447607 0.5590719581 4281084721
-0.2538500726 -0.1313508153 0.5591878891 4280953135
-0.2534981668 -0.1305483133 0.5584127903 4280821549
-0.2531459033 -0.1297473162 0.5576367974 4280821549
-0.2536022067 -0.1293604970 0.5586419106 4280953135
-0.2540584505 -0.1289714128 0.5596469045 4281084721
-0.2541100085 -0.1283756495 0.5597605109 4281018928
-0.2545660436 -0.1279829890 0.5607650876 4280558377
-0.2558316290 -0.1279931217 0.5635529757 4280360998
-0.2562877238 -0.1275940388 0.5645576715 4280624170
-0.2551239431 -0.1263902336 0.5619940162 4280953135
-0.2547695041 -0.1255910993 0.5612133145 4281150514
-0.2544147074 -0.1247935146 0.5604317188 4281611065
-0.2548699379 -0.1243930086 0.5614345074 4281808444
-0.2549197972 -0.1237934381 0.5615443587 4282137409
-0.2549694479 -0.1231935099 0.5616537333 4283124565
-0.2550188899 -0.1225932389 0.5617626309 4286545801
-0.2550680935 -0.1219926178 0.5618710518 4289638070
-0.2551170886 -0.1213916466 0.5619789362 4290888137
-0.2555715144 -0.1209823638 0.5629799962 4291480528
-0.2592517734 -0.1170138493 0.5710869431 4294769919
-0.2565893531 -0.1507210433 0.5666083694 4288652458
-0.2570497096 -0.1503607929 0.5676249266 4287468184
-0.2575100362 -0.1499982476 0.5686414242 4286743948
-0.2575691342 -0.1494007409 0.5687719584 4286349190
-0.2580293417 -0.1490345895 0.5697881579 4286020223
-0.2580881119 -0.1484353095 0.5699179769 4286151809
-0.2581466734 -0.1478356421 0.5700473189 4285953916
-0.2582050264 -0.1472355574 0.5701761842 4286085502
-0.2582631707 -0.1466350555 0.5703045726 4286414467
-0.2583211064 -0.1460341662 0.5704324841 4286085502
-0.2583788335 -0.1454328597 0.5705599785 4286019198
-0.2584363520 -0.1448311508 0.5706869364 4285821819
-0.2584936321 -0.1442290545 0.5708134770 4285756026
-0.2585507333 -0.1436265409 0.5709395409 4285690233
-0.2578032315 -0.1425787807 0.5692888498 4285229939
-0.2578597069 -0.1419773549 0.5694135427 4285229939
-0.2579159737 -0.1413755417 0.5695378184 4286282627
-0.2575695515 -0.1405537128 0.5687728524 4287993245
-0.2572227716 -0.1397333741 0.5680070519 4289835449
-0.2568755746 -0.1389145255 0.5672404170 4291677653
-0.2561253011 -0.1378803849 0.5655836463 4290427586
-0.2557772696 -0.1370654702 0.5648150444 4287532694
-0.2554288208 -0.1362520605 0.5640456676 4281019187
-0.2554829717 -0.1356541067 0.5641652346 4280756015
-0.2551338673 -0.1348427683 0.5633943081 4280756015
-0.2543812096 -0.1338208616 0.5617322922 4280361257
-0.2536280155 -0.1328023523 0.5600690842 4280689962
-0.2532775998 -0.1319974512 0.5592952371 4280689962
-0.2533301711 -0.1314032972 0.5594112873 4280755755
-0.2529790401 -0.1306004822 0.5586359501 4280887341
-0.2526275218 -0.1297992021 0.5578597188 4280953134
-0.2526792884 -0.1292058378 0.5579740405 4281018927
-0.2531345487 -0.1288175732 0.5589793921 4281084720
-0.2531859577 -0.1282225400 0.5590928793 4281084720
-0.2536410391 -0.1278306991 0.5600978136 4280624682
-0.2549040020 -0.1278418005 0.5628867149 4280558889
-0.2553591132 -0.1274435371 0.5638917089 4280690476
-0.2550059259 -0.1266416013 0.5631117821 4280953648
-0.2546523511 -0.1258412302 0.5623310208 4280887855
-0.2542983890 -0.1250423938 0.5615494251 4281743164
-0.2543484271 -0.1244429499 0.5616598725 4282927438
-0.2548027039 -0.1240400448 0.5626630187 4284572263
-0.2548523545 -0.1234389395 0.5627726912 4286809743
-0.2549018264 -0.1228374913 0.5628818870 4289573049
-0.2549510300 -0.1222356930 0.5629906058 4291941595
-0.2550000548 -0.1216335446 0.5630987883 4291546837
-0.2550488114 -0.1210310459 0.5632064939 4291678421
-0.2582691014 -0.1174898893 0.5703176260 4294769919
-0.2516659200 -0.1642859727 0.5571026802 4293916669
-0.2556608021 -0.1505448371 0.5659459233 4288651945
-0.2557199597 -0.1499507278 0.5660769343 4287467671
-0.2561792135 -0.1495899409 0.5670935512 4287072913
-0.2562380433 -0.1489940733 0.5672237873 4286612362
-0.2566971481 -0.1486296654 0.5682401061 4286349188
-0.2567556798 -0.1480320543 0.5683696270 4286217602
-0.2568139732 -0.1474340260 0.5684987307 4286019709
-0.2568720877 -0.1468355954 0.5686272979 4286348674
-0.2569299936 -0.1462367624 0.5687555075 4286019709
-0.2569876611 -0.1456375271 0.5688831806 4286151295
-0.2570451200 -0.1450378746 0.5690103769 4285822078
-0.2571024001 -0.1444378346 0.5691371560 4285427320
-0.2571594417 -0.1438373923 0.5692633986 4285756285
-0.2572162747 -0.1432365477 0.5693892241 4286414215
-0.2568715215 -0.1424127817 0.5686261058 4287269524
-0.2565263808 -0.1415905058 0.5678620934 4289440693
-0.2561808825 -0.1407697052 0.5670971870 4290559174
-0.2558349669 -0.1399503946 0.5663315058 4291019725
-0.2554886639 -0.1391325891 0.5655649304 4291809241
-0.2555437982 -0.1385340840 0.5656869411 4291875034
-0.2547949255 -0.1375014335 0.5640291572 4291677655
-0.2544474602 -0.1366880983 0.5632600188 4289374900
-0.2545016706 -0.1360912621 0.5633800626 4281742910
-0.2545556724 -0.1354940534 0.5634995699 4280295464
-0.2546094656 -0.1348964572 0.5636186600 4280493613
-0.2538584173 -0.1338741630 0.5619560480 4280230441
-0.2531068027 -0.1328552812 0.5602922440 4280887341
-0.2527571321 -0.1320500672 0.5595182180 4280821548
-0.2528096437 -0.1314557046 0.5596344471 4280887341
-0.2524592578 -0.1306525916 0.5588588715 4280953134
-0.2521085441 -0.1298510134 0.5580824614 4281018927
-0.2521602213 -0.1292574406 0.5581968427 4281018927
-0.2526145875 -0.1288690418 0.5592026711 4281019441
-0.2526659369 -0.1282737851 0.5593163371 4281085234
-0.2531201243 -0.1278818101 0.5603217483 4280624683
-0.2535742521 -0.1274875700 0.5613270402 4280756269
-0.2544315457 -0.1272927970 0.5632247925 4280887855
-0.2540790141 -0.1264915168 0.5624444485 4281545785
-0.2537261248 -0.1256917864 0.5616632700 4281875266
-0.2533728778 -0.1248936057 0.5608812571 4283388505
-0.2538262904 -0.1244928241 0.5618849993 4284901744
-0.2538760602 -0.1238928065 0.5619951487 4286875534
-0.2539255917 -0.1232924387 0.5621047616 4288454568
-0.2539748847 -0.1226917207 0.5622138977 4290954702
-0.2540239692 -0.1220906526 0.5623225570 4292138974
-0.2540728450 -0.1214892417 0.5624307394 4291349458
-0.2545254827 -0.1210796684 0.5634327531 4292402399
-0.2502236068 -0.1649809331 0.5552750826 4294048251
-0.2542748749 -0.1507247239 0.5642653108 4289902013
-0.2547922730 -0.1497749686 0.5654134154 4288454566
-0.2548510432 -0.1491811723 0.5655438900 4287467671
-0.2553091943 -0.1488198638 0.5665605664 4286480776
-0.2553676665 -0.1482243091 0.5666903257 4286348420
-0.2554259300 -0.1476283520 0.5668196082 4286480006
-0.2554839849 -0.1470319778 0.5669484138 4286480260
-0.2555418313 -0.1464352161 0.5670768023 4286019709
-0.2555994689 -0.1458380371 0.5672047138 4285559158
-0.2560569644 -0.1454677433 0.5682200193 4289111980
-0.2561142743 -0.1448688358 0.5683471560 4289967039
-0.2561713755 -0.1442695111 0.5684738755 4289374902
-0.2562282681 -0.1436697841 0.5686001182 4289374902
-0.2558844984 -0.1428461224 0.5678372383 4290822348
-0.2551397979 -0.1418013275 0.5661846399 4290953934
-0.2551957667 -0.1412032396 0.5663089156 4290953934
-0.2548508346 -0.1403840184 0.5655434132 4290493381
-0.2545055151 -0.1395662874 0.5647771358 4290427588
-0.2541598082 -0.1387500465 0.5640099645 4290690760
-0.2538137138 -0.1379353106 0.5632418990 4290756553
-0.2534672320 -0.1371220648 0.5624729991 4291809241
-0.2531203628 -0.1363103241 0.5617032647 4291151311
-0.2531743348 -0.1357151568 0.5618230700 4285099125
-0.2536294162 -0.1353337616 0.5628329515 4280230443
-0.2536830306 -0.1347368956 0.5629519224 4280690992
-0.2533349693 -0.1339274049 0.5621795654 4280493613
-0.2525849640 -0.1329081357 0.5605151653 4280755755
-0.2522360384 -0.1321026236 0.5597409010 4280821548
-0.2518867552 -0.1312986463 0.5589657426 4280887341
-0.2519388795 -0.1307046413 0.5590814948 4280887341
-0.2515889108 -0.1299027652 0.5583048463 4280756268
-0.2516405284 -0.1293089688 0.5584194064 4280822061
-0.2516919374 -0.1287148148 0.5585334897 4280887855
-0.2517431378 -0.1281203032 0.5586470962 4280953648
-0.2521963418 -0.1277291328 0.5596528053 4280756269
-0.2530518174 -0.1275384724 0.5615511537 4281085234
-0.2531026006 -0.1269400269 0.5616638660 4281414715
-0.2531531453 -0.1263412088 0.5617761016 4284046435
-0.2532035112 -0.1257420480 0.5618878007 4285230709
-0.2528510094 -0.1249435619 0.5611056089 4286151811
-0.2529008389 -0.1243446320 0.5612161756 4287072915
-0.2533532381 -0.1239423975 0.5622200966 4288454568
-0.2534027100 -0.1233418062 0.5623298287 4290033600
-0.2534519434 -0.1227408722 0.5624391437 4291941597
-0.2535009682 -0.1221395805 0.5625479221 4291217872
-0.2535497844 -0.1215379462 0.5626562238 4290954700
-0.2540015280 -0.1211282238 0.5636587143 4293257708
-0.2558557093 -0.1188582554 0.5677733421 4294769916
-0.2461754680 -0.2004379630 0.5476415753 4294114043
-0.2462503165 -0.1998902559 0.5478080511 4294113789
-0.2463250011 -0.1993420422 0.5479742289 4294114047
-0.2493817955 -0.1679141223 0.5547743440 4294048251
-0.2539826334 -0.1484124064 0.5650093555 4288585384
-0.2544396520 -0.1480505615 0.5660260320 4287795866
-0.2544977367 -0.1474553347 0.5661553144 4286414213
-0.2545556426 -0.1468596905 0.5662840605 4285493111
-0.2546133101 -0.1462636441 0.5664123893 4284506216
-0.2546707988 -0.1456671953 0.5665402412 4283914079
-0.2547280490 -0.1450703293 0.5666676164 4288980140
-0.2547851205 -0.1444730759 0.5667945743 4292861931
-0.2548419535 -0.1438754201 0.5669209957 4292796138
-0.2548985779 -0.1432773620 0.5670469999 4291151313
-0.2545554042 -0.1424552798 0.5662835240 4291151313
-0.2534123957 -0.1411892772 0.5637408495 4291414485
-0.2534680665 -0.1405937821 0.5638646483 4291480278
-0.2531236112 -0.1397770941 0.5630983710 4290953934
-0.2527787983 -0.1389618814 0.5623313189 4290559176
-0.2520335317 -0.1379292309 0.5606733561 4291085518
-0.2516878247 -0.1371179521 0.5599043369 4290493381
-0.2517420053 -0.1365252435 0.5600248575 4291085518
-0.2513956428 -0.1357160211 0.5592543483 4291546069
-0.2518496811 -0.1353386492 0.5602644086 4288914349
-0.2523036897 -0.1349589974 0.5612743497 4281808705
-0.2523570657 -0.1343638152 0.5613931417 4280164650
-0.2520096004 -0.1335559189 0.5606201887 4280164650
-0.2516617477 -0.1327495426 0.5598463416 4280624423
-0.2513135076 -0.1319446862 0.5590716600 4280821802
-0.2513658106 -0.1313508302 0.5591879487 4280953134
-0.2510168850 -0.1305480748 0.5584117770 4280821548
-0.2510686815 -0.1299544424 0.5585269332 4280822061
-0.2511202395 -0.1293604374 0.5586416721 4281019440
-0.2511715591 -0.1287660748 0.5587558746 4281085234
-0.2508213818 -0.1279665977 0.5579768419 4281019441
-0.2512736022 -0.1275762469 0.5589829087 4280756783
-0.2517257929 -0.1271836311 0.5599887967 4280888369
-0.2521778941 -0.1267887652 0.5609945655 4281414715
-0.2526299655 -0.1263916194 0.5620002151 4285296502
-0.2526802421 -0.1257922351 0.5621120930 4286678155
-0.2523285151 -0.1249934509 0.5613296032 4286546569
-0.2527801692 -0.1245923862 0.5623343587 4287467673
-0.2528297901 -0.1239919290 0.5624447465 4289112498
-0.2532812357 -0.1235872880 0.5634490252 4289902273
-0.2533304989 -0.1229851693 0.5635586381 4290691789
-0.2533795238 -0.1223827079 0.5636677146 4290231490
-0.2534283400 -0.1217798889 0.5637763143 4291284178
-0.2423824966 -0.2230627984 0.5405392647 4293981690
-0.2446231693 -0.1954244971 0.5455362201 4294114043
-0.2446963191 -0.1948766410 0.5456993580 4293982715
-0.2447693199 -0.1943282783 0.5458621383 4294114042
-0.2470166683 -0.1765265614 0.5508739948 4294048253
-0.2521445453 -0.1489528120 0.5623096824 4289046705
-0.2522028089 -0.1483623236 0.5624396801 4287006352
-0.2526587844 -0.1480045021 0.5634564757 4284900976
-0.2527167201 -0.1474122703 0.5635857582 4283650909
-0.2531725466 -0.1470508426 0.5646022558 4282335049
-0.2532301843 -0.1464568526 0.5647307634 4281676860
-0.2532876134 -0.1458624750 0.5648588538 4281018930
-0.2533448339 -0.1452676803 0.5649864674 4280821551
-0.2534018457 -0.1446724981 0.5651136041 4285098096
-0.2534586489 -0.1440768987 0.5652402639 4292335587
-0.2535152435 -0.1434809119 0.5653665066 4293848826
-0.2535715997 -0.1428845078 0.5654922128 4291875036
-0.2528302073 -0.1418402791 0.5638388395 4291085520
-0.2516893744 -0.1405766159 0.5612946153 4291611864
-0.2513457239 -0.1397618949 0.5605282784 4291677657
-0.2510016859 -0.1389486641 0.5597610474 4291414485
-0.2506572902 -0.1381369233 0.5589929223 4291151313
-0.2503124774 -0.1373266727 0.5582240224 4291414485
-0.2499673069 -0.1365179271 0.5574542284 4290756555
-0.2500211298 -0.1359278262 0.5575742722 4290953932
-0.2496752739 -0.1351211369 0.5568029881 4291151311
-0.2501281500 -0.1347464770 0.5578129292 4291020495
-0.2505809963 -0.1343695372 0.5588228703 4285625469
-0.2506340742 -0.1337769628 0.5589411855 4280296236
-0.2506869435 -0.1331840307 0.5590590835 4280888373
-0.2503396869 -0.1323792487 0.5582846999 4280690475
-0.2503920496 -0.1317865103 0.5584014058 4280822061
-0.2504441738 -0.1311933845 0.5585176945 4280822061
-0.2500959337 -0.1303912848 0.5577411056 4280690475
-0.2501475811 -0.1297983825 0.5578562021 4280822061
-0.2501989901 -0.1292051077 0.5579708815 4281019440
-0.2502501905 -0.1286114752 0.5580850840 4281019441
-0.2499006838 -0.1278126538 0.5573056340 4280887855
-0.2503519356 -0.1274231225 0.5583119988 4280888369
-0.2508031130 -0.1270313263 0.5593181849 4282138436
-0.2508535385 -0.1264352947 0.5594305992 4283256917
-0.2517053485 -0.1262409389 0.5613302588 4287072911
-0.2517554760 -0.1256422848 0.5614420772 4288980910
-0.2518053949 -0.1250432730 0.5615534186 4289309875
-0.2522561550 -0.1246420667 0.5625585914 4289902012
-0.2523057163 -0.1240413934 0.5626691580 4290099391
-0.2527562678 -0.1236366108 0.5636739135 4289441209
-0.2528054714 -0.1230342761 0.5637836456 4289441209
-0.2528544366 -0.1224315837 0.5638928413 4290757321
-0.2529031932 -0.1218285486 0.5640015602 4292599525
-0.2411056757 -0.2224387079 0.5390269756 4293785340
-0.2501352131 -0.1512393504 0.5592137575 4292072929
-0.2501941323 -0.1506535113 0.5593455434 4290493897
-0.2502528727 -0.1500672549 0.5594768524 4288651693
-0.2503114045 -0.1494805813 0.5596076846 4286480524
-0.2503697276 -0.1488935053 0.5597380996 4284374632
-0.2504278421 -0.1483060271 0.5598680377 4282466635
-0.2508827448 -0.1479522288 0.5608850121 4281742912
-0.2509405613 -0.1473629922 0.5610142350 4281019189
-0.2513953149 -0.1470055878 0.5620309114 4280821810
-0.2514528036 -0.1464146078 0.5621594787 4280756017
-0.2515100837 -0.1458232254 0.5622875094 4281282102
-0.2515671551 -0.1452314407 0.5624151230 4281479481
-0.2516240478 -0.1446392536 0.5625423193 4281084723
-0.2516807020 -0.1440466493 0.5626689792 4282005825
-0.2521348596 -0.1436802894 0.5636842847 4289966784
-0.2521911860 -0.1430859566 0.5638102293 4293980157
-0.2510537207 -0.1418169886 0.5612672567 4293453813
-0.2519052923 -0.1416722983 0.5631710887 4291414230
-0.2499707192 -0.1399633735 0.5588460565 4291349206
-0.2496275604 -0.1391511708 0.5580788851 4291678171
-0.2488858104 -0.1381194592 0.5564205647 4291480792
-0.2485418022 -0.1373111904 0.5556514859 4291217620
-0.2481974214 -0.1365044117 0.5548815727 4291151827
-0.2478526533 -0.1356991529 0.5541108251 4290954448
-0.2479060739 -0.1351125985 0.5542302132 4291086034
-0.2479592860 -0.1345256865 0.5543491840 4290625483
-0.2484110147 -0.1341537237 0.5553591251 4291283413
-0.2488627136 -0.1337794811 0.5563689470 4289441209
-0.2489154637 -0.1331895441 0.5564868450 4282927702
-0.2489680052 -0.1325992346 0.5566043258 4280098603
-0.2490203232 -0.1320085377 0.5567213297 4280954164
-0.2490724474 -0.1314174831 0.5568377972 4280888371
-0.2491243482 -0.1308260560 0.5569538474 4280822578
-0.2491760403 -0.1302342564 0.5570694208 4280756785
-0.2492275089 -0.1296420842 0.5571845174 4280690992
-0.2492787838 -0.1290495545 0.5572991371 4280427820
-0.2489302605 -0.1282507926 0.5565199256 4280230441
-0.2489810139 -0.1276584864 0.5566334128 4280098855
-0.2494312823 -0.1272697747 0.5576400757 4280493615
-0.2498815060 -0.1268787980 0.5586465597 4284178023
-0.2499317676 -0.1262834966 0.5587589741 4287467673
-0.2503817976 -0.1258889437 0.5597650409 4290362565
-0.2508317530 -0.1254921257 0.5607710481 4291678425
-0.2512816787 -0.1250930429 0.5617768764 4291941597
-0.2513312995 -0.1244934574 0.5618878603 4291415510
-0.2517810166 -0.1240907982 0.5628932118 4290625994
-0.2518303096 -0.1234895438 0.5630034208 4289441209
-0.2526802421 -0.1232786849 0.5649035573 4289967553
-0.2528748810 -0.1208611205 0.5653387308 4294770687
-0.2402128428 -0.2221666425 0.5383676887 4293850876
-0.2481883615 -0.1529078633 0.5562425256 4292008419
-0.2482477278 -0.1523262709 0.5563755631 4290758352
-0.2483069003 -0.1517442614 0.5565081835 4289243830
-0.2483658791 -0.1511618346 0.5566403866 4287335833
-0.2488202304 -0.1508187652 0.5576586723 4285493629
-0.2488788962 -0.1502345800 0.5577901602 4283454046
-0.2489373684 -0.1496499926 0.5579212308 4281743428
-0.2489956319 -0.1490649879 0.5580517650 4280756533
-0.2490537018 -0.1484795660 0.5581819415 4280887603
-0.2491115779 -0.1478937417 0.5583116412 4281150775
-0.2491692305 -0.1473075002 0.5584408641 4281677119
-0.2492266893 -0.1467208713 0.5585696101 4281677119
-0.2496802658 -0.1463661492 0.5595862269 4281282102
-0.2497374117 -0.1457777619 0.5597142577 4281150516
-0.2497943640 -0.1451889724 0.5598418713 4281545274
-0.2498510927 -0.1445997804 0.5599690676 4281413688
-0.2499076277 -0.1440102011 0.5600957274 4281479481
-0.2499639541 -0.1434202045 0.5602219701 4281413688
-0.2504169345 -0.1430565417 0.5612372160 4285691009
-0.2500759661 -0.1422390342 0.5604730844 4292270309
-0.2489405870 -0.1409733444 0.5579283834 4293915134
-0.2493929416 -0.1406084895 0.5589422584 4291283414
-0.2482564300 -0.1393495202 0.5563950539 4290954449
-0.2479137778 -0.1385398358 0.5556271076 4291546586
-0.2471733540 -0.1375105828 0.5539676547 4291415000
-0.2468298525 -0.1367048323 0.5531978011 4290954449
-0.2468835264 -0.1361197978 0.5533180833 4291151828
-0.2465393543 -0.1353161037 0.5525467396 4290954449
-0.2469902635 -0.1349485517 0.5535573363 4290625484
-0.2470433116 -0.1343623698 0.5536762476 4290757070
-0.2470961660 -0.1337758005 0.5537946820 4289835968
-0.2475467771 -0.1334033459 0.5548046231 4289835968
-0.2475992888 -0.1328150779 0.5549222827 4287402140
-0.2480497509 -0.1324390322 0.5559318662 4281349184
-0.2481019199 -0.1318490803 0.5560488105 4281085499
-0.2481538951 -0.1312587559 0.5561652780 4280230190
-0.2482056469 -0.1306680590 0.5562812686 4279572260
-0.2482571751 -0.1300769895 0.5563967824 4279506467
-0.2483085096 -0.1294855624 0.5565118194 4279967018
-0.2483596206 -0.1288937628 0.5566263795 4280953913
-0.2484105229 -0.1283016056 0.5567404032 4282336079
-0.2480624020 -0.1275040954 0.5559601784 4283520353
-0.2485116869 -0.1271161884 0.5569671392 4285362557
-0.2489609271 -0.1267260313 0.5579739809 4287599519
-0.2490110546 -0.1261314750 0.5580863357 4289244344
-0.2490609586 -0.1255365610 0.5581982136 4290231239
-0.2495098710 -0.1251415014 0.5592042804 4291152340
-0.2499587089 -0.1247441918 0.5602102280 4291744477
-0.2508068681 -0.1245429367 0.5621111393 4291547098
-0.2508562505 -0.1239427775 0.5622217655 4291283926
-0.2513048947 -0.1235386655 0.5632273555 4291151827
-0.2514995635 -0.1211292744 0.5636636019 4294113018
-0.2389405966 -0.2215414494 0.5368526578 4293850875
-0.2466396242 -0.1547956914 0.5541508794 4292138976
-0.2466995120 -0.1542174369 0.5542854071 4291020495
-0.2467592061 -0.1536387503 0.5544195175 4290230209
-0.2468186915 -0.1530596465 0.5545532107 4288519591
-0.2468779981 -0.1524801254 0.5546864867 4286151813
-0.2469370961 -0.1519001871 0.5548192263 4284178023
-0.2473905683 -0.1515615433 0.5558381081 4282466637
-0.2474493682 -0.1509798467 0.5559702516 4281677121
-0.2475079745 -0.1503977329 0.5561019182 4281413434
-0.2475663871 -0.1498152167 0.5562331080 4281545020
-0.2472296506 -0.1489942670 0.5554765463 4281545020
-0.2472875714 -0.1484118551 0.5556066632 4281413434
-0.2473452836 -0.1478290260 0.5557363629 4281479742
-0.2474027872 -0.1472457945 0.5558655858 4281742914
-0.2474601120 -0.1466621608 0.5559943318 4281084984
-0.2479126155 -0.1463114619 0.5570110083 4281019191
-0.2479696125 -0.1457260847 0.5571390986 4280952883
-0.2480264157 -0.1451402903 0.5572667122 4280821297
-0.2480830103 -0.1445541084 0.5573938489 4280756017
-0.2481393963 -0.1439675242 0.5575205684 4280821810
-0.2481955886 -0.1433805376 0.5576468110 4281150777
-0.2482515723 -0.1427931488 0.5577725768 4281348156
-0.2483073473 -0.1422053725 0.5578979254 4282071113
-0.2475706935 -0.1411654651 0.5562428236 4289637308
-0.2464372814 -0.1399039924 0.5536962748 4293585401
-0.2468882948 -0.1395437121 0.5547096133 4292203748
-0.2461501360 -0.1385120302 0.5530511141 4290887888
-0.2454114407 -0.1374837160 0.5513913631 4290953681
-0.2462583780 -0.1373434365 0.5532943010 4290757072
-0.2451222837 -0.1360978931 0.5507417321 4290164935
-0.2451756299 -0.1355154663 0.5508615971 4289507003
-0.2456255853 -0.1351509988 0.5518725514 4289178038
-0.2456786036 -0.1345668733 0.5519916415 4288849586
-0.2461283952 -0.1341988146 0.5530022383 4288520621
-0.2461810857 -0.1336129904 0.5531206131 4288257449
-0.2466307282 -0.1332413405 0.5541308522 4288191656
-0.2466830760 -0.1326538175 0.5542485118 4286020487
-0.2467352301 -0.1320659220 0.5543656945 4281941321
-0.2467871755 -0.1314776540 0.5544824004 4281348930
-0.2472363859 -0.1310997903 0.5554916859 4281677895
-0.2472879887 -0.1305098236 0.5556076169 4282401872
-0.2473393828 -0.1299194992 0.5557230711 4283717732
-0.2473905534 -0.1293288171 0.5558381081 4285559936
-0.2474415153 -0.1287377477 0.5559526086 4287402140
-0.2474922836 -0.1281463206 0.5560666323 4288849586
-0.2471448332 -0.1273494661 0.5552859902 4289770688
-0.2475931495 -0.1269623935 0.5562932491 4290691790
-0.2476432621 -0.1263698786 0.5564058423 4291086548
-0.2480913699 -0.1259792298 0.5574126840 4291153108
-0.2485394478 -0.1255863011 0.5584194064 4291218901
-0.2489874512 -0.1251911223 0.5594260097 4291416280
-0.2494353950 -0.1247936711 0.5604324341 4291547866
-0.2501271665 -0.1213933229 0.5619866848 4293324018
-0.2376710325 -0.2209156156 0.5353361368 4293850620
-0.2449103445 -0.1583852917 0.5516421199 4293454834
-0.2445787191 -0.1575587541 0.5508951545 4292928490
-0.2446393967 -0.1569856107 0.5510318279 4291546837
-0.2446998805 -0.1564120352 0.5511680841 4289836221
-0.2447601706 -0.1558380276 0.5513038635 4288454568
-0.2448202670 -0.1552636176 0.5514392257 4287599259
-0.2456663102 -0.1551853567 0.5533449054 4286283399
-0.2453330606 -0.1543608755 0.5525942445 4285098355
-0.2453926802 -0.1537842602 0.5527285337 4283979874
-0.2450587451 -0.1529617012 0.5519763827 4283256151
-0.2451178730 -0.1523851752 0.5521095991 4282269256
-0.2451768070 -0.1518082470 0.5522423387 4281875268
-0.2452355474 -0.1512308866 0.5523746610 4281941061
-0.2456878275 -0.1508949399 0.5533933640 4282071879
-0.2457462698 -0.1503158212 0.5535249710 4281742914
-0.2458045185 -0.1497363001 0.5536562204 4281742399
-0.2458625734 -0.1491563618 0.5537869334 4282005571
-0.2459204197 -0.1485760212 0.5539172292 4282005571
-0.2455838770 -0.1477580965 0.5531591773 4281742399
-0.2456412315 -0.1471778601 0.5532884002 4281611328
-0.2456983924 -0.1465972215 0.5534171462 4281742914
-0.2453608960 -0.1457818002 0.5526569486 4281150777
-0.2458121181 -0.1454347372 0.5536733270 4281019191
-0.2454740256 -0.1446203738 0.5529118180 4280953396
-0.2455303073 -0.1440390646 0.5530385375 4281019189
-0.2455863655 -0.1434573531 0.5531648397 4281019189
-0.2456422448 -0.1428752393 0.5532906651 4281019189
-0.2456979007 -0.1422927380 0.5534160733 4281019191
-0.2457533628 -0.1417098343 0.5535409451 4281150777
-0.2458086312 -0.1411265284 0.5536654592 4280558387
-0.2450731248 -0.1400909424 0.5520088077 4285887620
-0.2451277971 -0.1395087391 0.5521319509 4292137955
-0.2447868139 -0.1387020648 0.5513638854 4292401127
-0.2448410094 -0.1381200254 0.5514859557 4289770175
-0.2444993556 -0.1373154074 0.5507164001 4289309624
-0.2445530295 -0.1367335469 0.5508373380 4289112245
-0.2442107201 -0.1359309852 0.5500662923 4288783280
-0.2442639023 -0.1353492886 0.5501860976 4287994277
-0.2447128594 -0.1349856406 0.5511973500 4287204761
-0.2447657287 -0.1344022602 0.5513163805 4287073175
-0.2452145368 -0.1340350211 0.5523272753 4287270554
-0.2452670783 -0.1334499270 0.5524456501 4286612623
-0.2457157224 -0.1330791116 0.5534561872 4286152072
-0.2461643219 -0.1327060163 0.5544666052 4286350221
-0.2462164015 -0.1321179122 0.5545839071 4286481807
-0.2462682724 -0.1315294355 0.5547007918 4287928230
-0.2463199347 -0.1309405863 0.5548171401 4288520367
-0.2463713884 -0.1303513646 0.5549330115 4289375930
-0.2464226335 -0.1297617853 0.5550484657 4290231239
-0.2464736551 -0.1291718185 0.5551633835 4290889169
-0.2469214499 -0.1287885606 0.5561720133 4291152341
-0.2465750873 -0.1279908121 0.5553918481 4291218134
-0.2466254681 -0.1273997724 0.5555053353 4291283927
-0.2470728755 -0.1270125657 0.5565130711 4291218648
-0.2471229285 -0.1264198422 0.5566257834 4291481820
-0.2491557151 -0.1218478978 0.5612044930 4293060332
-0.2364041805 -0.2202891707 0.5338180661 4293719035
-0.2429725230 -0.1599645466 0.5486499071 4292994283
-0.2430338711 -0.1593951881 0.5487884283 4292335585
-0.2430950254 -0.1588253975 0.5489264727 4290953932
-0.2435475439 -0.1585100144 0.5499483347 4289440693
-0.2436084151 -0.1579384506 0.5500857830 4288059040
-0.2440608591 -0.1576194614 0.5511074066 4286874766
-0.2441214472 -0.1570461243 0.5512442589 4285229941
-0.2441818565 -0.1564723551 0.5513806343 4283650909
-0.2442420721 -0.1558981687 0.5515165925 4282335049
-0.2443020940 -0.1553235501 0.5516521335 4282598221
-0.2443619072 -0.1547485143 0.5517872572 4282400842
-0.2440292239 -0.1539255828 0.5510360003 4282335049
-0.2440885603 -0.1533506364 0.5511699915 4282071877
-0.2437551916 -0.1525296420 0.5504172444 4282006084
-0.2438140661 -0.1519547701 0.5505501628 4281808705
-0.2438727319 -0.1513794810 0.5506826043 4282137670
-0.2439312041 -0.1508037895 0.5508146286 4282335049
-0.2439894825 -0.1502276808 0.5509462357 4282137670
-0.2440475672 -0.1496511549 0.5510774255 4282006084
-0.2441054583 -0.1490742266 0.5512081385 4281939778
-0.2441631407 -0.1484968811 0.5513383746 4281939778
-0.2442206442 -0.1479191184 0.5514682531 4281873985
-0.2442779392 -0.1473409683 0.5515975952 4281676606
-0.2439415902 -0.1465260684 0.5508381128 4281545535
-0.2439983934 -0.1459480226 0.5509663820 4281742914
-0.2436613739 -0.1451351196 0.5502053499 4281216570
-0.2433239669 -0.1443236768 0.5494434834 4281084984
-0.2433799952 -0.1437462866 0.5495700240 4281216570
-0.2430419177 -0.1429368556 0.5488066077 4281216570
-0.2430974692 -0.1423596144 0.5489320159 4281216570
-0.2431528121 -0.1417819858 0.5490570068 4281216570
-0.2432079613 -0.1412039548 0.5491815209 4281216570
-0.2432629019 -0.1406255364 0.5493055582 4281742914
-0.2433176488 -0.1400467306 0.5494291782 4280295983
-0.2429777384 -0.1392414868 0.5486616492 4282532945
-0.2430319935 -0.1386628449 0.5487841964 4288980659
-0.2430860400 -0.1380838156 0.5489062071 4290296519
-0.2431398928 -0.1375043839 0.5490278006 4287796385
-0.2431935370 -0.1369245797 0.5491489172 4287664799
-0.2432469726 -0.1363443881 0.5492696166 4287204761
-0.2433002144 -0.1357638240 0.5493898392 4287204761
-0.2433532476 -0.1351828724 0.5495095849 4287138968
-0.2434060723 -0.1346015334 0.5496288538 4287270554
-0.2438539267 -0.1342373937 0.5506401658 4287665311
-0.2443017364 -0.1338709891 0.5516513586 4288257448
-0.2443541288 -0.1332866400 0.5517696142 4288916148
-0.2448017746 -0.1329166442 0.5527804494 4289771457
-0.2452493906 -0.1325443685 0.5537912250 4290429387
-0.2453013211 -0.1319570094 0.5539084673 4290889938
-0.2453530431 -0.1313692629 0.5540252924 4291152087
-0.2454045564 -0.1307811588 0.5541415811 4291349466
-0.2454558462 -0.1301926672 0.5542574525 4291481306
-0.2459029257 -0.1298128664 0.5552669168 4291481306
-0.2459538877 -0.1292226911 0.5553820133 4291547099
-0.2464007735 -0.1288392991 0.5563911200 4291547099
-0.2481368929 -0.1228990853 0.5603114367 4292533990
-0.2413050085 -0.1629077047 0.5462545156 4292994281
-0.2409772426 -0.1620803326 0.5455125570 4292467937
-0.2414291650 -0.1617770493 0.5465355515 4291612628
-0.2414909750 -0.1612110734 0.5466755033 4290033598
-0.2415526062 -0.1606446654 0.5468149781 4288651945
-0.2420043647 -0.1603364199 0.5478376746 4287598487
-0.2420657128 -0.1597682238 0.5479765534 4286545799
-0.2421268821 -0.1591995955 0.5481150150 4285558393
-0.2417972237 -0.1583746821 0.5473687649 4284308326
-0.2422486395 -0.1580610573 0.5483906269 4283058259
-0.2423092425 -0.1574911326 0.5485278368 4282202950
-0.2423696518 -0.1569207907 0.5486645699 4282005571
-0.2428208739 -0.1566022038 0.5496860743 4281873985
-0.2424898893 -0.1557788402 0.5489367843 4282071364
-0.2425497323 -0.1552072167 0.5490722656 4282202950
-0.2426093817 -0.1546351761 0.5492072701 4282137157
-0.2426688373 -0.1540627182 0.5493419170 4282334536
-0.2427281141 -0.1534898430 0.5494760275 4282466122
-0.2420040071 -0.1524232626 0.5478368402 4282137157
-0.2420626879 -0.1518513858 0.5479696989 4282137157
-0.2421211898 -0.1512791067 0.5481021404 4282137157
-0.2421794981 -0.1507064104 0.5482341647 4282137157
-0.2422376126 -0.1501332968 0.5483657122 4281873985
-0.2422955334 -0.1495597810 0.5484967828 4282005571
-0.2423532605 -0.1489858478 0.5486274958 4282005571
-0.2424107939 -0.1484115124 0.5487577319 4282005571
-0.2420757860 -0.1475975364 0.5479993224 4281939778
-0.2417403907 -0.1467850208 0.5472401381 4281873985
-0.2417971492 -0.1462113261 0.5473685861 4281676606
-0.2418537140 -0.1456372142 0.5474966764 4281611328
-0.2415173799 -0.1448272169 0.5467352271 4281742914
-0.2415734529 -0.1442532390 0.5468621850 4281545535
-0.2416293323 -0.1436788738 0.5469887257 4281282363
-0.2412920445 -0.1428714097 0.5462251306 4281413949
-0.2413474321 -0.1422971785 0.5463505387 4281545535
-0.2414026409 -0.1417225450 0.5464755297 4281611328
-0.2418508977 -0.1413774043 0.5474902391 4281348156
-0.2419057786 -0.1408010572 0.5476145148 4280887350
-0.2419604808 -0.1402243227 0.5477383137 4281216315
-0.2420149744 -0.1396471858 0.5478616953 4280757047
-0.2420692593 -0.1390696615 0.5479846001 4281743942
-0.2417296618 -0.1382665634 0.5472158194 4286217866
-0.2417834550 -0.1376892030 0.5473375916 4287533726
-0.2422309220 -0.1373347640 0.5483505726 4286875796
-0.2422844172 -0.1367557049 0.5484716296 4287731105
-0.2423377037 -0.1361762583 0.5485922694 4287928484
-0.2423907816 -0.1355964243 0.5487124324 4288586414
-0.2424436510 -0.1350162029 0.5488321185 4289310137
-0.2428906262 -0.1346542090 0.5498439670 4290297032
-0.2429431826 -0.1340723038 0.5499629378 4291087317
-0.2433900088 -0.1337067187 0.5509744287 4291218903
-0.2443872988 -0.1317958534 0.5532320738 4291416282
-0.2444388717 -0.1312088519 0.5533487797 4291481306
-0.2452801764 -0.1310435236 0.5552533269 4291547099
-0.2467715144 -0.1231508031 0.5586293340 4292403434
-0.2337999344 -0.2195502818 0.5305989385 4293982207
-0.2393833250 -0.1680538356 0.5432702303 4293455345
-0.2390589416 -0.1672233194 0.5425340533 4293455344
-0.2391223609 -0.1666647196 0.5426779389 4293126379
-0.2391855866 -0.1661056876 0.5428214669 4292862950
-0.2392486483 -0.1655461937 0.5429645777 4292402399
-0.2393115312 -0.1649862826 0.5431072712 4291876055
-0.2397628129 -0.1646928340 0.5441314578 4291283918
-0.2398254424 -0.1641311198 0.5442735553 4290230975
