VERSION 0.7
FIELDS x y z rgba
SIZE 4 4 4 4
TYPE F F F U
COUNT 1 1 1 1
WIDTH 920
HEIGHT 1
VIEWPOINT 0.0 0.0 0.0 1.0 0.0 0.0 0.0
POINTS 920
DATA ascii
-0.3098696768 -0.1064738706 0.6287488341 4284639601
-0.3103525043 -0.1059401035 0.6297284961 4284442220
-0.3108351827 -0.1054041013 0.6307079196 4284310634
-0.3108804524 -0.1047185883 0.6307997704 4284310638
-0.3104881346 -0.1038864627 0.6300037503 4284244845
-0.3109701574 -0.1033466756 0.6309818029 4283981673
-0.3110145926 -0.1026602760 0.6310719252 4283784294
-0.3110587299 -0.1019735783 0.6311615109 4283586913
-0.3106650412 -0.1011441350 0.6303626895 4283389534
-0.3107085526 -0.1004578322 0.6304509640 4283257948
-0.3107517958 -0.0997712314 0.6305387020 4283060569
-0.3103569746 -0.0989447981 0.6297376156 4282534225
-0.3108373880 -0.0983971879 0.6307123899 4282336846
-0.3113176227 -0.0978473574 0.6316868067 4281942088
-0.3113597631 -0.0971586555 0.6317723393 4281613123
-0.3109636605 -0.0963340029 0.6309685707 4281612353
-0.3110051751 -0.0956457183 0.6310528517 4281414974
-0.3114844859 -0.0950909033 0.6320254207 4281217595
-0.3115254939 -0.0944010988 0.6321086287 4281217595
-0.3115662038 -0.0937110260 0.6321912408 4281151802
-0.3116066456 -0.0930206850 0.6322732568 4280757044
-0.3116467595 -0.0923300758 0.6323546767 4280691251
-0.3112482429 -0.0915103108 0.6315460205 4281020216
-0.3117261827 -0.0909480602 0.6325157881 4281217595
-0.3117654324 -0.0902566612 0.6325954795 4281020216
-0.3118044138 -0.0895649940 0.6326745749 4280822578
-0.3118430972 -0.0888730735 0.6327530742 4280756785
-0.3118815124 -0.0881808996 0.6328309774 4280493613
-0.3119196296 -0.0874884650 0.6329082847 4280296234
-0.3119574189 -0.0867957845 0.6329850554 4280296234
-0.3124337792 -0.0862239450 0.6339515448 4280296234
-0.3124710619 -0.0855297893 0.6340271831 4280296234
-0.3129469454 -0.0849545300 0.6349928379 4280362027
-0.3129837215 -0.0842588991 0.6350674033 4280493613
-0.3134591877 -0.0836802274 0.6360322237 4280296234
-0.3134953976 -0.0829831362 0.6361056566 4280164646
-0.3139704466 -0.0824010521 0.6370695829 4280230439
-0.3140061200 -0.0817025006 0.6371419430 4280559404
-0.3140414953 -0.0810037181 0.6372137070 4280822576
-0.3136372864 -0.0801923797 0.6363936067 4280888371
-0.3136720359 -0.0794941038 0.6364641190 4281085750
-0.3137064874 -0.0787955970 0.6365339756 4281151543
-0.3137406111 -0.0780968666 0.6366032362 4281019957
-0.3137744665 -0.0773978978 0.6366719604 4280559919
-0.3133684993 -0.0765912905 0.6358482242 4280494126
-0.3138412535 -0.0759993047 0.6368075013 4280362027
-0.3143138289 -0.0754051283 0.6377663016 4280362027
-0.3147861660 -0.0748087764 0.6387247443 4280362027
-0.3148186207 -0.0741067454 0.6387906075 4280362027
-0.3148507774 -0.0734044984 0.6388558149 4280494126
-0.3144428432 -0.0726004988 0.6380280852 4280428333
-0.3144743443 -0.0718988106 0.6380920410 4280428333
-0.3145055473 -0.0711969063 0.6381553411 4280428333
-0.3145364523 -0.0704948008 0.6382180452 4280559919
-0.3145670593 -0.0697924867 0.6382801533 4280757298
-0.3150373697 -0.0691865906 0.6392344236 4280823091
-0.3150674105 -0.0684828907 0.6392953992 4280757298
-0.3150971532 -0.0677789822 0.6393557787 4280691505
-0.3155667186 -0.0671685636 0.6403085589 4280757298
-0.3155958951 -0.0664632767 0.6403677464 4280691505
-0.3156247735 -0.0657578036 0.6404263377 4280625712
-0.3152131140 -0.0649614036 0.6395910382 4280756785
-0.3152413368 -0.0642565265 0.6396483183 4280954164
-0.3157095909 -0.0636402220 0.6405984759 4281085750
-0.3157372475 -0.0629339814 0.6406545639 4281151543
-0.3157646060 -0.0622275621 0.6407101154 4281085750
-0.3162321150 -0.0616067611 0.6416586637 4281085750
-0.3162589073 -0.0608989894 0.6417130232 4280690992
-0.3162853718 -0.0601910427 0.6417667866 4280690992
-0.3163115680 -0.0594829172 0.6418198943 4280756785
-0.3167780042 -0.0588564761 0.6427663565 4281019957
-0.3168036342 -0.0581470132 0.6428183317 4281217336
-0.3168289065 -0.0574373826 0.6428696513 4281414715
-0.3168539107 -0.0567275845 0.6429203749 4281809471
-0.3168785870 -0.0560176149 0.6429704428 4282335815
-0.3173437119 -0.0553844087 0.6439142227 4282927952
-0.3178086281 -0.0547490604 0.6448575258 4283191124
-0.3178324401 -0.0540366285 0.6449058652 4283520089
-0.3182968199 -0.0533979945 0.6458480954 4283849054
-0.3183200657 -0.0526842587 0.6458953023 4284178019
-0.3187839091 -0.0520423464 0.6468364596 4284441191
-0.3188065588 -0.0513273142 0.6468824148 4284639083
-0.3188289106 -0.0506121255 0.6469277740 4284836462
-0.3188509345 -0.0498967916 0.6469724774 4285033583
-0.3188726604 -0.0491813086 0.6470165849 4284638825
-0.3188940585 -0.0484656841 0.6470599771 4283914847
-0.3189151883 -0.0477499105 0.6471028328 4282927952
-0.3189359605 -0.0470339991 0.6471449733 4282401610
-0.3189564347 -0.0463179499 0.6471865773 4281546301
-0.3189766109 -0.0456017628 0.6472274661 4282270024
-0.3189964592 -0.0448854379 0.6472677588 4285362295
-0.3185747564 -0.0441078916 0.6464121342 4290757321
-0.2907226682 -0.1874880493 0.5912305713 4290165182
-0.2818838656 -0.1811509579 0.5732554197 4284638570
-0.2721909583 -0.1743068248 0.5535433292 4284506470
-0.2684391439 -0.1712976843 0.5459134579 4284901228
-0.2680840194 -0.1704653352 0.5451912880 4284572262
-0.2677285075 -0.1696343124 0.5444682240 4283914332
-0.2682226896 -0.1693413854 0.5454732776 4283321682
-0.2687169313 -0.1690462381 0.5464783311 4283058510
-0.2687858641 -0.1684822738 0.5466185808 4283585365
-0.2688546479 -0.1679178923 0.5467584133 4282927435
-0.2689231932 -0.1673530638 0.5468978286 4282072126
-0.2685659528 -0.1665239185 0.5461713076 4282072126
-0.2682082951 -0.1656961143 0.5454439521 4282137919
-0.2674243748 -0.1646075696 0.5438497663 4282006333
-0.2674917281 -0.1640446186 0.5439867377 4282730056
-0.2675588727 -0.1634812355 0.5441232920 4284309088
-0.2671996653 -0.1626580060 0.5433927774 4285295726
-0.2676925659 -0.1623532027 0.5443952084 4285427312
-0.2677591443 -0.1617885679 0.5445305109 4285887863
-0.2678254843 -0.1612235010 0.5446655154 4283979866
-0.2683182359 -0.1609138399 0.5456675291 4282795592
-0.2688109577 -0.1606019437 0.5466696024 4283256143
-0.2688769400 -0.1600338221 0.5468037724 4284374622
-0.2689427137 -0.1594652832 0.5469375253 4284440415
-0.2690082788 -0.1588963270 0.5470708609 4285163627
-0.2686465085 -0.1580756307 0.5463352203 4284768869
-0.2687115669 -0.1575067490 0.5464674830 4285624178
-0.2687764168 -0.1569374502 0.5465993881 4288848035
-0.2684136629 -0.1561191380 0.5458616018 4286940038
-0.2684780061 -0.1555499285 0.5459924936 4283189837
-0.2685421407 -0.1549803019 0.5461229086 4282729286
-0.2686060667 -0.1544102728 0.5462529063 4283124044
-0.2686697841 -0.1538398266 0.5463824868 4283650388
-0.2683053911 -0.1530249268 0.5456414223 4285163627
-0.2687966228 -0.1526977420 0.5466404557 4286480000
-0.2684316039 -0.1518838555 0.5458981395 4286282621
-0.2680661976 -0.1510713845 0.5451549888 4286742918
-0.2681286633 -0.1505007595 0.5452820659 4288058778
-0.2681909502 -0.1499297321 0.5454087257 4286808711
-0.2682530284 -0.1493583024 0.5455349684 4285558644
-0.2683148980 -0.1487864852 0.5456607938 4286282367
-0.2683765590 -0.1482142657 0.5457862020 4285690230
-0.2684380114 -0.1476416439 0.5459111333 4286348160
-0.2676414251 -0.1465987861 0.5442911386 4286874504
-0.2677628696 -0.1454552710 0.5445381403 4287992985
-0.2673940957 -0.1446507424 0.5437881351 4286282367
-0.2670249045 -0.1438476592 0.5430373549 4284637542
-0.2670846879 -0.1432763934 0.5431589484 4284769128
-0.2667147815 -0.1424753070 0.5424066782 4286282367
-0.2663444579 -0.1416756660 0.5416536331 4286874504
-0.2659737468 -0.1408775002 0.5408996940 4286808711
-0.2664622068 -0.1405341327 0.5418930054 4286808711
-0.2660908699 -0.1397370547 0.5411378741 4285558644
-0.2661491036 -0.1391662657 0.5412563086 4284637542
-0.2662071288 -0.1385950893 0.5413743258 4284571749
-0.2658348083 -0.1378005743 0.5406171083 4284308577
-0.2658922970 -0.1372295916 0.5407340527 4284637542
-0.2663799524 -0.1368793696 0.5417257547 4284900714
-0.2660066783 -0.1360865086 0.5409666300 4284637542
-0.2656330168 -0.1352951378 0.5402067304 4284242784
-0.2648283243 -0.1342869103 0.5385702848 4284571749
-0.2648845017 -0.1337168664 0.5386844873 4285098094
-0.2645096481 -0.1329299659 0.5379222035 4285163887
-0.2641343772 -0.1321445554 0.5371590257 4285558645
-0.2641897202 -0.1315752864 0.5372715592 4285690231
-0.2646758854 -0.1312193871 0.5382602811 4285295473
-0.2651620507 -0.1308612525 0.5392489433 4284900715
-0.2652168870 -0.1302890629 0.5393605232 4284966508
-0.2652715445 -0.1297165155 0.5394716263 4285032301
-0.2661888003 -0.1295635849 0.5413370132 4285098094
-0.2671062052 -0.1294065863 0.5432027578 4285361266
-0.2680237591 -0.1292455047 0.5450686812 4286085502
-0.2693730891 -0.1292875111 0.5478128195 4287861913
-0.2707227468 -0.1293235868 0.5505575538 4286611846
-0.2729364336 -0.1297643334 0.5550593734 4284243298
-0.2742868364 -0.1297866106 0.5578056574 4284572263
-0.2765015960 -0.1302098334 0.5623097420 4285032814
-0.2787170112 -0.1306233257 0.5668151379 4285164916
-0.2813652456 -0.1312286854 0.5722007155 4285691260
-0.2892017066 -0.1342301667 0.5881374478 4285559674
-0.2862316668 -0.1322048903 0.5820973516 4285888639
-0.2875847518 -0.1321800500 0.5848490596 4286086018
-0.2915333807 -0.1333361864 0.5928792357 4285954432
-0.2928874791 -0.1332937181 0.5956330299 4285625726
-0.2933764458 -0.1328533441 0.5966274142 4287402137
-0.2942981124 -0.1326057315 0.5985017419 4288915376
-0.2947869897 -0.1321599334 0.5994959474 4289573306
-0.2957087159 -0.1319050044 0.6013704538 4289572795
-0.2966305315 -0.1316459477 0.6032451391 4289638588
-0.2966862023 -0.1310002655 0.6033582687 4289704635
-0.2976079881 -0.1307348311 0.6052328944 4289638842
-0.2985298634 -0.1304652542 0.6071076989 4289507256
-0.2998851538 -0.1303799450 0.6098638773 4289902014
-0.2999403477 -0.1297262162 0.6099761128 4290362822
-0.3008623421 -0.1294451654 0.6118511558 4290297029
-0.3017843664 -0.1291599721 0.6137262583 4289375927
-0.3022727966 -0.1286860108 0.6147195101 4288520618
-0.3027611077 -0.1282097995 0.6157125831 4288191907
-0.3032492995 -0.1277313381 0.6167054176 4288849837
-0.3037374020 -0.1272506267 0.6176980138 4289507767
-0.3042253852 -0.1267676651 0.6186904311 4289902525
-0.3047132790 -0.1262824386 0.6196826100 4290297283
-0.3052010536 -0.1257949769 0.6206746101 4290363076
-0.3052544892 -0.1251272708 0.6207832694 4290626245
-0.3057419360 -0.1246362478 0.6217746139 4291021003
-0.3062292933 -0.1241429821 0.6227657199 4290955211
-0.3067165315 -0.1236474663 0.6237565875 4291152590
-0.3072036505 -0.1231496930 0.6247472167 4291086797
-0.3072560430 -0.1224764436 0.6248537898 4291218383
-0.3073081970 -0.1218028516 0.6249597669 4291218383
-0.3073600531 -0.1211289167 0.6250652671 4291547348
-0.3074116409 -0.1204546392 0.6251701713 4291547348
-0.3074629605 -0.1197800264 0.6252745390 4291613141
-0.3075140119 -0.1191050708 0.6253783703 4291548118
-0.3075647950 -0.1184297875 0.6254816651 4291613911
-0.3080503941 -0.1179207191 0.6264691949 4291482325
-0.3076655269 -0.1170782074 0.6256865263 4291482325
-0.3072802424 -0.1162372828 0.6249029636 4291284946
-0.3077651858 -0.1157253161 0.6258891821 4291613911
-0.3078145981 -0.1150483787 0.6259896755 4291613141
-0.3078637421 -0.1143711135 0.6260895729 4291613141
-0.3079125881 -0.1136935204 0.6261889338 4291678936
-0.3079611957 -0.1130156144 0.6262877584 4291613143
-0.3075738549 -0.1121784896 0.6255000830 4291350485
-0.3076218069 -0.1115009040 0.6255975962 4291218899
-0.3081052899 -0.1109799743 0.6265808344 4291153360
-0.3081527948 -0.1103007942 0.6266774535 4291021774
-0.3082000017 -0.1096213013 0.6267734170 4291153106
-0.3082469404 -0.1089414954 0.6268688440 4291087313
-0.3082935810 -0.1082613841 0.6269637346 4290955727
-0.3092122078 -0.1078852937 0.6288319230 4290955727
-0.3088222444 -0.1070514396 0.6280388832 4291087313
-0.3088681102 -0.1063694432 0.6281321645 4291153106
-0.3093500435 -0.1058364213 0.6291122437 4291021520
-0.3093954325 -0.1051528603 0.6292045116 4290955727
-0.3094405234 -0.1044689938 0.6292962432 4290758350
-0.3094853461 -0.1037848294 0.6293874383 4290824143
-0.3099664748 -0.1032457873 0.6303658485 4290758350
-0.3095741570 -0.1024156213 0.6295680404 4290758350
-0.3096181452 -0.1017305776 0.6296574473 4290692557
-0.3096618354 -0.1010452360 0.6297463179 4290429385
-0.3097052276 -0.1003596112 0.6298345923 4290100420
-0.3093114793 -0.0995331183 0.6290338039 4289837248
-0.3097912073 -0.0989875048 0.6300094128 4289508283
-0.3102707863 -0.0984396636 0.6309846640 4289245111
-0.3098760545 -0.0976142511 0.6301819682 4289113009
-0.3094809055 -0.0967905000 0.6293783784 4288784044
-0.3095225692 -0.0961041451 0.6294630766 4288586665
-0.3095639348 -0.0954175144 0.6295471787 4288389286
-0.3100422919 -0.0948644131 0.6305200458 4288191907
-0.3100831509 -0.0941762626 0.6306031346 4288060321
-0.3101237118 -0.0934878439 0.6306855679 4287665563
-0.3101639748 -0.0927991569 0.6307674646 4287336598
-0.3097664416 -0.0919802859 0.6299590468 4287204499
-0.3102436662 -0.0914209858 0.6309295297 4287204499
-0.3102830648 -0.0907315016 0.6310096979 4287072913
-0.3103221953 -0.0900417566 0.6310892105 4286809741
-0.3103610277 -0.0893517509 0.6311681867 4286480776
-0.3103995621 -0.0886614844 0.6312465668 4286217604
-0.3104377985 -0.0879709646 0.6313244104 4286086018
-0.3104757667 -0.0872801915 0.6314015985 4285691260
-0.3109514117 -0.0867112875 0.6323688626 4285822330
-0.3109888434 -0.0860190392 0.6324449778 4285888123
-0.3114640415 -0.0854467154 0.6334114075 4285756537
-0.3115009665 -0.0847529918 0.6334864497 4285756537
-0.3119757473 -0.0841772482 0.6344519854 4285624951
-0.3120121062 -0.0834820569 0.6345259547 4285164400
-0.3124864399 -0.0829028934 0.6354905963 4284375398
-0.3125222921 -0.0822062492 0.6355634928 4283980640
-0.3125578165 -0.0815093592 0.6356357932 4283848540
-0.3121546507 -0.0806988925 0.6348158717 4283651161
-0.3121895492 -0.0800025091 0.6348868012 4283256917
-0.3122241497 -0.0793058947 0.6349571943 4282927952
-0.3122584820 -0.0786090493 0.6350269914 4282664780
-0.3122924864 -0.0779119730 0.6350961328 4282335815
-0.3118875325 -0.0771062300 0.6342726350 4282006850
-0.3123596311 -0.0765171498 0.6352326870 4281809471
-0.3128315210 -0.0759258866 0.6361923218 4281677885
-0.3128643930 -0.0752269402 0.6362591982 4281677885
-0.3133358061 -0.0746322945 0.6372179389 4281612094
-0.3129292428 -0.0738283843 0.6363911033 4281677887
-0.3129612207 -0.0731287822 0.6364561915 4281678400
-0.3129929304 -0.0724289641 0.6365206242 4281678400
-0.3130243123 -0.0717289373 0.6365844607 4281414713
-0.3130553961 -0.0710287020 0.6366476417 4281283127
-0.3130861819 -0.0703282580 0.6367102861 4281348920
-0.3131166697 -0.0696276054 0.6367722750 4281480506
-0.3135860562 -0.0690234229 0.6377268434 4281480506
-0.3136160076 -0.0683213845 0.6377877593 4281546299
-0.3136456311 -0.0676191449 0.6378480196 4281612092
-0.3136749566 -0.0669167042 0.6379076242 4281677885
-0.3141433597 -0.0663068071 0.6388602257 4281546299
-0.3137327135 -0.0655112490 0.6380251050 4281612092
-0.3137611449 -0.0648082271 0.6380829215 4281677885
-0.3137892783 -0.0641050190 0.6381401420 4281809471
-0.3142566383 -0.0634904206 0.6390905380 4281809473
-0.3147237599 -0.0628736615 0.6400405169 4281809473
-0.3147510588 -0.0621679202 0.6400960088 4281677887
-0.3147780299 -0.0614620000 0.6401509047 4281480508
-0.3148047328 -0.0607558973 0.6402052045 4281546301
-0.3148311079 -0.0600496158 0.6402588487 4281283129
-0.3152969480 -0.0594260395 0.6412062049 4281283127
-0.3153227568 -0.0587184206 0.6412587166 4281414713
-0.3153482676 -0.0580106266 0.6413105726 4281283127
-0.3153734803 -0.0573026650 0.6413618326 4280888369
-0.3153983653 -0.0565945357 0.6414124370 4280625197
-0.3158628643 -0.0559641793 0.6423571110 4280625197
-0.3163271546 -0.0553316846 0.6433013082 4280822576
-0.3163512051 -0.0546210855 0.6433501840 4280690990
-0.3176949918 -0.0541352592 0.6460829973 4280625197
-0.3168384135 -0.0532733910 0.6443410516 4280625197
-0.3164214790 -0.0524883196 0.6434931159 4280559404
-0.3168844283 -0.0518491007 0.6444345713 4280559404
-0.3169069588 -0.0511367247 0.6444804072 4280559404
-0.3173693717 -0.0504942313 0.6454207897 4280625197
-0.3173913360 -0.0497805662 0.6454654336 4280888624
-0.3174129725 -0.0490667522 0.6455094814 4280625452
-0.3174343109 -0.0483527929 0.6455528736 4280822576
-0.3174553216 -0.0476386920 0.6455956101 4281019955
-0.3174760342 -0.0469244532 0.6456376910 4281217336
-0.3174964488 -0.0462100729 0.6456792355 4282598989
-0.3175165355 -0.0454955548 0.6457200646 4286020225
-0.3175362945 -0.0447809026 0.6457602978 4290033598
-0.3175557852 -0.0440661199 0.6457998753 4293585650
-0.2880658507 -0.1861952096 0.5871536732 4289902010
-0.2771242261 -0.1784953773 0.5648518205 4284309605
-0.2699913085 -0.1732896119 0.5503129959 4284506469
-0.2675179541 -0.1710963100 0.5452716947 4284769641
-0.2667393684 -0.1699942648 0.5436847210 4284243295
-0.2668085098 -0.1694341004 0.5438256264 4283585365
-0.2682193816 -0.1691152155 0.5467013717 4282664006
-0.2683569491 -0.1679864973 0.5469818115 4283256402
-0.2680007219 -0.1671565622 0.5462557077 4282598472
-0.2680689096 -0.1665920168 0.5463947058 4282269507
-0.2672870159 -0.1655008048 0.5448009968 4282532677
-0.2673546076 -0.1649371833 0.5449387431 4282598470
-0.2679144442 -0.1640690863 0.5460798144 4285230190
-0.2675561607 -0.1632437557 0.5453495979 4285427312
-0.2676229775 -0.1626784354 0.5454857349 4286151035
-0.2676895559 -0.1621126980 0.5456214547 4284637794
-0.2681816518 -0.1618033499 0.5466244221 4282269246
-0.2682479322 -0.1612358689 0.5467596054 4282729797
-0.2687399387 -0.1609229892 0.5477623940 4283124555
-0.2688059211 -0.1603537649 0.5478969216 4283650899
-0.2688717246 -0.1597841084 0.5480310321 4283979864
-0.2682798803 -0.1570021361 0.5468246937 4286413694
-0.2679178417 -0.1561835259 0.5460867286 4284045146
-0.2680461705 -0.1550442725 0.5463483334 4283189837
-0.2681100368 -0.1544740349 0.5464785099 4283321423
-0.2686007321 -0.1541484743 0.5474786758 4283321423
-0.2678100169 -0.1530881971 0.5458670259 4284110939
-0.2679361105 -0.1519466937 0.5461240411 4286150522
-0.2675714195 -0.1511339247 0.5453806520 4285426799
-0.2676338553 -0.1505630910 0.5455079079 4286808452
-0.2676960826 -0.1499918550 0.5456347466 4286216317
-0.2677580714 -0.1494202167 0.5457611084 4284966250
-0.2678198814 -0.1488481909 0.5458871126 4284769128
-0.2678814828 -0.1482757628 0.5460126400 4285032300
-0.2679428756 -0.1477029473 0.5461377501 4285492851
-0.2675759196 -0.1468946934 0.5453898311 4285953402
-0.2676367760 -0.1463220119 0.5455139279 4286084988
-0.2672691345 -0.1455157250 0.5447645187 4287729813
-0.2677578926 -0.1451754570 0.5457607508 4288387743
-0.2669611275 -0.1441388726 0.5441367030 4287466641
-0.2665923536 -0.1433360279 0.5433850288 4286874504
-0.2662231624 -0.1425346285 0.5426325798 4287598227
-0.2658535838 -0.1417347044 0.5418792963 4287992985
-0.2659125030 -0.1411639005 0.5419993401 4287598227
-0.2664001882 -0.1408194900 0.5429933667 4287269262
-0.2656006217 -0.1397953480 0.5413636565 4286940297
-0.2656587958 -0.1392243356 0.5414822102 4286611332
-0.2657167614 -0.1386529654 0.5416003466 4285821816
-0.2657745183 -0.1380812079 0.5417180657 4284769128
-0.2658320665 -0.1375090927 0.5418353677 4284176991
-0.2658893764 -0.1369365901 0.5419521928 4284505956
-0.2659464777 -0.1363637298 0.5420686007 4284834921
-0.2660034001 -0.1357904971 0.5421845913 4284571750
-0.2652004361 -0.1347800195 0.5405479670 4284703336
-0.2648268044 -0.1339903772 0.5397863984 4285558645
-0.2648827732 -0.1334188432 0.5399004817 4286611333
-0.2645084262 -0.1326312721 0.5391374826 4287071884
-0.2645638883 -0.1320599318 0.5392504930 4286874505
-0.2646191120 -0.1314882338 0.5393630862 4286348161
-0.2651045024 -0.1311290413 0.5403524637 4285492852
-0.2651593983 -0.1305557042 0.5404643416 4285032301
-0.2652140856 -0.1299820095 0.5405758023 4284637543
-0.2656991780 -0.1296180338 0.5415645242 4283979613
-0.2670456469 -0.1296701282 0.5443090200 4283848027
-0.2679616213 -0.1295080632 0.5461760163 4285098607
-0.2697395384 -0.1297564656 0.5497997999 4287598741
-0.2710869014 -0.1297907084 0.5525461435 4287138190
-0.2728656530 -0.1300243884 0.5561717153 4283914333
-0.2750760317 -0.1304547042 0.5606770515 4284243044
-0.2768557966 -0.1306717694 0.5643046498 4285427318
-0.2803613245 -0.1316914111 0.5714498162 4285428088
-0.2821423411 -0.1318890303 0.5750799775 4285230709
-0.2834922969 -0.1318780631 0.5778315663 4285757053
-0.2870004177 -0.1328600496 0.5849820375 4285691260
-0.2892146409 -0.1332301050 0.5894952416 4285822848
-0.2927247286 -0.1341841519 0.5966497064 4286086020
-0.2932130694 -0.1337439865 0.5976451039 4286217863
-0.2937013507 -0.1333015710 0.5986403227 4288191653
-0.2941895425 -0.1328569055 0.5996353626 4289310134
-0.2946776450 -0.1324099898 0.6006302238 4289639099
-0.2955978215 -0.1321540326 0.6025058031 4289573049
-0.2960858345 -0.1317016780 0.6035004854 4289507256
-0.2965737581 -0.1312470734 0.6044949889 4289441463
-0.2974939942 -0.1309805959 0.6063706875 4289244084
-0.2988467813 -0.1308994144 0.6091279984 4289046705
-0.2997672260 -0.1306237131 0.6110041142 4289638842
-0.3006877303 -0.1303438693 0.6128804088 4290033857
-0.3011755943 -0.1298732907 0.6138747334 4289310134
-0.3016633391 -0.1294004470 0.6148688793 4289178802
-0.3025838435 -0.1291100681 0.6167451739 4289639353
-0.3022055626 -0.1282642633 0.6159740686 4290889420
-0.3031259477 -0.1279684305 0.6178501248 4291547350
-0.3031801581 -0.1273047179 0.6179605722 4291942108
-0.3036673069 -0.1268215626 0.6189535260 4292402659
-0.3041543365 -0.1263361573 0.6199462414 4292468452
-0.3046412468 -0.1258485019 0.6209387183 4292731624
-0.3051280677 -0.1253585964 0.6219309568 4292863207
-0.3051812649 -0.1246893182 0.6220393777 4293126379
-0.3056677580 -0.1241958588 0.6230309606 4292994794
-0.3057205081 -0.1235249341 0.6231384873 4293257966
-0.3062067032 -0.1230279282 0.6241294742 4293060587
-0.3062589765 -0.1223553643 0.6242360473 4293126380
-0.3067448437 -0.1218548045 0.6252263784 4292995563
-0.3063627183 -0.1210092008 0.6244474649 4292995563
-0.3088310361 -0.0982046947 0.6294785142 4293586933
-0.3093094528 -0.0976563543 0.6304537058 4293455347
-0.3084787726 -0.0966954827 0.6287605762 4293389554
-0.3085203171 -0.0960098132 0.6288452148 4293389554
-0.3085615635 -0.0953238681 0.6289293170 4293323761
-0.3086025417 -0.0946376473 0.6290128827 4293257968
-0.3086432517 -0.0939511582 0.6290957928 4293126382
-0.3086836636 -0.0932643935 0.6291781664 4292929003
-0.3091604412 -0.0927083120 0.6301499605 4292797417
-0.3087635934 -0.0918900669 0.6293411255 4292731624
-0.3088031411 -0.0912025049 0.6294217110 4292665831
-0.3088424206 -0.0905146748 0.6295017600 4292665318
-0.3088813722 -0.0898265913 0.6295812130 4292665318
-0.3084831238 -0.0890121609 0.6287694573 4292533730
-0.3089584708 -0.0884496346 0.6297383308 4292270558
-0.3094336390 -0.0878849104 0.6307067871 4292401630
-0.3094714880 -0.0871948153 0.6307839751 4292204251
-0.3095090687 -0.0865044743 0.6308606267 4292270043
-0.3095463812 -0.0858138874 0.6309366226 4292270043
-0.3100206554 -0.0852432698 0.6319032907 4292072664
-0.3100574017 -0.0845512077 0.6319782138 4292072664
-0.3105312586 -0.0839771777 0.6329440475 4291941078
-0.3105674982 -0.0832836479 0.6330178976 4291546320
-0.3114783764 -0.0828225240 0.6348745227 4291217870
-0.3110765815 -0.0820112079 0.6340556145 4290954698
-0.3111119866 -0.0813159868 0.6341277957 4290691012
-0.3111471236 -0.0806205198 0.6341993213 4290559426
-0.3111819327 -0.0799248219 0.6342703104 4290493633
-0.3112164438 -0.0792288929 0.6343407035 4290164668
-0.3112506866 -0.0785327330 0.6344104409 4289638838
-0.3112846315 -0.0778363422 0.6344796419 4289375666
-0.3108803928 -0.0770312324 0.6336557269 4288717736
-0.3109137118 -0.0763353705 0.6337235570 4288322978
-0.3109467030 -0.0756392851 0.6337908506 4288191392
-0.3118554056 -0.0751540884 0.6356430054 4287928220
-0.3118879199 -0.0744556040 0.6357092857 4287665048
-0.3119201064 -0.0737568960 0.6357749104 4287336083
-0.3115139008 -0.0729553699 0.6349469423 4287007118
-0.3115454614 -0.0722572207 0.6350112557 4286809739
-0.3115767241 -0.0715588555 0.6350750327 4286283648
-0.3116076887 -0.0708602890 0.6351381540 4286086269
-0.3116383851 -0.0701615065 0.6352006793 4286020476
-0.3116687536 -0.0694625303 0.6352626085 4285888890
-0.3121372163 -0.0688600540 0.6362174749 4285559927
-0.3121670485 -0.0681596845 0.6362782121 4285296755
-0.3121965826 -0.0674591139 0.6363384128 4285230962
-0.3122257888 -0.0667583421 0.6363979578 4285099376
-0.3122547269 -0.0660573766 0.6364569068 4284769641
-0.3122833371 -0.0653562173 0.6365152597 4284638055
-0.3123116493 -0.0646548644 0.6365730166 4284572263
-0.3123396933 -0.0639533252 0.6366301179 4284374884
-0.3128061295 -0.0633404329 0.6375808120 4284177505
-0.3132723272 -0.0627253875 0.6385310888 4284045919
-0.3132995367 -0.0620213151 0.6385865211 4283914333
-0.3133264184 -0.0613170601 0.6386413574 4283585368
-0.3133530021 -0.0606126301 0.6386955380 4282993747
-0.3133792877 -0.0599080175 0.6387491226 4282533196
-0.3138442338 -0.0592861474 0.6396967769 4282401610
-0.3138699532 -0.0585801974 0.6397491693 4282533196
-0.3134563565 -0.0577931330 0.6389061809 4282467403
-0.3139204681 -0.0571677834 0.6398521662 4282072645
-0.3143843412 -0.0565402918 0.6407976747 4281940289
-0.3144088984 -0.0558326766 0.6408476830 4281874496
-0.3144331276 -0.0551248938 0.6408970952 4281611578
-0.3144570291 -0.0544169545 0.6409458518 4281216820
-0.3149198890 -0.0537838638 0.6418892145 4280887855
-0.3149432242 -0.0530746095 0.6419367790 4280822062
-0.3154055476 -0.0524382368 0.6428791285 4280690476
-0.3154283166 -0.0517276861 0.6429255009 4280690476
-0.3154507577 -0.0510169826 0.6429712772 4280690476
-0.3154729009 -0.0503061265 0.6430164576 4280624683
-0.3154947460 -0.0495951213 0.6430609822 4280954415
-0.3155162632 -0.0488839708 0.6431048512 4281217587
-0.3155375123 -0.0481726751 0.6431481242 4281546554
-0.3159978986 -0.0475273393 0.6440865397 4282138691
-0.3160185516 -0.0468147695 0.6441286206 4283190356
-0.3160388768 -0.0461020619 0.6441700459 4285624697
-0.3160589039 -0.0453892164 0.6442108154 4289309359
-0.3156389892 -0.0446141027 0.6433549523 4292072665
-0.2744224072 -0.1777790636 0.5606139302 4289967803
-0.2850682139 -0.1840286851 0.5823620558 4284243812
-0.2690665126 -0.1730879098 0.5496724248 4284506470
-0.2665977180 -0.1708946228 0.5446289182 4284572263
-0.2662437856 -0.1700634360 0.5439059138 4284177504
-0.2663128674 -0.1695030779 0.5440469980 4283453781
-0.2659582496 -0.1686736941 0.5433225632 4283321682
-0.2672976255 -0.1689164490 0.5460587740 4282532166
-0.2673663497 -0.1683529913 0.5461991429 4282927435
-0.2674348354 -0.1677891165 0.5463390946 4283716951
-0.2675031722 -0.1672247946 0.5464786887 4283519572
-0.2679953277 -0.1669241637 0.5474840999 4282730056
-0.2680633366 -0.1663580984 0.5476230979 4282729799
-0.2672826648 -0.1652669311 0.5460281968 4283058764
-0.2669257224 -0.1644403636 0.5452990532 4283914073
-0.2674173117 -0.1641362160 0.5463032722 4285295726
-0.2674843371 -0.1635702252 0.5464402437 4285295726
-0.2671264708 -0.1627450734 0.5457091331 4285953656
-0.2671930194 -0.1621791273 0.5458450317 4283190350
-0.2676842213 -0.1618697047 0.5468485951 4281808697
-0.2677504718 -0.1613020152 0.5469838977 4282795079
-0.2678164840 -0.1607338935 0.5471187830 4282597700
-0.2683075368 -0.1604195982 0.5481219292 4282860872
-0.2687985897 -0.1601030827 0.5491250753 4283058251
-0.2675879598 -0.1587746292 0.5466518998 4284374111
-0.2676530778 -0.1582057625 0.5467849374 4285426799
-0.2677179873 -0.1576364636 0.5469175577 4284703074
-0.2677827179 -0.1570667624 0.5470497608 4285821555
-0.2674213946 -0.1562478393 0.5463116169 4283453007
-0.2674856186 -0.1556782275 0.5464428067 4282202940
-0.2679756582 -0.1553551704 0.5474439263 4283124044
-0.2680395544 -0.1547838300 0.5475744605 4283255630
-0.2685294747 -0.1544572413 0.5485753417 4283189839
-0.2681667209 -0.1536399126 0.5478342772 4283979355
-0.2682300210 -0.1530673355 0.5479635596 4284900455
-0.2678665519 -0.1522519290 0.5472210646 4285821557
-0.2683559656 -0.1519209892 0.5482208133 4285755764
-0.2679918706 -0.1511065811 0.5474770665 4287005831
-0.2680542469 -0.1505333185 0.5476044416 4285032043
-0.2676894367 -0.1497208625 0.5468592048 4284110941
-0.2677512765 -0.1491477042 0.5469855666 4283650901
-0.2673857808 -0.1483372003 0.5462388992 4283321936
-0.2678743303 -0.1480002105 0.5472369194 4284374624
-0.2675082088 -0.1471907496 0.5464890003 4286019449
-0.2675691247 -0.1466169357 0.5466134548 4286545793
-0.2676298320 -0.1460427195 0.5467374325 4285427312
-0.2681179345 -0.1457004994 0.5477345586 4286808711
-0.2673228681 -0.1446616799 0.5461103320 4287466641
-0.2669550180 -0.1438566893 0.5453588367 4287137676
-0.2665867507 -0.1430531442 0.5446065664 4287203469
-0.2657901049 -0.1420223564 0.5429790616 4286874504
-0.2654209435 -0.1412226558 0.5422249436 4286084988
-0.2650513947 -0.1404244155 0.5414699912 4285690230
-0.2651097178 -0.1398535818 0.5415891409 4286479746
-0.2651678622 -0.1392823607 0.5417078733 4287532435
-0.2652257681 -0.1387107819 0.5418261886 4288256158
-0.2652834654 -0.1381388158 0.5419440269 4286873992
-0.2653409243 -0.1375664771 0.5420615077 4285097581
-0.2650264204 -0.1362002939 0.5414189696 4284966250
-0.2647106647 -0.1348363608 0.5407739282 4284900714
-0.2647669017 -0.1342640221 0.5408887863 4285690230
-0.2648229003 -0.1336913407 0.5410031676 4285821816
-0.2644493878 -0.1329025328 0.5402401686 4286282367
-0.2645048797 -0.1323300451 0.5403535366 4287400848
-0.2645601630 -0.1317571998 0.5404664278 4287730067
-0.2650447786 -0.1313969642 0.5414564610 4286348414
-0.2650997043 -0.1308224648 0.5415686965 4284900968
-0.2655841708 -0.1304587126 0.5425583720 4283782487
-0.2660685778 -0.1300927550 0.5435479879 4282597959
-0.2669828534 -0.1299337894 0.5454157591 4282663752
-0.2683272958 -0.1299790442 0.5481622815 4283124555
-0.2696720362 -0.1300183535 0.5509094596 4287072135
-0.2710170746 -0.1300516874 0.5536572337 4286480257
-0.2732229531 -0.1304900497 0.5581635833 4283914330
-0.2754294574 -0.1309186965 0.5626712441 4284243297
-0.2772061825 -0.1311340034 0.5663008094 4285559157
-0.2802748978 -0.1319495291 0.5725699067 4285822329
-0.2820527554 -0.1321463138 0.5762018561 4286414466
-0.2846924663 -0.1327368617 0.5815944672 4286020223
-0.2907792032 -0.1349147856 0.5940290093 4286086016
-0.2891124487 -0.1334852129 0.5906239748 4287007379
-0.2891685665 -0.1328547746 0.5907386541 4287796895
-0.2935912609 -0.1335539520 0.5997737050 4289375927
-0.2945098877 -0.1333033442 0.6016503572 4289573306
-0.2949973047 -0.1328543872 0.6026461124 4289046962
-0.2959159911 -0.1325964481 0.6045228839 4289178548
-0.2955404222 -0.1317573488 0.6037556529 4289112755
-0.2968905568 -0.1316853762 0.6065137982 4288191655
-0.2978093028 -0.1314169168 0.6083906889 4287533725
-0.2987281084 -0.1311443299 0.6102676988 4287994277
-0.2992152274 -0.1306790113 0.6112627983 4288323242
-0.2997022271 -0.1302114576 0.6122577190 4289507515
-0.3001891673 -0.1297416389 0.6132524610 4290033859
-0.3006759882 -0.1292695701 0.6142469645 4290823373
-0.3011626899 -0.1287952363 0.6152412891 4291876061
-0.3016493022 -0.1283186674 0.6162353754 4292665831
-0.3021357954 -0.1278398335 0.6172292233 4293257968
-0.3094370663 -0.0768475607 0.6321448684 4293454318
-0.3094702363 -0.0761533678 0.6322126389 4293322732
-0.3099402785 -0.0755655318 0.6331728697 4293125867
-0.3104100823 -0.0749755129 0.6341326833 4292994281
-0.3104424775 -0.0742786899 0.6341988444 4292862695
-0.3104745448 -0.0735816583 0.6342643499 4292731109
-0.3105063438 -0.0728844032 0.6343293190 4292665316
-0.3101004660 -0.0720852688 0.6335001588 4292533730
-0.3101316094 -0.0713885725 0.6335637569 4292336606
-0.3101624846 -0.0706916749 0.6336268187 4292205020
-0.3106305301 -0.0700932890 0.6345829964 4292139227
-0.3106608391 -0.0693949908 0.6346449256 4291941848
-0.3106908500 -0.0686964914 0.6347061992 4291678676
-0.3107205629 -0.0679977834 0.6347669363 4291415504
-0.3107499778 -0.0672988817 0.6348270178 4291218125
-0.3107790947 -0.0665997863 0.6348864436 4291086539
-0.3108078837 -0.0659004897 0.6349453330 4291020491
-0.3108364046 -0.0652009994 0.6350035667 4290888905
-0.3108646274 -0.0645013228 0.6350612044 4290823112
-0.3108925521 -0.0638014525 0.6351182461 4290691526
-0.3113580644 -0.0631902665 0.6360692978 4290494147
-0.3118233979 -0.0625769272 0.6370198727 4290362561
-0.3118504882 -0.0618745312 0.6370751858 4290230975
-0.3118772805 -0.0611719489 0.6371299624 4290099389
-0.3119037449 -0.0604691878 0.6371840835 4289836472
-0.3119299412 -0.0597662479 0.6372375488 4289507507
-0.3123939633 -0.0591460876 0.6381855011 4289310128
-0.3124195933 -0.0584418103 0.6382378340 4289112749
-0.3124448955 -0.0577373616 0.6382895708 4288717991
-0.3124699295 -0.0570327416 0.6383406520 4288191647
-0.3129329085 -0.0564069524 0.6392865181 4287796634
-0.3129573464 -0.0557010099 0.6393364668 4287533462
-0.3129814863 -0.0549949035 0.6393857598 4286941325
-0.3130053282 -0.0542886332 0.6394344568 4286743946
-0.3130288720 -0.0535822026 0.6394824982 4286414981
-0.3130520880 -0.0528756157 0.6395299435 4286020223
-0.3135134876 -0.0522419363 0.6404725313 4285757051
-0.3139746487 -0.0516061224 0.6414146423 4285625465
-0.3139970005 -0.0508970916 0.6414603591 4285625465
-0.3140190840 -0.0501879118 0.6415054202 4285625465
-0.3136022389 -0.0494094752 0.6406538486 4285495162
-0.3140622973 -0.0487691052 0.6415936947 4285626748
-0.3145220876 -0.0481266044 0.6425330043 4286086528
-0.3145429492 -0.0474158488 0.6425756216 4286612872
-0.3145635128 -0.0467049554 0.6426176429 4287402388
-0.3145837784 -0.0459939204 0.6426590085 4288586662
-0.3146037161 -0.0452827513 0.6426997781 4290560452
-0.3141845465 -0.0445092842 0.6418434381 4292336863
-0.2718005180 -0.1764809489 0.5565204024 4290230975
-0.2862254083 -0.1851959378 0.5860558748 4284441191
-0.2677204311 -0.1726136357 0.5481663346 4284440676
-0.2656784356 -0.1706926525 0.5439852476 4283980125
-0.2657476366 -0.1701325327 0.5441269279 4283914332
-0.2658166289 -0.1695719808 0.5442681909 4283585367
-0.2658854127 -0.1690109968 0.5444090366 4283782233
-0.2659540176 -0.1684495807 0.5445495248 4283321682
-0.2664453685 -0.1681546271 0.5455555916 4282532677
-0.2665137053 -0.1675914526 0.5456954837 4283980123
-0.2670049667 -0.1672929525 0.5467013717 4284045916
-0.2670730352 -0.1667280048 0.5468407273 4283782744
-0.2671408653 -0.1661626250 0.5469796658 4284572260
-0.2667850554 -0.1653343886 0.5462511182 4284111709
-0.2668524086 -0.1647690535 0.5463889837 4283914073
-0.2669195831 -0.1642032862 0.5465264916 4285427312
-0.2665627301 -0.1633773595 0.5457958579 4285887863
-0.2670532763 -0.1630704701 0.5468003154 4285822070
-0.2671198547 -0.1625034362 0.5469365716 4283256143
-0.2671861947 -0.1619359702 0.5470724702 4282137662
-0.2672523558 -0.1613680869 0.5472079515 4282992971
-0.2677426338 -0.1610550135 0.5482117534 4282795592
-0.2678084970 -0.1604853719 0.5483466387 4282795592
-0.2678741813 -0.1599153280 0.5484811068 4283058764
-0.2675150037 -0.1590923220 0.5477457047 4284308829
-0.2671554387 -0.1582707167 0.5470094681 4285624689
-0.2672202885 -0.1577012241 0.5471422672 4285229418
-0.2672849298 -0.1571313143 0.5472745895 4286940036
-0.2673493922 -0.1565610021 0.5474065542 4285097832
-0.2678387761 -0.1562382579 0.5484086275 4282795077
-0.2674776614 -0.1554191262 0.5476692319 4282927178
-0.2679668367 -0.1550937444 0.5486708283 4283716694
-0.2684560120 -0.1547661424 0.5496724248 4283321936
-0.2685196400 -0.1541919559 0.5498027205 4283519315
-0.2685830593 -0.1536173671 0.5499325991 4285624178
-0.2686462700 -0.1530423611 0.5500620008 4286611073
-0.2678575814 -0.1519836932 0.5484471321 4286874245
-0.2679201961 -0.1514097005 0.5485752821 4286940038
-0.2679825723 -0.1508353204 0.5487030745 4283190096
-0.2676186264 -0.1500216424 0.5479578376 4283584854
-0.2676804960 -0.1494473666 0.5480844975 4283387729
-0.2673158050 -0.1486356258 0.5473378301 4283387729
-0.2673771679 -0.1480614692 0.5474634767 4283585108
-0.2674383223 -0.1474869251 0.5475886464 4284966761
-0.2674992681 -0.1469119787 0.5477134585 4286085242
-0.2675599754 -0.1463366449 0.5478377938 4285624691
-0.2676205039 -0.1457609236 0.5479617119 4284900714
-0.2672538757 -0.1449532509 0.5472110510 4286413953
-0.2668868601 -0.1441470385 0.5464595556 4286874504
-0.2665194273 -0.1433422565 0.5457072258 4286742918
-0.2657243907 -0.1423101574 0.5440793633 4285229679
-0.2653560936 -0.1415092200 0.5433251858 4285295472
-0.2654147446 -0.1409367174 0.5434453487 4285427058
-0.2646182179 -0.1399117559 0.5418144464 4285229679
-0.2646763027 -0.1393403262 0.5419333577 4285032300
-0.2647341490 -0.1387685239 0.5420517921 4288256157
-0.2647917867 -0.1381963491 0.5421698093 4288979368
-0.2648492157 -0.1376238018 0.5422873497 4286808199
-0.2649064064 -0.1370508820 0.5424045324 4284637285
-0.2649634182 -0.1364775896 0.5425211787 4284571492
-0.2645920515 -0.1356843710 0.5417608619 4284440163
-0.2642202973 -0.1348926425 0.5409996510 4284374370
-0.2642764449 -0.1343200952 0.5411146283 4284900714
-0.2643324137 -0.1337471902 0.5412291884 4285427058
-0.2643881440 -0.1331739277 0.5413433313 4286216574
-0.2644436657 -0.1326002926 0.5414569974 4286019195
-0.2644989789 -0.1320262998 0.5415702462 4287072137
-0.2645540535 -0.1314519495 0.5416830778 4287927446
-0.2650378048 -0.1310893595 0.5426735282 4284374624
-0.2655214965 -0.1307245493 0.5436639190 4282664006
-0.2660051286 -0.1303575188 0.5446541905 4282532420
-0.2669178843 -0.1301975846 0.5465230346 4283321936
-0.2682599723 -0.1302419454 0.5492709875 4283058762
-0.2696023285 -0.1302803457 0.5520195961 4286611584
-0.2709450126 -0.1303127855 0.5547687411 4286677636
-0.2731469572 -0.1307504177 0.5592772961 4284506467
-0.2753495276 -0.1311783344 0.5637871027 4284177504
-0.2775526941 -0.1315965354 0.5682982206 4285690743
-0.2780375779 -0.1311939061 0.5692909956 4286611845
-0.2823907733 -0.1326055527 0.5782042742 4286743431
-0.2845959067 -0.1329936087 0.5827193856 4287664534
-0.2868016362 -0.1333719045 0.5872356892 4288454050
-0.2902981937 -0.1343374848 0.5943949819 4289309875
-0.2916450500 -0.1342972815 0.5971527696 4289638840
-0.2908409834 -0.1332653761 0.5955063701 4289244341
-0.2926182747 -0.1334140450 0.5991454124 4289968064
-0.2935351431 -0.1331643015 0.6010227799 4289836478
-0.2940216362 -0.1327161044 0.6020188928 4288652204
-0.2953691483 -0.1326524019 0.6047779918 4288257700
-0.2967169285 -0.1325826794 0.6075375676 4286349703
-0.2967727482 -0.1319324821 0.6076518297 4285494142
-0.2972590923 -0.1314724386 0.6086477041 4285362556
-0.2981762588 -0.1311997473 0.6105256081 4285691521
-0.2990935147 -0.1309229136 0.6124036908 4286678416
-0.2991486788 -0.1302665174 0.6125167012 4288586413
-0.2996347547 -0.1297965348 0.6135119200 4289639101
-0.3001207113 -0.1293242723 0.6145069599 4291020752
-0.3006065786 -0.1288497746 0.6155017614 4292336612
-0.3006609678 -0.1281891018 0.6156131625 4293389554
-0.3104830682 -0.0596243069 0.6357241869 4293718259
-0.3109461665 -0.0590058565 0.6366724372 4293652466
-0.3109717071 -0.0583032519 0.6367247105 4293586673
-0.3109969199 -0.0576004796 0.6367763281 4293323501
-0.3110218346 -0.0568975322 0.6368273497 4293126122
-0.3114839494 -0.0562734567 0.6377735138 4292994536
-0.3115082979 -0.0555691868 0.6378233433 4292928743
-0.3115323484 -0.0548647530 0.6378725767 4292665571
-0.3124312460 -0.0543122962 0.6397131085 4292468192
-0.3115795255 -0.0534554049 0.6379691958 4292270813
-0.3116026521 -0.0527504943 0.6380165815 4292007641
-0.3120631576 -0.0521185212 0.6389594674 4291875800
-0.3120857179 -0.0514123067 0.6390056610 4291810007
-0.3125457168 -0.0507770590 0.6399475336 4291744214
-0.3125677109 -0.0500695519 0.6399925351 4291678421
-0.3125893772 -0.0493618995 0.6400369406 4291612883
-0.3121729195 -0.0485859551 0.6391842365 4291612883
-0.3121939600 -0.0478790030 0.6392272711 4291612883
-0.3126525879 -0.0472380668 0.6401663423 4291678676
-0.3131109476 -0.0465950072 0.6411048770 4291875285
-0.3131311238 -0.0458856486 0.6411461830 4292072664
-0.3127130270 -0.0451129749 0.6402900815 4292599776
-0.3127325475 -0.0444043390 0.6403300762 4293389292
-0.2792961597 -0.1817612499 0.5731714368 4290625733
-0.2696780562 -0.1748870462 0.5534331799 4284506984
-0.2667983770 -0.1724112332 0.5475234985 4284506469
-0.2647601664 -0.1704903841 0.5433406830 4284177504
-0.2660942674 -0.1707427502 0.5460785031 4284176991
-0.2648979723 -0.1693711281 0.5436235070 4283650647
-0.2653885186 -0.1690796465 0.5446301699 4284374624
-0.2663010955 -0.1690538526 0.5465030074 4285361519
-0.2659475207 -0.1682229936 0.5457773805 4284703846
-0.2664380372 -0.1679257452 0.5467839837 4284440674
-0.2665061951 -0.1673610359 0.5469238758 4284374881
-0.2665741742 -0.1667958945 0.5470633507 4284572260
-0.2662193775 -0.1659668833 0.5463352799 4285427569
-0.2662868500 -0.1654017866 0.5464737415 4284703846
-0.2659983337 -0.1640095413 0.5458816290 4285230190
-0.2660651207 -0.1634440422 0.5460186601 4284967018
-0.2661316991 -0.1628781259 0.5461553335 4284967018
-0.2661980689 -0.1623117924 0.5462915301 4283716694
-0.2666875720 -0.1620021760 0.5472961068 4282729799
-0.2667536736 -0.1614340842 0.5474317670 4282992971
-0.2672430873 -0.1611209214 0.5484361053 4283190350
-0.2673088908 -0.1605510861 0.5485711694 4283190350
-0.2673744857 -0.1599808335 0.5487057567 4283453522
-0.2674398720 -0.1594101638 0.5488399863 4285887348
-0.2670811117 -0.1585873514 0.5481037498 4286282106
-0.2671460211 -0.1580167413 0.5482369065 4286282106
-0.2667865455 -0.1571958065 0.5474992394 4287334794
-0.2676994205 -0.1571232975 0.5493726134 4285229418
-0.2673394680 -0.1563024521 0.5486338735 4283255628
-0.2678279877 -0.1559773833 0.5496364236 4282860870
-0.2674674094 -0.1551575214 0.5488964915 4283453007
-0.2679557204 -0.1548298150 0.5498985648 4283650388
-0.2680192888 -0.1542554200 0.5500290394 4284176732
-0.2685074806 -0.1539241672 0.5510309339 4286545280
-0.2677208185 -0.1528627723 0.5494165421 4286940038
-0.2673586011 -0.1520463377 0.5486732125 4287400589
-0.2674211264 -0.1514721513 0.5488015413 4286413694
-0.2674834728 -0.1508975476 0.5489294529 4282071356
-0.2671202421 -0.1500835568 0.5481840372 4283189837
-0.2667565942 -0.1492710114 0.5474377275 4283256143
-0.2668181062 -0.1486970335 0.5475639701 4283387729
-0.2668793797 -0.1481226683 0.5476897359 4283058764
-0.2669404745 -0.1475479156 0.5478150845 4284308831
-0.2661496699 -0.1465039551 0.5461922288 4285361519
-0.2670620084 -0.1463972181 0.5480645299 4285822070
-0.2671224773 -0.1458212882 0.5481886268 4285032300
-0.2667565942 -0.1450133026 0.5474377275 4287006090
-0.2668165267 -0.1444375068 0.5475607514 4286150781
-0.2664499283 -0.1436315179 0.5468084216 4284440163
-0.2648036778 -0.1421402991 0.5434299707 4283716440
-0.2648625076 -0.1415679604 0.5435507298 4283913819
-0.2649211287 -0.1409952343 0.5436710119 4284834921
-0.2641261220 -0.1399698704 0.5420395136 4285295472
-0.2641841173 -0.1393982321 0.5421585441 4285690230
-0.2642419040 -0.1388262212 0.5422771573 4285361265
-0.2642994821 -0.1382538229 0.5423952937 4288124059
-0.2643568516 -0.1376810670 0.5425130129 4287466129
-0.2639868557 -0.1368864328 0.5417537093 4285361008
-0.2644709349 -0.1365344226 0.5427471399 4284176734
-0.2641003132 -0.1357409060 0.5419865847 4283584854
-0.2637293041 -0.1349488646 0.5412251353 4282795338
-0.2637854218 -0.1343761086 0.5413402915 4282926924
-0.2638413012 -0.1338029951 0.5414550304 4284045405
-0.2638970017 -0.1332295090 0.5415692925 4285953402
-0.2639524639 -0.1326556504 0.5416830778 4285756023
-0.2640076876 -0.1320814490 0.5417965055 4286151035
-0.2640627325 -0.1315068752 0.5419093966 4287532688
-0.2645456195 -0.1311441660 0.5429003835 4283585108
-0.2650284469 -0.1307792217 0.5438912511 4281940283
-0.2655112445 -0.1304120570 0.5448820591 4282203455
-0.2668506801 -0.1304614842 0.5476308465 4283321936
-0.2677619755 -0.1302964836 0.5495010018 4283453520
-0.2695304155 -0.1305424571 0.5531302094 4286414205
-0.2712993324 -0.1307806075 0.5567603707 4286743172
-0.2730687261 -0.1310109049 0.5603914857 4284703589
-0.2752673328 -0.1314380914 0.5649034977 4284309088
-0.2778954208 -0.1320593357 0.5702968240 4285888120
-0.2796664238 -0.1322632581 0.5739312768 4287927705
-0.2840119898 -0.1336708367 0.5828492641 4288914600
-0.2840679884 -0.1330494732 0.5829641819 4289309359
-0.2858404815 -0.1332278997 0.5866016746 4289638324
-0.2880426943 -0.1335975528 0.5911210775 4289638840
-0.2893867791 -0.1335611194 0.5938794017 4289441461
-0.2907311022 -0.1335186660 0.5966382623 4289046962
-0.2916461825 -0.1332739145 0.5985161662 4290099650
-0.2925613225 -0.1330250353 0.6003941894 4288849326
-0.2939062417 -0.1329664141 0.6031542420 4286743950
-0.2948216200 -0.1327083111 0.6050328016 4285033330
-0.2957370877 -0.1324460655 0.6069115400 4283520091
-0.2970825732 -0.1323712468 0.6096727252 4284506988
-0.2975682318 -0.1319091469 0.6106693745 4285822848
-0.2984839082 -0.1316344738 0.6125485301 4286809489
-0.2985393107 -0.1309781820 0.6126621962 4287993763
-0.2981641889 -0.1301337630 0.6118924022 4289243830
-0.2986493111 -0.1296645254 0.6128879786 4290230725
-0.2995647490 -0.1293789297 0.6147666574 4290954959
-0.2996192873 -0.1287193149 0.6148785353 4292139233
-0.3001041114 -0.1282433122 0.6158735156 4293257966
-0.2678399682 -0.1747039557 0.5509167910 4290888905
-0.2759014964 -0.1793317199 0.5674984455 4284638570
-0.2641945183 -0.1711185873 0.5434185266 4284638055
-0.2638428509 -0.1702878326 0.5426951051 4284440676
-0.2639116645 -0.1697291136 0.5428366661 4284374370
-0.2644013166 -0.1694397777 0.5438438058 4283453268
-0.2640487254 -0.1686103791 0.5431185961 4283913819
-0.2649594545 -0.1685864031 0.5449918509 4285032300
-0.2650277019 -0.1680241525 0.5451322794 4286348414
-0.2659386992 -0.1679939479 0.5470060706 4285690484
-0.2660067976 -0.1674290448 0.5471461415 4285164140
-0.2656530142 -0.1665992737 0.5464184880 4284374624
-0.2657206357 -0.1660344005 0.5465575457 4284243038
-0.2657880187 -0.1654690951 0.5466961861 4284177245
-0.2658552527 -0.1649033725 0.5468344092 4284637796
-0.2659222484 -0.1643372029 0.5469722152 4284900968
-0.2659890652 -0.1637706161 0.5471096635 4284835175
-0.2660556734 -0.1632036120 0.5472466946 4284111452
-0.2656996846 -0.1623780131 0.5465144515 4283716951
-0.2661883235 -0.1620683074 0.5475195050 4283322193
-0.2662543654 -0.1615000218 0.5476553440 4282861642
-0.2667429149 -0.1611867547 0.5486602187 4283256400
-0.2672314644 -0.1608712673 0.5496651530 4283848537
-0.2672970891 -0.1602999121 0.5498001575 4284901225
-0.2669394910 -0.1594754010 0.5490645766 4286282106
-0.2670046091 -0.1589041054 0.5491985083 4286150520
-0.2667109072 -0.1575102508 0.5485944152 4286874243
-0.2671987712 -0.1571877301 0.5495978594 4285887348
-0.2673271894 -0.1560413986 0.5498620272 4284176730
-0.2678148448 -0.1557140052 0.5508651137 4283979351
-0.2678786516 -0.1551388949 0.5509963036 4285229420
-0.2675182819 -0.1543188244 0.5502551198 4286874245
-0.2672204971 -0.1529256552 0.5496425629 4287466382
-0.2668589950 -0.1521089226 0.5488990545 4288387484
-0.2669214606 -0.1515345126 0.5490275025 4287005831
-0.2669837177 -0.1509597152 0.5491555929 4283058251
-0.2666212320 -0.1501454264 0.5484099388 4282663493
-0.2662583292 -0.1493325531 0.5476635098 4283519315
-0.2663197517 -0.1487583816 0.5477898717 4283979866
-0.2659561336 -0.1479474753 0.5470419526 4283190350
-0.2660170496 -0.1473734230 0.5471672416 4284900968
-0.2660777867 -0.1467989832 0.5472921133 4285690484
-0.2661382854 -0.1462241411 0.5474165678 4286085242
-0.2661985755 -0.1456489116 0.5475406051 4286151035
-0.2658333182 -0.1448415518 0.5467893481 4287203723
-0.2658931017 -0.1442664564 0.5469123125 4284176991
-0.2655271590 -0.1434610784 0.5461595654 4283124303
-0.2643095553 -0.1421991885 0.5436550975 4283716440
-0.2639425993 -0.1413985640 0.5429003239 4283913819
-0.2640010715 -0.1408265382 0.5430205464 4284308577
-0.2636334002 -0.1400279254 0.5422643423 4284834921
-0.2636913359 -0.1394560784 0.5423834920 4286479746
-0.2633229792 -0.1386594772 0.5416258574 4285032300
-0.2633804083 -0.1380878091 0.5417439342 4285755766
-0.2630113363 -0.1372932345 0.5409848690 4286545282
-0.2639209926 -0.1371649206 0.5428558588 4284768871
