VERSION 0.7
FIELDS x y z rgba
SIZE 4 4 4 4
TYPE F F F U
COUNT 1 1 1 1
WIDTH 920
HEIGHT 1
VIEWPOINT 0.0 0.0 0.0 1.0 0.0 0.0 0.0
POINTS 920
DATA ascii
-0.2956224680 -0.2320621461 0.6011950970 4290297799
-0.2957135439 -0.2314654589 0.6013802886 4290034627
-0.2953872383 -0.2305426002 0.6007166505 4289903041
-0.2954778075 -0.2299456447 0.6009008884 4289903041
-0.2955682278 -0.2293481529 0.6010847092 4290165443
-0.2956584394 -0.2287501097 0.6012682319 4290297029
-0.2957485020 -0.2281515300 0.6014513373 4290297029
-0.2958383560 -0.2275523990 0.6016340852 4290362822
-0.2959280312 -0.2269527167 0.6018164754 4290494408
-0.2960175276 -0.2263524830 0.6019985080 4290625994
-0.2965250909 -0.2260705829 0.6030306816 4290823373
-0.2966143489 -0.2254684120 0.6032121778 4291152338
-0.2971218824 -0.2251828760 0.6042443514 4291415510
-0.2972109020 -0.2245787680 0.6044253707 4291678682
-0.2964622676 -0.2233432233 0.6029028893 4291810270
-0.2965506613 -0.2227397412 0.6030826569 4291941856
-0.2966388762 -0.2221357226 0.6032620668 4292007649
-0.2967268825 -0.2215311676 0.6034410596 4292007649
-0.2968147099 -0.2209260762 0.6036196351 4292138722
-0.2973217070 -0.2206316292 0.6046507359 4292072929
-0.2974092960 -0.2200246155 0.6048288345 4291941343
-0.2974966764 -0.2194170505 0.6050065160 4291941343
-0.2975838482 -0.2188089639 0.6051838398 4291349466
-0.2980906963 -0.2185080945 0.6062145829 4291283673
-0.2973377109 -0.2172842771 0.6046832204 4291020495
-0.2974241972 -0.2166754454 0.6048591733 4290954702
-0.2975105047 -0.2160660774 0.6050346494 4291086286
-0.2975966036 -0.2154561877 0.6052097678 4291020493
-0.2976825237 -0.2148457617 0.6053845286 4291152338
-0.2977682650 -0.2142348140 0.6055588722 4291152338
-0.2978537977 -0.2136233300 0.6057327986 4291415512
-0.2975183129 -0.2127104551 0.6050505042 4291744477
-0.2976033092 -0.2120987922 0.6052234173 4293520376
-0.2976881266 -0.2114866078 0.6053959131 4294770431
-0.2973515689 -0.2105756253 0.6047114730 4294046719
-0.2974358797 -0.2099632621 0.6048828959 4291217623
-0.2975199819 -0.2093503773 0.6050539613 4288322992
-0.2976039052 -0.2087369710 0.6052246094 4287467683
-0.2976875901 -0.2081230432 0.6053948402 4287138718
-0.2969275713 -0.2069207579 0.6038491726 4286612374
-0.2965887487 -0.2060144991 0.6031601429 4286217614
-0.2962495089 -0.2051094621 0.6024702191 4285954442
-0.2963319421 -0.2044969648 0.6026378274 4286020235
-0.2959919274 -0.2035935223 0.6019464135 4286086028
-0.2956514955 -0.2026913166 0.6012540460 4286348687
-0.2948881388 -0.2015016675 0.5997016430 4286480273
-0.2945466936 -0.2006028295 0.5990073085 4288059305
-0.2946275473 -0.1999921650 0.5991716981 4288322477
-0.2942853570 -0.1990949363 0.5984758139 4287795617
-0.2943657041 -0.1984841526 0.5986391902 4287137687
-0.2940227687 -0.1975885630 0.5979417562 4287992994
-0.2945257425 -0.1972610801 0.5989646316 4287006099
-0.2954520285 -0.1972138733 0.6008483768 4285361276
-0.2951083481 -0.1963176727 0.6001495123 4284111209
-0.2960347831 -0.1962650716 0.6020335555 4283321944
-0.2961142361 -0.1956486553 0.6021951437 4282861393
-0.2961934507 -0.1950317472 0.6023562551 4283519323
-0.2962724864 -0.1944143474 0.6025169492 4285427320
-0.2959273458 -0.1935191900 0.6018150449 4286545288
-0.2960058153 -0.1929016858 0.6019746661 4285887358
-0.2952357233 -0.1917327344 0.6004085541 4284637545
-0.2961621881 -0.1916652024 0.6022926569 4283650650
-0.2907226682 -0.1874880493 0.5912305713 4283584857
-0.2883674502 -0.1729376018 0.5864408016 4283585116
-0.2901451886 -0.1733481437 0.5900561213 4282795600
-0.2897895873 -0.1724808961 0.5893329382 4282533198
-0.2902873755 -0.1721212566 0.5903452635 4281941061
-0.2912121117 -0.1720115691 0.5922259092 4282796629
-0.2921370864 -0.1718978286 0.5941069722 4285888900
-0.2943438292 -0.1725312322 0.5985947251 4289836480
-0.2969787121 -0.1734046489 0.6039531827 4292468200
-0.2934578657 -0.2335427552 0.5981439948 4291745247
-0.2939649522 -0.2332805842 0.5991775990 4291679454
-0.2940562069 -0.2326870561 0.5993635654 4291547868
-0.2941472530 -0.2320929766 0.5995491743 4291218903
-0.2942381501 -0.2314983457 0.5997344851 4291021524
-0.2943288684 -0.2309031636 0.5999193788 4290889938
-0.2944194078 -0.2303074300 0.6001039147 4290691789
-0.2945097685 -0.2297111601 0.6002880931 4290494410
-0.2941832542 -0.2287902534 0.5996225476 4290362824
-0.2942731380 -0.2281937301 0.5998057723 4290165445
-0.2943628430 -0.2275966555 0.5999885798 4289837248
-0.2944523394 -0.2269990295 0.6001710296 4289771455
-0.2945416868 -0.2264008671 0.6003531218 4289771455
-0.2946308255 -0.2258021533 0.6005347967 4289903041
-0.2947197855 -0.2252028883 0.6007161736 4290165445
-0.2948085666 -0.2246031016 0.6008971334 4290362824
-0.2953148782 -0.2243200392 0.6019291282 4290560203
-0.2954034209 -0.2237183154 0.6021095514 4290691789
-0.2950738370 -0.2228004634 0.6014377475 4291020754
-0.2947438061 -0.2218837738 0.6007651091 4291218133
-0.2948315442 -0.2212821245 0.6009439230 4291349206
-0.2949190736 -0.2206799537 0.6011223793 4291480792
-0.2954249084 -0.2203893960 0.6021533608 4291678172
-0.2955121994 -0.2197852880 0.6023312807 4291743965
-0.2955993116 -0.2191806436 0.6025088429 4291809758
-0.2956862152 -0.2185754776 0.6026859879 4291875551
-0.2961919010 -0.2182784975 0.6037166715 4291481052
-0.2962785661 -0.2176713943 0.6038933396 4291481052
-0.2967842221 -0.2173707932 0.6049240232 4291349717
-0.2968706191 -0.2167617679 0.6051001549 4291086545
-0.2965373993 -0.2158469111 0.6044209599 4290823627
-0.2966233194 -0.2152376771 0.6045960188 4289968318
-0.2967090011 -0.2146279216 0.6047707200 4290165443
-0.2967945337 -0.2140176445 0.6049450040 4290362822
-0.2964599133 -0.2131049931 0.6042630076 4290560203
-0.2944447398 -0.2109895945 0.6001555324 4289902273
-0.2966297269 -0.2118835151 0.6046091318 4290691790
-0.2962940633 -0.2109727561 0.6039249301 4292402408
-0.2963783443 -0.2103615701 0.6040967703 4294309887
-0.2960419357 -0.2094523609 0.6034110188 4294309887
-0.2961257100 -0.2088410109 0.6035817862 4291152091
-0.2962093055 -0.2082291394 0.6037521362 4288059820
-0.2962926924 -0.2076167613 0.6039221287 4286480788
-0.2959548831 -0.2067098171 0.6032335758 4286151823
-0.2956166267 -0.2058041096 0.6025441885 4286349200
-0.2952779531 -0.2048996240 0.6018538475 4286086028
-0.2949388623 -0.2039963752 0.6011626720 4285822856
-0.2954422235 -0.2036754638 0.6021886468 4285493891
-0.2946809232 -0.2024832666 0.6006368995 4285756550
-0.2943406105 -0.2015828639 0.5999432802 4285690757
-0.2939998806 -0.2006836981 0.5992488265 4286743699
-0.2936587334 -0.1997857839 0.5985534191 4288256938
-0.2933171391 -0.1988891214 0.5978571773 4289704382
-0.2929750979 -0.1979937106 0.5971600413 4288849073
-0.2930549085 -0.1973839849 0.5973227024 4287664029
-0.2931345105 -0.1967737526 0.5974849463 4286216583
-0.2936364114 -0.1964456737 0.5985079408 4285427069
-0.2941383421 -0.1961153448 0.5995309949 4284242795
-0.2942175567 -0.1955018640 0.5996924639 4284374119
-0.2938737273 -0.1946078837 0.5989916325 4283321431
-0.2943753898 -0.1942734271 0.6000141501 4283124052
-0.2944539785 -0.1936584562 0.6001743674 4283321431
-0.2941091955 -0.1927656382 0.5994715691 4283650396
-0.2937639654 -0.1918741018 0.5987679362 4283781982
-0.2934183180 -0.1909838468 0.5980634093 4283387478
-0.2918016911 -0.1892707646 0.5947682858 4283387478
-0.2884019315 -0.1720435768 0.5878387094 4281743680
-0.2893247306 -0.1719388515 0.5897195935 4281019957
-0.2885428965 -0.1708207726 0.5881260633 4281019705
-0.2907446325 -0.1714657843 0.5926137567 4280953912
-0.2925207615 -0.1718507856 0.5962339640 4283257180
-0.2917383611 -0.1707304716 0.5946392417 4287599518
-0.2947949469 -0.1718516201 0.6008693576 4291612891
-0.2928563058 -0.2309339345 0.5982722640 4291613659
-0.2929466665 -0.2303402573 0.5984568596 4291416280
-0.2926211953 -0.2294201553 0.5977919698 4291416280
-0.2927110791 -0.2288262248 0.5979755521 4291218901
-0.2928007841 -0.2282317579 0.5981588364 4290889936
-0.2928902805 -0.2276367396 0.5983417034 4290692557
-0.2929796278 -0.2270411700 0.5985242128 4290889166
-0.2930687964 -0.2264450639 0.5987063646 4290691787
-0.2931577861 -0.2258484066 0.5988881588 4290494408
-0.2932465672 -0.2252512127 0.5990695357 4290428615
-0.2933351994 -0.2246534675 0.5992506146 4290231236
-0.2934236228 -0.2240551859 0.5994312763 4290231236
-0.2935118973 -0.2234563679 0.5996115804 4290428615
-0.2935999632 -0.2228570133 0.5997914672 4290560201
-0.2932706773 -0.2219413966 0.5991187692 4290823116
-0.2933582664 -0.2213418186 0.5992977023 4290888909
-0.2934456468 -0.2207416892 0.5994762182 4290822862
-0.2935328484 -0.2201410383 0.5996543765 4291020241
-0.2940375507 -0.2198521346 0.6006854177 4291349206
-0.2941245139 -0.2192495465 0.6008630395 4291546585
-0.2942112684 -0.2186464369 0.6010403037 4291612378
-0.2942978442 -0.2180427760 0.6012172103 4291875550
-0.2948023975 -0.2177474648 0.6022479534 4291941856
-0.2948887348 -0.2171418816 0.6024243236 4292139235
-0.2949748635 -0.2165357769 0.6026002765 4292270821
-0.2950608134 -0.2159291506 0.6027758718 4292270821
-0.2947279215 -0.2150165588 0.6020957828 4292205028
-0.2948133647 -0.2144097239 0.6022703052 4292007649
-0.2948986292 -0.2138023674 0.6024444699 4291612891
-0.2949836850 -0.2131944746 0.6026182175 4291283926
-0.2950685322 -0.2125860751 0.6027916074 4291020754
-0.2951532006 -0.2119771391 0.6029645801 4290494410
-0.2948183119 -0.2110674381 0.6022804379 4290165446
-0.2949024737 -0.2104583234 0.6024523377 4291020755
-0.2949864268 -0.2098486871 0.6026238799 4292073443
-0.2954899371 -0.2095361650 0.6036524773 4293718268
-0.2951537669 -0.2086278498 0.6029657125 4293981439
-0.2952371538 -0.2080166489 0.6031360626 4290954962
-0.2953203321 -0.2074049413 0.6033059955 4287599783
-0.2949830890 -0.2064985633 0.6026170850 4286152337
-0.2950657606 -0.2058866769 0.6027859449 4286744474
-0.2943073511 -0.2046894729 0.6012365818 4285889165
-0.2943893671 -0.2040783167 0.6014041305 4285428100
-0.2944712043 -0.2034666538 0.6015713215 4285296514
-0.2937112451 -0.2022749037 0.6000187993 4285032827
-0.2933715284 -0.2013750523 0.5993248224 4284835448
-0.2930313945 -0.2004764527 0.5986299515 4285033081
-0.2931119502 -0.1998662502 0.5987945199 4285033081
-0.2927710414 -0.1989692748 0.5980980992 4287598238
-0.2924297154 -0.1980735511 0.5974007845 4289900993
-0.2916664779 -0.1968945563 0.5958415866 4289637819
-0.2917457819 -0.1962858886 0.5960035920 4288519338
-0.2918248475 -0.1956767142 0.5961651206 4286940049
-0.2923255563 -0.1953489333 0.5971880555 4285032052
-0.2924043536 -0.1947378963 0.5973489881 4283848029
-0.2924829423 -0.1941263527 0.5975095630 4283716443
-0.2925613523 -0.1935143322 0.5976697206 4283190099
-0.2922172546 -0.1926234514 0.5969667435 4282861134
-0.2927174866 -0.1922888011 0.5979887247 4283190099
-0.2915277481 -0.1908455342 0.5955581665 4283387478
-0.2911823690 -0.1899585128 0.5948525667 4283519064
-0.2899910808 -0.1885231286 0.5924189687 4283782236
-0.2795698643 -0.1804791689 0.5711295605 4283848027
-0.2774642706 -0.1753411591 0.5668280721 4283848027
-0.2873004973 -0.1730796099 0.5869223475 4281677371
-0.2873713374 -0.1724700332 0.5870671272 4281282613
-0.2888588607 -0.1713958383 0.5901059508 4281809475
-0.2897801995 -0.1712847799 0.5919881463 4282401612
-0.2902761102 -0.1709190309 0.5930012465 4282992979
-0.2890691161 -0.1695521921 0.5905354619 4285032562
-0.2916937172 -0.1704295725 0.5958972573 4288520107
-0.2921896875 -0.1700561494 0.5969104767 4292401894
-0.2961566448 -0.1669872105 0.6050145030 4292797166
-0.2962255478 -0.1663537025 0.6051552296 4292468715
-0.2967211604 -0.1659585238 0.6061677337 4292073957
-0.2972167432 -0.1655610949 0.6071801782 4291811040
-0.2968580127 -0.1646874696 0.6064473391 4291745247
-0.2969261110 -0.1640512794 0.6065863967 4291613661
-0.2969939411 -0.1634146422 0.6067250371 4291679454
-0.2970615625 -0.1627775878 0.6068631411 4292008419
-0.2971289456 -0.1621400863 0.6070008278 4292337384
-0.2971960902 -0.1615021527 0.6071379781 4292600556
-0.2972630262 -0.1608637869 0.6072747111 4292863728
-0.2916567624 -0.2291840315 0.5971767306 4291745247
-0.2917464077 -0.2285907716 0.5973602533 4291547868
-0.2914207578 -0.2276726514 0.5966934562 4291218901
-0.2915099263 -0.2270791382 0.5968760848 4290955729
-0.2915989161 -0.2264850885 0.5970582962 4290889166
-0.2912722230 -0.2255687118 0.5963893533 4290691787
-0.2913607359 -0.2249744236 0.5965705514 4290428615
-0.2914490402 -0.2243795842 0.5967513919 4290231236
-0.2915371954 -0.2237842083 0.5969318748 4289968064
-0.2916251719 -0.2231882960 0.5971120000 4289902271
-0.2917129397 -0.2225918472 0.5972917676 4289968064
-0.2918005288 -0.2219948620 0.5974711180 4289968064
-0.2918879688 -0.2213973254 0.5976501107 4289902271
-0.2915586829 -0.2204842865 0.5969758630 4289902271
-0.2916456163 -0.2198865414 0.5971539021 4290033857
-0.2917323411 -0.2192882597 0.5973314643 4290231236
-0.2918189168 -0.2186894566 0.5975087285 4290625994
-0.2923222780 -0.2184016705 0.5985394120 4290823373
-0.2924085855 -0.2178009301 0.5987160802 4291020752
-0.2924947143 -0.2171996683 0.5988924503 4291152338
-0.2925806344 -0.2165978700 0.5990684032 4291612891
-0.2930838764 -0.2163036615 0.6000987887 4292007649
-0.2931695580 -0.2156999558 0.6002742052 4292270821
-0.2932550609 -0.2150957137 0.6004492640 4292468200
-0.2933403552 -0.2144909352 0.6006239057 4292599786
-0.2934254408 -0.2138856351 0.6007981896 4292731372
-0.2930922508 -0.2129759938 0.6001159549 4292665579
-0.2931768596 -0.2123705000 0.6002891660 4292665579
-0.2932612896 -0.2117644995 0.6004620194 4292599786
-0.2933454812 -0.2111579627 0.6006344557 4292731372
-0.2934295237 -0.2105509043 0.6008064747 4292402407
-0.2930946350 -0.2096438259 0.6001208425 4292336614
-0.2931781411 -0.2090366036 0.6002918482 4291876064
-0.2936804295 -0.2087266147 0.6013202071 4291744478
-0.2937636673 -0.2081174701 0.6014906764 4292862959
-0.2938467264 -0.2075078189 0.6016607285 4293257717
-0.2935102582 -0.2066024989 0.6009718180 4290099917
-0.2935928106 -0.2059926987 0.6011407971 4286547095
-0.2936751246 -0.2053823620 0.6013094187 4285757833
-0.2933376133 -0.2044789940 0.6006183028 4285494661
-0.2929996848 -0.2035768628 0.5999263525 4285296512
-0.2930811942 -0.2029667348 0.6000932455 4284901754
-0.2927424908 -0.2020662129 0.5993997455 4284375408
-0.2924033701 -0.2011669129 0.5987054110 4284441201
-0.2920638025 -0.2002688795 0.5980101228 4284769907
-0.2921441495 -0.1996593624 0.5981746912 4284111977
-0.2918038368 -0.1987629533 0.5974778533 4283913828
-0.2910425365 -0.1975822598 0.5959190130 4284966516
-0.2915426195 -0.1972585320 0.5969430208 4287137940
-0.2907803357 -0.1960812360 0.5953822136 4288059042
-0.2908592224 -0.1954727471 0.5955437422 4286414217
-0.2909379005 -0.1948637515 0.5957048535 4284243048
-0.2910163999 -0.1942542791 0.5958655477 4283716443
-0.2910946608 -0.1936443001 0.5960258245 4283716443
-0.2911727428 -0.1930338293 0.5961856842 4283321685
-0.2912506163 -0.1924228817 0.5963451266 4283124306
-0.2904850841 -0.1912562549 0.5947776437 4283453271
-0.2884537280 -0.1892625988 0.5906184316 4283584857
-0.2851555943 -0.1864498705 0.5838653445 4283519064
-0.2873406410 -0.1872248948 0.5883393288 4283584857
-0.2811594903 -0.1819181293 0.5756831765 4283782234
-0.2795440555 -0.1802369505 0.5723755360 4283650648
-0.2781440616 -0.1768032312 0.5695090294 4283650648
-0.2782158256 -0.1762159318 0.5696559548 4283782234
-0.2787103057 -0.1758950800 0.5706684589 4283913819
-0.2787818015 -0.1753059775 0.5708147883 4284176991
-0.2809687853 -0.1760420352 0.5752927661 4284308577
-0.2859852612 -0.1759320945 0.5855641365 4282795339
-0.2865523994 -0.1749772131 0.5867254138 4281808957
-0.2870478332 -0.1746267080 0.5877397656 4281479991
-0.2875432372 -0.1742739528 0.5887541771 4281216819
-0.2871902585 -0.1734066606 0.5880313516 4281085234
-0.2876854539 -0.1730511785 0.5890452862 4281479992
-0.2873317897 -0.1721847951 0.5883212090 4282466887
-0.2878267765 -0.1718266159 0.5893346667 4283322196
-0.2874724865 -0.1709611267 0.5886092782 4284112230
-0.2879672348 -0.1706002355 0.5896222591 4284178023
-0.2880371213 -0.1699863821 0.5897654295 4284506218
-0.2885317504 -0.1696218848 0.5907781720 4284769390
-0.2890263796 -0.1692551374 0.5917909145 4286743950
-0.2899461091 -0.1691341251 0.5936740637 4291546839
-0.2927757800 -0.1681205481 0.5994679332 4291941856
-0.2932705879 -0.1677374989 0.6004810333 4291152340
-0.2937653363 -0.1673521847 0.6014941335 4290428617
-0.2938342392 -0.1667229682 0.6016351581 4289310136
-0.2947548032 -0.1665747464 0.6035200357 4288323241
-0.2943973839 -0.1657030284 0.6027882695 4287402654
-0.2944657207 -0.1650715768 0.6029281020 4286678931
-0.2949600220 -0.1646776646 0.6039402485 4286744209
-0.2954543233 -0.1642814875 0.6049523354 4286810002
-0.2950957119 -0.1634107530 0.6042180657 4286744209
-0.2955897152 -0.1630118638 0.6052295566 4286744209
-0.2952304482 -0.1621420979 0.6044939160 4287073174
-0.2948707342 -0.1612737179 0.6037574410 4287467932
-0.2949374318 -0.1606392264 0.6038939953 4287994276
-0.2950038910 -0.1600043029 0.6040300727 4288520620
-0.2946431041 -0.1591383219 0.6032913327 4289704894
-0.2947089970 -0.1585034579 0.6034262776 4290560203
-0.2947746515 -0.1578681767 0.6035606861 4291612891
-0.2948400974 -0.1572324783 0.6036946774 4292468200
-0.2901320457 -0.2265209407 0.5954087973 4291678684
-0.2902206779 -0.2259283960 0.5955907106 4291350489
-0.2898944020 -0.2250134051 0.5949211717 4291153110
-0.2899825573 -0.2244206369 0.5951020718 4290889938
-0.2900705338 -0.2238273174 0.5952826142 4290560973
-0.2901583314 -0.2232334614 0.5954627991 4290100420
-0.2902459502 -0.2226390690 0.5956426263 4289771455
-0.2903333902 -0.2220441401 0.5958220363 4289442490
-0.2904206514 -0.2214486748 0.5960010886 4289179318
-0.2905077338 -0.2208526731 0.5961797833 4289112755
-0.2901788950 -0.2199410200 0.5955049396 4288915376
-0.2902654707 -0.2193448097 0.5956826210 4288783790
-0.2903518677 -0.2187480479 0.5958599448 4288717997
-0.2908541858 -0.2184633017 0.5968908072 4288784044
-0.2905240953 -0.2175529450 0.5962134600 4288849837
-0.2910262942 -0.2172654122 0.5972440243 4288915630
-0.2915285528 -0.2169756442 0.5982747674 4288915630
-0.2911976874 -0.2160654217 0.5975957513 4289441722
-0.2916997969 -0.2157728672 0.5986261964 4289704894
-0.2917851210 -0.2151706815 0.5988013148 4289836480
-0.2918702960 -0.2145679742 0.5989760756 4290033859
-0.2919552624 -0.2139647305 0.5991504192 4290428617
-0.2916228175 -0.2130561620 0.5984681845 4290823375
-0.2917072773 -0.2124527395 0.5986415148 4291152340
-0.2917915583 -0.2118487805 0.5988144875 4291481305
-0.2918756306 -0.2112443149 0.5989870429 4291876063
-0.2919595242 -0.2106393129 0.5991591811 4292533993
-0.2920432091 -0.2100338042 0.5993309617 4292599786
-0.2917087972 -0.2091281563 0.5986446142 4292797165
-0.2917919755 -0.2085224539 0.5988153815 4292665580
-0.2922931314 -0.2082141340 0.5998438001 4291876064
-0.2923760414 -0.2076065391 0.6000139713 4291481306
-0.2924587727 -0.2069984227 0.6001837254 4291415513
-0.2925412953 -0.2063897997 0.6003531218 4292008168
-0.2922049761 -0.2054862678 0.5996629596 4289113276
-0.2922869921 -0.2048774809 0.5998312235 4285757831
-0.2923688293 -0.2042681873 0.5999991298 4285099901
-0.2916124761 -0.2030748427 0.5984469652 4284967545
-0.2916936576 -0.2024662793 0.5986135602 4283980650
-0.2917746305 -0.2018572092 0.5987797976 4284046697
-0.2910167575 -0.2006693184 0.5972244740 4283849318
-0.2906776667 -0.1997727156 0.5965285897 4283848804
-0.2907577157 -0.1991647631 0.5966928601 4284046183
-0.2908375561 -0.1985563040 0.5968567133 4283849058
-0.2904973924 -0.1976616979 0.5961586237 4283125335
-0.2901568115 -0.1967683583 0.5954596996 4283321942
-0.2898158133 -0.1958762854 0.5947598815 4283979872
-0.2898944914 -0.1952684671 0.5949213505 4284111458
-0.2895527482 -0.1943780482 0.5942199826 4283585114
-0.2896309197 -0.1937701255 0.5943804383 4283716443
-0.2897088826 -0.1931617111 0.5945404172 4283716443
-0.2897866368 -0.1925528049 0.5947000384 4283519064
-0.2890228033 -0.1913862526 0.5931324363 4283387478
-0.2882583141 -0.1902227402 0.5915635824 4283519064
-0.2874931693 -0.1890622973 0.5899933577 4283584857
-0.2858852744 -0.1873530596 0.5866936445 4283453271
-0.2851186097 -0.1862005144 0.5851202607 4283453271
-0.2805599570 -0.1825836897 0.5757649541 4283716441
-0.2810550928 -0.1822650880 0.5767811537 4283650648
-0.2794428468 -0.1805823743 0.5734724998 4283584855
-0.2799375057 -0.1802637279 0.5744875669 4283519062
-0.2783236504 -0.1785898805 0.5711756349 4283519062
-0.2788177729 -0.1782711893 0.5721896887 4283584855
-0.2784680724 -0.1774126589 0.5714720488 4283650648
-0.2790338397 -0.1765006334 0.5726330876 4284045405
-0.2795276940 -0.1761756539 0.5736466050 4283979612
-0.2812886238 -0.1766441315 0.5772603750 4283848280
-0.2822053134 -0.1765763164 0.5791415572 4283585108
-0.2814319134 -0.1754507124 0.5775544643 4282992971
-0.2854512930 -0.1760038733 0.5858030319 4281479478
-0.2863689661 -0.1759167165 0.5876862407 4281216820
-0.2872868180 -0.1758255213 0.5895699263 4280953648
-0.2873584926 -0.1752141565 0.5897169709 4281151027
-0.2874299288 -0.1746023446 0.5898635983 4281282613
-0.2879245877 -0.1742463112 0.5908787251 4281677371
-0.2879957259 -0.1736326814 0.5910246968 4282927438
-0.2872193754 -0.1725097299 0.5894314647 4283980126
-0.2872898579 -0.1718969941 0.5895760655 4284177505
-0.2869362831 -0.1710311919 0.5888504982 4283717472
-0.2874301672 -0.1706701964 0.5898640156 4284178023
-0.2874999940 -0.1700561196 0.5900073647 4284309609
-0.2879937589 -0.1696915030 0.5910206437 4285296504
-0.2889117301 -0.1695736349 0.5929045081 4288454568
-0.2894055843 -0.1692036092 0.5939179659 4291678425
-0.2898993790 -0.1688313037 0.5949313641 4291941597
-0.2903931737 -0.1684567481 0.5959447622 4291217874
-0.2908869386 -0.1680799127 0.5969580412 4289244084
-0.2918054461 -0.1679452956 0.5988430381 4287599259
-0.2922992706 -0.1675630212 0.5998564363 4286348938
-0.2923681438 -0.1669358462 0.5999977589 4285691008
-0.2928618193 -0.1665499657 0.6010108590 4284967285
-0.2933554649 -0.1661618054 0.6020239592 4284506734
-0.2929985821 -0.1652915925 0.6012915373 4284309868
-0.2930666208 -0.1646617353 0.6014311910 4284178282
-0.2935598791 -0.1642695218 0.6024434566 4284244075
-0.2936275601 -0.1636378914 0.6025823355 4284441454
-0.2936950326 -0.1630058140 0.6027207971 4284704626
-0.2937622368 -0.1623733044 0.6028587222 4285099384
-0.2934033871 -0.1615059525 0.6021223068 4285559935
-0.2934700549 -0.1608735025 0.6022590995 4285757314
-0.2931104600 -0.1600080431 0.6015211344 4285757314
-0.2931765616 -0.1593756378 0.6016567945 4285954693
-0.2932424247 -0.1587428153 0.6017919779 4286152072
-0.2928817570 -0.1578797549 0.6010518074 4286349451
-0.2929470539 -0.1572470069 0.6011857986 4286744209
-0.2934386432 -0.1568417996 0.6021946669 4287402139
-0.2930769920 -0.1559802294 0.6014524698 4288388522
-0.2931416035 -0.1553462148 0.6015850306 4289375417
-0.2936327457 -0.1549369693 0.6025930047 4290625484
-0.2936969995 -0.1543011963 0.6027248502 4291743965
-0.2946149409 -0.1541116983 0.6046086550 4292797165
-0.2888692319 -0.2220892459 0.5941716433 4291547868
-0.2889563441 -0.2214958370 0.5943507552 4291153110
-0.2890432477 -0.2209018916 0.5945295095 4290824145
-0.2887151539 -0.2199913263 0.5938546658 4290428615
-0.2888015807 -0.2193971723 0.5940324068 4289968064
-0.2888877988 -0.2188024670 0.5942097902 4289507513
-0.2893890738 -0.2185207605 0.5952408314 4289112755
-0.2894750535 -0.2179241478 0.5954177380 4288849837
-0.2895608544 -0.2173269987 0.5955942273 4288718251
-0.2896465063 -0.2167293280 0.5957703590 4288520872
-0.2897319496 -0.2161311209 0.5959460735 4288389286
-0.2898171842 -0.2155323774 0.5961214304 4288257448
-0.2903181911 -0.2152414918 0.5971519351 4288257448
-0.2904031873 -0.2146408409 0.5973268151 4288257448
-0.2904880047 -0.2140396535 0.5975012183 4288323241
-0.2905726433 -0.2134379447 0.5976753235 4288454827
-0.2906570733 -0.2128357291 0.5978490114 4288520620
-0.2903247774 -0.2119289041 0.5971655250 4288586413
-0.2904087305 -0.2113264948 0.5973381400 4288717999
-0.2904924750 -0.2107235640 0.5975103974 4289310136
-0.2905760407 -0.2101200968 0.5976822972 4289639101
-0.2902423739 -0.2092155218 0.5969960093 4290099652
-0.2903254330 -0.2086119056 0.5971668363 4290494410
-0.2904082835 -0.2080077529 0.5973372459 4291086547
-0.2904909551 -0.2074030936 0.5975072980 4291612891
-0.2905734181 -0.2067979127 0.5976769328 4291349719
-0.2906557024 -0.2061922103 0.5978461504 4290625996
-0.2907377779 -0.2055860013 0.5980150104 4290165962
-0.2908196747 -0.2049792856 0.5981834531 4290034376
-0.2909013629 -0.2043720484 0.5983514786 4287797412
-0.2909828424 -0.2037643045 0.5985190868 4285428864
-0.2906459570 -0.2028641552 0.5978261232 4284441455
-0.2903086245 -0.2019652575 0.5971322656 4284244076
-0.2903892994 -0.2013577372 0.5972982049 4283915110
-0.2900512218 -0.2004604489 0.5966027975 4283257180
-0.2897126973 -0.1995643973 0.5959065557 4283520093
-0.2897925377 -0.1989571154 0.5960707664 4283520093
-0.2894532979 -0.1980627030 0.5953729749 4283782493
-0.2891136110 -0.1971695423 0.5946742892 4283716700
-0.2883543968 -0.1959927827 0.5931126475 4283519575
-0.2888521850 -0.1956710070 0.5941365957 4283387989
-0.2885113358 -0.1947807670 0.5934354663 4283190610
-0.2885895371 -0.1941740215 0.5935962796 4283190610
-0.2882479131 -0.1932854354 0.5928936601 4283387476
-0.2879059017 -0.1923981160 0.5921901464 4283584855
-0.2884030342 -0.1920712441 0.5932127237 4283584855
-0.2872205675 -0.1906273365 0.5907804966 4283387476
-0.2868772447 -0.1897438616 0.5900743008 4283519062
-0.2861133814 -0.1885847598 0.5885031223 4283584855
-0.2861893475 -0.1879807860 0.5886594057 4283584855
-0.2824818790 -0.1849000007 0.5810335279 4283650648
-0.2812950313 -0.1834802926 0.5785923600 4283584855
-0.2805279195 -0.1823388040 0.5770144463 4283584855
-0.2814429104 -0.1822903454 0.5788964629 4283584855
-0.2798333168 -0.1806083024 0.5755857229 4283584855
-0.2773808241 -0.1783915311 0.5705412626 4283584855
-0.2774529755 -0.1778038442 0.5706896186 4283584855
-0.2813150585 -0.1796359420 0.5786335468 4283584855
-0.2797028124 -0.1779672056 0.5753173232 4283584855
-0.2801962197 -0.1776407957 0.5763322115 4283519061
-0.2806896567 -0.1773121506 0.5773471594 4283124303
-0.2816046476 -0.1772466004 0.5792291760 4282664006
-0.2825198770 -0.1771769971 0.5811117291 4282137662
-0.2821699977 -0.1763127148 0.5803920627 4281677111
-0.2830853462 -0.1762377173 0.5822747946 4281216560
-0.2840009034 -0.1761586815 0.5841580033 4280756268
-0.2866771221 -0.1765083373 0.5896626711 4280953648
-0.2871712148 -0.1761562824 0.5906789899 4280822062
-0.2872429192 -0.1755438000 0.5908264518 4281019187
-0.2873143852 -0.1749308705 0.5909734368 4281611324
-0.2873856425 -0.1743174791 0.5911200643 4282137922
-0.2870339751 -0.1734481901 0.5903966427 4282203715
-0.2866818607 -0.1725802571 0.5896724463 4282598473
-0.2867522538 -0.1719673127 0.5898172259 4283980126
-0.2868224680 -0.1713539064 0.5899616480 4283849058
-0.2877387106 -0.1712437272 0.5918462873 4283651679
-0.2873854339 -0.1703767031 0.5911195874 4283388507
-0.2878784239 -0.1700110584 0.5921336412 4284704367
-0.2883714139 -0.1696431786 0.5931476355 4286678157
-0.2888643742 -0.1692730188 0.5941616297 4287467673
-0.2893573344 -0.1689005941 0.5951755643 4287599259
-0.2898502350 -0.1685259193 0.5961894393 4287665052
-0.2903431654 -0.1681489646 0.5972033143 4287072915
-0.2908360362 -0.1677697599 0.5982171297 4286809743
-0.2913289070 -0.1673882753 0.5992308855 4287204247
-0.2913975716 -0.1667617857 0.5993721485 4287993763
-0.2918902934 -0.1663766950 0.6003856063 4288125349
-0.2919586301 -0.1657484025 0.6005261540 4287862177
-0.2920267284 -0.1651196927 0.6006662250 4287665311
-0.2916700244 -0.1642514467 0.5999325514 4287533725
-0.2921622396 -0.1638609320 0.6009449363 4287139735
-0.2922296524 -0.1632308960 0.6010836363 4286744977
-0.2922968268 -0.1626004130 0.6012217999 4285955461
-0.2923637927 -0.1619695127 0.6013595462 4285231738
-0.2920054793 -0.1611036658 0.6006225348 4284902005
-0.2920718789 -0.1604728103 0.6007590890 4284770419
-0.2917128205 -0.1596088707 0.6000205278 4285033591
-0.2917786539 -0.1589780748 0.6001559496 4285428349
-0.2918442786 -0.1583468616 0.6002908945 4286415244
-0.2914841175 -0.1574853212 0.5995501280 4286612623
-0.2915491760 -0.1568541676 0.5996839404 4287006869
-0.2916139960 -0.1562226117 0.5998172760 4287335834
-0.2916785777 -0.1555906236 0.5999501348 4287270041
-0.2913170457 -0.1547319889 0.5992064476 4286875283
-0.2918070555 -0.1543253809 0.6002143621 4286875283
-0.2918709517 -0.1536921412 0.6003457904 4287204248
-0.2919346094 -0.1530584842 0.6004767418 4288125349
-0.2919979990 -0.1524244249 0.6006071568 4289046451
-0.2924875617 -0.1520115286 0.6016141176 4290296518
-0.2929770648 -0.1515963823 0.6026209593 4291743964
-0.2938930392 -0.1513986886 0.6045050025 4292665577
-0.2870983779 -0.2179450542 0.5918812752 4291547096
-0.2875983715 -0.2176658511 0.5929120779 4291218131
-0.2876839042 -0.2170716226 0.5930884480 4291020752
-0.2877692580 -0.2164768577 0.5932644010 4290757580
-0.2878544033 -0.2158815712 0.5934399366 4290494408
-0.2879393995 -0.2152857631 0.5936151743 4290297029
-0.2880241871 -0.2146894187 0.5937899947 4289968836
-0.2885239422 -0.2144010365 0.5948202610 4289771457
-0.2881932259 -0.2134951502 0.5941384435 4289639871
-0.2882774472 -0.2128972262 0.5943121314 4289574078
-0.2887770236 -0.2126046866 0.5953419805 4289376699
-0.2888610065 -0.2120048553 0.5955151320 4289047734
-0.2889447808 -0.2114045024 0.5956878662 4288783792
-0.2886125147 -0.2105003148 0.5950028896 4288520620
-0.2886958122 -0.2098997831 0.5951746106 4288520620
-0.2887789309 -0.2092987299 0.5953459144 4288323241
-0.2888618410 -0.2086971700 0.5955168605 4288652206
-0.2889445722 -0.2080950886 0.5956873894 4288717999
-0.2890270948 -0.2074924856 0.5958575606 4288652206
-0.2891094387 -0.2068893611 0.5960273147 4288849585
-0.2891915739 -0.2062857300 0.5961966515 4289178550
-0.2892735302 -0.2056815773 0.5963655710 4289441722
-0.2893552780 -0.2050769180 0.5965341330 4289309883
-0.2894368470 -0.2044717371 0.5967022777 4289375676
-0.2895182073 -0.2038660645 0.5968700051 4288718000
-0.2895993888 -0.2032598704 0.5970373750 4286744210
-0.2892629504 -0.2023611516 0.5963438153 4284441455
-0.2889260948 -0.2014636844 0.5956493020 4283783525
-0.2890064418 -0.2008577138 0.5958149433 4283914597
-0.2886688113 -0.1999618709 0.5951189399 4283651425
-0.2891665399 -0.1996442676 0.5961450338 4283519323
-0.2884103060 -0.1984615326 0.5945860147 4283321944
-0.2880715430 -0.1975685656 0.5938875675 4283519321
-0.2881505489 -0.1969627142 0.5940504670 4283716700
-0.2873927057 -0.1957864016 0.5924880505 4283584855
-0.2878895104 -0.1954654306 0.5935123563 4283321683
-0.2875492573 -0.1945757419 0.5928108692 4283255890
-0.2876272500 -0.1939696819 0.5929716229 4283519062
-0.2872862220 -0.1930816621 0.5922685862 4283584855
-0.2873637080 -0.1924754977 0.5924283266 4283848027
-0.2870219350 -0.1915891469 0.5917237401 4283782234
-0.2866797745 -0.1907040775 0.5910183191 4283519062
-0.2863371670 -0.1898202896 0.5903120041 4283519062
-0.2847360969 -0.1881067008 0.5870112777 4283519062
-0.2848117650 -0.1875042915 0.5871672630 4283519062
-0.2832089663 -0.1858003885 0.5838629007 4283650648
-0.2820247412 -0.1843774766 0.5814215541 4283584855
-0.2825188041 -0.1840533465 0.5824401379 4283584855
-0.2813332975 -0.1826366037 0.5799960494 4283519062
-0.2788869143 -0.1804096252 0.5749525428 4283584855
-0.2806401849 -0.1809009761 0.5785671473 4283650648
-0.2786120772 -0.1789554656 0.5743860006 4283519062
-0.2807860672 -0.1797086746 0.5788678527 4283321683
-0.2787564397 -0.1777711809 0.5746836066 4283058511
-0.2809311152 -0.1785145253 0.5791668892 4282597959
-0.2814239860 -0.1781830937 0.5801830292 4282071615
-0.2823376656 -0.1781148612 0.5820665956 4281414198
-0.2832515538 -0.1780425906 0.5839506984 4281085233
-0.2837446630 -0.1777026057 0.5849673152 4280887854
-0.2829745114 -0.1765720993 0.5833795667 4280756268
-0.2838885188 -0.1764921546 0.5852639079 4280624682
-0.2848027647 -0.1764081717 0.5871486664 4280624682
-0.2852957845 -0.1760600656 0.5881651044 4280756269
-0.2866318524 -0.1762280166 0.5909194946 4280756269
-0.2867034674 -0.1756153256 0.5910671353 4280756015
-0.2871965766 -0.1752595305 0.5920838118 4281282359
-0.2872678936 -0.1746450216 0.5922307372 4282006082
-0.2869170308 -0.1737745106 0.5915074348 4281808703
-0.2869877815 -0.1731600016 0.5916532874 4282335301
-0.2870583236 -0.1725450307 0.5917987227 4284440677
-0.2871987522 -0.1713137329 0.5920882225 4283980644
-0.2881135345 -0.1711994559 0.5939741731 4284573038
-0.2877608538 -0.1703307629 0.5932471156 4285099382
-0.2882530689 -0.1699618399 0.5942618251 4285494140
-0.2887452841 -0.1695906520 0.5952765346 4285954691
-0.2888146043 -0.1689698100 0.5954194665 4286941588
-0.2893066406 -0.1685950160 0.5964338779 4288323241
-0.2893756330 -0.1679723710 0.5965760946 4289573308
-0.2898675501 -0.1675939411 0.5975902081 4289573308
-0.2907826900 -0.1674569994 0.5994769335 4289770687
-0.2904279530 -0.1665874571 0.5987455249 4289902273
-0.2909196913 -0.1662031412 0.5997593403 4289770687
-0.2914113998 -0.1658165604 0.6007730365 4289704894
-0.2910557687 -0.1649475098 0.6000398993 4289836480
-0.2911234796 -0.1643190384 0.6001794338 4289968066
-0.2911909521 -0.1636901200 0.6003185511 4290232006
-0.2916821539 -0.1632981300 0.6013312340 4290034627
-0.2917492688 -0.1626674235 0.6014695764 4289903041
-0.2913919985 -0.1618007720 0.6007330418 4289574076
-0.2914585769 -0.1611701250 0.6008702517 4288850353
-0.2911005616 -0.1603053659 0.6001322269 4287666079
-0.2911665738 -0.1596747637 0.6002683043 4286481037
-0.2908077836 -0.1588119119 0.5995286703 4285494142
-0.2908732593 -0.1581813842 0.5996635556 4284638833
-0.2909384668 -0.1575504243 0.5997980237 4284967798
-0.2905786335 -0.1566899717 0.5990561843 4285757314
-0.2906432748 -0.1560591012 0.5991894603 4286481037
-0.2902826965 -0.1552005708 0.5984461308 4286809490
-0.2903468013 -0.1545697749 0.5985782743 4286941076
-0.2899854779 -0.1537131816 0.5978333354 4287533213
-0.2904742956 -0.1533069313 0.5988411307 4288191143
-0.2905376852 -0.1526748985 0.5989717841 4287072915
-0.2906008661 -0.1520424485 0.5991020203 4286941329
-0.2906637788 -0.1514095813 0.5992317796 4286875536
-0.2907264829 -0.1507762969 0.5993610024 4287401880
-0.2912147045 -0.1503624469 0.6003674865 4288059810
-0.2912769914 -0.1497274339 0.6004959941 4289441463
-0.2913390696 -0.1490920037 0.6006239653 4290691787
-0.2918269336 -0.1486732066 0.6016297340 4291744475
-0.2923147380 -0.1482521594 0.6026353836 4292732140
-0.2839482725 -0.2323459238 0.5867305398 4291679712
-0.2832171023 -0.2310973853 0.5852196813 4291679712
-0.2837169766 -0.2308539152 0.5862526298 4291613919
-0.2842169702 -0.2306082249 0.5872857571 4291548126
-0.2843061984 -0.2300278991 0.5874701142 4291482333
-0.2843952477 -0.2294470370 0.5876541734 4291482333
-0.2844841480 -0.2288656086 0.5878378153 4291482333
-0.2845728695 -0.2282836586 0.5880211592 4291548126
-0.2846614122 -0.2277011424 0.5882040858 4291613919
-0.2847497761 -0.2271181047 0.5883867145 4291614174
-0.2848379910 -0.2265345156 0.5885689855 4291614174
-0.2853377461 -0.2262768894 0.5896016955 4291679454
-0.2854257524 -0.2256913781 0.5897834897 4291613661
-0.2851015627 -0.2247804850 0.5891135931 4291613661
-0.2851890624 -0.2241947353 0.5892944336 4291613661
-0.2852764130 -0.2236084491 0.5894748569 4291744992
-0.2863105536 -0.2165311724 0.5916118026 4291876063
-0.2863955796 -0.2159379423 0.5917874575 4291678684
-0.2864803970 -0.2153441906 0.5919626951 4291415512
-0.2865650356 -0.2147499025 0.5921376348 4291218133
-0.2866494954 -0.2141550928 0.5923121572 4290758350
-0.2863194048 -0.2132511437 0.5916301012 4290429385
-0.2864033580 -0.2126561403 0.5918035507 4290232008
-0.2864871621 -0.2120606303 0.5919767022 4290232008
-0.2882296145 -0.2126886845 0.5955771804 4290232008
-0.2870689929 -0.2111731768 0.5931789875 4290363594
-0.2871523201 -0.2105752230 0.5933511853 4290429387
-0.2868204117 -0.2096733302 0.5926653147 4290363594
-0.2869032323 -0.2090751976 0.5928364992 4290362824
-0.2869859040 -0.2084765583 0.5930072665 4290165445
-0.2870683670 -0.2078773975 0.5931776762 4290165445
-0.2871506214 -0.2072777301 0.5933476686 4289968066
-0.2876483798 -0.2069766372 0.5943762064 4289902273
-0.2877303958 -0.2063750625 0.5945456624 4289704894
-0.2878122330 -0.2057729810 0.5947147012 4289310136
-0.2878938615 -0.2051703781 0.5948833823 4289507515
-0.2879752815 -0.2045672685 0.5950516462 4289704895
-0.2880565226 -0.2039636374 0.5952194929 4289573309
-0.2881375551 -0.2033595145 0.5953869820 4289573309
-0.2878018916 -0.2024618685 0.5946934223 4289244344
-0.2878824472 -0.2018575966 0.5948598385 4287204247
-0.2875460386 -0.2009615600 0.5941647291 4284638320
-0.2876260877 -0.2003571540 0.5943300724 4283914597
-0.2877058983 -0.1997522265 0.5944950581 4283322460
-0.2877855301 -0.1991468072 0.5946595669 4282992979
-0.2874477804 -0.1982531399 0.5939616561 4283124565
-0.2871095836 -0.1973607391 0.5932628512 4283519064
-0.2867709696 -0.1964695901 0.5925631523 4283716443
-0.2864319384 -0.1955797076 0.5918626189 4283913820
-0.2865101099 -0.1949753165 0.5920241475 4284111199
-0.2865881026 -0.1943704188 0.5921852589 4283913820
-0.2866658866 -0.1937650293 0.5923460126 4283716441
-0.2863254547 -0.1928775907 0.5916426182 4284111199
-0.2859846354 -0.1919914037 0.5909383297 4284308578
-0.2860615849 -0.1913863271 0.5910973549 4284045406
-0.2857199907 -0.1905018240 0.5903915167 4283650648
-0.2853780091 -0.1896186173 0.5896848440 4283519062
-0.2850355506 -0.1887366921 0.5889772177 4283519062
-0.2842740417 -0.1875797957 0.5874036551 4283453269
-0.2814179957 -0.1850491315 0.5815021396 4283584855
-0.2835868299 -0.1858242005 0.5859836936 4283584855
-0.2824046016 -0.1844011694 0.5835407972 4283584855
-0.2820596993 -0.1835284084 0.5828281641 4283584855
-0.2800375223 -0.1815697104 0.5786496401 4283716441
-0.2813686728 -0.1817868054 0.5814002156 4283716441
-0.2814419568 -0.1811880171 0.5815516710 4283321683
-0.2815150321 -0.1805887371 0.5817026496 4282663753
-0.2811682522 -0.1797207743 0.5809860826 4282137409
-0.2816605866 -0.1793888211 0.5820034146 4281545784
-0.2821529210 -0.1790546030 0.5830207467 4281151026
-0.2830652297 -0.1789836884 0.5849059224 4280822061
-0.2827175260 -0.1781147569 0.5841873884 4280624682
-0.2832097709 -0.1777746826 0.5852045417 4280690475
-0.2841223478 -0.1776951998 0.5870901942 4280822061
-0.2846147120 -0.1773497164 0.5881075859 4280887854
-0.2851070762 -0.1770019531 0.5891249776 4281019440
-0.2847582102 -0.1761316061 0.5884041190 4280558890
-0.2852503657 -0.1757811457 0.5894210935 4280624683
-0.2857425213 -0.1754284054 0.5904380679 4280558636
-0.2862346768 -0.1750734001 0.5914549828 4280558636
-0.2867268324 -0.1747161448 0.5924719572 4280953394
-0.2867978215 -0.1741009653 0.5926186442 4281348152
-0.2864473760 -0.1732305884 0.5918945074 4282401094
-0.2865178287 -0.1726153940 0.5920400620 4284045919
-0.2865880728 -0.1719997674 0.5921852589 4284375402
-0.2870796621 -0.1716357023 0.5932010412 4285625469
-0.2871495783 -0.1710182577 0.5933454633 4286875793
-0.2872192860 -0.1704003513 0.5934895277 4286283656
-0.2877106369 -0.1700313240 0.5945047736 4287402137
-0.2877799869 -0.1694116145 0.5946481228 4288717997
-0.2882711887 -0.1690389663 0.5956631303 4288783792
-0.2879180610 -0.1681708694 0.5949333906 4290099652
-0.2892535627 -0.1682868451 0.5976929665 4290625996
-0.2893223464 -0.1676626205 0.5978351235 4290954961
-0.2898133695 -0.1672818065 0.5988497138 4291349719
-0.2898817956 -0.1666557938 0.5989911556 4291547098
-0.2903726697 -0.1662713438 0.6000054479 4291612891
-0.2900179923 -0.1654024124 0.5992725492 4291744477
-0.2900857329 -0.1647750735 0.5994125605 4291810270
-0.2905762494 -0.1643865705 0.6004260778 4291744477
-0.2906436324 -0.1637574285 0.6005653739 4291547866
-0.2907108366 -0.1631278545 0.6007041931 4291218901
-0.2903545201 -0.1622613072 0.5999679565 4290955729
-0.2904211283 -0.1616317779 0.6001055837 4290626764
-0.2900640666 -0.1607671231 0.5993677974 4290428617
-0.2901301384 -0.1601376534 0.5995043516 4290231238
-0.2897723317 -0.1592748910 0.5987649560 4290099652
-0.2898378670 -0.1586454809 0.5989003778 4289836480
-0.2899031341 -0.1580156386 0.5990352631 4288783792
-0.2895442545 -0.1571552753 0.5982936621 4287533725
-0.2896089852 -0.1565255076 0.5984274149 4286217865
-0.2892493606 -0.1556670815 0.5976843238 4285494142
-0.2893135250 -0.1550373882 0.5978169441 4285296763
-0.2889531553 -0.1541808844 0.5970723033 4285625728
-0.2890167832 -0.1535512954 0.5972037315 4286283658
-0.2890801430 -0.1529212892 0.5973346829 4286810002
-0.2882941365 -0.1518436074 0.5957105160 4287138708
-0.2887815237 -0.1514373273 0.5967176557 4287401880
-0.2888441384 -0.1508070081 0.5968469977 4287730845
-0.2889064848 -0.1501762867 0.5969758034 4287862431
-0.2889685929 -0.1495451480 0.5971041918 4287138708
-0.2890304923 -0.1489136070 0.5972320437 4286809743
-0.2890921235 -0.1482816637 0.5973594189 4286875793
-0.2895787656 -0.1478664428 0.5983650088 4287336344
-0.2892147005 -0.1470165551 0.5976127386 4288849837
-0.2901264727 -0.1468139440 0.5994967222 4290099904
-0.2901873291 -0.1461785287 0.5996224880 4291350485
-0.2906735539 -0.1457561105 0.6006271839 4292403173
-0.2911597192 -0.1453314424 0.6016317606 4293126896
-0.2828545272 -0.2300307006 0.5858149529 4291679714
-0.2825333476 -0.2291193455 0.5851497650 4291613921
-0.2830321193 -0.2288725227 0.5861827135 4291548126
-0.2831206322 -0.2282926142 0.5863660574 4291482333
-0.2832089961 -0.2277121693 0.5865491033 4291547613
-0.2832971811 -0.2271311730 0.5867317319 4291547613
-0.2833852172 -0.2265496403 0.5869140625 4291481820
-0.2834730446 -0.2259675711 0.5870959759 4291416027
-0.2839716971 -0.2257115990 0.5881286860 4291350234
-0.2840593159 -0.2251275927 0.5883101821 4291218648
-0.2841467857 -0.2245430499 0.5884913206 4291218903
-0.2838227153 -0.2236338556 0.5878201723 4291153110
-0.2839097083 -0.2230490893 0.5880002975 4291284696
-0.2839965224 -0.2224637866 0.5881801248 4291350489
-0.2840831578 -0.2218779325 0.5883595347 4291350489
-0.2841696143 -0.2212915570 0.5885385871 4291350489
-0.2842558920 -0.2207046300 0.5887172818 4291350489
-0.2843419909 -0.2201171815 0.5888956189 4291284696
-0.2844279110 -0.2195291966 0.5890735984 4291218903
-0.2845136821 -0.2189406753 0.5892511606 4291218903
-0.2845992446 -0.2183516324 0.5894284248 4291350489
-0.2846846282 -0.2177620530 0.5896052718 4291350489
-0.2843571305 -0.2168571949 0.5889269710 4291416282
-0.2844420373 -0.2162674218 0.5891028047 4291416282
-0.2849397361 -0.2159901261 0.5901335478 4291284696
-0.2846113145 -0.2150862664 0.5894533992 4291218903
-0.2846956849 -0.2144948989 0.5896281004 4291021524
-0.2847798467 -0.2139030099 0.5898024440 4290824145
-0.2848638594 -0.2133105993 0.5899764299 4290363592
-0.2849476635 -0.2127176523 0.5901499987 4289903041
-0.2850312889 -0.2121241987 0.5903232098 4289442490
-0.2851147354 -0.2115302086 0.5904960036 4289179318
-0.2851980031 -0.2109357119 0.5906684399 4288981941
-0.2856951058 -0.2106459737 0.5916980505 4288981941
-0.2857781351 -0.2100495547 0.5918699503 4288916148
-0.2854466438 -0.2091490775 0.5911834240 4288850355
-0.2851147652 -0.2082498074 0.5904960632 4289441722
-0.2868550718 -0.2088608593 0.5941004157 4289639101
-0.2852789760 -0.2070568353 0.5908361673 4289902273
-0.2853607833 -0.2064595670 0.5910056233 4289902273
-0.2858573198 -0.2061610222 0.5920339823 4290297031
-0.2859388888 -0.2055618614 0.5922029018 4290560203
-0.2860202491 -0.2049621940 0.5923714042 4290362824
-0.2861014307 -0.2043620199 0.5925395489 4290362824
-0.2861824334 -0.2037613243 0.5927072763 4291020755
-0.2862632275 -0.2031601220 0.5928746462 4290560204
-0.2867594063 -0.2028523982 0.5939022899 4290757583
-0.2868399322 -0.2022493184 0.5940690637 4290362825
-0.2869202793 -0.2016457170 0.5942354202 4290099652
-0.2865844667 -0.2007502466 0.5935399532 4288454827
-0.2866642773 -0.2001465112 0.5937052965 4285822848
-0.2863277495 -0.1992526650 0.5930082798 4283585886
-0.2864070535 -0.1986488104 0.5931725502 4283124565
-0.2864861786 -0.1980444342 0.5933364034 4283321944
-0.2861485779 -0.1971525997 0.5926371813 4283190356
-0.2858105600 -0.1962620169 0.5919371247 4283190356
-0.2854720950 -0.1953727007 0.5912361741 4283848027
-0.2851332128 -0.1944846511 0.5905343294 4284045406
-0.2852108777 -0.1938813329 0.5906951427 4283716441
-0.2852883637 -0.1932775080 0.5908555984 4283782234
-0.2853656411 -0.1926731914 0.5910156369 4284045406
-0.2850253880 -0.1917875856 0.5903109908 4284176992
-0.2846847177 -0.1909032762 0.5896054506 4283979613
-0.2851786911 -0.1905782968 0.5906285048 4283584855
-0.2844197452 -0.1894166172 0.5890566707 4283519062
-0.2840779126 -0.1885352731 0.5883486867 4283584855
-0.2824820578 -0.1868261099 0.5850434899 4283650648
-0.2833929658 -0.1867764592 0.5869301558 4283650648
-0.2830498815 -0.1858989894 0.5862195492 4283584855
-0.2810335159 -0.1839280128 0.5820435286 4283519062
-0.2804176211 -0.1815890968 0.5807679296 4283124304
-0.2819656730 -0.1799962223 0.5839740634 4281019440
-0.2828764319 -0.1799266785 0.5858603120 4280822061
-0.2829490304 -0.1793217659 0.5860106945 4280558889
-0.2830214500 -0.1787163913 0.5861606598 4280558889
-0.2835130394 -0.1783744097 0.5871787667 4280756269
-0.2840046287 -0.1780301780 0.5881969333 4281019441
-0.2836570144 -0.1771595329 0.5874769688 4281085233
-0.2841483951 -0.1768125743 0.5884946585 4281151026
-0.2846398056 -0.1764633656 0.5895124078 4281216819
-0.2847112715 -0.1758525074 0.5896604061 4280690475
-0.2852025628 -0.1754996628 0.5906779170 4279966753
-0.2852737010 -0.1748870015 0.5908252597 4280756269
-0.2857648730 -0.1745305210 0.5918424726 4282598473
-0.2858356833 -0.1739160419 0.5919891596 4284045919
-0.2859062850 -0.1733010858 0.5921353698 4285756537
-0.2859766781 -0.1726856977 0.5922811627 4287796120
-0.2860468626 -0.1720698327 0.5924265385 4288059038
-0.2865375578 -0.1717056632 0.5934427977 4288585382
-0.2866074145 -0.1710879952 0.5935874581 4288257189
-0.2870979905 -0.1707202047 0.5946035385 4287336087
-0.2871675193 -0.1701007336 0.5947474837 4289112498
-0.2872367799 -0.1694808155 0.5948909521 4291217874
-0.2873058617 -0.1688604355 0.5950340033 4292270562
-0.2877960801 -0.1684862971 0.5960493088 4293389043
-0.2878648043 -0.1678641289 0.5961916447 4293652215
-0.2879333198 -0.1672415137 0.5963335633 4293783801
-0.2884232700 -0.1668623984 0.5973482728 4293915646
-0.2889131904 -0.1664810181 0.5983629823 4294047231
-0.2889812291 -0.1658552289 0.5985038877 4293982207
-0.2894710302 -0.1654702276 0.5995182395 4293916415
-0.2895387113 -0.1648426503 0.5996584296 4293981439
-0.2891840041 -0.1639752686 0.5989238024 4293784060
-0.2892511487 -0.1633477360 0.5990628600 4293915646
-0.2897404134 -0.1629573107 0.6000761986 4293586681
-0.2898072004 -0.1623279899 0.6002144814 4293323509
-0.2894511819 -0.1614625156 0.5994771719 4293060337
-0.2895174026 -0.1608332396 0.5996143222 4292533993
-0.2891606688 -0.1599696726 0.5988754630 4291941856
-0.2888034880 -0.1591075063 0.5981357098 4291152340
-0.2888688445 -0.1584787816 0.5982710719 4290362824
-0.2889339626 -0.1578496397 0.5984059572 4289770687
-0.2889988422 -0.1572200656 0.5985403061 4289639101
-0.2886402607 -0.1563608050 0.5977976918 4289507515
-0.2887046039 -0.1557313055 0.5979309678 4288981171
-0.2883453071 -0.1548739672 0.5971868038 4287796897
-0.2879855633 -0.1540180594 0.5964417458 4286481037
-0.2880490124 -0.1533891708 0.5965731740 4285362556
-0.2881122231 -0.1527598500 0.5967040658 4284573040
-0.2881752253 -0.1521301121 0.5968345404 4285296504
-0.2878141105 -0.1512771845 0.5960866213 4285691262
-0.2878765166 -0.1506475508 0.5962159038 4286678157
-0.2875146568 -0.1497965902 0.5954664350 4287665052
-0.2875765264 -0.1491670758 0.5955945849 4287730845
-0.2872139215 -0.1483180672 0.5948436260 4287730845
-0.2872752249 -0.1476886719 0.5949705839 4287796895
-0.2873363197 -0.1470588744 0.5950970650 4288191653
-0.2873971462 -0.1464286894 0.5952230692 4287073172
-0.2874577641 -0.1457980871 0.5953485966 4287007379
-0.2879428267 -0.1453815252 0.5963532329 4287402137
-0.2888526022 -0.1451761872 0.5982374549 4288454825
-0.2884878814 -0.1443290412 0.5974820852 4289836732
