VERSION 0.7
FIELDS x y z rgba
SIZE 4 4 4 4
TYPE F F F U
COUNT 1 1 1 1
WIDTH 920
HEIGHT 1
VIEWPOINT 0.0 0.0 0.0 1.0 0.0 0.0 0.0
POINTS 920
DATA ascii
-0.3101110756 -0.1259798259 0.6250129938 4289770174
-0.3097274303 -0.1251304001 0.6242398024 4290691276
-0.3097809255 -0.1244583130 0.6243475676 4290888655
-0.3098341525 -0.1237858832 0.6244548559 4289770174
-0.3098870814 -0.1231131032 0.6245615482 4288059556
-0.3103775382 -0.1226129234 0.6255500317 4285822594
-0.3104300201 -0.1219385043 0.6256558299 4284967796
-0.3113580644 -0.1216058210 0.6275262237 4285757312
-0.3118481338 -0.1210988984 0.6285139322 4287665309
-0.3123380840 -0.1205897406 0.6295014024 4289836478
-0.3123897612 -0.1199101582 0.6296055913 4290823373
-0.3128793836 -0.1193974614 0.6305923462 4290297029
-0.3133688569 -0.1188825220 0.6315789223 4289704892
-0.3138582110 -0.1183653399 0.6325651407 4289704892
-0.3139089942 -0.1176815554 0.6326675415 4290955727
-0.3148365021 -0.1173242480 0.6345368624 4292797931
-0.3114970028 -0.1352159828 0.6292147636 4292205796
-0.3119902313 -0.1347298622 0.6302110553 4289574076
-0.3120475113 -0.1340542585 0.6303267479 4287138967
-0.3125404119 -0.1335645765 0.6313224435 4285428349
-0.3130332232 -0.1330726296 0.6323178411 4285230970
-0.3126537800 -0.1322096288 0.6315514445 4286283658
-0.3118377924 -0.1311647147 0.6299031973 4286019974
-0.3114574552 -0.1303057075 0.6291348934 4286085767
-0.3110766709 -0.1294482499 0.6283656955 4286743697
-0.3106954694 -0.1285923123 0.6275956631 4288059557
-0.3098773956 -0.1275582612 0.6259431839 4289572026
-0.3094952703 -0.1267063469 0.6251713037 4290624714
-0.3091127276 -0.1258559823 0.6243985891 4290625483
-0.3087297678 -0.1250071675 0.6236249804 4289638588
-0.3087831140 -0.1243357584 0.6237328053 4287862690
-0.3088362217 -0.1236640066 0.6238400340 4285625728
-0.3088890314 -0.1229919121 0.6239467263 4285099384
-0.3093785644 -0.1224924847 0.6249355674 4285691521
-0.3098679781 -0.1219908074 0.6259241700 4287994274
-0.3103572726 -0.1214868873 0.6269125342 4290625994
-0.3108464181 -0.1209807247 0.6279006004 4290625994
-0.3108981848 -0.1203031093 0.6280051470 4290297029
-0.3113870025 -0.1197934076 0.6289925575 4289310902
-0.3118757010 -0.1192814633 0.6299797297 4289310902
-0.3123642802 -0.1187672690 0.6309666038 4290495176
-0.3124151528 -0.1180854514 0.6310694218 4292205794
-0.3099454045 -0.1362393498 0.6274883747 4292205798
-0.3100031912 -0.1355674416 0.6276053786 4290100422
-0.3100607097 -0.1348951459 0.6277217865 4287533725
-0.3101179600 -0.1342224777 0.6278377175 4285823107
-0.3101749420 -0.1335494369 0.6279530525 4285494142
-0.3106667697 -0.1330623925 0.6289487481 4285823107
-0.3102881014 -0.1322022527 0.6281821728 4287072662
-0.3103443086 -0.1315281093 0.6282958984 4286875283
-0.3095295429 -0.1304865628 0.6266463995 4286348939
-0.3087141812 -0.1294484138 0.6249957085 4288125350
-0.3087692559 -0.1287769675 0.6251072288 4289769405
-0.3083884716 -0.1279244870 0.6243363619 4290690507
-0.3075716197 -0.1268938035 0.6226826310 4290690507
-0.3076256812 -0.1262241304 0.6227920055 4289506233
-0.3076794446 -0.1255540997 0.6229009032 4287204760
-0.3077329397 -0.1248837262 0.6230092049 4285099384
-0.3073502183 -0.1240370646 0.6222344041 4284507245
-0.3078391552 -0.1235419363 0.6232242584 4285691519
-0.3078918457 -0.1228705198 0.6233309507 4288323239
-0.3083804548 -0.1223718449 0.6243201494 4290099650
-0.3088689446 -0.1218709275 0.6253090501 4290560201
-0.3093573153 -0.1213677600 0.6262977719 4290033857
-0.3098455667 -0.1208623499 0.6272862554 4289046962
-0.3098972142 -0.1201854125 0.6273908019 4288849583
-0.3103851080 -0.1196764633 0.6283785701 4289442488
-0.3108729124 -0.1191652715 0.6293660998 4291482071
-0.3113605678 -0.1186518371 0.6303533316 4293258482
-0.3079623282 -0.1370613128 0.6248787045 4292468200
-0.3075865209 -0.1362006068 0.6241161227 4290691789
-0.3076441884 -0.1355325729 0.6242331266 4287994276
-0.3081355691 -0.1350543797 0.6252301931 4285823107
-0.3081927896 -0.1343846619 0.6253463030 4285428349
-0.3082497418 -0.1337145567 0.6254618168 4286217865
-0.3083064258 -0.1330440938 0.6255768538 4286941075
-0.3079285324 -0.1321868151 0.6248100996 4287006868
-0.3075502217 -0.1313310564 0.6240424514 4287664799
-0.3071714938 -0.1304768175 0.6232739687 4288125350
-0.3067923188 -0.1296241134 0.6225046515 4289045682
-0.3059781194 -0.1285903007 0.6208525896 4290690507
-0.3060327470 -0.1279233247 0.6209634542 4290953681
-0.3060871363 -0.1272559911 0.6210737228 4289374649
-0.3061412275 -0.1265882999 0.6211835146 4286808720
-0.3061950505 -0.1259202659 0.6212927699 4285163895
-0.3062486351 -0.1252518743 0.6214014292 4284441454
-0.3063019216 -0.1245831251 0.6215096116 4285428349
-0.3063549697 -0.1239140332 0.6216171980 4287402137
-0.3064077199 -0.1232445985 0.6217242479 4289507513
-0.3068955541 -0.1227489263 0.6227141023 4290625994
-0.3069478571 -0.1220778525 0.6228201985 4289770685
-0.3074353337 -0.1215786412 0.6238093972 4288587181
-0.3079227209 -0.1210771799 0.6247982979 4288455595
-0.3084099591 -0.1205734760 0.6257869601 4289179316
-0.3088970780 -0.1200675294 0.6267753839 4290824141
-0.3093840778 -0.1195593327 0.6277635098 4292600552
-0.3059834838 -0.1378709674 0.6222658157 4292468968
-0.3060416877 -0.1372056752 0.6223841906 4291153108
-0.3060996532 -0.1365400255 0.6225020885 4288389034
-0.3061573505 -0.1358739883 0.6226193905 4286546830
-0.3057816923 -0.1350163370 0.6218554378 4285625729
-0.3058387935 -0.1343504936 0.6219715476 4286152073
-0.3058956265 -0.1336842775 0.6220871210 4286677904
-0.3059521914 -0.1330176890 0.6222021580 4286743697
-0.3055750728 -0.1321632713 0.6214352250 4287204247
-0.3056310415 -0.1314968914 0.6215490699 4287927970
-0.3048195541 -0.1304589957 0.6198987961 4289441210
-0.3044411540 -0.1296091527 0.6191292405 4290428105
-0.3040623665 -0.1287608445 0.6183589101 4290624714
-0.3041169643 -0.1280968040 0.6184699535 4288979889
-0.3041713238 -0.1274324059 0.6185804605 4286874515
-0.3046593666 -0.1269484907 0.6195730567 4285229690
-0.3047132790 -0.1262824386 0.6196826100 4284703344
-0.3047668934 -0.1256160289 0.6197916865 4286019204
-0.3048202693 -0.1249492764 0.6199002266 4288191655
-0.3053076565 -0.1244592071 0.6208913922 4289836480
-0.3053605556 -0.1237908006 0.6209989786 4290625994
-0.3054132164 -0.1231220514 0.6211060286 4290033857
-0.3054655790 -0.1224529520 0.6212125421 4288652458
-0.3059522808 -0.1219567433 0.6222023368 4287928735
-0.3064388633 -0.1214582920 0.6231918931 4288652974
-0.3069252968 -0.1209575906 0.6241811514 4290166213
-0.3069768250 -0.1202842668 0.6242859364 4292074208
-0.3074629605 -0.1197800264 0.6252745390 4293258482
-0.3040088415 -0.1386682838 0.6196497083 4292928751
-0.3040672839 -0.1380063295 0.6197687984 4291481305
-0.3041254580 -0.1373439878 0.6198873520 4289046964
-0.3041833639 -0.1366812736 0.6200054288 4286744209
-0.3042410314 -0.1360181868 0.6201229095 4285888387
-0.3042984307 -0.1353547126 0.6202399135 4286085766
-0.3043555617 -0.1346908659 0.6203563809 4286809490
-0.3044124544 -0.1340266466 0.6204723120 4287270041
-0.3040365875 -0.1331726313 0.6197062135 4287270041
-0.3032277524 -0.1321316361 0.6180575490 4287862178
-0.3028509617 -0.1312815994 0.6172896028 4288914866
-0.3024737537 -0.1304330826 0.6165207624 4289572796
-0.3020961285 -0.1295861006 0.6157510877 4289835968
-0.3017180860 -0.1287406534 0.6149805188 4288125350
-0.3022055626 -0.1282642633 0.6159740686 4286216583
-0.3022598624 -0.1276028007 0.6160848141 4285032309
-0.3027470410 -0.1271228492 0.6170778275 4285427069
-0.3028009236 -0.1264597327 0.6171876192 4287006101
-0.3032878041 -0.1259762198 0.6181799769 4288914096
-0.3033412099 -0.1253114492 0.6182888746 4290427335
-0.3038277924 -0.1248243973 0.6192806363 4290560201
-0.3038807809 -0.1241579726 0.6193886399 4289770685
-0.3043670356 -0.1236673668 0.6203798056 4288060067
-0.3044195473 -0.1229992956 0.6204868555 4287533723
-0.3044718206 -0.1223308891 0.6205933094 4287863456
-0.3049575984 -0.1218354404 0.6215834618 4289310902
-0.3054432273 -0.1213377416 0.6225733757 4291218901
-0.3059287667 -0.1208378002 0.6235629916 4292929519
-0.3020971119 -0.1387946308 0.6171501875 4291744477
-0.3021554947 -0.1381356269 0.6172694564 4289704894
-0.3022136390 -0.1374762356 0.6173881888 4287467932
-0.3022714853 -0.1368164718 0.6175064445 4286481038
-0.3023290932 -0.1361563206 0.6176241040 4286810003
-0.3023864627 -0.1354957968 0.6177412868 4287203480
-0.3024435639 -0.1348349005 0.6178579330 4287006101
-0.3025003970 -0.1341736168 0.6179740429 4287335836
-0.3021253645 -0.1333215237 0.6172079444 4288256938
-0.3017499447 -0.1324709356 0.6164409518 4289375419
-0.3009423018 -0.1314332932 0.6147910357 4290296521
-0.3009977937 -0.1307743341 0.6149044037 4289638591
-0.3006210923 -0.1299283206 0.6141348481 4287862180
-0.3006759882 -0.1292695701 0.6142469645 4285427839
-0.3007306159 -0.1286104620 0.6143585443 4284835702
-0.3007849753 -0.1279509813 0.6144696474 4285164665
-0.3012713194 -0.1274740547 0.6154631972 4287204248
-0.3017575741 -0.1269948632 0.6164565682 4289243831
-0.3018113077 -0.1263324320 0.6165663600 4290230726
-0.3022972643 -0.1258496940 0.6175590754 4290362312
-0.3023505509 -0.1251856089 0.6176679730 4289835968
-0.3028362095 -0.1246993095 0.6186600924 4288126632
-0.3028890491 -0.1240335777 0.6187680364 4287073944
-0.3033744097 -0.1235437319 0.6197595596 4287402907
-0.3034268022 -0.1228763461 0.6198666096 4289047732
-0.3034789264 -0.1222086176 0.6199730635 4290560971
-0.3035307825 -0.1215405539 0.6200789809 4292008417
-0.3005612493 -0.1397705525 0.6154088974 4291810270
-0.3006199002 -0.1391139328 0.6155290604 4289639101
-0.3002481461 -0.1382588595 0.6147678494 4287928483
-0.3003062308 -0.1376024187 0.6148867607 4287007381
-0.3003640473 -0.1369455904 0.6150051355 4286744209
-0.2999911904 -0.1360931396 0.6142417789 4287006869
-0.3000484407 -0.1354365051 0.6143589020 4287401627
-0.3005359769 -0.1349728554 0.6153571606 4287729824
-0.3001621068 -0.1341221035 0.6145917177 4288585133
-0.2997878492 -0.1332728565 0.6138253808 4289637821
-0.2994131446 -0.1324251443 0.6130582094 4290361544
-0.2990380526 -0.1315789372 0.6122901440 4289638589
-0.2986625433 -0.1307342649 0.6115212440 4287664799
-0.2987176478 -0.1300788224 0.6116340756 4285822597
-0.2992036343 -0.1296097636 0.6126291752 4285230460
-0.2992582917 -0.1289526522 0.6127411127 4286151560
-0.2993127108 -0.1282951832 0.6128525138 4288191143
-0.2997982502 -0.1278212667 0.6138466597 4289967554
-0.3002836704 -0.1273451000 0.6148405671 4290559691
-0.3007689714 -0.1268666685 0.6158342957 4290164932
-0.3008225858 -0.1262049377 0.6159440279 4289309623
-0.3013076186 -0.1257229596 0.6169371605 4288125350
-0.3013607860 -0.1250595599 0.6170459986 4286941076
-0.3018455207 -0.1245740205 0.6180385351 4287008149
-0.3018982112 -0.1239089742 0.6181464195 4288258216
-0.3019506633 -0.1232435778 0.6182538271 4290166213
-0.3020028770 -0.1225778311 0.6183606982 4291811038
-0.3024868965 -0.1220861599 0.6193518043 4292797933
-0.2990277410 -0.1407380253 0.6136645675 4292139235
-0.2995157838 -0.1402847916 0.6146661639 4290230725
-0.2991453707 -0.1394292116 0.6139059663 4288125349
-0.2987745404 -0.1385751069 0.6131449342 4287138454
-0.2988326252 -0.1379206777 0.6132642031 4287270040
-0.2984610200 -0.1370686442 0.6125015616 4287006869
-0.2985185385 -0.1364143938 0.6126196384 4286941076
-0.2985757887 -0.1357597560 0.6127371192 4287599006
-0.2982031107 -0.1349103600 0.6119722724 4288585901
-0.2982597947 -0.1342559308 0.6120886207 4289900993
-0.2978863418 -0.1334086061 0.6113222241 4289966786
-0.2979424298 -0.1327543706 0.6114373207 4289177270
-0.2975682318 -0.1319091469 0.6106693745 4287532445
-0.2976237237 -0.1312551200 0.6107832789 4285822595
-0.2976789474 -0.1306007355 0.6108966470 4285230458
-0.2977339327 -0.1299459785 0.6110094190 4286612111
-0.2982189953 -0.1294776946 0.6120048761 4288783280
-0.2982735336 -0.1288212687 0.6121168137 4290033347
-0.2983278334 -0.1281644851 0.6122282147 4290559691
-0.2988124192 -0.1276913285 0.6132226586 4290297032
-0.2992969155 -0.1272159368 0.6142169833 4288915379
-0.2997812927 -0.1267382801 0.6152110100 4287533725
-0.2998347580 -0.1260772198 0.6153207421 4286875795
-0.2998879850 -0.1254158169 0.6154299974 4287204761
-0.3003718853 -0.1249332950 0.6164230704 4288060070
-0.3004246652 -0.1242702380 0.6165313721 4289508283
-0.3009082973 -0.1237841696 0.6175238490 4291021522
-0.3009606004 -0.1231194586 0.6176311970 4292403175
-0.3010126650 -0.1224544048 0.6177380681 4293061105
-0.2970685959 -0.1414931715 0.6110367775 4292336612
-0.2975558639 -0.1410452425 0.6120390296 4290428617
-0.2976148129 -0.1403930336 0.6121602654 4288586413
-0.2981018424 -0.1399415135 0.6131620407 4287335834
-0.2977319956 -0.1390874684 0.6124013066 4286677904
-0.2973617315 -0.1382349133 0.6116396785 4286677904
-0.2969910204 -0.1373838633 0.6108772159 4286743697
-0.2966199219 -0.1365343183 0.6101139188 4287598236
-0.2962484062 -0.1356862783 0.6093497276 4289374647
-0.2963052690 -0.1350351572 0.6094667315 4290361544
-0.2959330082 -0.1341892034 0.6087009907 4290427337
-0.2959893048 -0.1335382760 0.6088168025 4289374649
-0.2960453331 -0.1328869909 0.6089320183 4287532445
-0.2956719697 -0.1320436895 0.6081640720 4285822595
-0.2957274318 -0.1313926131 0.6082780957 4285691009
-0.2962118983 -0.1309309155 0.6092746258 4286941076
-0.2966963053 -0.1304669827 0.6102709770 4288914866
-0.2967511415 -0.1298129112 0.6103838086 4290493898
-0.2972352505 -0.1293454021 0.6113795638 4291020242
-0.2972896695 -0.1286896616 0.6114915013 4289968067
-0.2977735102 -0.1282185912 0.6124866605 4288586414
-0.2978274822 -0.1275611967 0.6125977039 4287467932
-0.2983110249 -0.1270865649 0.6135923266 4287138967
-0.2987944782 -0.1266096681 0.6145867109 4287599518
-0.2988478243 -0.1259493083 0.6146964431 4288257448
-0.2989009321 -0.1252885908 0.6148056388 4289310906
-0.2993839085 -0.1248068362 0.6157991290 4290758352
-0.2994365394 -0.1241444647 0.6159073710 4291679450
-0.2994889319 -0.1234817430 0.6160151362 4292863724
-0.2955408990 -0.1424417794 0.6092864275 4292600554
-0.2956002951 -0.1417933106 0.6094088554 4290691789
-0.2956594229 -0.1411444396 0.6095307469 4288586413
-0.2957183123 -0.1404951960 0.6096521616 4287599518
-0.2962043881 -0.1400476396 0.6106542349 4287336346
-0.2962628603 -0.1393966824 0.6107748151 4287401627
-0.2958935201 -0.1385451108 0.6100133657 4287204248
-0.2950960696 -0.1374957860 0.6083692908 4287927971
-0.2947257757 -0.1366481632 0.6076059341 4289046452
-0.2947829366 -0.1359994411 0.6077237725 4290295751
-0.2939839661 -0.1349574476 0.6060766578 4290361544
-0.2940404713 -0.1343098581 0.6061931252 4288782512
-0.2940966785 -0.1336618811 0.6063090563 4287203480
-0.2945808470 -0.1332071573 0.6073071361 4285954181
-0.2942084074 -0.1323648393 0.6065393090 4285822595
-0.2942638993 -0.1317157596 0.6066536903 4287006869
-0.2947475314 -0.1312571019 0.6076507568 4289112245
-0.2952310741 -0.1307961792 0.6086476445 4290559691
-0.2957145274 -0.1303330064 0.6096443534 4290691277
-0.2961978912 -0.1298675835 0.6106408238 4289704895
-0.2962523997 -0.1292129010 0.6107532382 4288520621
-0.2967354953 -0.1287439018 0.6117491722 4287467932
-0.2967895865 -0.1280875504 0.6118606925 4287138967
-0.2972723842 -0.1276149899 0.6128560305 4287402909
-0.2973260581 -0.1269569695 0.6129666567 4288126632
-0.2978085876 -0.1264808476 0.6139614582 4289113527
-0.2978617847 -0.1258211732 0.6140711308 4290429387
-0.2979147434 -0.1251611561 0.6141803265 4291679454
-0.2979674637 -0.1245007738 0.6142889857 4292534763
-0.2980198860 -0.1238400489 0.6143971086 4293258482
-0.2940753102 -0.1427358389 0.6076563001 4291349719
-0.2941347063 -0.1420893818 0.6077790856 4289244343
-0.2941938639 -0.1414425373 0.6079012752 4287928483
-0.2942527831 -0.1407953054 0.6080229878 4287204760
-0.2943114340 -0.1401476860 0.6081442237 4286744209
-0.2943698466 -0.1394996792 0.6082649231 4286546830
-0.2948547304 -0.1390525103 0.6092668772 4287796385
-0.2940591276 -0.1380022019 0.6076229215 4289441210
-0.2932629883 -0.1369552910 0.6059777737 4291020244
-0.2928932011 -0.1361101568 0.6052137017 4290625486
-0.2925229967 -0.1352665275 0.6044487357 4288979891
-0.2921523750 -0.1344244182 0.6036829352 4287071894
-0.2922085524 -0.1337794065 0.6037989855 4285887620
-0.2926917672 -0.1333286613 0.6047974825 4285821827
-0.2927475274 -0.1326819658 0.6049126983 4287599006
-0.2932305038 -0.1322276443 0.6059106588 4289112245
-0.2932858467 -0.1315792650 0.6060250401 4290362825
-0.2933409214 -0.1309305131 0.6061388254 4290625997
-0.2938234508 -0.1304713190 0.6071358919 4289902274
-0.2943058908 -0.1300098598 0.6081327796 4288520621
-0.2947882414 -0.1295461506 0.6091294289 4287467932
-0.2952704728 -0.1290801764 0.6101259589 4287138967
-0.2953246236 -0.1284258217 0.6102377772 4288191655
-0.2958065867 -0.1279563010 0.6112337112 4288454827
-0.2958602905 -0.1273002774 0.6113446951 4289179320
-0.2963419855 -0.1268271804 0.6123400331 4290166215
-0.2963952422 -0.1261695027 0.6124500632 4291087317
-0.2964482605 -0.1255114675 0.6125596166 4292271591
-0.2965010107 -0.1248530895 0.6126686335 4293258484
-0.2925527990 -0.1436698884 0.6059008241 4292205028
-0.2926124334 -0.1430258453 0.6060243845 4290033859
-0.2926718593 -0.1423814148 0.6061474681 4288256935
-0.2927310169 -0.1417365819 0.6062699556 4287467419
-0.2927899361 -0.1410913765 0.6063920259 4286743697
-0.2924229801 -0.1402416378 0.6056319475 4286085767
-0.2924813032 -0.1395965815 0.6057528257 4287138454
-0.2925394177 -0.1389511377 0.6058731675 4289112244
-0.2921713591 -0.1381040066 0.6051108837 4290887886
-0.2913769186 -0.1370579898 0.6034654975 4290887886
-0.2910079360 -0.1362147778 0.6027013659 4289637821
-0.2906385660 -0.1353730857 0.6019363403 4287269273
-0.2902687788 -0.1345329136 0.6011704803 4285427069
-0.2903248966 -0.1338908523 0.6012867093 4285361276
-0.2908071876 -0.1334440857 0.6022855043 4287335064
-0.2912893593 -0.1329950541 0.6032841802 4289572026
-0.2917714715 -0.1325437725 0.6042826772 4290428618
-0.2922534943 -0.1320902258 0.6052809954 4290494411
-0.2923086882 -0.1314425468 0.6053953171 4289639102
-0.2923636436 -0.1307944804 0.6055091023 4288323242
-0.2928452492 -0.1303360611 0.6065065265 4287665312
-0.2933267355 -0.1298753768 0.6075037718 4287467933
-0.2938081324 -0.1294124424 0.6085007787 4287796897
-0.2942894399 -0.1289472431 0.6094976068 4288454827
-0.2943434417 -0.1282935888 0.6096094251 4289047734
-0.2943972051 -0.1276395768 0.6097207665 4289705664
-0.2948780656 -0.1271695048 0.6107166409 4290824145
-0.2949313819 -0.1265138239 0.6108270884 4291942626
-0.2954119444 -0.1260401905 0.6118224263 4292732142
-0.2954648435 -0.1253828555 0.6119319201 4293324279
-0.2906085253 -0.1443846524 0.6032617688 4292995314
-0.2906683385 -0.1437439620 0.6033859253 4290955731
-0.2907279134 -0.1431028843 0.6035096049 4289046451
-0.2907872498 -0.1424614042 0.6036327481 4288322728
-0.2912709117 -0.1420265734 0.6046368480 4287138455
-0.2913298607 -0.1413833797 0.6047591567 4286151560
-0.2913885415 -0.1407397985 0.6048809886 4286874513
-0.2905972898 -0.1396873891 0.6032384634 4288848303
-0.2902303934 -0.1388416290 0.6024768353 4290361797
-0.2898630798 -0.1379973590 0.6017143130 4290953934
-0.2894953489 -0.1371545941 0.6009509563 4290361542
-0.2891272008 -0.1363133192 0.6001867652 4288321959
-0.2891839147 -0.1356730759 0.6003044844 4285887620
-0.2892403901 -0.1350324601 0.6004217267 4285492862
-0.2892965972 -0.1343914717 0.6005384326 4287466652
-0.2893525958 -0.1337501109 0.6006546617 4289572028
-0.2898339033 -0.1333041191 0.6016538143 4290624714
-0.2903151810 -0.1328558624 0.6026528478 4290756300
-0.2907963395 -0.1324053556 0.6036516428 4289705664
-0.2912774086 -0.1319525987 0.6046503186 4288258218
-0.2913324833 -0.1313056052 0.6047645807 4287468447
-0.2913872898 -0.1306582391 0.6048783660 4287731619
-0.2918679416 -0.1302005947 0.6058761477 4288060584
-0.2923485041 -0.1297406852 0.6068736911 4288323756
-0.2928289473 -0.1292785257 0.6078711152 4288981941
-0.2928830087 -0.1286268681 0.6079832911 4289705664
-0.2929368019 -0.1279748529 0.6080949306 4290429387
-0.2934168279 -0.1275078207 0.6090914011 4291679454
-0.2934701741 -0.1268541366 0.6092021465 4292468970
-0.2939499021 -0.1263835430 0.6101980209 4293061107
-0.2891520262 -0.1446614563 0.6016254425 4292402407
-0.2892118692 -0.1440227926 0.6017498970 4290230726
-0.2892714441 -0.1433837414 0.6018738747 4288717487
-0.2889071703 -0.1425352991 0.6011159420 4288058530
-0.2893898785 -0.1421044469 0.6021202803 4286940049
-0.2894487381 -0.1414642185 0.6022427082 4286940049
-0.2895073295 -0.1408235878 0.6023646593 4288716460
-0.2891417444 -0.1399773359 0.6016040444 4290558921
-0.2883516848 -0.1389282644 0.5999602079 4291545816
-0.2875610590 -0.1378825605 0.5983151793 4290887886
-0.2867698371 -0.1368402392 0.5966688991 4289177268
-0.2868266702 -0.1362042725 0.5967870951 4286413962
-0.2868832350 -0.1355679333 0.5969048142 4285624446
-0.2873640060 -0.1351308078 0.5979051590 4286612110
-0.2874201834 -0.1344927847 0.5980220437 4289243830
-0.2879007161 -0.1340520829 0.5990218520 4290691276
-0.2883811891 -0.1336091310 0.6000215411 4290822862
-0.2888615727 -0.1331639290 0.6010211110 4290033346
-0.2893418968 -0.1327164620 0.6020204425 4288322728
-0.2898221016 -0.1322667301 0.6030195951 4287271323
-0.2898772061 -0.1316217482 0.6031342745 4287468702
-0.2903571725 -0.1311684400 0.6041328907 4287666339
-0.2908370495 -0.1307128817 0.6051313281 4287995304
-0.2908915579 -0.1300649196 0.6052447557 4288653489
-0.2913711667 -0.1296057850 0.6062426567 4289574591
-0.2914252579 -0.1289561391 0.6063551903 4290560971
-0.2919045985 -0.1284934431 0.6073525548 4291087315
-0.2919582725 -0.1278421134 0.6074641943 4292008417
-0.2920116782 -0.1271904409 0.6075752974 4292666347
-0.2876983285 -0.1449341923 0.5999872684 4291547099
-0.2877581418 -0.1442975551 0.6001120210 4289375930
-0.2878177166 -0.1436605304 0.6002362967 4288059557
-0.2878770828 -0.1430231035 0.6003600359 4287533213
-0.2879361808 -0.1423852891 0.6004832983 4286018947
-0.2875721455 -0.1415389329 0.5997241139 4287597979
-0.2880536616 -0.1411084831 0.6007282734 4290163906
-0.2876889706 -0.1402632147 0.5999677181 4291479766
-0.2869006991 -0.1392141283 0.5983238220 4291480023
-0.2861118615 -0.1381683946 0.5966787338 4289900991
-0.2857457399 -0.1373294890 0.5959152579 4287137685
-0.2853792608 -0.1364921033 0.5951508880 4286084997
-0.2858593166 -0.1360593438 0.5961520672 4286874768
-0.2859157324 -0.1354236901 0.5962697268 4289111730
-0.2863955796 -0.1349873692 0.5972704291 4290493897
-0.2868753374 -0.1345487684 0.5982709527 4290691276
-0.2869312167 -0.1339101195 0.5983874798 4290033346
-0.2874107361 -0.1334679425 0.5993875265 4288454314
-0.2878901660 -0.1330235153 0.6003873944 4287730591
-0.2883695364 -0.1325768232 0.6013870835 4288125349
-0.2888488173 -0.1321278811 0.6023865938 4287731874
-0.2889037728 -0.1314835995 0.6025012136 4288126632
-0.2893827856 -0.1310310662 0.6035001874 4288653489
-0.2894373238 -0.1303851157 0.6036139131 4289245626
-0.2894916236 -0.1297387779 0.6037271619 4290035142
-0.2899702191 -0.1292813718 0.6047252417 4290956244
-0.2904487252 -0.1288217157 0.6057231426 4291876831
-0.2905023992 -0.1281723976 0.6058351398 4292403175
-0.2905558646 -0.1275227368 0.6059466004 4293126896
-0.2866689861 -0.1454167068 0.5992285609 4291086547
-0.2867288888 -0.1447811574 0.5993537903 4289441210
-0.2863667905 -0.1439332515 0.5985969305 4288520108
-0.2864261270 -0.1432978511 0.5987209678 4287204248
-0.2864852548 -0.1426620632 0.5988445282 4286085767
-0.2861220837 -0.1418167055 0.5980854034 4288519081
-0.2861806452 -0.1411810666 0.5982077718 4289966527
-0.2858167589 -0.1403377503 0.5974471569 4291808731
-0.2854524553 -0.1394959241 0.5966856480 4291085008
-0.2850877643 -0.1386555880 0.5959233046 4288453288
-0.2843002081 -0.1376122683 0.5942770839 4286479498
-0.2839345932 -0.1367758662 0.5935128331 4286742927
-0.2839911878 -0.1361435503 0.5936311483 4288782510
-0.2844702303 -0.1357125193 0.5946325064 4290428104
-0.2849491835 -0.1352792382 0.5956336856 4290888655
-0.2854280770 -0.1348436922 0.5966347456 4290099139
-0.2859069109 -0.1344058812 0.5976355672 4288388521
-0.2863856256 -0.1339658052 0.5986363292 4287599518
-0.2864412069 -0.1333265305 0.5987524390 4287665311
-0.2869196832 -0.1328828782 0.5997526646 4288060069
-0.2873980999 -0.1324369758 0.6007526517 4288586413
-0.2878764272 -0.1319888085 0.6017525196 4288258218
-0.2879312634 -0.1313452274 0.6018671393 4288916148
-0.2884093225 -0.1308934838 0.6028664708 4289706177
-0.2884637415 -0.1302482188 0.6029801369 4290495693
-0.2885178924 -0.1296025813 0.6030933857 4291285209
-0.2889955342 -0.1291459501 0.6040918231 4292140518
-0.2894730866 -0.1286870688 0.6050900221 4292863724
-0.2895266414 -0.1280384511 0.6052020192 4293192689
-0.2852199376 -0.1456823051 0.5975870490 4291480793
-0.2852798402 -0.1450487971 0.5977125168 4290099140
-0.2849186361 -0.1442018896 0.5969557762 4289309624
-0.2849780023 -0.1435685158 0.5970801115 4286283146
-0.2846160531 -0.1427236348 0.5963217616 4286677134
-0.2846748233 -0.1420904100 0.5964449048 4288979889
-0.2843121886 -0.1412475407 0.5956850648 4291085008
-0.2839491069 -0.1404061615 0.5949243903 4292137696
-0.2835856080 -0.1395662725 0.5941628218 4290492871
-0.2836431861 -0.1389343143 0.5942834616 4287466393
-0.2832789719 -0.1380964667 0.5935203433 4286216326
-0.2824927270 -0.1370555609 0.5918729901 4287729565
-0.2829710245 -0.1366288960 0.5928751230 4290230211
-0.2830274701 -0.1359972954 0.5929934382 4291151313
-0.2839274406 -0.1357687861 0.5948790312 4290625483
-0.2844055593 -0.1353353411 0.5958807468 4288914865
-0.2848835588 -0.1348996311 0.5968822837 4288125349
-0.2849393785 -0.1342627555 0.5969992280 4288059556
-0.2849949598 -0.1336255074 0.5971156359 4287994276
-0.2854726017 -0.1331848949 0.5981163383 4288323241
-0.2859501243 -0.1327420324 0.5991169214 4288849583
-0.2864276171 -0.1322969049 0.6001172662 4289178548
-0.2864824533 -0.1316553354 0.6002321839 4289508798
-0.2869596481 -0.1312066317 0.6012320518 4290298314
-0.2870140970 -0.1305633783 0.6013460755 4291153623
-0.2870682776 -0.1299197674 0.6014596224 4291811553
-0.2871222198 -0.1292757839 0.6015726328 4292403688
-0.2875988483 -0.1288208812 0.6025712490 4293061618
-0.2837737203 -0.1459438205 0.5959436893 4291218133
-0.2838335931 -0.1453123540 0.5960694551 4290888656
-0.2838932574 -0.1446804702 0.5961947441 4290099140
-0.2835326195 -0.1438351125 0.5954374075 4287006099
-0.2831715941 -0.1429912299 0.5946791768 4287137685
-0.2828101516 -0.1421488225 0.5939201117 4289835198
-0.2828685939 -0.1415181756 0.5940428972 4292072160
-0.2825064063 -0.1406778097 0.5932822824 4292137696
-0.2817233503 -0.1396305114 0.5916377902 4289834941
-0.2817808390 -0.1390015185 0.5917584896 4287400599
-0.2818380892 -0.1383721381 0.5918787718 4287466392
-0.2818951011 -0.1377423704 0.5919984579 4289045937
-0.2815310359 -0.1369075924 0.5912339687 4290624969
-0.2815875113 -0.1362780035 0.5913525224 4291282899
-0.2820647061 -0.1358508021 0.5923546553 4290230211
-0.2825418413 -0.1354213506 0.5933566689 4288454314
-0.2834400535 -0.1351905018 0.5952430367 4287862177
-0.2839171290 -0.1347555816 0.5962449312 4288060067
-0.2839727998 -0.1341194063 0.5963618159 4288717997
-0.2840282321 -0.1334828585 0.5964782238 4288915376
-0.2845049202 -0.1330430359 0.5974792838 4288981169
-0.2845599353 -0.1324048042 0.5975948572 4289573306
-0.2850363851 -0.1319614053 0.5985953808 4290560201
-0.2855127454 -0.1315157413 0.5995957851 4290956244
-0.2855671942 -0.1308744997 0.5997101068 4291548381
-0.2856214046 -0.1302329004 0.5998239517 4292337382
-0.2856753767 -0.1295909286 0.5999373198 4292732140
-0.2857290804 -0.1289485991 0.6000500917 4293192691
-0.2823302746 -0.1462012529 0.5942986012 4291876063
-0.2823901474 -0.1455718130 0.5944246054 4291349719
-0.2824498117 -0.1449419707 0.5945501924 4290954449
-0.2820900679 -0.1440976262 0.5937929749 4287335834
-0.2817299366 -0.1432547420 0.5930348635 4287335066
-0.2813693583 -0.1424133480 0.5922758579 4290032579
-0.2810083926 -0.1415734291 0.5915160775 4292927469
-0.2806470394 -0.1407350004 0.5907553434 4292795883
-0.2802852392 -0.1398980469 0.5899938345 4290558663
-0.2795033753 -0.1388541013 0.5883480310 4288255908
-0.2795604467 -0.1382286251 0.5884681940 4288584873
-0.2800371647 -0.1378093809 0.5894715786 4290427077
-0.2805137634 -0.1373878717 0.5904749036 4291282899
-0.2805703282 -0.1367593855 0.5905939341 4291217106
-0.2810467184 -0.1363342851 0.5915967226 4289901246
-0.2811028957 -0.1357040852 0.5917149186 4288585386
-0.2815790772 -0.1352754235 0.5927172899 4288059810
-0.2820551693 -0.1348444819 0.5937194824 4288388775
-0.2825312018 -0.1344112903 0.5947215557 4288454825
-0.2830071747 -0.1339758337 0.5957234502 4288520618
-0.2830624580 -0.1333399862 0.5958397985 4289178548
-0.2835381925 -0.1329009533 0.5968412161 4290231236
-0.2835930884 -0.1322634220 0.5969567299 4290954959
-0.2840685546 -0.1318207979 0.5979576111 4291547096
-0.2841230333 -0.1311815828 0.5980722904 4292074210
-0.2841772735 -0.1305419952 0.5981864929 4292600554
-0.2842312753 -0.1299020499 0.5983000994 4293258484
-0.2808896601 -0.1464545876 0.5926517248 4291876063
-0.2809495330 -0.1458271891 0.5927780271 4291678684
-0.2805910110 -0.1449833065 0.5920215845 4291941856
-0.2806503177 -0.1443560421 0.5921466947 4288190373
-0.2802910507 -0.1435141712 0.5913887024 4287598236
-0.2799313962 -0.1426737905 0.5906298161 4290032579
-0.2791528106 -0.1416225433 0.5889870524 4293190643
-0.2787922323 -0.1407860667 0.5882263184 4293388020
-0.2788499594 -0.1401615143 0.5883480906 4291808988
-0.2784886360 -0.1393270642 0.5875857472 4290427590
-0.2781269550 -0.1384941041 0.5868226290 4290361797
-0.2786027491 -0.1380778998 0.5878264904 4291217106
-0.2786594331 -0.1374527514 0.5879461169 4291217106
-0.2791350186 -0.1370329708 0.5889495611 4290559176
-0.2796105444 -0.1366109401 0.5899528861 4289703867
-0.2800860107 -0.1361866444 0.5909560323 4288520107
-0.2805613875 -0.1357600838 0.5919590592 4288454314
-0.2810367048 -0.1353312582 0.5929619074 4288651947
-0.2810924053 -0.1346991211 0.5930794477 4288915119
-0.2815674841 -0.1342667043 0.5940818191 4289309877
-0.2816227674 -0.1336328834 0.5941985250 4289967807
-0.2820976377 -0.1331968904 0.5952004194 4290625994
-0.2821525335 -0.1325613856 0.5953162313 4291349717
-0.2826271355 -0.1321218163 0.5963176489 4292073440
-0.2826816440 -0.1314846128 0.5964326262 4292336612
-0.2831560373 -0.1310414672 0.5974335074 4292732140
-0.2832101285 -0.1304025799 0.5975476503 4293192691
-0.2794518769 -0.1467038244 0.5910030603 4292073442
-0.2795117497 -0.1460784674 0.5911296606 4291152340
-0.2791540921 -0.1452355981 0.5903732777 4292731372
-0.2792133987 -0.1446103752 0.5904986858 4288981171
-0.2792724669 -0.1439847350 0.5906236172 4287466652
-0.2789137661 -0.1431444287 0.5898650289 4289835200
-0.2781370580 -0.1420922428 0.5882223845 4293256436
-0.2773597538 -0.1410434097 0.5865784883 4294309119
-0.2769996524 -0.1402094066 0.5858169794 4293454583
-0.2766391635 -0.1393768936 0.5850545764 4293059825
-0.2766962349 -0.1387554854 0.5851752758 4293190896
-0.2767530978 -0.1381336898 0.5852954984 4292072415
-0.2772278488 -0.1377192289 0.5862995386 4291085520
-0.2777025402 -0.1373025030 0.5873034596 4290427590
-0.2781771719 -0.1368835121 0.5883072019 4289374902
-0.2786517143 -0.1364622712 0.5893108249 4288453800
-0.2791262269 -0.1360387653 0.5903143287 4288257189
-0.2796006501 -0.1356129795 0.5913176537 4288717740
-0.2800750136 -0.1351849437 0.5923208594 4289178291
-0.2801305652 -0.1345535219 0.5924383998 4289902014
-0.2806046903 -0.1341218948 0.5934410691 4290559944
-0.2806598544 -0.1334887892 0.5935577750 4291349460
-0.2811337411 -0.1330535859 0.5945599675 4291810268
-0.2811884880 -0.1324187666 0.5946757793 4292139233
-0.2812430263 -0.1317835897 0.5947911143 4292797163
-0.2812972963 -0.1311480403 0.5949059129 4293455093
-0.2780169249 -0.1469489634 0.5893526673 4291941856
-0.2780767679 -0.1463256329 0.5894795060 4291086545
-0.2781363726 -0.1457019150 0.5896058679 4292205026
-0.2777793109 -0.1448605955 0.5888489485 4289639101
-0.2774218023 -0.1440207660 0.5880911350 4286612623
-0.2774805427 -0.1433977038 0.5882156491 4288520621
-0.2767056227 -0.1423455030 0.5865728855 4292468201
-0.2763469219 -0.1415100992 0.5858125091 4294047231
-0.2755708992 -0.1404636800 0.5841674805 4293849854
-0.2752113044 -0.1396321654 0.5834051967 4294639359
-0.2752683759 -0.1390127838 0.5835261345 4294376191
-0.2757423520 -0.1386027038 0.5845309496 4293059825
-0.2757990658 -0.1379816085 0.5846511126 4290757070
-0.2762728631 -0.1375679523 0.5856555104 4290098370
-0.2767465711 -0.1371520162 0.5866597295 4289374647
-0.2776377499 -0.1369397491 0.5885488987 4288585900
-0.2776938677 -0.1363133639 0.5886678100 4288585900
-0.2781673968 -0.1358906478 0.5896716118 4288651693
-0.2786408663 -0.1354656667 0.5906752944 4289572795
-0.2786964178 -0.1348362565 0.5907930732 4290033857
-0.2791696787 -0.1344076991 0.5917962790 4290757580
-0.2792248428 -0.1337766051 0.5919132829 4291415253
-0.2792797685 -0.1331451386 0.5920296907 4291810011
-0.2797526419 -0.1327116638 0.5930321217 4292402146
-0.2798071802 -0.1320785135 0.5931476951 4292928490
-0.2798614800 -0.1314449757 0.5932627916 4293323761
-0.2761695385 -0.1469689906 0.5868180990 4292533993
-0.2766446471 -0.1465687156 0.5878276825 4289968066
-0.2767042220 -0.1459470242 0.5879542828 4291415512
-0.2763480246 -0.1451067328 0.5871974230 4289968066
-0.2764070928 -0.1444851756 0.5873228908 4285954180
-0.2760501504 -0.1436468959 0.5865644813 4286875282
-0.2756928504 -0.1428100765 0.5858051777 4290888656
-0.2749191821 -0.1417602897 0.5841613412 4293388790
-0.2741449773 -0.1407138407 0.5825162530 4292796655
-0.2737862468 -0.1398833543 0.5817540288 4292928241
-0.2738433182 -0.1392659992 0.5818752646 4294441471
-0.2739001513 -0.1386482716 0.5819960237 4294112511
-0.2743730843 -0.1382399201 0.5830009580 4291283414
-0.2748459876 -0.1378293037 0.5840057731 4289441210
-0.2753188312 -0.1374164373 0.5850104690 4289177523
-0.2757915854 -0.1370012909 0.5860150456 4288980144
-0.2766809762 -0.1367899030 0.5879048705 4288651693
-0.2771537304 -0.1363693029 0.5889093280 4289112244
-0.2772095203 -0.1357423067 0.5890279412 4289441720
-0.2772651017 -0.1351149380 0.5891460180 4290165443
-0.2773204148 -0.1344871819 0.5892636180 4290889166
-0.2777926326 -0.1340603530 0.5902669430 4291547096
-0.2778475881 -0.1334309131 0.5903837085 4292073694
-0.2779022753 -0.1328011006 0.5904999375 4292402659
-0.2779567540 -0.1321709156 0.5906156898 4292929003
-0.2780109942 -0.1315403581 0.5907309055 4293389554
-0.2752153575 -0.1468076855 0.5861740112 4290625997
-0.2752749324 -0.1461880356 0.5863009095 4290099653
-0.2753342986 -0.1455679983 0.5864273310 4290230726
-0.2753933966 -0.1449475437 0.5865532160 4286217353
-0.2754522860 -0.1443267018 0.5866786242 4285362046
-0.2750960290 -0.1434890330 0.5859198570 4288322731
-0.2739093304 -0.1422218680 0.5833923221 4292335334
-0.2727218866 -0.1409599185 0.5808632374 4292269541
-0.2711184919 -0.1394896060 0.5774481893 4290164167
-0.2707599998 -0.1386644244 0.5766846538 4291414234
-0.2712318301 -0.1382642090 0.5776896477 4293585403
-0.2717036307 -0.1378617436 0.5786944628 4292401129
-0.2721753418 -0.1374570131 0.5796991587 4289770174
-0.2730626464 -0.1372589320 0.5815889835 4288651693
-0.2735343575 -0.1368487328 0.5825936794 4288848558
-0.2744217813 -0.1366433054 0.5844838023 4289243316
-0.2748934329 -0.1362276524 0.5854883790 4289375416
-0.2757810056 -0.1360148638 0.5873787403 4290164932
-0.2762526274 -0.1355937272 0.5883832574 4290757580
-0.2763080299 -0.1349670738 0.5885012746 4291349717
-0.2763632238 -0.1343400329 0.5886188149 4291876315
-0.2764181793 -0.1337126195 0.5887358785 4292468452
-0.2768892646 -0.1332852542 0.5897392631 4292797415
-0.2769438326 -0.1326561570 0.5898554325 4293126380
-0.2737889588 -0.1470425427 0.5845186710 4290955731
-0.2742621899 -0.1466461271 0.5855289698 4288718000
-0.2743215859 -0.1460271925 0.5856558084 4290428618
-0.2743807733 -0.1454078555 0.5857821703 4286875283
-0.2740257978 -0.1445697248 0.5850242972 4284440942
-0.2736704051 -0.1437330693 0.5842655897 4286217355
-0.2733146250 -0.1428979039 0.5835060477 4290099142
-0.2721300423 -0.1416330487 0.5809770226 4291611613
-0.2705304325 -0.1401587874 0.5775619745 4289308858
-0.2689298689 -0.1386916488 0.5741448998 4287927205
-0.2685717642 -0.1378699094 0.5733804107 4290361546
-0.2690424025 -0.1374733150 0.5743851066 4292005858
-0.2699275911 -0.1372853518 0.5762749314 4290295240
-0.2708128989 -0.1370932311 0.5781650543 4289111475
-0.2712835371 -0.1366879791 0.5791698098 4288914096
-0.2721689939 -0.1364885271 0.5810601711 4289243830
-0.2726395726 -0.1360778064 0.5820648670 4289901760
-0.2735251784 -0.1358709931 0.5839555264 4290296518
-0.2744108737 -0.1356600374 0.5858464241 4291020241
-0.2748814523 -0.1352406442 0.5868510604 4291678682
-0.2749366462 -0.1346156299 0.5869688988 4292073440
-0.2749916017 -0.1339902431 0.5870862007 4292468452
-0.2750463188 -0.1333644837 0.5872030854 4292994796
-0.2755163610 -0.1329388618 0.5882065892 4293192943
-0.2755707204 -0.1323114187 0.5883225799 4293390322
-0.2718930840 -0.1476643682 0.5818508267 4292995312
-0.2723654211 -0.1472732872 0.5828616023 4290363592
-0.2728376985 -0.1468799412 0.5838723183 4286350219
-0.2728970945 -0.1462630481 0.5839993954 4285559935
-0.2729562521 -0.1456457525 0.5841259956 4287138967
-0.2730152011 -0.1450280547 0.5842521191 4284967799
-0.2722476721 -0.1439730078 0.5826096535 4285494143
-0.2718927562 -0.1431388557 0.5818501711 4287335836
-0.2711241543 -0.1420895755 0.5802053213 4289835970
-0.2699415982 -0.1408279836 0.5776746273 4289769407
-0.2683448195 -0.1393568963 0.5742575526 4289506235
-0.2671606541 -0.1381067187 0.5717234612 4290822097
-0.2676303685 -0.1377131939 0.5727286339 4291216855
-0.2681000233 -0.1373173892 0.5737336874 4290361033
-0.2689834237 -0.1371303052 0.5756241679 4289637310
-0.2698669732 -0.1369390786 0.5775149465 4289178038
-0.2703366280 -0.1365346313 0.5785200000 4289638589
-0.2708062232 -0.1361279041 0.5795249343 4290296518
-0.2712757885 -0.1357189268 0.5805298090 4290954448
-0.2721595168 -0.1355139464 0.5824209452 4291349206
-0.2726290226 -0.1350994855 0.5834257007 4291809757
-0.2730984390 -0.1346827745 0.5844303370 4292336612
-0.2735678256 -0.1342637986 0.5854347944 4292665577
-0.2736225724 -0.1336400658 0.5855519176 4292929003
-0.2736770511 -0.1330159605 0.5856685042 4293455347
-0.2709447443 -0.1474999189 0.5812028050 4291021522
-0.2714160979 -0.1471096277 0.5822139382 4286152840
-0.2714754641 -0.1464947909 0.5823412538 4283784292
-0.2719466686 -0.1461008936 0.5833519697 4283783522
-0.2720056474 -0.1454843134 0.5834785700 4283520350
-0.2716522217 -0.1446478367 0.5827203989 4283520352
-0.2708860934 -0.1435942650 0.5810769200 4283849317
-0.2701193392 -0.1425440311 0.5794322491 4284901493
-0.2693520486 -0.1414971650 0.5777863264 4286217353
-0.2677590251 -0.1400221437 0.5743691325 4287138455
-0.2665777504 -0.1387690604 0.5718351603 4290099140
-0.2653957307 -0.1375212073 0.5692995787 4292927469
-0.2662771046 -0.1373432875 0.5711902380 4291545816
-0.2671586275 -0.1371612400 0.5730811954 4289769407
-0.2676272690 -0.1367639750 0.5740864873 4289308856
-0.2685089111 -0.1365745813 0.5759777427 4289901760
-0.2693907022 -0.1363810450 0.5778692365 4290559690
-0.2698593438 -0.1359751225 0.5788745284 4291152340
-0.2703279257 -0.1355669349 0.5798796415 4291744477
-0.2707964480 -0.1351564974 0.5808846951 4292270821
-0.2712649107 -0.1347437799 0.5818895698 4292599786
-0.2717332840 -0.1343288124 0.5828943253 4292994542
-0.2722016275 -0.1339115649 0.5838989615 4293257714
-0.2722561359 -0.1332895011 0.5840158463 4293521140
-0.2695269883 -0.1477224231 0.5795423388 4293060335
-0.2699974179 -0.1473352015 0.5805538297 4289046962
-0.2700567245 -0.1467224061 0.5806813836 4284836464
-0.2705269754 -0.1463315934 0.5816925168 4285231222
-0.2709971964 -0.1459385157 0.5827035904 4285691262
-0.2706447244 -0.1451021135 0.5819457173 4284967539
-0.2702918649 -0.1442671865 0.5811869502 4284572527
-0.2695271075 -0.1432150900 0.5795425773 4284243562
-0.2683501840 -0.1419486254 0.5770119429 4284243562
-0.2675841749 -0.1409041584 0.5753648877 4284506734
-0.2659941018 -0.1394313872 0.5719458461 4286085766
-0.2648149431 -0.1381806284 0.5694103837 4290296518
-0.2644588947 -0.1373630315 0.5686447620 4293059055
-0.2653384805 -0.1371860057 0.5705361366 4291151058
-0.2662182152 -0.1370048374 0.5724277496 4290098370
-0.2666858733 -0.1366083920 0.5734333396 4290229956
-0.2675657868 -0.1364198774 0.5753252506 4290822862
-0.2680334151 -0.1360179633 0.5763307810 4291283413
-0.2689134479 -0.1358221024 0.5782230496 4291744475
-0.2693810463 -0.1354147196 0.5792285204 4292270819
-0.2698486149 -0.1350050718 0.5802338719 4292797163
-0.2703160942 -0.1345931590 0.5812391043 4293126128
-0.2707835436 -0.1341789812 0.5822441578 4293521140
-0.2685815990 -0.1475566626 0.5788919926 4290888909
-0.2686409056 -0.1469459087 0.5790198445 4285362297
-0.2691102028 -0.1465581656 0.5800313950 4283783263
-0.2691691518 -0.1459456682 0.5801584721 4284243814
-0.2696382999 -0.1455543190 0.5811696053 4284178023
-0.2692863941 -0.1447194815 0.5804111362 4284835953
-0.2689341009 -0.1438861191 0.5796518326 4285164664
-0.2677600682 -0.1426167488 0.5771213174 4285822594
-0.2665852606 -0.1413526088 0.5745891929 4287138454
-0.2658205628 -0.1403105706 0.5729410052 4288783279
-0.2646443546 -0.1390559524 0.5704058409 4289638588
-0.2638784349 -0.1380215734 0.5687549710 4291217620
-0.2635230422 -0.1372046173 0.5679889917 4292730345
-0.2644008696 -0.1370284855 0.5698810220 4290624969
-0.2652788162 -0.1368481964 0.5717732906 4290361542
-0.2657455206 -0.1364525557 0.5727792382 4291414230
-0.2666236162 -0.1362649351 0.5746718645 4291678682
-0.2670902908 -0.1358638257 0.5756776929 4292007647
-0.2675569057 -0.1354604363 0.5766834021 4292271589
-0.2680234611 -0.1350547969 0.5776890516 4292732140
-0.2684899569 -0.1346468925 0.5786945224 4293126896
-0.2689564228 -0.1342367381 0.5796998739 4293455861
-0.2671091855 -0.1483822763 0.5770999789 4292929519
-0.2675778270 -0.1480002850 0.5781124830 4290560971
-0.2676371932 -0.1473906487 0.5782406926 4286151041
-0.2676963210 -0.1467806101 0.5783684850 4283058770
-0.2677552700 -0.1461701691 0.5784958005 4283651677
-0.2678139508 -0.1455593258 0.5786226392 4284178021
-0.2678724527 -0.1449480802 0.5787490010 4283585884
-0.2679307163 -0.1443364322 0.5788748860 4283585884
-0.2659398913 -0.1426255852 0.5745736957 4283980644
-0.2672268450 -0.1426742971 0.5773541927 4284572781
-0.2648245990 -0.1407560110 0.5721639991 4285691262
-0.2636511922 -0.1394994259 0.5696287751 4291086288
-0.2628871202 -0.1384640932 0.5679780245 4292928749
-0.2629429400 -0.1378622949 0.5680986047 4292270819
-0.2629984915 -0.1372600943 0.5682186484 4291283924
-0.2638746202 -0.1370839179 0.5701115727 4291218131
-0.2643404007 -0.1366913319 0.5711178780 4291678171
-0.2652166784 -0.1365077943 0.5730111003 4292270308
-0.2656824291 -0.1361097544 0.5740174055 4292139487
-0.2661481500 -0.1357094496 0.5750235915 4292468452
-0.2666137815 -0.1353068650 0.5760296583 4292797417
-0.2670793831 -0.1349020302 0.5770355463 4293126382
-0.2675449252 -0.1344949305 0.5780413747 4293586933
-0.2610641718 -0.1862057596 0.5653962493 4292140518
-0.2611363828 -0.1856288761 0.5655525923 4291811551
-0.2612083852 -0.1850515157 0.5657085180 4292666860
-0.2656992376 -0.1485934108 0.5754345655 4292074210
-0.2661669254 -0.1482144892 0.5764474273 4289179318
-0.2662262619 -0.1476069093 0.5765759349 4285363324
-0.2666937709 -0.1472243816 0.5775884390 4283124563
-0.2667527497 -0.1466150582 0.5777161717 4283716700
-0.2668115199 -0.1460053325 0.5778434277 4284112228
-0.2668700516 -0.1453952044 0.5779702663 4283520091
-0.2669283748 -0.1447846740 0.5780965686 4283717470
-0.2661687732 -0.1437321752 0.5764514208 4283520091
-0.2649996281 -0.1424631625 0.5739193559 4283125335
-0.2638297379 -0.1411993802 0.5713856816 4283520093
-0.2626591027 -0.1399408281 0.5688503981 4283849058
-0.2623061240 -0.1391215920 0.5680859685 4290494151
-0.2615434825 -0.1380877495 0.5664342642 4293849851
-0.2615990341 -0.1374876052 0.5665546060 4292270819
-0.2616543770 -0.1368870735 0.5666744113 4291152338
-0.2625286281 -0.1367127150 0.5685678124 4291744475
-0.2634029686 -0.1365342289 0.5704614520 4292401894
-0.2638677359 -0.1361401826 0.5714679956 4292599273
-0.2647422552 -0.1359543353 0.5733619928 4292534245
-0.2652069926 -0.1355548352 0.5743684769 4292863210
-0.2656716704 -0.1351530701 0.5753748417 4293257968
-0.2657262385 -0.1345414072 0.5754929781 4293586933
-0.2597355545 -0.1857048124 0.5638751388 4290363594
-0.2598074377 -0.1851295233 0.5640311837 4289047734
-0.2598791122 -0.1845537573 0.5641868114 4289442492
-0.2599506378 -0.1839775145 0.5643420219 4291022035
-0.2596206963 -0.1831177622 0.5636257529 4292206309
-0.2573687136 -0.1765630096 0.5587368011 4293061107
-0.2562307715 -0.1751642823 0.5562663674 4292732142
-0.2642325759 -0.1494041979 0.5736379623 4292468198
-0.2642922103 -0.1488004178 0.5737674236 4290165443
-0.2643516064 -0.1481962204 0.5738964081 4286941586
-0.2648182213 -0.1478190422 0.5749093890 4284638831
-0.2652848065 -0.1474395990 0.5759223104 4283454557
-0.2657513618 -0.1470578760 0.5769351721 4283914079
-0.2658101618 -0.1464492679 0.5770629048 4283650907
-0.2654609978 -0.1456165761 0.5763048530 4283454298
-0.2655192912 -0.1450080872 0.5764313936 4283520091
-0.2655773759 -0.1443992108 0.5765574574 4283651677
-0.2648191452 -0.1433481872 0.5749114156 4283454298
-0.2628359497 -0.1416406780 0.5706059933 4283651679
-0.2616680861 -0.1403801739 0.5680705905 4283849058
-0.2609077990 -0.1393429488 0.5664200187 4283585886
-0.2601469457 -0.1383090913 0.5647682548 4289836221
-0.2606109679 -0.1379271746 0.5657755733 4293981437
-0.2602577806 -0.1371124983 0.5650088787 4291941854
-0.2607215345 -0.1367279440 0.5660156608 4291349717
-0.2615939975 -0.1365544796 0.5679097176 4292336612
-0.2624665797 -0.1363768727 0.5698040724 4292862445
-0.2629303634 -0.1359836459 0.5708109140 4293191410
-0.2633940876 -0.1355881542 0.5718176365 4293060587
-0.2638577521 -0.1351903975 0.5728242397 4293389552
-0.2584095597 -0.1852033138 0.5623524189 4291547868
-0.2584811151 -0.1846296191 0.5625081658 4290034629
-0.2585524917 -0.1840554476 0.5626634955 4289376699
-0.2586236894 -0.1834807992 0.5628184080 4289047732
-0.2586947083 -0.1829056740 0.5629729629 4289442490
-0.2583649755 -0.1820478439 0.5622553825 4290363592
-0.2580348551 -0.1811913103 0.5615369081 4291284694
-0.2577042878 -0.1803360879 0.5608175993 4292205796
-0.2581751347 -0.1800413281 0.5618422627 4293126898
-0.2556442320 -0.1758038551 0.5563344359 4291218903
-0.2549097240 -0.1746824086 0.5547360778 4289968836
-0.2545761466 -0.1738382727 0.5540101528 4290166215
-0.2546438277 -0.1732687801 0.5541574359 4291547613
-0.2547113299 -0.1726988256 0.5543043017 4292929266
-0.2618365884 -0.1509396881 0.5698103309 4293060589
-0.2618966401 -0.1503410488 0.5699409842 4292994796
-0.2623625994 -0.1499741524 0.5709550381 4291744729
-0.2624222934 -0.1493737698 0.5710849166 4289638840
-0.2624817789 -0.1487729847 0.5712144375 4287072913
-0.2625410855 -0.1481717825 0.5713434219 4284967537
-0.2630066574 -0.1477985978 0.5723565817 4283651677
-0.2634721696 -0.1474231631 0.5733696818 4283322712
-0.2635309994 -0.1468188763 0.5734977126 4283783263
-0.2639963925 -0.1464398205 0.5745104551 4283782747
-0.2640548646 -0.1458338052 0.5746377110 4283453782
-0.2637061775 -0.1450036019 0.5738789439 4283388503
-0.2633570731 -0.1441748738 0.5731192231 4283717468
-0.2630076110 -0.1433476210 0.5723586679 4283520091
-0.2622505128 -0.1423008740 0.5707110763 4283256919
-0.2602708936 -0.1405974030 0.5664030910 4283651677
-0.2595123947 -0.1395601779 0.5647523999 4283651677
-0.2591608167 -0.1387444735 0.5639872551 4283388507
-0.2600315511 -0.1385819018 0.5658822060 4288454568
-0.2600871027 -0.1379826367 0.5660030842 4293520629
-0.2605502009 -0.1375983208 0.5670108199 4292402148
-0.2606053948 -0.1369973570 0.5671309829 4292270819
-0.2614762187 -0.1368229091 0.5690260530 4292994542
-0.2623471618 -0.1366443187 0.5709214211 4293126130
-0.2628101408 -0.1362500042 0.5719289780 4293389302
