VERSION 0.7
FIELDS x y z rgba
SIZE 4 4 4 4
TYPE F F F U
COUNT 1 1 1 1
WIDTH 920
HEIGHT 1
VIEWPOINT 0.0 0.0 0.0 1.0 0.0 0.0 0.0
POINTS 920
DATA ascii
-0.3094409406 -0.1273785979 0.6250615716 4286164437
-0.3103683293 -0.1270637661 0.6269348264 4286624988
-0.3104225099 -0.1263892651 0.6270443201 4287279576
-0.3109131455 -0.1258912385 0.6280353665 4287542748
-0.3118403852 -0.1255668104 0.6299083829 4288133598
-0.3118939996 -0.1248884052 0.6300166845 4288594149
-0.3119473457 -0.1242096499 0.6301244497 4289316066
-0.3124373853 -0.1237035692 0.6311143041 4289381859
-0.3133643866 -0.1233672872 0.6329867840 4290235623
-0.3138542473 -0.1228557527 0.6339763403 4291025139
-0.3143439889 -0.1223419681 0.6349655986 4291945212
-0.3157081306 -0.1221643388 0.6377211213 4292011005
-0.3170724511 -0.1219806448 0.6404770017 4292471295
-0.3179995120 -0.1216235906 0.6423496008 4292471295
-0.3184890747 -0.1210960448 0.6433385015 4292339449
-0.3189784884 -0.1205662414 0.6443271637 4292405242
-0.3203946352 -0.1196633652 0.6471877098 4292602874
-0.3061743975 -0.1938101500 0.6198539138 4287409632
-0.3062535524 -0.1931713820 0.6200141907 4283725224
-0.3067591488 -0.1928002685 0.6210377216 4282549205
-0.3068379760 -0.1921596080 0.6211973429 4281957068
-0.3069165945 -0.1915184706 0.6213564873 4282022360
-0.3069949746 -0.1908768415 0.6215151548 4281627602
-0.3075002134 -0.1904992908 0.6225380301 4281430993
-0.3075782657 -0.1898557842 0.6226960421 4281562579
-0.3076560795 -0.1892117858 0.6228536367 4281563349
-0.3077336848 -0.1885672957 0.6230106950 4281563349
-0.3082385659 -0.1881833375 0.6240328550 4281497040
-0.3083158433 -0.1875369698 0.6241892576 4281365454
-0.3083928525 -0.1868901402 0.6243451834 4281497040
-0.3080418110 -0.1859844923 0.6236345172 4281760212
-0.3081182837 -0.1853375882 0.6237893105 4281758408
-0.3081945181 -0.1846901923 0.6239436269 4282350545
-0.3082705140 -0.1840423197 0.6240975261 4285241050
-0.3083463013 -0.1833939701 0.6242509484 4286030566
-0.3079934716 -0.1824913323 0.6235366464 4288328418
-0.3080686629 -0.1818429381 0.6236888766 4288065246
-0.3081436455 -0.1811940670 0.6238406897 4287802844
-0.3077897131 -0.1802936047 0.6231241226 4287605465
-0.3078641295 -0.1796446890 0.6232748032 4287013073
-0.3079383075 -0.1789953113 0.6234249473 4286881487
-0.3084412217 -0.1785938442 0.6244431734 4286947543
-0.3080859482 -0.1776951253 0.6237238646 4286618578
-0.3081594408 -0.1770443320 0.6238726377 4286026958
-0.3082326651 -0.1763930917 0.6240209341 4285763786
-0.3087350726 -0.1759861261 0.6250380278 4285895885
-0.3088079393 -0.1753330380 0.6251855493 4285895885
-0.3088805676 -0.1746794879 0.6253325939 4286093523
-0.3093826771 -0.1742675155 0.6263490915 4286225109
-0.3090251386 -0.1733710170 0.6256252527 4285634003
-0.3090970516 -0.1727160811 0.6257708669 4285502417
-0.3087387383 -0.1718214005 0.6250454187 4285239762
-0.3083799779 -0.1709280759 0.6243191361 4284581832
-0.3080208004 -0.1700361371 0.6235919595 4283923902
-0.3076611459 -0.1691455543 0.6228638887 4283923902
-0.3073010743 -0.1682563573 0.6221349239 4283923648
-0.3069405854 -0.1673685461 0.6214050651 4283989441
-0.3065796494 -0.1664821208 0.6206743121 4284252613
-0.3062182665 -0.1655970812 0.6199427247 4284449992
-0.3058564663 -0.1647134423 0.6192102432 4284055234
-0.3054942191 -0.1638311893 0.6184768677 4283265718
-0.3051315248 -0.1629503369 0.6177425981 4284713164
-0.3047684133 -0.1620708704 0.6170074940 4285765852
-0.3048360348 -0.1614211500 0.6171444058 4285042129
-0.3049034178 -0.1607709825 0.6172807813 4284647371
-0.3049705625 -0.1601203978 0.6174167395 4284581578
-0.3046059906 -0.1592438072 0.6166786551 4283989441
-0.3051041067 -0.1588179171 0.6176871061 4283726269
-0.3056021631 -0.1583897620 0.6186953783 4283660476
-0.3056684136 -0.1577365398 0.6188295484 4283594943
-0.3061662614 -0.1573047489 0.6198374033 4283726529
-0.3062321246 -0.1566497535 0.6199707389 4283858370
-0.3067297339 -0.1562143713 0.6209782362 4284055749
-0.3067952096 -0.1555576026 0.6211107373 4284582093
-0.3072926104 -0.1551185846 0.6221177578 4285174230
-0.3073576689 -0.1544600725 0.6222494245 4285239508
-0.3078548312 -0.1540174335 0.6232559681 4285107922
-0.3079194725 -0.1533571482 0.6233868599 4285042129
-0.3084164262 -0.1529109180 0.6243929267 4284713164
-0.3084806800 -0.1522488594 0.6245229840 4284779211
-0.3085446358 -0.1515864134 0.6246525049 4284845004
-0.3077427149 -0.1505001932 0.6230289936 4284581832
-0.3073730767 -0.1496280283 0.6222806573 4284976590
-0.3065700233 -0.1485475153 0.6206548810 4286160610
-0.3057663441 -0.1474703103 0.6190277934 4288331775
-0.3045288920 -0.1461884826 0.6165225506 4289251836
-0.3037239313 -0.1451188773 0.6148929000 4287541218
-0.3029183745 -0.1440525949 0.6132619977 4286357198
-0.3021121919 -0.1429896653 0.6116299629 4286488784
-0.3021725118 -0.1423384994 0.6117520332 4287146199
-0.3022325635 -0.1416869611 0.6118735671 4287606750
-0.3018586338 -0.1408326775 0.6111165881 4288067041
-0.3019181192 -0.1401812881 0.6112369895 4288724971
-0.3019773066 -0.1395295113 0.6113568544 4289185004
-0.3024702370 -0.1390769035 0.6123547554 4289250797
-0.3025290072 -0.1384234279 0.6124737859 4289316332
-0.3030216694 -0.1379672438 0.6134712100 4289316332
-0.3030800521 -0.1373120695 0.6135893464 4289644779
-0.3035724461 -0.1368523091 0.6145862341 4289513193
-0.3040647507 -0.1363902837 0.6155828834 4288328404
-0.3041225076 -0.1357320994 0.6156998277 4288196818
-0.3046145439 -0.1352665126 0.6166960001 4290303730
-0.3046718836 -0.1346066445 0.6168120503 4291816959
-0.3047289550 -0.1339464039 0.6169275641 4292735743
-0.3047857583 -0.1332858056 0.6170426011 4292340991
-0.3048422933 -0.1326248199 0.6171570420 4291748351
-0.3048985898 -0.1319634765 0.6172710061 4290564077
-0.3049546182 -0.1313017607 0.6173844337 4288659430
-0.3050103784 -0.1306396872 0.6174973249 4287672535
-0.3050658703 -0.1299772561 0.6176096797 4286755542
-0.3051211238 -0.1293144524 0.6177214980 4286229198
-0.3056114316 -0.1288348287 0.6187141538 4285638092
-0.3061016500 -0.1283529401 0.6197066307 4285703885
-0.3065917492 -0.1278688163 0.6206988692 4285901015
-0.3075173199 -0.1275631189 0.6225726604 4286164187
-0.3084429502 -0.1272532642 0.6244466305 4286691040
-0.3093685806 -0.1269392818 0.6263206005 4287217384
-0.3094226718 -0.1262654513 0.6264300942 4287741671
-0.3103482425 -0.1259450614 0.6283038855 4288136429
-0.3108378947 -0.1254445761 0.6292952299 4288332518
-0.3113274276 -0.1249418408 0.6302862763 4288332518
-0.3113807142 -0.1242628172 0.6303941607 4288856292
-0.3118699193 -0.1237565354 0.6313845515 4288527327
-0.3127952516 -0.1234201342 0.6332579255 4289117920
-0.3132842779 -0.1229083911 0.6342479587 4289973229
-0.3137731850 -0.1223944053 0.6352377534 4290958837
-0.3151349127 -0.1222167164 0.6379945874 4291485181
-0.3164967895 -0.1220329627 0.6407517195 4292274175
-0.3169855773 -0.1215084121 0.6417412758 4292208383
-0.3179109097 -0.1211480126 0.6436146498 4292010997
-0.3183995187 -0.1206180006 0.6446037889 4292142583
-0.3047595024 -0.1933492720 0.6183798909 4288264941
-0.3048383594 -0.1927120537 0.6185399294 4283527845
-0.3049170077 -0.1920743585 0.6186994910 4280509622
-0.3054214120 -0.1917035282 0.6197229624 4281167552
-0.3054997027 -0.1910639405 0.6198818684 4281496018
-0.3068563640 -0.1912206262 0.6226345897 4281298639
-0.3060819507 -0.1900480092 0.6210632920 4281167824
-0.3061597049 -0.1894060522 0.6212210059 4281102031
-0.3062372506 -0.1887636185 0.6213783622 4281036238
-0.3067411780 -0.1883827150 0.6224008203 4281036238
-0.3068183661 -0.1877384037 0.6225574613 4281101777
-0.3068953156 -0.1870936155 0.6227136254 4281233363
-0.3069720566 -0.1864483505 0.6228693128 4280905170
-0.3066214919 -0.1855441779 0.6221580505 4280905170
-0.3066976666 -0.1848988235 0.6223126054 4280049089
-0.3067736030 -0.1842530072 0.6224666834 4280049089
-0.3068493307 -0.1836067140 0.6226203442 4281494466
-0.3069248199 -0.1829599291 0.6227734685 4280836536
-0.3065724969 -0.1820587665 0.6220586300 4283334342
-0.3066474199 -0.1814119369 0.6222106218 4284387030
-0.3067221045 -0.1807646304 0.6223621964 4286422490
-0.3063686788 -0.1798656434 0.6216450334 4287606764
-0.3064428270 -0.1792183071 0.6217954755 4287672293
-0.3065167069 -0.1785704941 0.6219453812 4287211742
-0.3070185781 -0.1781707108 0.6229637265 4286816725
-0.3070921004 -0.1775210649 0.6231129169 4286421967
-0.3071654141 -0.1768709570 0.6232616305 4286355921
-0.3072384596 -0.1762203723 0.6234099269 4286026956
-0.3077399135 -0.1758141965 0.6244273782 4286026708
-0.3078126013 -0.1751617789 0.6245748401 4286026708
-0.3078850508 -0.1745088995 0.6247218847 4285961173
-0.3083861768 -0.1740977019 0.6257387400 4285895380
-0.3084582686 -0.1734429896 0.6258850098 4285698767
-0.3081010282 -0.1725475043 0.6251600981 4285896146
-0.3081725240 -0.1718927920 0.6253051758 4285831630
-0.3078144789 -0.1709991395 0.6245787144 4285568458
-0.3074560165 -0.1701068580 0.6238512993 4285831382
-0.3070971072 -0.1692159474 0.6231230497 4285568210
-0.3071673512 -0.1685621589 0.6232656240 4285172939
-0.3068076670 -0.1676730961 0.6225357652 4284712388
-0.3064475358 -0.1667854190 0.6218050718 4284515267
-0.3065168858 -0.1661321223 0.6219457388 4284778439
-0.3061559796 -0.1652463078 0.6212134361 4284646853
-0.3057946563 -0.1643618792 0.6204802990 4284120509
-0.3054328859 -0.1634788513 0.6197462678 4285238992
-0.3050706983 -0.1625972241 0.6190113425 4286094301
-0.3051384389 -0.1619454175 0.6191487908 4285041615
-0.3052059412 -0.1612931788 0.6192857623 4284581064
-0.3048426211 -0.1604139209 0.6185485721 4284449478
-0.3049095571 -0.1597617418 0.6186843514 4283988927
-0.3045454919 -0.1588843912 0.6179456115 4283857855
-0.3054735363 -0.1586798877 0.6198287010 4283989441
-0.3051088750 -0.1578026116 0.6190887690 4284318406
-0.3056058586 -0.1573706865 0.6200972199 4284449992
-0.3061027825 -0.1569364816 0.6211054921 4284910543
-0.3061684072 -0.1562798917 0.6212387085 4285239508
-0.3062337935 -0.1556228846 0.6213713884 4285239508
-0.3067303598 -0.1551837176 0.6223788857 4284976336
-0.3067953289 -0.1545249373 0.6225107908 4284844750
-0.3072916567 -0.1540821493 0.6235178709 4285107922
-0.3073562384 -0.1534216106 0.6236488819 4285305555
-0.3078523576 -0.1529752165 0.6246555448 4285042383
-0.3074846566 -0.1520992965 0.6239094138 4285173197
-0.3075484931 -0.1514375210 0.6240389347 4285370576
-0.3071800172 -0.1505635530 0.6232913136 4285107659
-0.3068111241 -0.1496910602 0.6225427985 4285305038
-0.3060095906 -0.1486101002 0.6209164262 4285962968
-0.3052074313 -0.1475324780 0.6192888021 4288068344
-0.3039722741 -0.1462501436 0.6167826056 4289712126
-0.3031688333 -0.1451801062 0.6151523590 4289712126
-0.3023647964 -0.1441133916 0.6135208607 4288922610
-0.3015601635 -0.1430500448 0.6118881702 4287935715
-0.3011876643 -0.1421943307 0.6111323833 4287278040
-0.3012475669 -0.1415434629 0.6112539172 4286422731
-0.3008743227 -0.1406897753 0.6104965210 4286356423
-0.3009336293 -0.1400390714 0.6106169224 4287409111
-0.3009926975 -0.1393879950 0.6107367873 4288330467
-0.3014846742 -0.1389361471 0.6117350459 4288264674
-0.3015433252 -0.1382833570 0.6118540168 4288198879
-0.3020350337 -0.1378279328 0.6128517985 4288067293
-0.3020932674 -0.1371734440 0.6129698753 4288527844
-0.3025847375 -0.1367144436 0.6139671206 4288462051
-0.3026425242 -0.1360582709 0.6140844226 4288000985
-0.3031337261 -0.1355956942 0.6150810719 4288264157
-0.3036248386 -0.1351308674 0.6160776019 4289119201
-0.3041158617 -0.1346637905 0.6170738935 4289842924
-0.3041728735 -0.1340032965 0.6171895862 4290303730
-0.3037956357 -0.1331522167 0.6164241433 4290369523
-0.3038520515 -0.1324919164 0.6165385842 4289383665
-0.3039081991 -0.1318312585 0.6166525483 4288265184
-0.3043983281 -0.1313576102 0.6176469922 4286623709
-0.3044540286 -0.1306952834 0.6177600622 4285834193
-0.3045094609 -0.1300325841 0.6178725958 4285310163
-0.3041301966 -0.1291849762 0.6171029806 4285507542
-0.3041850328 -0.1285225004 0.6172142625 4285705689
-0.3046742380 -0.1280423254 0.6182069182 4285968861
-0.3055980504 -0.1277416050 0.6200813651 4286428381
-0.3065218925 -0.1274367422 0.6219559312 4286823139
-0.3074457943 -0.1271277368 0.6238306165 4287283169
-0.3083697259 -0.1268145740 0.6257053614 4287348962
-0.3088586926 -0.1263193488 0.6266974807 4287938791
-0.3093475401 -0.1258218735 0.6276893616 4287938791
-0.3102714419 -0.1254981607 0.6295639873 4288266212
-0.3103248775 -0.1248201653 0.6296724677 4288266212
-0.3108133674 -0.1243159324 0.6306636333 4288462304
-0.3113017082 -0.1238094494 0.6316545606 4288330718
-0.3122254014 -0.1234729216 0.6335287690 4288658400
-0.3127135932 -0.1229609847 0.6345193386 4288987365
-0.3132016361 -0.1224467903 0.6355096698 4289776104
-0.3141252398 -0.1220996976 0.6373836994 4290697206
-0.3154846132 -0.1219168380 0.6401419640 4292011775
-0.3164083064 -0.1215604693 0.6420162320 4291814396
-0.3168961406 -0.1210334525 0.6430060267 4291221481
-0.3173837960 -0.1205041856 0.6439955235 4291287274
-0.3174352944 -0.1198081002 0.6441000104 4292405753
-0.3174864948 -0.1191116720 0.6442039609 4292471546
-0.3019429147 -0.1967707723 0.6140486598 4291416288
-0.3020227551 -0.1961403787 0.6142110229 4291023075
-0.3021023870 -0.1955094934 0.6143730283 4290957282
-0.3021818101 -0.1948781013 0.6145344973 4291285217
-0.3029222190 -0.1926177144 0.6160402298 4289185784
-0.3034256399 -0.1922522187 0.6170639992 4284843446
-0.3035039604 -0.1916160733 0.6172233224 4279653797
-0.3035821021 -0.1909794509 0.6173821688 4280245934
-0.3040852845 -0.1906089038 0.6184055209 4280903363
-0.3045884669 -0.1902360916 0.6194288135 4280903363
-0.3046661615 -0.1895962059 0.6195868254 4280838346
-0.3051692247 -0.1892197281 0.6206098795 4280904139
-0.3052465618 -0.1885779649 0.6207671762 4280904402
-0.3053236902 -0.1879357100 0.6209239960 4280904402
-0.3054005802 -0.1872929782 0.6210803986 4280837837
-0.3054772317 -0.1866497546 0.6212362647 4280903630
-0.3055536747 -0.1860060543 0.6213917136 4281296586
-0.3056299090 -0.1853618622 0.6215467453 4281296586
-0.3057058752 -0.1847171932 0.6217012405 4281362631
-0.3053551614 -0.1838153303 0.6209880114 4281231045
-0.3054305911 -0.1831706017 0.6211414337 4280902850
-0.3055058122 -0.1825253963 0.6212943792 4279126439
-0.3051539958 -0.1816256940 0.6205788851 4280180158
-0.3052286208 -0.1809804440 0.6207306981 4280377537
-0.3053030372 -0.1803347170 0.6208819747 4281162411
-0.3053772151 -0.1796885133 0.6210328341 4282017720
-0.3050239384 -0.1787914336 0.6203144193 4283595974
-0.3055248857 -0.1783947051 0.6213331223 4285109213
-0.3055983484 -0.1777471006 0.6214826107 4286358500
-0.3056716025 -0.1770990342 0.6216315627 4286621672
-0.3057446182 -0.1764505059 0.6217800379 4286620643
-0.3062451482 -0.1760473847 0.6227979064 4286423264
-0.3063177764 -0.1753970087 0.6229456663 4286224860
-0.3068181276 -0.1749902368 0.6239631772 4286093274
-0.3068903983 -0.1743380278 0.6241101623 4285763794
-0.3073905706 -0.1739276052 0.6251273751 4285500622
-0.3074624836 -0.1732735634 0.6252735853 4285501388
-0.3071058393 -0.1723786592 0.6245483160 4285764560
-0.3071771860 -0.1717246175 0.6246933937 4285896914
-0.3068197668 -0.1708315313 0.6239665151 4285765328
-0.3068905175 -0.1701775044 0.6241104007 4286159318
-0.3065323234 -0.1692862511 0.6233819723 4286225111
-0.3066025078 -0.1686322391 0.6235247254 4286421977
-0.3062435389 -0.1677428335 0.6227946877 4286421977
-0.3063131571 -0.1670888364 0.6229362488 4286159318
-0.3059534132 -0.1662012935 0.6222046614 4286093525
-0.3055932522 -0.1653151363 0.6214721799 4285896662
-0.3056619465 -0.1646616310 0.6216118932 4285567697
-0.3053009808 -0.1637773514 0.6208778620 4286620385
-0.3049395978 -0.1628944725 0.6201429367 4287146729
-0.3050073683 -0.1622414887 0.6202807426 4286159835
-0.3050749004 -0.1615880877 0.6204180717 4285633491
-0.3047124147 -0.1607075781 0.6196808815 4285173197
-0.3047793806 -0.1600542217 0.6198170781 4284778439
-0.3044161201 -0.1591756195 0.6190782785 4284975818
-0.3044824898 -0.1585223377 0.6192132831 4285107404
-0.3049787581 -0.1580916047 0.6202225685 4286028508
-0.3050447404 -0.1574365348 0.6203566790 4285765336
-0.3051104546 -0.1567810476 0.6204903722 4285831129
-0.3051759303 -0.1561251432 0.6206235290 4285962715
-0.3056716919 -0.1556880921 0.6216317415 4285831129
-0.3057367802 -0.1550304145 0.6217641234 4285370578
-0.3062323332 -0.1545897424 0.6227718592 4285172688
-0.3062970042 -0.1539303064 0.6229033470 4285370067
-0.3067923188 -0.1534860134 0.6239106655 4284975561
-0.3068565726 -0.1528248042 0.6240413785 4285370319
-0.3069205880 -0.1521631926 0.6241715550 4286225877
-0.3065531850 -0.1512883753 0.6234244108 4288002288
-0.3061853647 -0.1504150182 0.6226763725 4288792053
-0.3058170974 -0.1495431066 0.6219274402 4289252604
-0.3050169945 -0.1484626532 0.6203002930 4288923893
-0.3042162955 -0.1473855227 0.6186719537 4289187065
-0.3034149706 -0.1463117301 0.6170423031 4289449209
-0.3026130497 -0.1452412605 0.6154115200 4289515002
-0.3018105328 -0.1441741437 0.6137794256 4289712638
-0.3010074198 -0.1431103498 0.6121461987 4289581052
-0.3010675907 -0.1424586922 0.6122685671 4288330985
-0.3006955087 -0.1416031867 0.6115118861 4286488781
-0.3003229797 -0.1407491714 0.6107542515 4286554315
-0.3003822267 -0.1400982141 0.6108747721 4288199140
-0.3008735478 -0.1396475285 0.6118739247 4288594411
-0.3009323776 -0.1389948577 0.6119935513 4288462825
-0.3009909689 -0.1383418292 0.6121127009 4287936995
-0.3010492921 -0.1376883984 0.6122313738 4287213272
-0.3015399873 -0.1372314841 0.6132292747 4287739616
-0.3015979230 -0.1365763694 0.6133470535 4287739616
-0.3020883501 -0.1361158788 0.6143444180 4287804893
-0.3021458387 -0.1354590803 0.6144613624 4287870686
-0.3026360273 -0.1349950135 0.6154581904 4288000724
-0.3031260967 -0.1345286965 0.6164548397 4287869138
-0.3031829596 -0.1338688880 0.6165705323 4287213785
-0.3032395840 -0.1332087070 0.6166856289 4287016406
-0.3028626740 -0.1323587894 0.6159191132 4286295253
-0.3033520281 -0.1318872273 0.6169143319 4286163667
-0.3034078777 -0.1312259436 0.6170278788 4286033110
-0.3034634590 -0.1305642873 0.6171408892 4286033110
-0.3030851483 -0.1297166944 0.6163716316 4286623966
-0.3031401336 -0.1290552765 0.6164833903 4286689759
-0.3031948507 -0.1283934861 0.6165946722 4286755293
-0.3036831319 -0.1279140711 0.6175876856 4286886879
-0.3046052158 -0.1276142001 0.6194629073 4287347679
-0.3055273592 -0.1273101717 0.6213381886 4287676644
-0.3064495325 -0.1270020008 0.6232135892 4287611104
-0.3073717356 -0.1266896725 0.6250890493 4287347932
-0.3078597784 -0.1261952072 0.6260815859 4287937508
-0.3087820113 -0.1258755326 0.6279570460 4287871715
-0.3097042441 -0.1255517006 0.6298325658 4288068833
-0.3101920784 -0.1250485629 0.6308246255 4288068833
-0.3102452755 -0.1243690029 0.6309328079 4288331490
-0.3107327819 -0.1238623187 0.6319242716 4288331490
-0.3116548359 -0.1235256642 0.6337993741 4288134111
-0.3121421635 -0.1230135262 0.6347904801 4288068318
-0.3126293719 -0.1224991307 0.6357812881 4289053923
-0.3135513365 -0.1221519038 0.6376562119 4289777646
-0.3149082661 -0.1219689846 0.6404157877 4291486458
-0.3158303201 -0.1216124818 0.6422908902 4291354872
-0.3158821762 -0.1209186986 0.6423963904 4290235363
-0.3159337640 -0.1202245802 0.6425012946 4290366949
-0.3164203167 -0.1196947694 0.6434907317 4291617017
-0.3160361052 -0.1188353300 0.6427093744 4291222259
-0.3156514466 -0.1179774702 0.6419271827 4292535536
-0.3006161749 -0.1956688762 0.6127345562 4291088353
-0.3006955087 -0.1950395405 0.6128962040 4290890974
-0.3007746339 -0.1944097131 0.6130574942 4291351008
-0.3012772799 -0.1940523088 0.6140819788 4290758871
-0.3013560772 -0.1934205890 0.6142426133 4290955999
-0.3014346361 -0.1927883923 0.6144027710 4289969104
-0.3015130162 -0.1921556890 0.6145625114 4288198630
-0.3020153344 -0.1917918622 0.6155864000 4286553805
-0.3020933867 -0.1911572814 0.6157454848 4281100213
-0.3021712005 -0.1905222088 0.6159040928 4279586974
-0.3026733100 -0.1901533455 0.6169275045 4279392691
-0.3031754196 -0.1897822022 0.6179509759 4279655863
-0.3032528162 -0.1891438812 0.6181086898 4280049340
-0.3037548065 -0.1887690872 0.6191318631 4280115133
-0.3042567670 -0.1883919984 0.6201550364 4280575174
-0.3039086461 -0.1874882132 0.6194455028 4280706760
-0.3044103980 -0.1871083677 0.6204681993 4280772553
-0.3044869006 -0.1864658147 0.6206240654 4281167311
-0.3045631349 -0.1858227849 0.6207795143 4280903881
-0.3046391904 -0.1851792634 0.6209344864 4280574916
-0.3047149777 -0.1845352799 0.6210889816 4280903877
-0.3043648601 -0.1836339682 0.6203753352 4280903877
-0.3040143251 -0.1827339828 0.6196608543 4280640705
-0.3040892482 -0.1820903569 0.6198135614 4278403743
-0.3041639328 -0.1814462543 0.6199657917 4279588532
-0.3038122654 -0.1805484444 0.6192490458 4280838599
-0.3038864136 -0.1799042970 0.6194000840 4281231813
-0.3039602935 -0.1792596877 0.6195507050 4280837055
-0.3036075532 -0.1783640832 0.6188317537 4281098685
-0.3041073978 -0.1779690385 0.6198505759 4280835513
-0.3041805923 -0.1773230135 0.6199997663 4281294261
-0.3042535782 -0.1766765267 0.6201484799 4282149570
-0.3047531545 -0.1762764603 0.6211667657 4283332550
-0.3048257530 -0.1756281257 0.6213147640 4284319445
-0.3053251505 -0.1752244085 0.6223326921 4285634520
-0.3053973913 -0.1745742559 0.6224799156 4285831899
-0.3058966398 -0.1741668880 0.6234974861 4285830867
-0.3059685230 -0.1735148877 0.6236439943 4285370316
-0.3060401678 -0.1728624403 0.6237900257 4285303756
-0.3061115742 -0.1722095311 0.6239355803 4285369549
-0.3057551086 -0.1713165641 0.6232089996 4285567193
-0.3058259189 -0.1706636697 0.6233533621 4285698779
-0.3058965206 -0.1700103134 0.6234972477 4286026706
-0.3055389524 -0.1691196412 0.6227684021 4285829327
-0.3056089580 -0.1684662998 0.6229111552 4285895120
-0.3056787252 -0.1678124964 0.6230533719 4286026706
-0.3057482839 -0.1671582609 0.6231951118 4286092499
-0.3053892553 -0.1662703753 0.6224632859 4286289878
-0.3050298095 -0.1653838754 0.6217306256 4286751455
-0.3050984144 -0.1647301465 0.6218705177 4287212006
-0.3047381938 -0.1638455242 0.6211363077 4287475178
-0.3048062325 -0.1631918252 0.6212749481 4288198901
-0.3048740327 -0.1625376940 0.6214131713 4287475692
-0.3045127094 -0.1616554409 0.6206766963 4287278313
-0.3041509390 -0.1607745886 0.6199393272 4286620383
-0.3042178154 -0.1601209939 0.6200756431 4286225625
-0.3042844534 -0.1594669819 0.6202114820 4286226138
-0.3043508530 -0.1588125229 0.6203467846 4286291931
-0.3044170141 -0.1581576467 0.6204816103 4286423006
-0.3044829071 -0.1575023383 0.6206159592 4286094041
-0.3045485914 -0.1568465978 0.6207497716 4285896663
-0.3046140075 -0.1561904401 0.6208831072 4285699284
-0.3046791553 -0.1555338651 0.6210159659 4285567444
-0.3051739037 -0.1550953090 0.6220243573 4285567444
-0.3052386642 -0.1544369757 0.6221563816 4285632723
-0.3057332039 -0.1539947987 0.6231643558 4285698516
-0.3057975471 -0.1533346921 0.6232955456 4287146211
-0.3058616519 -0.1526741683 0.6234261990 4287935727
-0.3059255183 -0.1520132273 0.6235563755 4288462574
-0.3059891462 -0.1513518691 0.6236860156 4290107391
-0.3051915765 -0.1502662301 0.6220604181 4290502655
-0.3048239648 -0.1493948996 0.6213111281 4290963199
-0.3040252924 -0.1483149529 0.6196832061 4290962943
-0.3032260239 -0.1472383440 0.6180540919 4290305019
-0.3024261594 -0.1461650431 0.6164237261 4288067556
-0.3016256690 -0.1450950950 0.6147921085 4286883282
-0.3012555838 -0.1442348212 0.6140378118 4287080918
-0.3008850515 -0.1433760226 0.6132825613 4287607262
-0.3009452522 -0.1427231729 0.6134052873 4286751953
-0.3005739748 -0.1418664008 0.6126485467 4286028230
-0.3002022803 -0.1410111040 0.6118909121 4287080918
-0.3002615571 -0.1403589696 0.6120117307 4288659950
-0.3003205955 -0.1397064328 0.6121320724 4288134376
-0.3008109629 -0.1392533183 0.6131315231 4288397548
-0.3008695543 -0.1385990828 0.6132510304 4288004073
-0.3009279370 -0.1379444748 0.6133699417 4287082971
-0.3009860218 -0.1372894794 0.6134883761 4288004073
-0.3010438681 -0.1366340965 0.6136063337 4288201452
-0.3015334606 -0.1361734420 0.6146042347 4288069866
-0.3015908897 -0.1355163753 0.6147212982 4287280350
-0.3020802140 -0.1350521445 0.6157186627 4287279576
-0.3025694489 -0.1345856488 0.6167158484 4287016404
-0.3030585945 -0.1341169029 0.6177128553 4286491100
-0.3031152487 -0.1334555149 0.6178282499 4286293721
-0.3027391434 -0.1326043308 0.6170616746 4286360796
-0.3027951717 -0.1319431514 0.6171758771 4286755554
-0.3024183214 -0.1310940534 0.6164077520 4286952923
-0.3024737537 -0.1304330826 0.6165207624 4287150302
-0.3020961285 -0.1295861006 0.6157510877 4287412706
-0.3021509647 -0.1289253682 0.6158628464 4287544292
-0.3026385009 -0.1284480244 0.6168565750 4287609826
-0.3031259477 -0.1279684305 0.6178501248 4287544033
-0.3036132753 -0.1274865717 0.6188433766 4287674587
-0.3045336902 -0.1271833926 0.6207194328 4287477208
-0.3058874011 -0.1270560175 0.6234786510 4287739100
-0.3068079650 -0.1267435849 0.6253550649 4288068065
-0.3072951734 -0.1262489259 0.6263480783 4287674083
-0.3082157373 -0.1259291321 0.6282244325 4287871462
-0.3091363311 -0.1256051809 0.6301008463 4287805922
-0.3096233010 -0.1251018494 0.6310934424 4287608543
-0.3101101816 -0.1245962754 0.6320858002 4287938276
-0.3105969131 -0.1240884364 0.6330779195 4288004069
-0.3110835254 -0.1235783547 0.6340697408 4287477979
-0.3115700185 -0.1230660081 0.6350613236 4287675358
-0.3124903738 -0.1227218658 0.6369372606 4288529119
-0.3134107888 -0.1223735511 0.6388132572 4288989670
-0.3143311739 -0.1220210791 0.6406893134 4291026935
-0.3148173392 -0.1214968562 0.6416802406 4291092728
-0.3153033853 -0.1209703833 0.6426709294 4289775844
-0.3149205446 -0.1201103106 0.6418905854 4290039016
-0.3149717450 -0.1194165349 0.6419949532 4291288831
-0.3145881295 -0.1185586601 0.6412130594 4290236144
-0.3137695193 -0.1175395697 0.6395444870 4291680743
-0.2988683581 -0.1942942441 0.6105542183 4290825955
-0.2993699014 -0.1939407885 0.6115788221 4290365143
-0.2994484901 -0.1933120340 0.6117393970 4289707213
-0.2999499440 -0.1929549128 0.6127637625 4288786629
-0.3000282347 -0.1923242658 0.6129236817 4287668148
-0.3001062870 -0.1916931272 0.6130831838 4285698745
-0.3006075323 -0.1913309842 0.6141071320 4285303987
-0.3006852567 -0.1906979680 0.6142659783 4283795394
-0.3011864126 -0.1903321594 0.6152896881 4282742706
-0.3016875386 -0.1899640858 0.6163134575 4280510663
-0.3017648458 -0.1893278062 0.6164714098 4279721147
-0.3022658527 -0.1889560670 0.6174948812 4279195061
-0.3023428321 -0.1883179247 0.6176521182 4279326647
-0.3024195731 -0.1876793057 0.6178089380 4279589308
-0.3029203415 -0.1873025149 0.6188319921 4279852480
-0.3034211397 -0.1869234592 0.6198549867 4280312514
-0.3034974337 -0.1862815768 0.6200108528 4280378307
-0.3031489253 -0.1853795946 0.6192989349 4280837570
-0.3032246530 -0.1847376525 0.6194536090 4280705984
-0.3033001721 -0.1840952188 0.6196079254 4280705471
-0.3033754528 -0.1834523231 0.6197617054 4281100229
-0.3030255139 -0.1825529039 0.6190468073 4280837316
-0.3026751578 -0.1816548258 0.6183310747 4279850421
-0.3027495444 -0.1810122877 0.6184830070 4279719607
-0.3028237224 -0.1803692877 0.6186345816 4280509123
-0.3024722338 -0.1794734001 0.6179165244 4280510145
-0.3025458455 -0.1788303554 0.6180669069 4280510145
-0.3026192486 -0.1781868488 0.6182168126 4281166020
-0.3026923835 -0.1775428802 0.6183663011 4281231813
-0.3031911552 -0.1771472394 0.6193851829 4281755847
-0.3032639325 -0.1765014231 0.6195338964 4281821640
-0.3033365011 -0.1758551449 0.6196821332 4281754560
-0.3034088314 -0.1752084047 0.6198298931 4281688767
-0.3039071858 -0.1748063713 0.6208479404 4282608830
-0.3039791286 -0.1741577983 0.6209949851 4283398346
-0.3044773042 -0.1737521142 0.6220126748 4284317638
-0.3045489192 -0.1731017083 0.6221589446 4284778189
-0.3050469160 -0.1726923734 0.6231763363 4285764560
-0.3051181436 -0.1720401496 0.6233218312 4286027732
-0.3047623038 -0.1711477488 0.6225948930 4285830353
-0.3048329651 -0.1704955250 0.6227391958 4285961939
-0.3049033880 -0.1698428392 0.6228830814 4285895641
-0.3045464158 -0.1689527482 0.6221538782 4285895641
-0.3046162724 -0.1683000773 0.6222965717 4286027481
-0.3046858907 -0.1676469594 0.6224387288 4285961688
-0.3047552407 -0.1669934094 0.6225804687 4285699284
-0.3043968678 -0.1661061049 0.6218482852 4285765077
-0.3044656515 -0.1654525697 0.6219888330 4285897173
-0.3041064739 -0.1645671278 0.6212550998 4286028759
-0.3041746914 -0.1639136225 0.6213944554 4286489302
-0.3038147688 -0.1630300730 0.6206591725 4287805162
-0.3038823903 -0.1623766124 0.6207973361 4288791028
-0.3039498031 -0.1617227197 0.6209350228 4288725235
-0.3035887480 -0.1608415395 0.6201974154 4288527345
-0.3032272756 -0.1599617749 0.6194589734 4287803622
-0.3032937646 -0.1593084186 0.6195948124 4287605992
-0.3037884533 -0.1588787436 0.6206054688 4287079648
-0.3038545549 -0.1582236141 0.6207404733 4285961939
-0.3039203882 -0.1575680673 0.6208749413 4285764560
-0.3039859831 -0.1569120884 0.6210089326 4285633237
-0.3040513396 -0.1562556773 0.6211424470 4285567444
-0.3041164279 -0.1555988640 0.6212754250 4285501653
-0.3041813076 -0.1549416184 0.6214079261 4285435860
-0.3046750128 -0.1545015574 0.6224165559 4285568210
-0.3047394753 -0.1538425386 0.6225482225 4286094554
-0.3048036695 -0.1531831175 0.6226794124 4288463092
-0.3048676252 -0.1525232643 0.6228100657 4289778943
-0.3045018613 -0.1516491175 0.6220628023 4290305023
-0.3045652211 -0.1509893835 0.6221922636 4290436607
-0.3041986823 -0.1501171887 0.6214434505 4290961663
-0.3038317263 -0.1492464691 0.6206938028 4291093247
-0.3030344844 -0.1481670290 0.6190651059 4290894585
-0.3026665747 -0.1473001391 0.6183135509 4290894585
-0.3018682301 -0.1462264359 0.6166825891 4288134377
-0.3014993668 -0.1453634202 0.6159290671 4286489552
-0.3011300862 -0.1445018649 0.6151746511 4287345373
-0.3007603884 -0.1436417997 0.6144194007 4288332268
-0.3008206189 -0.1429877728 0.6145424843 4287082201
-0.3008806109 -0.1423333436 0.6146650314 4286226892
-0.3005098104 -0.1414758414 0.6139075160 4287410654
-0.3001385927 -0.1406198293 0.6131491661 4288923893
-0.3001976609 -0.1399661005 0.6132698059 4288266475
-0.3006872535 -0.1395118833 0.6142699718 4287871717
-0.3007458746 -0.1388564557 0.6143897772 4287938280
-0.3008042574 -0.1382006407 0.6145090461 4288069866
-0.3008624017 -0.1375444531 0.6146277785 4287938278
-0.3009202778 -0.1368878931 0.6147460341 4288267243
-0.3009778857 -0.1362309456 0.6148637533 4288069096
-0.3014665544 -0.1357678622 0.6158620119 4286687443
-0.3015237451 -0.1351092160 0.6159788370 4285964488
-0.3015806675 -0.1344501972 0.6160951853 4286030281
-0.3025003970 -0.1341736168 0.6179740429 4286491092
-0.3025569916 -0.1335119754 0.6180896759 4287214815
-0.3021816313 -0.1326604486 0.6173228025 4287478246
-0.3018058240 -0.1318104416 0.6165551543 4287741418
-0.3018614650 -0.1311495751 0.6166688204 4288135404
-0.3014849424 -0.1303016692 0.6158995628 4287872232
-0.3011079729 -0.1294552982 0.6151295304 4287871717
-0.3011626899 -0.1287952363 0.6152412891 4287740131
-0.3016493022 -0.1283186674 0.6162353754 4287740899
-0.3025680482 -0.1280227154 0.6181122661 4287740899
-0.3030545115 -0.1275406927 0.6191060543 4287675104
-0.3039732873 -0.1272373945 0.6209830046 4287740897
-0.3053245544 -0.1271099895 0.6237435341 4287675358
-0.3062434793 -0.1267974377 0.6256207824 4287806944
-0.3071624339 -0.1264807284 0.6274980903 4288068832
-0.3076487482 -0.1259826720 0.6284915209 4288332004
-0.3085677028 -0.1256586015 0.6303688288 4288069862
-0.3094866872 -0.1253303736 0.6322462559 4288135655
-0.3099727631 -0.1248236448 0.6332392693 4288068584
-0.3104587197 -0.1243146583 0.6342319846 4288002791
-0.3105114996 -0.1236309931 0.6343398094 4287740131
-0.3109971285 -0.1231184453 0.6353319287 4288003303
-0.3119158447 -0.1227741688 0.6372087598 4288069599
-0.3124012947 -0.1222561672 0.6382004619 4288530150
-0.3133199811 -0.1219045147 0.6400772333 4290566902
-0.3133718073 -0.1212133840 0.6401830912 4290961660
-0.3134233654 -0.1205219179 0.6402884126 4290302711
-0.3134746253 -0.1198301092 0.6403931379 4289842160
-0.3130919635 -0.1189731807 0.6396114230 4288991738
-0.3127088845 -0.1181178316 0.6388288736 4288004843
-0.3118916154 -0.1171011999 0.6371592879 4291286498
-0.2974672019 -0.1938231289 0.6090737581 4291023077
-0.2975455821 -0.1931973100 0.6092342734 4290298841
-0.2980459332 -0.1928441525 0.6102587581 4289443532
-0.2981240153 -0.1922164559 0.6104186177 4288128448
-0.2986242771 -0.1918596327 0.6114429235 4286878381
-0.2987020314 -0.1912300587 0.6116021276 4285303217
-0.2992021739 -0.1908695847 0.6126261950 4285303217
-0.2992796302 -0.1902381331 0.6127847433 4284320960
-0.2997796535 -0.1898740083 0.6138086319 4283728823
-0.3002797067 -0.1895076036 0.6148324609 4282678992
-0.3003567159 -0.1888729036 0.6149901152 4282152648
-0.3008566499 -0.1885028332 0.6160137653 4281299146
-0.3009333014 -0.1878662705 0.6161707640 4280641216
-0.3010097742 -0.1872292161 0.6163272858 4279261370
-0.3015094697 -0.1868541092 0.6173504591 4278537647
-0.3015855849 -0.1862151772 0.6175063252 4278538162
-0.3020851612 -0.1858364195 0.6185292006 4278867127
-0.3017371595 -0.1849358976 0.6178166270 4279852478
-0.3018125892 -0.1842955202 0.6179711223 4280378822
-0.3018878400 -0.1836546808 0.6181251407 4280771525
-0.3019628227 -0.1830133498 0.6182787418 4280508353
-0.3020375967 -0.1823715419 0.6184318066 4280507840
-0.3021121323 -0.1817292720 0.6185844541 4280376254
-0.3013376296 -0.1805778444 0.6169986129 4280310461
-0.3014115095 -0.1799364239 0.6171498895 4280376254
-0.3014851809 -0.1792945266 0.6173006892 4280376767
-0.3015586138 -0.1786521673 0.6174510717 4280310974
-0.3016318083 -0.1780093312 0.6176009178 4280507840
-0.3017047942 -0.1773660332 0.6177503467 4280376254
-0.3017775416 -0.1767222732 0.6178992987 4280375484
-0.3022751808 -0.1763260365 0.6189182997 4280572863
-0.3023475707 -0.1756804436 0.6190664768 4280835265
-0.3024197221 -0.1750343740 0.6192142367 4280966851
-0.3024916649 -0.1743878424 0.6193615198 4281491646
-0.3029888868 -0.1739852279 0.6203796268 4281886404
-0.3030604422 -0.1733368635 0.6205261350 4282214331
-0.3031317890 -0.1726880521 0.6206721663 4282082745
-0.3032028675 -0.1720387787 0.6208177209 4282608311
-0.3036996722 -0.1716297567 0.6218349934 4283332034
-0.3037703931 -0.1709786654 0.6219797730 4284318927
-0.3038408756 -0.1703271121 0.6221240759 4285108443
-0.3039111197 -0.1696751118 0.6222679615 4285699545
-0.3035548031 -0.1687856019 0.6215383410 4285765338
-0.3036244810 -0.1681336015 0.6216809750 4286028246
-0.3036939204 -0.1674811691 0.6218231916 4286225625
-0.3033364713 -0.1665939689 0.6210913062 4286422486
-0.3034053445 -0.1659415662 0.6212323308 4286422486
-0.3030471504 -0.1650562286 0.6204988956 4286356947
-0.3031154275 -0.1644038409 0.6206387281 4286225361
-0.3031834662 -0.1637510210 0.6207780242 4286356436
-0.3032512963 -0.1630977690 0.6209169030 4287869675
-0.3033188581 -0.1624440700 0.6210552454 4288790262
-0.3029588759 -0.1615620703 0.6203181744 4288658676
-0.3030258715 -0.1609084159 0.6204553246 4288790517
-0.3026651144 -0.1600283086 0.6197167039 4288658931
-0.3027315140 -0.1593747288 0.6198526621 4288461548
-0.3032253683 -0.1589448899 0.6208638549 4287606239
-0.3028636277 -0.1580662578 0.6201231480 4286356947
-0.3033571541 -0.1576337218 0.6211336851 4285962189
-0.3034226894 -0.1569775045 0.6212678552 4285633488
-0.3034879863 -0.1563208550 0.6214014888 4285501902
-0.3035530150 -0.1556637883 0.6215347052 4285436369
-0.3036178052 -0.1550062895 0.6216673255 4285633748
-0.3041106761 -0.1545660794 0.6226764917 4285633999
-0.3041750491 -0.1539068222 0.6228083372 4285633999
-0.3042392135 -0.1532471329 0.6229396462 4286884060
-0.3043030798 -0.1525870413 0.6230704784 4287805162
-0.3035093546 -0.1514985710 0.6214452982 4288002021
-0.3031437993 -0.1506264657 0.6206967831 4287936228
-0.3027777970 -0.1497558057 0.6199474335 4288263652
-0.3024113774 -0.1488866061 0.6191971898 4288395238
-0.3020445406 -0.1480188519 0.6184460521 4288788967
-0.3016772866 -0.1471525729 0.6176940799 4289710069
-0.3013095856 -0.1462877542 0.6169412136 4288528364
-0.3009414673 -0.1454243958 0.6161874533 4287212504
-0.3005729318 -0.1445625126 0.6154328585 4287213274
-0.3006334305 -0.1439076960 0.6155567765 4288134376
-0.3006936908 -0.1432524770 0.6156801581 4288331755
-0.3007537127 -0.1425968558 0.6158030033 4288463341
-0.3003837168 -0.1417380869 0.6150454879 4288792306
-0.3004431427 -0.1410826296 0.6151671410 4289055478
-0.3005023301 -0.1404267848 0.6152882576 4288989685
-0.3005612493 -0.1397705525 0.6154088974 4288331755
-0.3006199002 -0.1391139328 0.6155290604 4287937508
-0.3006783128 -0.1384569407 0.6156486273 4287871715
-0.3007364571 -0.1377995461 0.6157677174 4287871715
-0.3007943630 -0.1371417940 0.6158862710 4288266473
-0.3008520007 -0.1364836395 0.6160042882 4287937510
-0.3009094000 -0.1358251274 0.6161217690 4286753236
-0.3013971150 -0.1353596002 0.6171203852 4285833162
-0.3018847108 -0.1348918080 0.6181187630 4286096334
-0.3019414842 -0.1342302859 0.6182350516 4286688730
-0.3019980192 -0.1335683763 0.6183508039 4287544039
-0.3016234040 -0.1327165067 0.6175837517 4287873258
-0.3012483418 -0.1318661571 0.6168158054 4287939051
-0.3008728921 -0.1310173422 0.6160470247 4288004330
-0.3009281456 -0.1303568035 0.6161601543 4287741158
-0.3005519211 -0.1295100898 0.6153898835 4287740899
-0.3006065786 -0.1288497746 0.6155017614 4287675106
-0.3010923266 -0.1283730119 0.6164963841 4287872485
-0.3015779853 -0.1278939992 0.6174907684 4287806692
-0.3024950624 -0.1275947541 0.6193684936 4287806692
-0.3034121692 -0.1272913516 0.6212462783 4288004071
-0.3047609925 -0.1271639019 0.6240080595 4287872483
-0.3056782782 -0.1268512458 0.6258862019 4287872483
-0.3065955937 -0.1265344173 0.6277644634 4287609311
-0.3075129390 -0.1262134314 0.6296427250 4288201448
-0.3079983294 -0.1257119775 0.6306366324 4288727024
-0.3084836006 -0.1252082586 0.6316302419 4288529645
-0.3094008863 -0.1248767003 0.6335083842 4287607262
-0.3098860085 -0.1243675128 0.6345016956 4286949332
-0.3099387288 -0.1236835718 0.6346096396 4287081946
-0.3104234934 -0.1231708303 0.6356022358 4287739876
-0.3109081686 -0.1226558313 0.6365945935 4287412193
-0.3113926947 -0.1221385822 0.6375866532 4287609572
-0.3118770719 -0.1216190681 0.6385784745 4288859639
-0.3119287193 -0.1209295765 0.6386842132 4289122811
-0.3115473688 -0.1200729832 0.6379033923 4287675629
-0.3115983605 -0.1193837672 0.6380078197 4286228183
-0.3112162650 -0.1185293645 0.6372253895 4285638880
-0.3108337224 -0.1176765338 0.6364421844 4285375708
-0.3100177944 -0.1166623607 0.6347715259 4291155680
-0.2961466014 -0.1927272379 0.6077519059 4290364895
-0.2966458499 -0.1923757493 0.6087765098 4289970137
-0.2971451283 -0.1920219809 0.6098010540 4289378776
-0.2984875739 -0.1922089159 0.6125560403 4288852432
-0.2973002493 -0.1907664537 0.6101194024 4287539919
-0.2977993190 -0.1904076636 0.6111435890 4286947782
-0.2978764474 -0.1897777766 0.6113018990 4285503684
-0.2983753979 -0.1894153357 0.6123258471 4284648375
-0.2988743484 -0.1890505999 0.6133497953 4284320713
-0.2993732989 -0.1886835992 0.6143737435 4284254920
-0.2994499207 -0.1880490929 0.6145309806 4283534293
-0.2995262742 -0.1874140948 0.6146876812 4283205328
-0.2996024489 -0.1867786050 0.6148439646 4282155997
-0.2996783853 -0.1861426383 0.6149998307 4281761239
-0.3001768887 -0.1857678294 0.6160228252 4280578258
-0.3006753623 -0.1853907406 0.6170458794 4279393984
-0.3007508516 -0.1847515404 0.6172007918 4278998200
-0.3004030287 -0.1838528961 0.6164869070 4278932407
-0.3004779518 -0.1832136214 0.6166406870 4279456695
-0.3005526662 -0.1825738847 0.6167940497 4279719867
-0.3006271422 -0.1819336563 0.6169468760 4280244669
-0.3007014096 -0.1812929511 0.6170992851 4280178876
-0.3003518283 -0.1803973317 0.6163818240 4280178106
-0.3004255295 -0.1797565967 0.6165331006 4280243899
-0.3004989922 -0.1791153848 0.6166839004 4280374974
-0.3005722463 -0.1784736961 0.6168342233 4280177595
-0.3002212346 -0.1775807142 0.6161138415 4280178106
-0.3002939224 -0.1769390106 0.6162630320 4280178106
-0.3003664017 -0.1762968302 0.6164117455 4279981497
-0.3008629680 -0.1759022772 0.6174308658 4280113083
-0.3009350896 -0.1752582639 0.6175788045 4280178622
-0.3010069728 -0.1746137887 0.6177263260 4279981243
-0.3010786176 -0.1739688516 0.6178733706 4280440765
-0.3015747666 -0.1735679060 0.6188915968 4280703937
-0.3016460538 -0.1729211509 0.6190379262 4281097406
-0.3017171025 -0.1722739190 0.6191837192 4280702648
-0.3022129834 -0.1718679667 0.6202013493 4280505004
-0.3022836745 -0.1712189168 0.6203464270 4280833969
-0.3023541272 -0.1705694050 0.6204909682 4281689276
-0.3024243414 -0.1699194461 0.6206350923 4282347206
-0.3024943173 -0.1692690402 0.6207786798 4283200446
-0.3025640547 -0.1686181724 0.6209217906 4283924169
-0.3022079170 -0.1677306145 0.6201909184 4285173969
-0.3022770882 -0.1670797765 0.6203328967 4286029278
-0.3023460209 -0.1664284915 0.6204743385 4286620637
-0.3024147153 -0.1657767594 0.6206153631 4286686430
-0.3020571470 -0.1648920029 0.6198815107 4286817497
-0.3021252751 -0.1642403007 0.6200213432 4286751704
-0.3017669320 -0.1633574367 0.6192859411 4287080156
-0.3022607863 -0.1629355848 0.6202994585 4287540707
-0.3023281991 -0.1622825712 0.6204378009 4287606243
-0.3023953438 -0.1616291106 0.6205756068 4287343071
-0.3020356596 -0.1607481837 0.6198374629 4287803622
-0.3021022677 -0.1600947827 0.6199740767 4288395759
-0.3021686077 -0.1594409496 0.6201102734 4288922614
-0.3022347093 -0.1587866992 0.6202458739 4288791028
-0.3018735647 -0.1579086483 0.6195048094 4287935979
-0.3023661673 -0.1574768871 0.6205157042 4287343842
-0.3024315238 -0.1568213403 0.6206498742 4286686430
-0.3020693958 -0.1559448093 0.6199066639 4286160086
-0.3025615215 -0.1555089951 0.6209166646 4285765587
-0.3026261628 -0.1548521817 0.6210492849 4285897173
-0.3026905656 -0.1541949511 0.6211814284 4285831119
-0.3027547002 -0.1535373032 0.6213130355 4285436361
-0.3028185964 -0.1528792381 0.6214441657 4285896395
-0.3028822243 -0.1522207558 0.6215747595 4286159567
-0.3025177419 -0.1513477862 0.6208267808 4285961929
-0.3021528125 -0.1504762620 0.6200778484 4286093515
-0.3017874658 -0.1496061981 0.6193280816 4286224590
-0.3014217019 -0.1487375945 0.6185774803 4286224590
-0.3010554910 -0.1478704363 0.6178259850 4286684116
-0.3006888926 -0.1470047534 0.6170735955 4287934183
-0.3007502556 -0.1463489980 0.6171995401 4288331756
-0.3003828824 -0.1454853117 0.6164456010 4288002791
-0.3004436493 -0.1448297054 0.6165703535 4288200170
-0.3000755012 -0.1439680308 0.6158148050 4288594928
-0.3005644679 -0.1435172856 0.6168182492 4288397549
-0.3006245196 -0.1428604871 0.6169414520 4287805412
-0.3002553582 -0.1420004368 0.6161838770 4287673826
-0.3003148139 -0.1413437873 0.6163058877 4288068584
-0.3003740013 -0.1406867504 0.6164273620 4288266220
-0.3000037372 -0.1398292929 0.6156675220 4287542497
-0.3000623584 -0.1391724199 0.6157878041 4287016153
-0.3001207113 -0.1385151595 0.6159075499 4286950360
-0.3001787961 -0.1378575265 0.6160267591 4287213532
-0.3002366424 -0.1371995062 0.6161454916 4287542497
-0.3002942204 -0.1365411133 0.6162636876 4287279325
-0.3012109399 -0.1362711340 0.6181449294 4286621395
-0.3012681603 -0.1356100887 0.6182624102 4286030289
-0.3013251424 -0.1349486709 0.6183793545 4286161875
-0.3013818860 -0.1342868954 0.6184957623 4286754266
-0.3014383614 -0.1336247325 0.6186116338 4287609575
-0.3010644615 -0.1327725202 0.6178443432 4288003818
-0.3006901741 -0.1319218278 0.6170762181 4288003818
-0.3007456958 -0.1312604547 0.6171901822 4287938278
-0.3003706336 -0.1304118782 0.6164205074 4287806692
-0.3004255891 -0.1297507137 0.6165332198 4287675106
-0.3004802465 -0.1290891916 0.6166454554 4287675106
-0.3009652495 -0.1286112964 0.6176407337 4287938278
-0.3014501035 -0.1281311512 0.6186357737 4287806692
-0.3023656011 -0.1278308481 0.6205145717 4287675108
-0.3032811582 -0.1275263876 0.6223934293 4287938280
-0.3041967154 -0.1272177696 0.6242723465 4288003303
-0.3051123321 -0.1269049793 0.6261513829 4288003303
-0.3060280085 -0.1265880466 0.6280305386 4287872745
-0.3069436848 -0.1262669414 0.6299096942 4287938538
-0.3074282408 -0.1257652938 0.6309040785 4288200170
-0.3079126775 -0.1252613813 0.6318982244 4287476447
-0.3083969653 -0.1247552186 0.6328921318 4286358225
-0.3088811636 -0.1242467910 0.6338857412 4286424018
-0.3093652129 -0.1237361059 0.6348791718 4286622686
-0.3098491430 -0.1232231632 0.6358723044 4285767377
-0.3099013269 -0.1225373000 0.6359793544 4284387786
-0.3099532425 -0.1218510866 0.6360859275 4283927235
-0.3100048900 -0.1211645380 0.6361919045 4283995859
-0.3100562692 -0.1204776391 0.6362972856 4284851168
-0.3096754551 -0.1196235642 0.6355158091 4284326116
-0.3092942238 -0.1187710613 0.6347334385 4283799772
-0.3089125752 -0.1179201454 0.6339502335 4284456937
-0.3085305095 -0.1170708090 0.6331661344 4284720109
-0.3077158332 -0.1160600483 0.6314942837 4291418852
-0.2947500944 -0.1922566295 0.6062678695 4290957030
-0.2952482700 -0.1919068098 0.6072925329 4290693858
-0.2953257263 -0.1912822425 0.6074519157 4290365671
-0.2958237827 -0.1909287870 0.6084763408 4290168292
-0.2963218689 -0.1905730367 0.6095008254 4289315301
-0.2963989079 -0.1899452209 0.6096593142 4288920543
-0.2964757681 -0.1893169135 0.6098173857 4287936220
-0.2969736159 -0.1889561415 0.6108414531 4287344083
-0.2974714935 -0.1885930896 0.6118654609 4287015379
-0.2979693413 -0.1882277727 0.6128895283 4286291656
-0.2980456650 -0.1875948310 0.6130464673 4284913099
-0.2981217206 -0.1869613975 0.6132029295 4284386755
-0.2981975973 -0.1863274872 0.6133589745 4283468753
-0.2982732356 -0.1856931001 0.6135146022 4283534546
-0.2987706661 -0.1853199750 0.6145377159 4282944735
-0.2988459766 -0.1846837252 0.6146926284 4282615770
-0.2989210486 -0.1840469837 0.6148470640 4282220763
-0.2989959121 -0.1834097654 0.6150010824 4281036489
-0.2990705669 -0.1827720702 0.6151545644 4280180415
-0.2991449833 -0.1821339130 0.6153076887 4279719864
-0.2987965643 -0.1812389046 0.6145910025 4279455410
-0.2988704145 -0.1806006879 0.6147429347 4279126445
-0.2989440560 -0.1799620092 0.6148943901 4279126447
-0.2990174890 -0.1793228388 0.6150454283 4279784377
-0.2986676395 -0.1784304678 0.6143258214 4280374974
-0.2987405062 -0.1777912825 0.6144756675 4280309181
-0.2983898818 -0.1769006997 0.6137545109 4280441020
-0.2988855541 -0.1765114814 0.6147740483 4280506813
-0.2993811965 -0.1761199981 0.6157935262 4280375225
-0.2994532585 -0.1754780412 0.6159417033 4280375225
-0.2995250821 -0.1748356074 0.6160894632 4280441018
-0.2995966673 -0.1741927266 0.6162367463 4280243639
-0.2996680439 -0.1735493690 0.6163835526 4280375227
-0.2997391820 -0.1729055643 0.6165298820 4280506813
-0.2998100817 -0.1722612977 0.6166757345 4280835265
-0.3003049195 -0.1718593091 0.6176935434 4280637886
-0.3007997274 -0.1714550406 0.6187112927 4280308403
-0.3008701503 -0.1708075851 0.6188561320 4280505782
-0.3009403348 -0.1701596826 0.6190004945 4281097658
-0.3010102808 -0.1695113033 0.6191443801 4281163451
-0.3010799885 -0.1688624918 0.6192877293 4281360564
-0.3011494577 -0.1682132334 0.6194306612 4281492150
-0.3012186885 -0.1675635129 0.6195730567 4281886647
-0.3012876809 -0.1669133455 0.6197149754 4282544577
-0.3013564646 -0.1662627459 0.6198564172 4283661767
-0.3009998500 -0.1653780937 0.6191229224 4284582869
-0.3010680377 -0.1647275239 0.6192631721 4285700824
-0.3007106483 -0.1638447493 0.6185280681 4286227168
-0.3007782698 -0.1631942093 0.6186671853 4286160337
-0.3008456528 -0.1625432372 0.6188057661 4286423509
-0.3013384342 -0.1621208042 0.6198193431 4286488271
-0.3014054298 -0.1614680290 0.6199571490 4285764548
-0.3014721870 -0.1608148217 0.6200944185 4286224590
-0.3011128008 -0.1599349678 0.6193552017 4287540450
-0.3011789620 -0.1592818201 0.6194913387 4288658678
-0.3012449145 -0.1586282402 0.6196269989 4288724471
-0.3013105989 -0.1579742432 0.6197621226 4288461552
-0.3018023372 -0.1575423181 0.6207735538 4288329966
-0.3018676341 -0.1568865329 0.6209078431 4288133358
-0.3015062213 -0.1560096592 0.6201644540 4287870186
-0.3015709519 -0.1553539485 0.6202976108 4287410151
-0.3016354144 -0.1546978205 0.6204302311 4287278565
-0.3016996384 -0.1540412754 0.6205623150 4286818012
-0.3017636240 -0.1533843130 0.6206939220 4286423254
