VERSION 0.7
FIELDS x y z rgba
SIZE 4 4 4 4
TYPE F F F U
COUNT 1 1 1 1
WIDTH 920
HEIGHT 1
VIEWPOINT 0.0 0.0 0.0 1.0 0.0 0.0 0.0
POINTS 920
DATA ascii
-0.2768218219 -0.1502292752 0.5868192315 4291546839
-0.2768828571 -0.1496102363 0.5869486332 4292204767
-0.2769436538 -0.1489908099 0.5870774984 4292665318
-0.2774218023 -0.1440207660 0.5880911350 4291020491
-0.2770639062 -0.1431823969 0.5873324275 4284111712
-0.2771223485 -0.1425598860 0.5874562860 4282993231
-0.2771805227 -0.1419369727 0.5875796676 4282795852
-0.2772384882 -0.1413136870 0.5877025127 4282269508
-0.2768792510 -0.1404784322 0.5869409442 4281874750
-0.2765195966 -0.1396446675 0.5861785412 4281874750
-0.2749080360 -0.1381833255 0.5827623010 4281809473
-0.2716266215 -0.1358941495 0.5758062005 4281743680
-0.2691782415 -0.1340352297 0.5706160069 4281743680
-0.2525635064 -0.1037521362 0.5353953242 4280756787
-0.2521862388 -0.1030031815 0.5345956087 4280625201
-0.2522289753 -0.1024265662 0.5346862078 4280625201
-0.2518932521 -0.1011036709 0.5339745879 4280625199
-0.2519352734 -0.1005271450 0.5340635777 4280625199
-0.2520185709 -0.0993732363 0.5342401862 4280559406
-0.2524806857 -0.0989607871 0.5352198482 4280559406
-0.2512999773 -0.0973142236 0.5327168703 4280363054
-0.2501573563 -0.0951041654 0.5302947164 4280626226
-0.2493545562 -0.0942116603 0.5285928845 4280428847
-0.2493938208 -0.0936390907 0.5286761522 4280297261
-0.2498541772 -0.0932234600 0.5296520591 4280231468
-0.2494716495 -0.0924931541 0.5288410783 4280363056
-0.2495102137 -0.0919197798 0.5289228559 4280428849
-0.2503916323 -0.0916547477 0.5307913423 4280363056
-0.2495866716 -0.0907722488 0.5290849805 4280297263
-0.2496245652 -0.0901980847 0.5291652679 4280363056
-0.2500839531 -0.0897750556 0.5301390886 4280428849
-0.2505432367 -0.0893498212 0.5311126709 4280363056
-0.2505805492 -0.0887729451 0.5311918259 4280231470
-0.2510395646 -0.0883442834 0.5321648717 4280428851
-0.2506545186 -0.0876184106 0.5313485861 4280428851
-0.2506911457 -0.0870407596 0.5314262509 4280428851
-0.2507275343 -0.0864628628 0.5315034389 4280428851
-0.2507637143 -0.0858847126 0.5315800905 4280428851
-0.2503774166 -0.0851626992 0.5307611823 4280428851
-0.2499907762 -0.0844423845 0.5299416184 4280428851
-0.2500261366 -0.0838654339 0.5300165415 4280363058
-0.2500612438 -0.0832882449 0.5300909877 4280297265
-0.2492512167 -0.0824313834 0.5283738375 4280494644
-0.2492857426 -0.0818556622 0.5284470320 4280560437
-0.2497426271 -0.0814174712 0.5294155478 4280626230
-0.2493541092 -0.0807035118 0.5285919905 4280692023
-0.2485425621 -0.0798554569 0.5268716216 4280692023
-0.2494215518 -0.0795504078 0.5287349224 4280757816
-0.2490321100 -0.0788396597 0.5279093981 4280889402
-0.2486423403 -0.0781306326 0.5270830989 4281086011
-0.2487400025 -0.0764037520 0.5272901058 4281546560
-0.2488355488 -0.0746748522 0.5274927020 4282007628
-0.2488669306 -0.0740981176 0.5275592208 4282205007
-0.2493213713 -0.0736461952 0.5285225511 4282533972
-0.2489289790 -0.0729439855 0.5276907682 4282797144
-0.2489596605 -0.0723666027 0.5277557969 4282928985
-0.2485666424 -0.0716669112 0.5269226432 4282863192
-0.2485967875 -0.0710900873 0.5269865394 4282863450
-0.2486267090 -0.0705130473 0.5270499587 4283060829
-0.2486563772 -0.0699358061 0.5271129012 4283192417
-0.2486858219 -0.0693583563 0.5271753073 4283258210
-0.2487150282 -0.0687806979 0.5272371769 4283389285
-0.2483202368 -0.0680866539 0.5264002681 4283586664
-0.2483489066 -0.0675095841 0.5264610648 4283784043
-0.2483773530 -0.0669323131 0.5265213847 4283981422
-0.2488294542 -0.0664680749 0.5274797678 4283915627
-0.2493092269 -0.0654218420 0.5284968019 4284244594
-0.2493368089 -0.0648418143 0.5285552740 4284573559
-0.2493641526 -0.0642616004 0.5286132693 4284507766
-0.2502395213 -0.0638977960 0.5304688811 4284639352
-0.2494181097 -0.0631005988 0.5287276506 4284836990
-0.2507174015 -0.0628387928 0.5314819217 4284968576
-0.2507439256 -0.0622548610 0.5315381289 4284968574
-0.2507702112 -0.0616707467 0.5315938592 4285034367
-0.2503718734 -0.0609830841 0.5307494402 4285231746
-0.2891590893 -0.0411450788 0.6129723191 4287533212
-0.2874729931 -0.0402280726 0.6093980670 4293125353
-0.2694612443 -0.2108319551 0.5725640059 4291283924
-0.2691382766 -0.2099438608 0.5718777776 4291086545
-0.2692191303 -0.2093713582 0.5720495582 4290823373
-0.2692998052 -0.2087983191 0.5722209811 4290494408
-0.2693803310 -0.2082247734 0.5723920465 4290033857
-0.2686514556 -0.2070271373 0.5708433986 4289639099
-0.2687313855 -0.2064542919 0.5710132122 4288849585
-0.2688111365 -0.2058809400 0.5711826682 4288389034
-0.2684857547 -0.2049978673 0.5704912543 4287731104
-0.2685650289 -0.2044243515 0.5706596971 4287204760
-0.2686441243 -0.2038503438 0.5708277822 4286678416
-0.2687230706 -0.2032758147 0.5709955096 4286086279
-0.2688018084 -0.2027007788 0.5711628199 4285625728
-0.2688803971 -0.2021252364 0.5713297725 4285428349
-0.2689587772 -0.2015492022 0.5714963675 4285757314
-0.2686312199 -0.2006695271 0.5708003044 4286481037
-0.2687091231 -0.2000933588 0.5709658861 4287467932
-0.2687868774 -0.1995166689 0.5711311102 4288323241
-0.2692705691 -0.1992400140 0.5721588731 4289112757
-0.2693480551 -0.1986614615 0.5723235607 4289704894
-0.2694253922 -0.1980824172 0.5724878311 4290297031
-0.2695025206 -0.1975028664 0.5726517439 4290757582
-0.2695794702 -0.1969228238 0.5728152394 4291087317
-0.2700629532 -0.1966384202 0.5738425851 4291547868
-0.2727710009 -0.1670555025 0.5795967579 4292994281
-0.2728378773 -0.1664523184 0.5797388554 4292336351
-0.2729045153 -0.1658486873 0.5798804760 4291546837
-0.2729709446 -0.1652446240 0.5800216198 4290625735
-0.2730371654 -0.1646400988 0.5801623464 4289704631
-0.2731031775 -0.1640351564 0.5803025961 4288980908
-0.2727563381 -0.1631828994 0.5795656443 4287928222
-0.2728218436 -0.1625779867 0.5797047615 4287138706
-0.2728871107 -0.1619726419 0.5798435211 4286085250
-0.2729521990 -0.1613668501 0.5799817443 4284966769
-0.2730170488 -0.1607606411 0.5801195502 4283914081
-0.2734948099 -0.1603962928 0.5811347365 4283124565
-0.2731461227 -0.1595469266 0.5803937912 4282598219
-0.2732103169 -0.1589394212 0.5805302262 4282203461
-0.2732743323 -0.1583314836 0.5806662440 4281678148
-0.2737516165 -0.1579617411 0.5816804171 4281414976
-0.2738153040 -0.1573520452 0.5818157196 4281151804
-0.2734650373 -0.1565051377 0.5810714364 4281086011
-0.2735281587 -0.1558955163 0.5812056065 4281086011
-0.2735910714 -0.1552854627 0.5813392997 4280888632
-0.2740677595 -0.1549089849 0.5823521614 4280625458
-0.2741303444 -0.1542971730 0.5824851394 4280559665
-0.2737784982 -0.1534527838 0.5817375183 4280691251
-0.2738405466 -0.1528410614 0.5818693638 4280757044
-0.2743167281 -0.1524592191 0.5828812122 4280888373
-0.2743784487 -0.1518457383 0.5830122828 4281085752
-0.2744399011 -0.1512318552 0.5831429362 4281612096
-0.2745011449 -0.1506175399 0.5832730532 4282401612
-0.2745621800 -0.1500028223 0.5834027529 4283388507
-0.2746229768 -0.1493877023 0.5835319161 4284178023
-0.2746835649 -0.1487721652 0.5836606622 4284968050
-0.2751589417 -0.1483800262 0.5846707821 4285625980
-0.2752191722 -0.1477627456 0.5847987533 4286547082
-0.2752791643 -0.1471450627 0.5849262476 4287533977
-0.2753389478 -0.1465269774 0.5850532651 4288717738
-0.2749831080 -0.1456884295 0.5842971802 4289770426
-0.2750423551 -0.1450704634 0.5844230056 4290559942
-0.2751013637 -0.1444521099 0.5845484138 4291152079
-0.2751601338 -0.1438333690 0.5846732855 4291810009
-0.2752186954 -0.1432142258 0.5847976804 4288257187
-0.2752770185 -0.1425946802 0.5849216580 4282598989
-0.2753351033 -0.1419747472 0.5850450993 4282598989
-0.2753929794 -0.1413544267 0.5851680636 4282664780
-0.2750345170 -0.1405211240 0.5844063759 4282270022
-0.2746756673 -0.1396892965 0.5836438537 4281875264
-0.2714025676 -0.1373839974 0.5766890645 4281677885
-0.2731240690 -0.1376105994 0.5803469419 4281941059
-0.2677666247 -0.1342791617 0.5689632297 4281809473
-0.2661554217 -0.1328428090 0.5655396581 4281743680
-0.2582397163 -0.1240146160 0.5487200022 4281349433
-0.2521593273 -0.1026399434 0.5358000994 4280822578
-0.2519498467 -0.0995805934 0.5353549719 4280559406
-0.2507312298 -0.0985070094 0.5327656269 4280559406
-0.2516122460 -0.0982591212 0.5346376300 4280559919
-0.2508128285 -0.0973547995 0.5329390168 4280494126
-0.2508532703 -0.0967782736 0.5330249667 4280428079
-0.2521542907 -0.0966848880 0.5357893705 4280428079
-0.2505131960 -0.0954642072 0.5323023200 4280428079
-0.2509732842 -0.0950470269 0.5332798958 4280428079
-0.2497514486 -0.0939946771 0.5306836963 4280493872
-0.2502110898 -0.0935769528 0.5316603780 4280559665
-0.2494088709 -0.0926881060 0.5299558043 4280559665
-0.2507094145 -0.0925795436 0.5327192545 4280559665
-0.2503272593 -0.0918474346 0.5319072604 4280559665
-0.2495239675 -0.0909636095 0.5302003622 4280493872
-0.2495618761 -0.0903882459 0.5302808881 4280493872
-0.2500204742 -0.0899640843 0.5312553644 4280559665
-0.2500579655 -0.0893872306 0.5313350558 4280559667
-0.2505162954 -0.0889596269 0.5323088765 4280559667
-0.2501323223 -0.0882327482 0.5314930081 4280363058
-0.2501691282 -0.0876551270 0.5315712690 4280363058
-0.2502057254 -0.0870772451 0.5316489935 4280428851
-0.2502420843 -0.0864991099 0.5317262411 4280363058
-0.2498568743 -0.0857760832 0.5309077501 4280363058
-0.2503141165 -0.0853420943 0.5318793058 4280363058
-0.2490853816 -0.0843351185 0.5292684436 4280363058
-0.2499636710 -0.0840423629 0.5311346650 4280363058
-0.2495772392 -0.0833232179 0.5303135514 4280428851
-0.2500683963 -0.0823064446 0.5313571692 4280494642
-0.2488375604 -0.0813138634 0.5287418365 4280494642
-0.2493608743 -0.0797187537 0.5298538208 4280428849
-0.2489722818 -0.0790067315 0.5290281177 4280428849
-0.2481613010 -0.0781635046 0.5273048878 4280625460
-0.2481940538 -0.0775878727 0.5273744464 4280691253
-0.2486487180 -0.0771429837 0.5283405781 4280691251
-0.2482588440 -0.0764359236 0.5275121927 4280757044
-0.2482908964 -0.0758596137 0.5275802612 4280888630
-0.2487450391 -0.0754111111 0.5285452604 4280888630
-0.2483543009 -0.0747063234 0.5277149677 4280888632
-0.2483856380 -0.0741293505 0.5277816057 4281020218
-0.2484167516 -0.0735521615 0.5278477073 4281349953
-0.2484476268 -0.0729747489 0.5279133320 4281744711
-0.2480556965 -0.0722740069 0.5270804763 4282073676
-0.2480860353 -0.0716971532 0.5271449685 4282073676
-0.2481161654 -0.0711200908 0.5272089839 4282271055
-0.2477232963 -0.0704226419 0.5263742208 4282665813
-0.2481756806 -0.0699653327 0.5273354650 4282994523
-0.2482050955 -0.0693876520 0.5273979306 4283257695
-0.2482342571 -0.0688097551 0.5274599195 4283257697
-0.2482631952 -0.0682316646 0.5275213718 4283389283
-0.2482918948 -0.0676533654 0.5275823474 4283652455
-0.2483203411 -0.0670748726 0.5276428461 4283784041
-0.2483485639 -0.0664961785 0.5277028084 4283849834
-0.2483765483 -0.0659172907 0.5277622342 4284047213
-0.2488274574 -0.0654495135 0.5287203789 4284376178
-0.2488550097 -0.0648692474 0.5287789106 4284639350
-0.2488823235 -0.0642887950 0.5288369656 4284441973
-0.2489093989 -0.0637081489 0.5288944840 4284507766
-0.2493595928 -0.0632346720 0.5298510790 4284705145
-0.2493862361 -0.0626526624 0.5299077034 4284836731
-0.2498360723 -0.0621758476 0.5308635235 4284902524
-0.2498622835 -0.0615924783 0.5309191942 4285034110
-0.2503117621 -0.0611123331 0.5318742990 4285165696
-0.2869185507 -0.0402452424 0.6096581221 4290362047
-0.2679607570 -0.2082515806 0.5707226396 4288520618
-0.2680409253 -0.2076795846 0.5708934069 4288323239
-0.2681209147 -0.2071070671 0.5710637569 4288257446
-0.2673929334 -0.2059119642 0.5695132017 4288389034
-0.2674723268 -0.2053401619 0.5696823597 4288520620
-0.2675515711 -0.2047678381 0.5698511004 4288849585
-0.2676306367 -0.2041950226 0.5700194836 4289244343
-0.2677095234 -0.2036216855 0.5701875091 4289639101
-0.2677882314 -0.2030478567 0.5703551769 4289968066
-0.2678667605 -0.2024735063 0.5705224276 4290231238
-0.2679451406 -0.2018986642 0.5706893206 4290428617
-0.2680233121 -0.2013233155 0.5708558559 4291152340
-0.2714634836 -0.1621511877 0.5781829953 4293651697
-0.2715284824 -0.1615474671 0.5783214569 4293125099
-0.2715932727 -0.1609433144 0.5784594417 4292269790
-0.2716578841 -0.1603387147 0.5785970092 4291348690
-0.2721345723 -0.1599760801 0.5796123147 4290493381
-0.2721988261 -0.1593697071 0.5797491670 4289506486
-0.2722628713 -0.1587629169 0.5798855424 4288585384
-0.2723266780 -0.1581556946 0.5800215006 4286941589
-0.2723903060 -0.1575480402 0.5801569819 4286086280
-0.2724536955 -0.1569399536 0.5802920461 4284836213
-0.2725168765 -0.1563314497 0.5804265738 4283651939
-0.2721668482 -0.1554865837 0.5796810389 4282796629
-0.2722294927 -0.1548781693 0.5798144937 4282270285
-0.2727051079 -0.1545034200 0.5808275342 4281875527
-0.2727674246 -0.1538932323 0.5809602141 4281678148
-0.2724161446 -0.1530503929 0.5802120566 4281283390
-0.2724779248 -0.1524402946 0.5803436637 4281086011
-0.2725394964 -0.1518297791 0.5804747343 4281151804
-0.2726008296 -0.1512188613 0.5806053877 4281349183
-0.2730756998 -0.1508360654 0.5816168189 4281480256
-0.2731367052 -0.1502234042 0.5817467570 4281348670
-0.2731974721 -0.1496103257 0.5818761587 4281348670
-0.2732580304 -0.1489968300 0.5820051432 4281414463
-0.2733183503 -0.1483829319 0.5821336508 4281217595
-0.2733784616 -0.1477686316 0.5822616816 4281151802
-0.2734383643 -0.1471539289 0.5823892355 4281086009
-0.2739124000 -0.1467608362 0.5833988786 4281151802
-0.2735574543 -0.1459233016 0.5826428533 4281415228
-0.2736166716 -0.1453073919 0.5827689767 4281809986
-0.2736756504 -0.1446910799 0.5828946233 4282402123
-0.2737344205 -0.1440743655 0.5830197930 4282994260
-0.2733781040 -0.1432399005 0.5822609067 4283849569
-0.2734363377 -0.1426233351 0.5823848844 4284244327
-0.2734943032 -0.1420063823 0.5825083852 4282862674
-0.2735520899 -0.1413890272 0.5826314688 4282994260
-0.2731944323 -0.1405576617 0.5818697214 4282270537
-0.2728363872 -0.1397278011 0.5811070800 4281809986
-0.2720625699 -0.1386876851 0.5794589520 4281678400
-0.2712881863 -0.1376509368 0.5778096318 4281612607
-0.2684355378 -0.1355682909 0.5717338324 4282072645
-0.2622565031 -0.1318270713 0.5585733056 4281875266
-0.2631416917 -0.1316493154 0.5604586601 4281809473
-0.2648586035 -0.1318815053 0.5641154051 4281743680
-0.2599219382 -0.1288082898 0.5536009669 4281481021
-0.2587266564 -0.1276036948 0.5510551929 4281349435
-0.2591948509 -0.1272212267 0.5520523190 4281349435
-0.2579984665 -0.1260234714 0.5495042205 4281217849
-0.2576338053 -0.1252356619 0.5487275124 4281349435
-0.2572687268 -0.1244493946 0.5479499698 4281283642
-0.2569032907 -0.1236646697 0.5471715927 4281217847
-0.2573703527 -0.1232804507 0.5481663942 4281349433
-0.2561712265 -0.1220998541 0.5456124544 4281349433
-0.2553880215 -0.1211221889 0.5439442992 4281086261
-0.2512072623 -0.1030887738 0.5350398421 4280033062
-0.2512499392 -0.1025117114 0.5351306796 4279967269
-0.2517111599 -0.1021042392 0.5361130834 4279967269
-0.2513345480 -0.1013567001 0.5353109241 4279901476
-0.2510406971 -0.0994559750 0.5346850157 4279901476
-0.2515010834 -0.0990432054 0.5356656313 4279901476
-0.2515421510 -0.0984641239 0.5357530713 4279835942
-0.2507443726 -0.0975584686 0.5340539217 4279835942
-0.2507848740 -0.0969807506 0.5341401100 4279704356
-0.2520834208 -0.0968863741 0.5369059443 4279638563
-0.2521636486 -0.0957237482 0.5370767713 4279770149
-0.2496855706 -0.0941921771 0.5317987800 4279901735
-0.2509838343 -0.0940879956 0.5345638990 4280033321
-0.2506031692 -0.0933522582 0.5337531567 4280033321
-0.2510617971 -0.0929289833 0.5347300172 4280033321
-0.2506805658 -0.0921946466 0.5339179635 4280099116
-0.2490390539 -0.0910016000 0.5304217935 4280099116
-0.2499922812 -0.0895751417 0.5324520469 4280099116
-0.2493715882 -0.0858120024 0.5311300159 4280165679
-0.2494073808 -0.0852341056 0.5312062502 4280231472
-0.2498635948 -0.0847987309 0.5321779251 4280297265
-0.2491274178 -0.0827802494 0.5306099653 4280363056
-0.2491619885 -0.0822021142 0.5306836367 4280297263
-0.2487753928 -0.0814858526 0.5298601985 4280297263
-0.2488094419 -0.0809082165 0.5299327374 4280428849
-0.2488432676 -0.0803303421 0.5300047994 4280494642
-0.2480346262 -0.0794823393 0.5282824636 4280494642
-0.2484890372 -0.0790399164 0.5292503238 4280494642
-0.2481008768 -0.0783293322 0.5284235477 4280493874
-0.2481336445 -0.0777524859 0.5284933448 4280559667
-0.2481661886 -0.0771754086 0.5285626650 4280493872
-0.2477770895 -0.0764680654 0.5277339816 4280493872
-0.2482305616 -0.0760205835 0.5286997557 4280625458
-0.2482623905 -0.0754428357 0.5287675858 4280559665
-0.2478724420 -0.0747377574 0.5279370546 4280493874
-0.2483253628 -0.0742866769 0.5289016962 4280493874
-0.2483564913 -0.0737082660 0.5289679766 4280625460
-0.2483873814 -0.0731296390 0.5290337801 4281020218
-0.2484180331 -0.0725507960 0.5290991068 4281151804
-0.2480266541 -0.0718495548 0.5282654762 4281086011
-0.2480567843 -0.0712712705 0.5283296704 4281217597
-0.2476647645 -0.0705725476 0.5274947286 4281546562
-0.2476943731 -0.0699948370 0.5275577903 4281941320
-0.2477237433 -0.0694169104 0.5276203752 4282336078
-0.2477528900 -0.0688387826 0.5276824236 4282533458
-0.2477817833 -0.0682604536 0.5277439952 4282796630
-0.2478104532 -0.0676819161 0.5278050303 4283125341
-0.2483726144 -0.0648966581 0.5290023088 4284441201
-0.2483998835 -0.0643159598 0.5290604234 4284376178
-0.2484269291 -0.0637350753 0.5291180611 4284507764
-0.2488762736 -0.0632614046 0.5300750732 4284705143
-0.2493254691 -0.0627855733 0.5310317874 4284836729
-0.2493518740 -0.0622021444 0.5310880542 4284902524
-0.2493780553 -0.0616185330 0.5311437845 4284968317
-0.2498266995 -0.0611381903 0.5320993662 4285034110
-0.2498524338 -0.0605532266 0.5321542025 4285099903
-0.2503007352 -0.0600695498 0.5331090093 4285099649
-0.2495052814 -0.0586977713 0.5314148068 4285231489
-0.2710947096 -0.1565274149 0.5787666440 4291415514
-0.2711576223 -0.1559205502 0.5789009929 4290691790
-0.2712203264 -0.1553132534 0.5790348053 4289968067
-0.2712827921 -0.1547055393 0.5791682601 4289244344
-0.2713450789 -0.1540974081 0.5793011785 4288323242
-0.2714071274 -0.1534888446 0.5794336200 4287665312
-0.2714689672 -0.1528798789 0.5795656443 4286810003
-0.2707052529 -0.1518076658 0.5779352188 4286283659
-0.2707664669 -0.1511997133 0.5780658722 4285625216
-0.2712402940 -0.1508209258 0.5790774822 4285098872
-0.2717141211 -0.1504398584 0.5800890326 4284506735
-0.2717748582 -0.1498288214 0.5802187324 4283783012
-0.2714222372 -0.1489906013 0.5794659257 4283125082
-0.2714824378 -0.1483796835 0.5795944929 4282664531
-0.2719557583 -0.1479932666 0.5806049109 4282467405
-0.2720156014 -0.1473806053 0.5807327032 4282138440
-0.2720752358 -0.1467675418 0.5808600187 4281809475
-0.2721346319 -0.1461540759 0.5809868574 4281546303
-0.2721938193 -0.1455401927 0.5811132193 4281612094
-0.2722527981 -0.1449259222 0.5812391043 4281546301
-0.2723115385 -0.1443112642 0.5813645124 4281415228
-0.2719561160 -0.1434778124 0.5806056857 4281415228
-0.2720143199 -0.1428632885 0.5807299614 4281809986
-0.2716581821 -0.1420318484 0.5799696445 4283652190
-0.2717158496 -0.1414174736 0.5800927281 4283125846
-0.2717732787 -0.1408027112 0.5802153945 4282731088
-0.2714161277 -0.1399738491 0.5794528723 4282270537
-0.2706440985 -0.1389337182 0.5778046250 4282204744
-0.2698715031 -0.1378969550 0.5761551857 4281875779
-0.2690983117 -0.1368635744 0.5745045543 4281744193
-0.2683245838 -0.1358335763 0.5728526711 4281809473
-0.2675502598 -0.1348069459 0.5711995363 4281743680
-0.2638711631 -0.1323272884 0.5633448958 4281677887
-0.2622651756 -0.1308998019 0.5599162579 4281612094
-0.2602432072 -0.1292733103 0.5555995703 4281349435
-0.2594656348 -0.1282715946 0.5539395213 4281217849
-0.2567141950 -0.1250845492 0.5480653644 4281152056
-0.2568161786 -0.1239158660 0.5482830405 4280954677
-0.2564511597 -0.1231314391 0.5475038290 4281020470
-0.2552543581 -0.1219513267 0.5449486971 4280954677
-0.2557200491 -0.1215672344 0.5459429026 4280888884
-0.2553538978 -0.1207874566 0.5451612473 4280954677
-0.2554033399 -0.1202050149 0.5452668071 4280954677
-0.2550365329 -0.1194274127 0.5444836617 4281019957
-0.2505508363 -0.0994972736 0.5349070430 4280296236
-0.2518470585 -0.0994146317 0.5376744270 4280362029
-0.2510921955 -0.0979254395 0.5360627770 4280559665
-0.2515513003 -0.0975078046 0.5370429754 4280559665
-0.2520103455 -0.0970879495 0.5380229950 4280559665
-0.2520906031 -0.0959229246 0.5381942987 4280691251
-0.2525492013 -0.0954983681 0.5391734242 4280757044
-0.2517510355 -0.0945993885 0.5374693871 4280757044
-0.2513713539 -0.0938604474 0.5366587639 4280822837
-0.2514103055 -0.0932786390 0.5367419720 4280822837
-0.2493536323 -0.0919240862 0.5323511362 4280888630
-0.2493918240 -0.0913465917 0.5324326158 4280954423
-0.2494297773 -0.0907688290 0.5325136781 4280888630
-0.2494674921 -0.0901908129 0.5325942039 4280888630
-0.2495049834 -0.0896125287 0.5326742530 4280888630
-0.2495422512 -0.0890339836 0.5327538252 4280954423
-0.2495792806 -0.0884551778 0.5328328609 4280691253
-0.2491965592 -0.0877284259 0.5320158005 4280625460
-0.2492330670 -0.0871500894 0.5320937037 4280625460
-0.2496889979 -0.0867172331 0.5330671072 4280559667
-0.2493053973 -0.0859926492 0.5322481394 4280559667
-0.2497609854 -0.0855573416 0.5332207680 4280559667
-0.2493768036 -0.0848342031 0.5324005485 4280493874
-0.2498320341 -0.0843964517 0.5333724618 4280428081
-0.2498672158 -0.0838156417 0.5334475636 4280296493
-0.2490621507 -0.0829548016 0.5317288041 4280296493
-0.2490967512 -0.0823754519 0.5318027139 4280230700
-0.2495512217 -0.0819337964 0.5327729583 4280230700
-0.2491652369 -0.0812160373 0.5319489241 4280296493
-0.2487788945 -0.0804999918 0.5311241150 4280362286
-0.2488124967 -0.0799206644 0.5311958194 4280428079
-0.2488458753 -0.0793411061 0.5312671065 4280493872
-0.2476177961 -0.0783621892 0.5286452174 4280428081
-0.2476505339 -0.0777851120 0.5287151337 4280559667
-0.2481035441 -0.0773388818 0.5296822786 4280559667
-0.2481358796 -0.0767603666 0.5297513008 4280559667
-0.2481679618 -0.0761816278 0.5298197865 4280691253
-0.2473584563 -0.0753463805 0.5280915499 4280757046
-0.2478107065 -0.0748963207 0.5290570855 4280691253
-0.2478420287 -0.0743178949 0.5291239619 4280691253
-0.2478731275 -0.0737392455 0.5291903615 4280559667
-0.2479039878 -0.0731603876 0.5292562246 4280757046
-0.2479346097 -0.0725813136 0.5293216109 4280757044
-0.2479650080 -0.0720020235 0.5293865204 4280493872
-0.2479951531 -0.0714225173 0.5294508934 4280493872
-0.2472124547 -0.0700242966 0.5277798772 4281020218
-0.2476629913 -0.0695644468 0.5287417173 4281151804
-0.2476921529 -0.0689850971 0.5288040042 4281349183
-0.2472997755 -0.0682892054 0.5279663205 4281678148
-0.2469070703 -0.0675950870 0.5271278620 4282072907
-0.2469354123 -0.0670171008 0.5271884203 4282336079
-0.2473849654 -0.0665522963 0.5281481743 4282664790
-0.2474128753 -0.0659729317 0.5282077789 4282993755
-0.2474405617 -0.0653933734 0.5282668471 4283257697
-0.2474680096 -0.0648136213 0.5283254385 4283520869
-0.2479168326 -0.0643431023 0.5292837024 4283652455
-0.2483655214 -0.0638704151 0.5302416086 4283915627
-0.2479706258 -0.0631806552 0.5293985009 4284310385
-0.2484189272 -0.0627056211 0.5303555727 4284639350
-0.2488670647 -0.0622284114 0.5313123465 4284705143
-0.2484713644 -0.0615400784 0.5304675102 4284705143
-0.2484972179 -0.0609570332 0.5305227637 4284770938
-0.2493667156 -0.0605788119 0.5323790312 4284836731
-0.2502361536 -0.0601964518 0.5342352390 4284968063
-0.2494173944 -0.0594078638 0.5324872732 4284902270
-0.2494423687 -0.0588221215 0.5325405598 4284902270
-0.2490449995 -0.0581376664 0.5316922069 4285099649
-0.2703551054 -0.1500432044 0.5785595775 4292270308
-0.2704156041 -0.1494338065 0.5786889791 4291678171
-0.2704758644 -0.1488239914 0.5788179636 4291085520
-0.2705359161 -0.1482137889 0.5789464712 4290559176
-0.2705957294 -0.1476031691 0.5790745020 4289506486
-0.2706553340 -0.1469921470 0.5792020559 4288848556
-0.2707147300 -0.1463807225 0.5793291330 4287861661
-0.2707738876 -0.1457688957 0.5794557333 4286611594
-0.2708328068 -0.1451566666 0.5795818567 4285362295
-0.2708915472 -0.1445440352 0.5797075033 4284309607
-0.2705369890 -0.1437116116 0.5789487958 4283059540
-0.2705951929 -0.1430991292 0.5790733099 4282006852
-0.2706531286 -0.1424862444 0.5791973472 4282270024
-0.2702975571 -0.1416563690 0.5784364343 4283849056
-0.2703549862 -0.1410436481 0.5785592794 4283059540
-0.2699986994 -0.1402157992 0.5777968764 4282467403
-0.2700555921 -0.1396032274 0.5779185891 4281941059
-0.2692849636 -0.1385645866 0.5762694478 4281809473
-0.2689274848 -0.1377412081 0.5755044222 4281612094
-0.2681557834 -0.1367083639 0.5738530159 4281546301
-0.2665557265 -0.1352588534 0.5704288483 4281809475
-0.2657827139 -0.1342346519 0.5687746406 4281875268
-0.2645950913 -0.1330057085 0.5662330985 4281809475
-0.2605075836 -0.1303316057 0.5574858785 4281612096
-0.2601463795 -0.1295323521 0.5567128658 4281414974
-0.2597847879 -0.1287346184 0.5559390783 4281217595
-0.2602516413 -0.1283471733 0.5569381118 4281151802
-0.2569879591 -0.1261266023 0.5499538779 4281151802
-0.2566247880 -0.1253381819 0.5491766930 4281086263
-0.2562612593 -0.1245513111 0.5483987331 4281217849
-0.2558973134 -0.1237659827 0.5476198792 4281086263
-0.2563626468 -0.1233814955 0.5486156940 4281020470
-0.2559981048 -0.1225973666 0.5478355885 4281020470
-0.2549022138 -0.1202543080 0.5454903841 4281217849
-0.2539470494 -0.1161808446 0.5434463024 4280690994
-0.2532540262 -0.1086378694 0.5419632792 4279967271
-0.2512598038 -0.1065875739 0.5376956463 4280493615
-0.2517204583 -0.1061844751 0.5386814475 4280625201
-0.2518077195 -0.1050238386 0.5388681293 4280888373
-0.2514340281 -0.1042701527 0.5380684733 4280888373
-0.2515623271 -0.1025289446 0.5383430123 4281151291
-0.2516467273 -0.1013666689 0.5385236740 4281282877
-0.2521891594 -0.0997862816 0.5396844745 4281480256
-0.2523527741 -0.0974509567 0.5400345922 4281480767
-0.2524332106 -0.0962816030 0.5402067304 4281546560
-0.2524730861 -0.0956965089 0.5402920842 4281546560
-0.2525127232 -0.0951111317 0.5403769016 4281414974
-0.2509185374 -0.0933174491 0.5369653106 4281480767
-0.2501206994 -0.0924260244 0.5352579355 4281414974
-0.2501590252 -0.0918453857 0.5353399515 4281414974
-0.2497787327 -0.0911118686 0.5345261693 4281480767
-0.2498165518 -0.0905316696 0.5346070528 4281414974
-0.2498541176 -0.0899512097 0.5346874595 4281414974
-0.2498914748 -0.0893704966 0.5347673893 4281480767
-0.2499285787 -0.0887895152 0.5348468423 4281414976
-0.2495467663 -0.0880605280 0.5340297222 4281349183
-0.2491645962 -0.0873332247 0.5332118869 4281283390
-0.2487820685 -0.0866076201 0.5323932767 4281283390
-0.2492369562 -0.0861733705 0.5333667397 4281217597
-0.2496917397 -0.0857369229 0.5343399644 4281151804
-0.2501464188 -0.0852982700 0.5353129506 4281151804
-0.2497628331 -0.0845736191 0.5344921350 4281086011
-0.2497980297 -0.0839915946 0.5345674157 4280888632
-0.2494138181 -0.0832693726 0.5337452292 4280888632
-0.2494484931 -0.0826878399 0.5338194370 4280822839
-0.2490636259 -0.0819680691 0.5329958200 4280691253
-0.2490977794 -0.0813870281 0.5330688953 4280625460
-0.2487122864 -0.0806697160 0.5322439075 4280493874
-0.2474874854 -0.0796840042 0.5296229124 4280493874
-0.2491988242 -0.0796424896 0.5332851410 4280493874
-0.2475864589 -0.0779498219 0.5298346877 4280428081
-0.2476189733 -0.0773712993 0.5299042463 4280493874
-0.2484907657 -0.0770528615 0.5317698717 4280493874
-0.2472635061 -0.0760843977 0.5291435719 4280493874
-0.2481349856 -0.0757625625 0.5310085416 4280625460
-0.2477467209 -0.0750549510 0.5301776528 4280691253
-0.2473580986 -0.0743490756 0.5293459892 4280625460
-0.2473891675 -0.0737701952 0.5294124484 4280559667
-0.2474199831 -0.0731910989 0.5294784307 4280691253
-0.2474505752 -0.0726117864 0.5295438766 4280691253
-0.2470607609 -0.0719099641 0.5287097096 4280625460
-0.2470908314 -0.0713312104 0.5287740231 4280625460
-0.2471206635 -0.0707522482 0.5288378596 4280822839
-0.2471502572 -0.0701730773 0.5289012194 4281020218
-0.2471796125 -0.0695936978 0.5289640427 4280954425
-0.2467883229 -0.0688967332 0.5281266570 4280822837
-0.2468171567 -0.0683179349 0.5281883478 4280954423
-0.2472662777 -0.0678543225 0.5291494727 4280955195
-0.2468741238 -0.0671597198 0.5283102989 4281086781
-0.2473228574 -0.0666937381 0.5292705894 4281349698
-0.2469301373 -0.0660007074 0.5284301639 4281744456
-0.2469577789 -0.0654209107 0.5284892917 4282139214
-0.2474059612 -0.0649513826 0.5294483900 4282402386
-0.2474331856 -0.0643702075 0.5295066833 4282599765
-0.2474601567 -0.0637888387 0.5295643806 4282994523
-0.2479078025 -0.0633147806 0.5305223465 4283586660
-0.2483552843 -0.0628385618 0.5314799547 4284113004
-0.2483816445 -0.0622546524 0.5315364003 4284376178
-0.2484077662 -0.0616705604 0.5315922499 4284507764
-0.2492757738 -0.0612933561 0.5334498286 4284705145
-0.2493014932 -0.0607069172 0.5335048437 4284902524
-0.2493269742 -0.0601202995 0.5335593820 4284902270
-0.2493522167 -0.0595335029 0.5336133838 4284836477
-0.2485347092 -0.0587473810 0.5318639278 4284836477
-0.2489806563 -0.0582607947 0.5328182578 4284968063
-0.2694157362 -0.1453832984 0.5779228806 4293256687
-0.2694744170 -0.1447727084 0.5780487657 4292467169
-0.2695328891 -0.1441617310 0.5781742334 4291677653
-0.2695911229 -0.1435503513 0.5782991648 4290428356
-0.2696491480 -0.1429385841 0.5784236193 4289244082
-0.2692945600 -0.1421087831 0.5776630044 4287336085
-0.2689395547 -0.1412804723 0.5769014955 4286349190
-0.2689967453 -0.1406694055 0.5770241618 4283322712
-0.2690536976 -0.1400579363 0.5771463513 4282598989
-0.2686976790 -0.1392322034 0.5763826370 4282006852
-0.2683412731 -0.1384079605 0.5756180882 4281875266
-0.2675715387 -0.1373732239 0.5739669800 4281612094
-0.2668012381 -0.1363418698 0.5723145604 4281151543
-0.2664434612 -0.1355240047 0.5715471506 4281480510
-0.2652589381 -0.1342893094 0.5690062046 4281546303
-0.2615941167 -0.1318104863 0.5611448288 4281480510
-0.2641277313 -0.1324575990 0.5665796399 4281348924
-0.2604607046 -0.1299978495 0.5587134957 4281349181
-0.2576189637 -0.1279655099 0.5526176691 4281217595
-0.2568438053 -0.1269683242 0.5509548783 4281086009
-0.2568954527 -0.1263815910 0.5510656834 4281086009
-0.2561193705 -0.1253893524 0.5494009256 4281414974
-0.2561704218 -0.1248038113 0.5495104194 4281546560
-0.2541325688 -0.1183597893 0.5451390743 4280033064
-0.2537662983 -0.1175843850 0.5443533659 4279901478
-0.2534474134 -0.1162285209 0.5436693430 4279704099
-0.2534949780 -0.1156461611 0.5437713265 4279704099
-0.2543722391 -0.1154401079 0.5456531644 4279769892
-0.2544195056 -0.1148551852 0.5457545519 4280098857
-0.2548816502 -0.1144563481 0.5467458963 4280164650
-0.2549285591 -0.1138698235 0.5468465090 4280295982
-0.2549752295 -0.1132829785 0.5469466448 4280559154
-0.2554370165 -0.1128793508 0.5479372144 4280756533
-0.2554832995 -0.1122908965 0.5480365157 4280953912
-0.2555293739 -0.1117021292 0.5481353402 4281085498
-0.2551596761 -0.1109323725 0.5473422408 4281217084
-0.2543739378 -0.1099845022 0.5456568003 4281282877
-0.2540033758 -0.1092189103 0.5448619127 4281348670
-0.2536324561 -0.1084549204 0.5440662503 4281348670
-0.2504807711 -0.1047192961 0.5373055339 4281546049
-0.2513561547 -0.1044862047 0.5391833782 4281611842
-0.2509829402 -0.1037328839 0.5383828282 4281677635
-0.2518582642 -0.1034943834 0.5402604342 4281677635
-0.2519008815 -0.1029115394 0.5403518677 4281677635
-0.2519854903 -0.1017449498 0.5405333042 4281743428
-0.2520274222 -0.1011612192 0.5406233072 4281743428
-0.2504438162 -0.0993317738 0.5372263193 4281611842
-0.2509015799 -0.0989153534 0.5382082462 4281612353
-0.2517761290 -0.0986600593 0.5400842428 4281546560
-0.2513999641 -0.0979134738 0.5392773151 4281612353
-0.2514404058 -0.0973299593 0.5393640995 4281546560
-0.2523147166 -0.0970670432 0.5412395597 4281480767
-0.2523548305 -0.0964810252 0.5413256288 4281546560
-0.2519775629 -0.0957362279 0.5405163169 4281612353
-0.2524344027 -0.0953081548 0.5414962769 4281546560
-0.2512218952 -0.0942516178 0.5388953686 4281546560
-0.2516782582 -0.0938230008 0.5398743153 4281546560
-0.2512996793 -0.0930829272 0.5390622020 4281480767
-0.2505032122 -0.0921908692 0.5373536944 4281480767
-0.2497062534 -0.0913024321 0.5356441736 4281546560
-0.2493264377 -0.0905693322 0.5348294377 4281480767
-0.2493639737 -0.0899886414 0.5349099636 4281414974
-0.2489835173 -0.0892579257 0.5340938568 4281480767
-0.2486027181 -0.0885289013 0.5332769752 4281480769
-0.2486394346 -0.0879493803 0.5333557129 4281480769
-0.2482579798 -0.0872227699 0.5325374603 4281480769
-0.2487121820 -0.0867895782 0.5335117579 4281546562
-0.2491662651 -0.0863541812 0.5344858766 4281546562
-0.2496202439 -0.0859165862 0.5354596972 4281546562
-0.2492377460 -0.0851909071 0.5346391797 4281546562
-0.2492731363 -0.0846088976 0.5347151160 4281612355
-0.2493083030 -0.0840266421 0.5347905159 4281612355
-0.2493432313 -0.0834441409 0.5348654389 4281546562
-0.2493779212 -0.0828613937 0.5349398255 4281480769
-0.2489939034 -0.0821403563 0.5341160893 4281414976
-0.2490280569 -0.0815581009 0.5341894031 4281283390
-0.2486434132 -0.0808395222 0.5333642364 4281217597
-0.2490956932 -0.0803928822 0.5343344808 4281217597
-0.2478730530 -0.0794075206 0.5317117572 4281086011
-0.2491623908 -0.0792267248 0.5344775319 4280954425
-0.2475201190 -0.0781145990 0.5309547186 4280888632
-0.2475526631 -0.0775348619 0.5310245156 4280888632
-0.2471660376 -0.0768246874 0.5301951766 4280757046
-0.2476170361 -0.0763747096 0.5311626196 4280625460
-0.2476488799 -0.0757942870 0.5312308669 4280625460
-0.2472613901 -0.0750863850 0.5303996801 4280625460
-0.2472926974 -0.0745065063 0.5304668546 4280559667
-0.2473237813 -0.0739264116 0.5305335522 4280493874
-0.2473546267 -0.0733460933 0.5305997133 4280493874
-0.2473852336 -0.0727655664 0.5306653380 4280559667
-0.2474156022 -0.0721848160 0.5307304859 4280559667
-0.2474457473 -0.0716038570 0.5307951570 4280428851
-0.2474756390 -0.0710226893 0.5308592916 4280692023
-0.2470858097 -0.0703219175 0.5300230384 4280823609
-0.2471151799 -0.0697413161 0.5300860405 4280692023
-0.2463051230 -0.0689256638 0.5283483863 4280626228
-0.2467535734 -0.0684630573 0.5293104053 4280560435
-0.2467821985 -0.0678828284 0.5293717980 4280560437
-0.2468105704 -0.0673023984 0.5294326544 4280560437
-0.2464189231 -0.0666082948 0.5285925269 4280757816
-0.2464467734 -0.0660284534 0.5286522508 4280955195
-0.2464744002 -0.0654484183 0.5287114978 4281152574
-0.2469217181 -0.0649786964 0.5296710730 4281218367
-0.2469489127 -0.0643972829 0.5297293663 4281152574
-0.2469758540 -0.0638156831 0.5297871828 4281415746
-0.2474226505 -0.0633414313 0.5307456255 4281876042
-0.2478692830 -0.0628650114 0.5317037106 4282336593
-0.2478956133 -0.0622808598 0.5317601562 4282797144
-0.2479216903 -0.0616965294 0.5318161249 4283257695
-0.2483677864 -0.0612155944 0.5327730179 4283718246
-0.2483934313 -0.0606299043 0.5328280330 4284047211
-0.2484188378 -0.0600440353 0.5328825116 4284178801
-0.2480236292 -0.0593573786 0.5320347548 4284376180
-0.2480484992 -0.0587721467 0.5320881009 4284639098
-0.2480731457 -0.0581867360 0.5321409702 4284902270
-0.2476770282 -0.0575035252 0.5312913060 4284968063
-0.2481216937 -0.0570154004 0.5322450995 4284902270
-0.2809145451 -0.0391090661 0.6025890112 4285164918
-0.2817746401 -0.0385572389 0.6044339538 4291480528
-0.2679958642 -0.1411209404 0.5762500167 4289441463
-0.2680528760 -0.1405105740 0.5763726234 4284112230
-0.2676978409 -0.1396849155 0.5756092072 4283125335
-0.2673423886 -0.1388607621 0.5748449564 4282533198
-0.2669865489 -0.1380380839 0.5740798116 4281941061
-0.2666303217 -0.1372169256 0.5733138919 4281743680
-0.2658615112 -0.1361861080 0.5716607571 4281809473
-0.2646798491 -0.1349484771 0.5691199303 4281743682
-0.2655592561 -0.1347624063 0.5710108280 4281809475
-0.2631392181 -0.1329056770 0.5658072233 4281677889
-0.2611304820 -0.1312672496 0.5614879727 4281612096
-0.2624215782 -0.1312893331 0.5642641187 4281546560
-0.2579352260 -0.1284285784 0.5546174645 4281546560
-0.2592256963 -0.1284518242 0.5573922992 4281414974
-0.2568007112 -0.1266366839 0.5521780252 4281414974
-0.2552003860 -0.1252378225 0.5487369895 4281414974
-0.2544252276 -0.1242495924 0.5470702052 4281151802
-0.2540626526 -0.1234655604 0.5462905765 4280888630
-0.2533363402 -0.1219021305 0.5447288752 4279967528
-0.2538981140 -0.1203527153 0.5459367633 4279178012
-0.2535335720 -0.1195742190 0.5451529622 4279901478
-0.2535823286 -0.1189913899 0.5452578068 4279967271
-0.2532171011 -0.1182150692 0.5444725156 4280098857
-0.2536791861 -0.1178247333 0.5454660654 4280230443
-0.2537751496 -0.1166567504 0.5456724167 4280625201
-0.2538228035 -0.1160722598 0.5457748771 4280953912
-0.2538702488 -0.1154874414 0.5458768606 4281217084
-0.2539174557 -0.1149022952 0.5459783673 4281348670
-0.2539644241 -0.1143168285 0.5460793972 4281348670
-0.2544255853 -0.1139165610 0.5470709801 4281414463
-0.2548866570 -0.1135140657 0.5480623841 4281480256
-0.2549331188 -0.1129257157 0.5481622815 4281480256
-0.2549793720 -0.1123370379 0.5482617021 4281546049
-0.2546107173 -0.1115663424 0.5474690199 4281546049
-0.2550711632 -0.1111587361 0.5484591722 4281480256
-0.2547019124 -0.1103893220 0.5476651788 4281611842
-0.2539173961 -0.1094426811 0.5459782481 4281546049
-0.2535473108 -0.1086774394 0.5451825261 4281546049
-0.2506866157 -0.1068523526 0.5390313268 4281611842
-0.2515606880 -0.1066239402 0.5409108400 4281677635
-0.2507741153 -0.1056914255 0.5392194986 4281611842
-0.2504022717 -0.1049364880 0.5384199619 4281677635
-0.2504453659 -0.1043562293 0.5385126472 4281743428
-0.2509036660 -0.1039477736 0.5394980907 4281743428
-0.2513618767 -0.1035370901 0.5404833555 4281677635
-0.2514044642 -0.1029540151 0.5405749083 4281677635
-0.2514468431 -0.1023706421 0.5406660438 4281611842
-0.2514889538 -0.1017869785 0.5407565832 4281611842
-0.2515308857 -0.1012030169 0.5408467054 4281611842
-0.2515725493 -0.1006187722 0.5409363508 4281546049
-0.2516140044 -0.1000342295 0.5410254598 4281480256
-0.2516552210 -0.0994494036 0.5411140919 4281546560
-0.2521122396 -0.0990277007 0.5420967937 4281480767
-0.2513208985 -0.0981164426 0.5403952003 4281480767
-0.2517775297 -0.0976932049 0.5413770676 4281480767
-0.2514016032 -0.0969467312 0.5405687690 4281414974
-0.2518579066 -0.0965209976 0.5415499210 4281480767
-0.2518977523 -0.0959344730 0.5416355729 4281480767
-0.2515209317 -0.0951900706 0.5408253670 4281480767
-0.2519767582 -0.0947605893 0.5418054461 4281546562
-0.2520159185 -0.0941732377 0.5418896675 4281480769
-0.2520548403 -0.0935856104 0.5419733524 4281546562
-0.2512601614 -0.0926902816 0.5402646065 4281546562
-0.2500482500 -0.0916458294 0.5376587510 4281546562
-0.2496693432 -0.0909104869 0.5368440151 4281546562
-0.2492900938 -0.0901768208 0.5360285640 4281480769
-0.2489104718 -0.0894448459 0.5352122784 4281480769
-0.2481135130 -0.0885657072 0.5334986448 4281480769
-0.2477331311 -0.0878380761 0.5326807499 4281480769
-0.2477695197 -0.0872590467 0.5327589512 4281480769
-0.2478056699 -0.0866797566 0.5328367352 4281480769
-0.2486760765 -0.0863901228 0.5347082615 4281414976
-0.2487118989 -0.0858083740 0.5347852707 4281414976
-0.2491648346 -0.0853693783 0.5357592106 4281414976
-0.2487828285 -0.0846441388 0.5349377990 4281480769
-0.2488179505 -0.0840616524 0.5350133181 4281546562
-0.2492703795 -0.0836189836 0.5359861255 4281480769
-0.2493050843 -0.0830350220 0.5360607505 4281480769
-0.2493395656 -0.0824508220 0.5361348987 4281480769
-0.2493738085 -0.0818663836 0.5362085700 4281480769
-0.2489900440 -0.0811455473 0.5353834033 4281480769
-0.2486059368 -0.0804264322 0.5345574617 4281546562
-0.2478035986 -0.0795748606 0.5328322649 4281480769
-0.2482546121 -0.0791265965 0.5338020325 4281612096
-0.2470335364 -0.0781472251 0.5311764479 4281480510
-0.2479021400 -0.0778297484 0.5330441594 4281414974
-0.2479345202 -0.0772475898 0.5331137776 4281283388
-0.2479666620 -0.0766652003 0.5331828594 4281151804
-0.2467439473 -0.0756976753 0.5305537581 4281086011
-0.2471937239 -0.0752451047 0.5315209031 4281086009
-0.2472250462 -0.0746640116 0.5315882564 4280954423
-0.2476745099 -0.0742080435 0.5325546861 4280691251
-0.2481238544 -0.0737498999 0.5335208774 4280625458
-0.2477360964 -0.0730427951 0.5326871276 4280559667
-0.2477665395 -0.0724598393 0.5327525735 4280493874
-0.2473781705 -0.0717552602 0.5319175124 4280428081
-0.2474080920 -0.0711728707 0.5319818258 4280559667
-0.2466004193 -0.0703513846 0.5302451253 4280625460
-0.2474672049 -0.0700074583 0.5321089625 4280559667
-0.2458213121 -0.0689545646 0.5285699368 4280691253
-0.2462689131 -0.0684917644 0.5295323133 4280625460
-0.2471352369 -0.0681422874 0.5313951373 4280625458
-0.2463258505 -0.0673306286 0.5296547413 4280691251
-0.2459349930 -0.0666362420 0.5288143158 4280822837
-0.2459628135 -0.0660561696 0.5288741589 4280888630
-0.2459903955 -0.0654758960 0.5289334655 4280822839
-0.2460177541 -0.0648954287 0.5289922953 4280822839
-0.2464640290 -0.0644243285 0.5299518704 4280626230
-0.2464909405 -0.0638424903 0.5300097466 4280757816
-0.2469368726 -0.0633680448 0.5309686065 4280889402
-0.2465440780 -0.0626782402 0.5301240087 4281020988
-0.2474089563 -0.0623070411 0.5319836736 4281415746
-0.2470156252 -0.0616178550 0.5311379433 4281876297
-0.2470414042 -0.0610340908 0.5311933756 4282271055
-0.2470669299 -0.0604501441 0.5312482715 4282534227
-0.2470922172 -0.0598660149 0.5313026309 4283191904
-0.2471172661 -0.0592817105 0.5313565135 4283586662
-0.2471420765 -0.0586972274 0.5314098597 4284113006
-0.2471666485 -0.0581125692 0.5314626694 4284441971
-0.2471909821 -0.0575277358 0.5315150023 4284639350
-0.2472150624 -0.0569427349 0.5315667987 4284705143
-0.2464461923 -0.0549993180 0.5299135447 4284705143
-0.2765752971 -0.0385969095 0.5946977139 4283585886
-0.2808014154 -0.0385158285 0.6037847996 4288980394
-0.2666422725 -0.1407442987 0.5747120380 4290033857
-0.2666990459 -0.1401355863 0.5748344660 4283322971
-0.2667556107 -0.1395264864 0.5749563575 4281546560
-0.2664008439 -0.1387029439 0.5741916895 4281875268
-0.2660456598 -0.1378809065 0.5734261870 4282204233
-0.2656900883 -0.1370603740 0.5726597905 4281941061
-0.2657455206 -0.1364525557 0.5727792382 4281743682
-0.2645663321 -0.1352135092 0.5702376366 4282138186
-0.2654441297 -0.1350264400 0.5721296072 4282006600
-0.2634406388 -0.1333764344 0.5678113699 4281809221
-0.2622595131 -0.1321503967 0.5652655959 4281414463
-0.2581951022 -0.1294840574 0.5565053225 4281086009
-0.2594832182 -0.1295086443 0.5592816472 4280822837
-0.2603596449 -0.1293225586 0.5611706972 4280625458
-0.2558796108 -0.1264845282 0.5515145659 4280428079
-0.2551066577 -0.1254915297 0.5498485565 4280164907
-0.2543331683 -0.1245019659 0.5481814146 4279770149
-0.2539714277 -0.1237166896 0.5474017859 4279704356
-0.2536093295 -0.1229329556 0.5466212630 4279704356
-0.2540717125 -0.1225486547 0.5476179123 4279704356
-0.2532964647 -0.1215681359 0.5459469557 4279901735
-0.2529824376 -0.1202057451 0.5452700853 4280493872
-0.2530313432 -0.1196230352 0.5453755260 4281085752
-0.2530800402 -0.1190399900 0.5454804897 4281283131
-0.2531285286 -0.1184566095 0.5455849767 4281612096
-0.2537334859 -0.1163091883 0.5468888879 4281677635
-0.2537809610 -0.1157231927 0.5469911695 4281875014
-0.2538281977 -0.1151368693 0.5470929742 4281809221
-0.2538751960 -0.1145502254 0.5471943021 4281875014
-0.2539219856 -0.1139632538 0.5472951531 4281875014
-0.2539685369 -0.1133759543 0.5473955274 4281809221
-0.2540148795 -0.1127883345 0.5474954247 4281743428
-0.2544747889 -0.1123831272 0.5484866500 4281677635
-0.2545207441 -0.1117939129 0.5485857129 4281611842
-0.2541525662 -0.1110235527 0.5477921367 4281480256
-0.2533699870 -0.1100749373 0.5461054444 4281546049
-0.2534150779 -0.1094876528 0.5462026000 4281480256
-0.2522174716 -0.1083662212 0.5436213017 4281480256
-0.2506049573 -0.1070732698 0.5401457548 4281546049
-0.2514774501 -0.1068438143 0.5420262814 4281611842
-0.2519356012 -0.1064351425 0.5430138111 4281546049
-0.2511503994 -0.1055019647 0.5413213372 4281546303
-0.2507791519 -0.1047454625 0.5405212045 4281546303
-0.2512367368 -0.1043349281 0.5415074825 4281612096
-0.2508649230 -0.1035797521 0.5407060385 4281612096
-0.2513221800 -0.1031666920 0.5416916013 4281612096
-0.2517793477 -0.1027514040 0.5426769853 4281612096
-0.2509918511 -0.1018289551 0.5409796238 4281612096
-0.2514486313 -0.1014121175 0.5419641733 4281612096
-0.2514903247 -0.1008266732 0.5420540571 4281677889
-0.2511167228 -0.1000755280 0.5412487984 4281677889
-0.2515730262 -0.0996549204 0.5422323346 4281480510
-0.2507836521 -0.0987416506 0.5405309200 4281546303
-0.2508243024 -0.0981569886 0.5406185389 4281546303
-0.2512800694 -0.0977335870 0.5416008234 4281612096
-0.2513203323 -0.0971473977 0.5416876078 4281677889
-0.2509448826 -0.0964013115 0.5408784151 4281677889
-0.2509846091 -0.0958155319 0.5409640670 4281611842
-0.2510241270 -0.0952294692 0.5410491824 4281677635
-0.2514790595 -0.0947998241 0.5420297980 4281611842
-0.2515181601 -0.0942122340 0.5421140790 4281611842
-0.2507254481 -0.0933148786 0.5404054523 4281611842
-0.2495163977 -0.0922673568 0.5377994776 4281611842
-0.2487226427 -0.0913782045 0.5360887051 4281546050
-0.2491763681 -0.0909481794 0.5370666385 4281611843
-0.2471337020 -0.0896107852 0.5326639414 4281677636
-0.2484190613 -0.0894819573 0.5354343653 4281611843
-0.2472075224 -0.0884535536 0.5328230262 4281480769
-0.2476603389 -0.0880224779 0.5337990522 4281480769
-0.2472804487 -0.0872952789 0.5329802036 4281480769
-0.2481492758 -0.0870077386 0.5348528624 4281480769
-0.2486017048 -0.0865710303 0.5358279943 4281546562
-0.2486375421 -0.0859880745 0.5359052420 4281546562
-0.2490896732 -0.0855479315 0.5368797779 4281480769
-0.2491251081 -0.0849635005 0.5369561315 4281546562
-0.2491603047 -0.0843788236 0.5370320082 4281546560
-0.2496119738 -0.0839340240 0.5380055308 4281480767
-0.2496467680 -0.0833478719 0.5380805135 4281612353
-0.2492644936 -0.0826233178 0.5372565389 4281612353
-0.2492987514 -0.0820376575 0.5373303890 4281546560
-0.2493327707 -0.0814517662 0.5374037623 4281480767
-0.2489495724 -0.0807304010 0.5365777612 4281480767
-0.2489830703 -0.0801450089 0.5366500020 4281414974
-0.2477649897 -0.0791595876 0.5340245962 4281480508
-0.2486321926 -0.0788412318 0.5358937383 4281480508
-0.2482477129 -0.0781248212 0.5350650549 4281480510
-0.2482801676 -0.0775404572 0.5351349711 4281480510
-0.2470603883 -0.0765678585 0.5325058699 4281480510
-0.2470922023 -0.0759859905 0.5325744748 4281414717
-0.2479586601 -0.0756586418 0.5344420075 4281414717
-0.2475726306 -0.0749479681 0.5336099863 4281414717
-0.2481135726 -0.0727350339 0.5347759128 4280691253
-0.2468905896 -0.0717852712 0.5321399570 4280691253
-0.2473382801 -0.0713231191 0.5331048369 4280691253
-0.2461144179 -0.0703808218 0.5304669738 4280691253
-0.2465616316 -0.0699182525 0.5314309001 4280691253
-0.2461728007 -0.0692184642 0.5305928588 4280559667
-0.2466196418 -0.0687535033 0.5315559506 4280559667
-0.2458121926 -0.0679397434 0.5298156142 4280625458
-0.2458405048 -0.0673588365 0.5298766494 4280691251
-0.2458685935 -0.0667777285 0.5299371481 4280757044
-0.2463146150 -0.0663090050 0.5308985114 4280822837
-0.2459240407 -0.0656149313 0.5300566554 4280822837
-0.2459513992 -0.0650332347 0.5301156640 4280888630
-0.2459785342 -0.0644513443 0.5301741362 4280691253
-0.2460054159 -0.0638692677 0.5302320719 4280822839
-0.2460320741 -0.0632869974 0.5302895308 4280757046
-0.2464769632 -0.0628111809 0.5312483907 4280691253
-0.2465031743 -0.0622275434 0.5313048959 4280822839
-0.2469477206 -0.0617483817 0.5322630405 4280954425
-0.2469734997 -0.0611633845 0.5323186517 4281020216
-0.2469990402 -0.0605782047 0.5323736668 4281151802
-0.2470243573 -0.0599928461 0.5324282646 4281678148
-0.2470494211 -0.0594073050 0.5324822664 4282072906
-0.2470742464 -0.0588215888 0.5325357914 4282599251
-0.2470988184 -0.0582356974 0.5325887203 4282994009
-0.2467043102 -0.0575519204 0.5317384601 4283322974
-0.2471472621 -0.0570633933 0.5326931477 4283717732
-0.2467521876 -0.0563812628 0.5318416357 4284046697
-0.2467757612 -0.0557956770 0.5318924189 4284178283
-0.2459610701 -0.0550224595 0.5301364660 4284309869
-0.2464031428 -0.0545312725 0.5310893059 4284309869
-0.2772918940 -0.0387895517 0.5976659060 4282532944
