VERSION 0.7
FIELDS x y z rgba
SIZE 4 4 4 4
TYPE F F F U
COUNT 1 1 1 1
WIDTH 920
HEIGHT 1
VIEWPOINT 0.0 0.0 0.0 1.0 0.0 0.0 0.0
POINTS 920
DATA ascii
-0.2982261181 -0.1415824443 0.5482842326 4280824657
-0.2982887924 -0.1410028785 0.5483994484 4280693073
-0.2983512580 -0.1404229701 0.5485143065 4280693073
-0.2979471982 -0.1396241784 0.5477714539 4280496210
-0.2975427210 -0.1388268471 0.5470278263 4280364624
-0.2971378267 -0.1380309761 0.5462834239 4280299344
-0.2967324853 -0.1372365505 0.5455382466 4280299344
-0.2963267565 -0.1364435852 0.5447922349 4280233038
-0.2959205806 -0.1356520951 0.5440455079 4280167245
-0.2950471342 -0.1346490085 0.5424396992 4280167245
-0.2941730917 -0.1336492151 0.5408327579 4280167245
-0.2942324877 -0.1330751926 0.5409420133 4280167245
-0.2947587967 -0.1327111274 0.5419095755 4280167245
-0.2934161723 -0.1315072626 0.5394411683 4280101453
-0.2934746742 -0.1309340149 0.5395488143 4280035660
-0.2930655777 -0.1301528513 0.5387966037 4280035660
-0.2931235433 -0.1295798272 0.5389031768 4280035660
-0.2927136719 -0.1288007200 0.5381496549 4280166476
-0.2909003496 -0.1274085939 0.5348159075 4280232269
-0.2918927073 -0.1272469908 0.5366403461 4280232269
-0.2905458510 -0.1260663569 0.5341641903 4280298062
-0.2896662056 -0.1250929683 0.5325469375 4280233039
-0.2887859344 -0.1241229326 0.5309286118 4280298832
-0.2879050970 -0.1231562346 0.5293091536 4280298832
-0.2874918878 -0.1223922223 0.5285494924 4280364625
-0.2870782614 -0.1216297224 0.5277890563 4280495441
-0.2866642177 -0.1208687350 0.5270278454 4280429648
-0.2867182791 -0.1203058511 0.5271272659 4280495441
-0.2867721021 -0.1197426468 0.5272262096 4280495441
-0.2868256867 -0.1191791296 0.5273247361 4280364625
-0.2868790627 -0.1186152995 0.5274227858 4280364625
-0.2869321704 -0.1180511490 0.5275204778 4280364625
-0.2874540091 -0.1176786572 0.5284798145 4280364625
-0.2879757583 -0.1173040122 0.5294390917 4280495441
-0.2875592411 -0.1165469587 0.5286733508 4280495441
-0.2885499001 -0.1163590476 0.5304946303 4280626513
-0.2890713513 -0.1159788519 0.5314533114 4280494927
-0.2891234159 -0.1154091433 0.5315490365 4280298832
-0.2896446586 -0.1150255650 0.5325073600 4280496211
-0.2896963358 -0.1144543141 0.5326023102 4280562004
-0.2902173698 -0.1140673459 0.5335602164 4280693590
-0.2902686298 -0.1134945676 0.5336545110 4281219163
-0.2907894254 -0.1131042019 0.5346119404 4281613921
-0.2903704345 -0.1123481020 0.5338416696 4282205795
-0.2908909023 -0.1119552776 0.5347985625 4283850620
-0.2909412980 -0.1113803685 0.5348911881 4286284694
-0.3923961818 -0.1979152858 0.7228905559 4282270551
-0.3915553391 -0.1966897100 0.7213414907 4282402909
-0.3907137811 -0.1954672337 0.7197911739 4282139737
-0.3889432549 -0.1937853545 0.7165294290 4282008153
-0.3894927800 -0.1932619065 0.7175417542 4281942360
-0.3840058446 -0.1897533536 0.7074335217 4281745497
-0.3134950101 -0.1542693079 0.5775351524 4281548118
-0.3084530830 -0.1511568427 0.5682466626 4281350741
-0.3057319224 -0.1491975486 0.5632336140 4281284948
-0.3044035137 -0.1479262114 0.5607863665 4281285206
-0.3007500768 -0.1455352157 0.5540558696 4281219413
-0.2994195223 -0.1442784816 0.5516046286 4280956759
-0.2990182042 -0.1434730440 0.5508652925 4280890966
-0.2986164689 -0.1426690519 0.5501251817 4280759382
-0.2982143164 -0.1418665051 0.5493842959 4280627796
-0.2978117168 -0.1410654038 0.5486426353 4280496721
-0.2978741229 -0.1404852569 0.5487576127 4280496721
-0.2974707782 -0.1396861374 0.5480145216 4280496723
-0.2970669866 -0.1388884783 0.5472706556 4280365137
-0.2966627777 -0.1380922794 0.5465260148 4280299344
-0.2962581515 -0.1372975260 0.5457805991 4280299344
-0.2958531082 -0.1365042478 0.5450344086 4280299344
-0.2954476476 -0.1357124150 0.5442874432 4280233551
-0.2950417399 -0.1349220574 0.5435397029 4280101710
-0.2946354449 -0.1341331750 0.5427911878 4280101710
-0.2937624156 -0.1331344396 0.5411828160 4280167246
-0.2933551669 -0.1323494166 0.5404325724 4280167246
-0.2929475009 -0.1315658689 0.5396815538 4280101453
-0.2939391136 -0.1314095557 0.5415083766 4280035660
-0.2930642366 -0.1304185688 0.5398966074 4280166476
-0.2926554978 -0.1296376437 0.5391436219 4280166476
-0.2927131951 -0.1290640533 0.5392498970 4280232269
-0.2913698256 -0.1278753430 0.5367751122 4280166476
-0.2904927135 -0.1268958002 0.5351592302 4280232269
-0.2900821269 -0.1261226833 0.5344028473 4280232269
-0.2892039418 -0.1251488924 0.5327849984 4280363855
-0.2883251309 -0.1241784394 0.5311660171 4280429648
-0.2874457240 -0.1232113317 0.5295459628 4280429648
-0.2870332301 -0.1224469915 0.5287860036 4280495441
-0.2870878875 -0.1218826771 0.5288867354 4280561234
-0.2866746485 -0.1211204529 0.5281254649 4280495441
-0.2867287695 -0.1205564216 0.5282251239 4280561234
-0.2867826223 -0.1199920624 0.5283243656 4280495441
-0.2868362665 -0.1194273904 0.5284231901 4280561234
-0.2868896723 -0.1188624054 0.5285215378 4280495441
-0.2869428396 -0.1182971001 0.5286195278 4280495441
-0.2869957983 -0.1177314818 0.5287170410 4280561234
-0.2870484889 -0.1171655506 0.5288141370 4280627027
-0.2875693142 -0.1167895198 0.5297736526 4280561234
-0.2880900800 -0.1164113358 0.5307329893 4280232785
-0.2886107564 -0.1160309836 0.5316922069 4280430164
-0.2886627913 -0.1154610440 0.5317880511 4280430164
-0.2887145579 -0.1148907915 0.5318834782 4280495957
-0.2892348766 -0.1145058200 0.5328419805 4280824406
-0.2892862558 -0.1139340326 0.5329366922 4280955992
-0.2898063660 -0.1135456711 0.5338947773 4281218904
-0.2898573577 -0.1129723489 0.5339887142 4281679455
-0.2899080813 -0.1123987287 0.5340822339 4282271073
-0.2904278040 -0.1120057479 0.5350396633 4283586933
-0.3798482716 -0.1950955987 0.7012089491 4285231487
-0.3859497905 -0.1974378079 0.7124724984 4284244340
-0.3855734766 -0.1964544803 0.7117778659 4283586410
-0.3856596649 -0.1957073808 0.7119369507 4282863201
-0.3848194182 -0.1944916844 0.7103857994 4282336857
-0.3849048018 -0.1937453896 0.7105434537 4282402909
-0.3849899173 -0.1929985881 0.7107005715 4282205530
-0.3846113384 -0.1920199394 0.7100017071 4282073946
-0.3837687969 -0.1908121556 0.7084463239 4282008153
-0.3782896399 -0.1873119920 0.6983317137 4281811290
-0.3171648085 -0.1563952118 0.5854938030 4281613911
-0.3107405901 -0.1525900364 0.5736345053 4281482327
-0.3066327572 -0.1499439627 0.5660513639 4281482327
-0.3020589054 -0.1470877975 0.5576079488 4281350999
-0.2993391752 -0.1451494545 0.5525872707 4281285206
-0.2989389896 -0.1443422735 0.5518485308 4281022552
-0.2985383868 -0.1435365081 0.5511089563 4280890966
-0.2976729572 -0.1425098628 0.5495113730 4280759382
-0.2977358699 -0.1419293135 0.5496275425 4280627796
-0.2973339856 -0.1411278844 0.5488856435 4280496721
-0.2969316542 -0.1403279006 0.5481429100 4280496721
-0.2965289056 -0.1395293623 0.5473994613 4280496723
-0.2961257398 -0.1387322843 0.5466551781 4280365137
-0.2957221568 -0.1379366517 0.5459101200 4280299344
-0.2953181267 -0.1371424943 0.5451643467 4280299344
-0.2949136794 -0.1363497823 0.5444177389 4280299344
-0.2949740887 -0.1357727051 0.5445291996 4280233551
-0.2945688963 -0.1349820197 0.5437812209 4280167758
-0.2941632867 -0.1341928095 0.5430324674 4280036172
-0.2937572598 -0.1334050596 0.5422829390 4280167245
-0.2942820787 -0.1330398172 0.5432517529 4280167245
-0.2929439545 -0.1318340153 0.5407814980 4280101453
-0.2925948501 -0.1304766536 0.5401371121 4280035660
-0.2921868265 -0.1296954155 0.5393838882 4280101453
-0.2922444940 -0.1291215867 0.5394902825 4280101453
-0.2909033298 -0.1279323697 0.5370144844 4280101453
-0.2900276780 -0.1269524097 0.5353980064 4280232269
-0.2896178067 -0.1261789650 0.5346413851 4280232269
-0.2887410522 -0.1252047718 0.5330228806 4280363855
-0.2878637016 -0.1242339015 0.5314032435 4280429648
-0.2874523997 -0.1234668121 0.5306439996 4280495441
-0.2865739763 -0.1225017235 0.5290223956 4280495441
-0.2866285741 -0.1219371781 0.5291231871 4280561234
-0.2862160504 -0.1211746410 0.5283616781 4280495441
-0.2862701416 -0.1206103712 0.5284615159 4280561234
-0.2863239646 -0.1200457811 0.5285608768 4280561234
-0.2863775790 -0.1194808781 0.5286598206 4280495441
-0.2864309251 -0.1189156547 0.5287583470 4280495441
-0.2864840627 -0.1183501184 0.5288564563 4280495441
-0.2865369618 -0.1177842617 0.5289540887 4280561234
-0.2870571613 -0.1174093187 0.5299143791 4280561234
-0.2871096730 -0.1168419197 0.5300112963 4280627027
-0.2876296639 -0.1164635792 0.5309712291 4280298578
-0.2881495655 -0.1160830855 0.5319309831 4280430164
-0.2882015407 -0.1155129001 0.5320269465 4280430164
-0.2882532775 -0.1149424165 0.5321224332 4280495957
-0.2883047760 -0.1143716201 0.5322175026 4280824406
-0.2888241708 -0.1139852628 0.5331763029 4280955992
-0.2893434763 -0.1135967448 0.5341349244 4281350490
-0.2893944085 -0.1130231842 0.5342289805 4281811041
-0.2894451320 -0.1124493182 0.5343226194 4282468452
-0.2899640501 -0.1120561808 0.5352805257 4284047484
-0.3806215227 -0.1958943903 0.7040799856 4285232000
-0.3807072937 -0.1951560825 0.7042386532 4284310646
-0.3803306222 -0.1941813082 0.7035419345 4283521130
-0.3804157078 -0.1934428960 0.7036992908 4282928740
-0.3805005252 -0.1927039772 0.7038561702 4282402396
-0.3805850446 -0.1919645816 0.7040125132 4282468704
-0.3806692660 -0.1912246794 0.7041683197 4282205532
-0.3807532191 -0.1904843003 0.7043235898 4282008153
-0.3794486225 -0.1890517622 0.7019103765 4282008153
-0.3786059916 -0.1878537983 0.7003516555 4281745497
-0.3185057938 -0.1573791206 0.5891773105 4281548118
-0.3120923638 -0.1535687000 0.5773136020 4281416534
-0.3070653081 -0.1504639834 0.5680145025 4281416534
-0.3038887978 -0.1482829005 0.5621385574 4281416792
-0.3016373813 -0.1465643644 0.5579738021 4281285206
-0.2998481393 -0.1450787187 0.5546640754 4281022552
-0.2985214591 -0.1438232511 0.5522099137 4280890966
-0.2981212139 -0.1430177093 0.5514695644 4280759382
-0.2977205515 -0.1422135979 0.5507283807 4280693589
-0.2973194420 -0.1414109319 0.5499864221 4280627796
-0.2969179153 -0.1406097114 0.5492436886 4280627796
-0.2965159714 -0.1398099363 0.5485001802 4280562516
-0.2961136103 -0.1390116215 0.5477558970 4280496723
-0.2961750329 -0.1384317279 0.5478695035 4280365137
-0.2957719266 -0.1376354247 0.5471237898 4280299344
-0.2949039638 -0.1366254091 0.5455182195 4280299344
-0.2949644029 -0.1360471845 0.5456300378 4280299344
-0.2945600152 -0.1352552623 0.5448819995 4280167758
-0.2946199179 -0.1346772313 0.5449928045 4280101965
-0.2942147851 -0.1338873506 0.5442433953 4280101965
-0.2938092053 -0.1330989301 0.5434931517 4280101965
-0.2934032381 -0.1323119998 0.5427421927 4280101453
-0.2929968536 -0.1315265447 0.5419903994 4280035660
-0.2921248674 -0.1305347085 0.5403774381 4280035660
-0.2931133211 -0.1303739697 0.5422058702 4280035660
-0.2917751372 -0.1291790754 0.5397304893 4280101453
-0.2899707556 -0.1277842373 0.5363926888 4280101453
-0.2909586132 -0.1276215613 0.5382200480 4280298062
-0.2891528308 -0.1262352169 0.5348796844 4280298062
-0.2882775366 -0.1252606064 0.5332605839 4280429648
-0.2874016464 -0.1242893264 0.5316403508 4280495441
-0.2869910598 -0.1235219166 0.5308808088 4280561234
-0.2865800858 -0.1227560267 0.5301205516 4280561234
-0.2861686647 -0.1219916418 0.5293595791 4280627027
-0.2862230241 -0.1214265451 0.5294600725 4280561234
-0.2858108878 -0.1206642836 0.5286977291 4280561234
-0.2858646810 -0.1200994626 0.5287972093 4280561234
-0.2859182358 -0.1195343211 0.5288963318 4280495441
-0.2859715819 -0.1189688668 0.5289949775 4280495441
-0.2860246599 -0.1184030995 0.5290932059 4280495441
-0.2860775292 -0.1178370118 0.5291909575 4280561234
-0.2865969241 -0.1174619198 0.5301517844 4280561234
-0.2871162593 -0.1170846671 0.5311124325 4280627027
-0.2871685922 -0.1165157929 0.5312092304 4280430166
-0.2876877189 -0.1161351427 0.5321695209 4280430166
-0.2877396643 -0.1155647263 0.5322656035 4280430164
-0.2882585526 -0.1151806787 0.5332254767 4280561750
-0.2883101106 -0.1146087199 0.5333208442 4280824406
-0.2883614302 -0.1140364558 0.5334157348 4281021785
-0.2888799608 -0.1136477813 0.5343748927 4281416542
-0.2889308631 -0.1130739823 0.5344691277 4281942886
-0.2894491553 -0.1126819178 0.5354278684 4282666601
-0.2894996703 -0.1121065766 0.5355212688 4284508805
-0.3777001202 -0.1947910339 0.7001143098 4285560965
-0.3777852952 -0.1940569133 0.7002722025 4284573818
-0.3783315718 -0.1935583502 0.7012848258 4283586923
-0.3784162700 -0.1928223372 0.7014418244 4283191912
-0.3785007000 -0.1920858324 0.7015983462 4282599775
-0.3781231642 -0.1911154836 0.7008985281 4282666083
-0.3777451217 -0.1901464313 0.7001978159 4282337118
-0.3764428198 -0.1887156069 0.6977837682 4282073692
-0.3756016195 -0.1875203401 0.6962245107 4281942106
-0.3752217889 -0.1865579486 0.6955204606 4281745497
-0.3221510947 -0.1595080346 0.5971472859 4281548118
-0.3129751980 -0.1543201655 0.5801386237 4281350741
-0.3079566360 -0.1512113959 0.5708360672 4281350741
-0.3043231070 -0.1488005370 0.5641009212 4281351001
-0.3016129732 -0.1468542218 0.5590773225 4281285208
-0.2998268008 -0.1453670412 0.5557664037 4281022552
-0.2989651859 -0.1443335712 0.5541692972 4280890966
-0.2981029451 -0.1433033645 0.5525710583 4280825175
-0.2977030873 -0.1424980164 0.5518298745 4280759382
-0.2973027825 -0.1416941136 0.5510878563 4280759382
-0.2969020605 -0.1408916563 0.5503450632 4280759382
-0.2965009212 -0.1400906593 0.5496014953 4280562516
-0.2960993648 -0.1392911077 0.5488571525 4280562516
-0.2961608469 -0.1387100816 0.5489711165 4280430930
-0.2957585156 -0.1379125267 0.5482253432 4280365137
-0.2948921025 -0.1369011849 0.5466193557 4280299344
-0.2944888473 -0.1361074746 0.5458718538 4280299344
-0.2945490181 -0.1355286539 0.5459833741 4280233296
-0.2941449881 -0.1347369701 0.5452345014 4280101710
-0.2937405705 -0.1339467466 0.5444848537 4280167246
-0.2937998474 -0.1333687007 0.5445947647 4280167246
-0.2929304540 -0.1323707402 0.5429831743 4280101453
-0.2929890752 -0.1317938268 0.5430918932 4280035660
-0.2921186388 -0.1308006644 0.5414783955 4280035660
-0.2926411629 -0.1304319203 0.5424469113 4280035660
-0.2913051844 -0.1292365342 0.5399705768 4280035660
-0.2895037532 -0.1278411001 0.5366313457 4280035660
-0.2904900610 -0.1276783645 0.5384595990 4280232269
-0.2886872590 -0.1262914240 0.5351178646 4280298062
-0.2878134251 -0.1253163964 0.5334981084 4280429648
-0.2874040306 -0.1245462447 0.5327392817 4280495441
-0.2865291238 -0.1235769838 0.5311174989 4280561234
-0.2861188352 -0.1228107661 0.5303570032 4280627027
-0.2857081294 -0.1220460683 0.5295957327 4280627027
-0.2857624292 -0.1214807406 0.5296964049 4280627027
-0.2858165205 -0.1209150851 0.5297966003 4280561234
-0.2854047716 -0.1201530993 0.5290334225 4280561234
-0.2854582965 -0.1195877343 0.5291326046 4280495441
-0.2855115831 -0.1190220416 0.5292314291 4280495441
-0.2855646610 -0.1184560359 0.5293297768 4280495441
-0.2856174707 -0.1178897172 0.5294277072 4280495441
-0.2861360908 -0.1175144762 0.5303890109 4280561234
-0.2866546512 -0.1171370745 0.5313501954 4280627027
-0.2867069244 -0.1165679693 0.5314471126 4280364884
-0.2872252762 -0.1161871701 0.5324079394 4280364884
-0.2872771621 -0.1156165153 0.5325041413 4280430164
-0.2877952754 -0.1152323112 0.5334644914 4280561750
-0.2878468037 -0.1146601140 0.5335599780 4280890199
-0.2878980637 -0.1140876114 0.5336550474 4281021785
-0.2879491150 -0.1135148033 0.5337496400 4281416796
-0.2884666920 -0.1131247431 0.5347090364 4282074726
-0.2889841795 -0.1127325147 0.5356683135 4282929773
-0.2895016074 -0.1123381332 0.5366274118 4284903563
-0.3752457798 -0.1939245164 0.6969999075 4285889930
-0.3753304780 -0.1931937039 0.6971572638 4284771197
-0.3758755326 -0.1926985383 0.6981696486 4283718509
-0.3754990399 -0.1917305887 0.6974703074 4283455084
-0.3755829036 -0.1909982860 0.6976260543 4282862947
-0.3738227189 -0.1893316805 0.6943566203 4282863462
-0.3752887249 -0.1892996728 0.6970796585 4282534497
-0.3739881814 -0.1878718436 0.6946639419 4282271071
-0.3726867437 -0.1864489317 0.6922466159 4282073692
-0.3704617321 -0.1845712513 0.6881137490 4281942108
-0.3142460287 -0.1559149623 0.5836959481 4281678936
-0.3050834537 -0.1507392824 0.5666769147 4281416279
-0.3088427782 -0.1519593745 0.5736597180 4281416279
-0.3024450243 -0.1481873244 0.5617762208 4281351001
-0.3020482659 -0.1473695636 0.5610392690 4281285208
-0.2993413508 -0.1454310864 0.5560112596 4281219417
-0.2989432514 -0.1446207166 0.5552718043 4281087831
-0.2985447049 -0.1438117921 0.5545315146 4280890968
-0.2976834774 -0.1427825987 0.5529319048 4280825175
-0.2972840071 -0.1419774592 0.5521898270 4280759383
-0.2968840599 -0.1411737651 0.5514470339 4280759383
-0.2960211933 -0.1401525289 0.5498442650 4280693590
-0.2956203222 -0.1393526495 0.5490996838 4280627797
-0.2956817746 -0.1387713999 0.5492137671 4280496211
-0.2957429588 -0.1381897777 0.5493274927 4280430418
-0.2948780954 -0.1371771097 0.5477210283 4280430418
-0.2944756448 -0.1363821477 0.5469734669 4280364625
-0.2940727770 -0.1355886757 0.5462251306 4280298832
-0.2936694622 -0.1347966492 0.5454760194 4280167246
-0.2932657301 -0.1340061128 0.5447261333 4280167246
-0.2923982143 -0.1330062598 0.5431147218 4280167246
-0.2919935584 -0.1322195828 0.5423631072 4280101199
-0.2921103239 -0.1310667694 0.5425800085 4280035406
-0.2917045951 -0.1302827150 0.5418263674 4280101199
-0.2908346057 -0.1292939484 0.5402104259 4280101199
-0.2899640203 -0.1283085048 0.5385933518 4280101199
-0.2890928090 -0.1273263842 0.5369751453 4280297808
-0.2886851728 -0.1265510619 0.5362179875 4280363601
-0.2878128886 -0.1255746931 0.5345977545 4280429394
-0.2869400084 -0.1246016771 0.5329763889 4280495187
-0.2865309417 -0.1238327101 0.5322166085 4280560980
-0.2861214578 -0.1230652556 0.5314559937 4280626773
-0.2857115567 -0.1222993135 0.5306946039 4280626773
-0.2853012383 -0.1215348914 0.5299324989 4280626773
-0.2853552997 -0.1209690049 0.5300328732 4280560980
-0.2854090929 -0.1204027981 0.5301328301 4280560980
-0.2854626775 -0.1198362783 0.5302323103 4280560980
-0.2855159938 -0.1192694306 0.5303314328 4280495187
-0.2855691016 -0.1187022701 0.5304300785 4280495187
-0.2856220007 -0.1181347966 0.5305282474 4280560980
-0.2856746316 -0.1175670028 0.5306260586 4280626773
-0.2861923873 -0.1171894521 0.5315877795 4280626773
-0.2862446606 -0.1166201085 0.5316848159 4280364884
-0.2867621779 -0.1162391528 0.5326461196 4280430677
-0.2868140638 -0.1156682670 0.5327425003 4280495957
-0.2873313725 -0.1152839139 0.5337033868 4280561750
-0.2873828709 -0.1147114784 0.5337989926 4280825176
-0.2874341011 -0.1141387373 0.5338941813 4280956762
-0.2874850929 -0.1135656908 0.5339888930 4281482589
-0.2880018950 -0.1131754667 0.5349488258 4282140519
-0.2885186076 -0.1127830818 0.5359085798 4282995566
-0.2895014286 -0.1125698090 0.5377340913 4285166735
-0.3727966547 -0.1930571049 0.6938822865 4286218895
-0.3728808761 -0.1923296005 0.6940390468 4284902784
-0.3734247088 -0.1918378472 0.6950512528 4283915889
-0.3731318712 -0.1901441067 0.6945061684 4282994533
-0.3728374839 -0.1884520203 0.6939582229 4282600036
-0.3720810711 -0.1865307391 0.6925503612 4282073692
-0.3703203201 -0.1848822236 0.6892731190 4281876315
-0.3662550151 -0.1820951998 0.6817063689 4281613143
-0.3151861727 -0.1560529023 0.5866525173 4281416279
-0.3051148057 -0.1504354477 0.5679067969 4281482072
-0.3093297780 -0.1518739164 0.5757520199 4281416794
-0.2992522418 -0.1463072151 0.5569948554 4281351001
-0.2983940840 -0.1452705562 0.5553975701 4281285210
-0.2979965508 -0.1444607675 0.5546576977 4281153624
-0.2971372306 -0.1434296966 0.5530582070 4280956761
-0.2962772846 -0.1424018890 0.5514575839 4280825175
-0.2958782911 -0.1415982395 0.5507149696 4280759383
-0.2954788804 -0.1407960355 0.5499715209 4280759383
-0.2950790524 -0.1399952769 0.5492273569 4280693590
-0.2956025600 -0.1396323293 0.5502017140 4280627797
-0.2952020764 -0.1388326734 0.5494562984 4280496211
-0.2943390906 -0.1378181130 0.5478500724 4280430418
-0.2939376533 -0.1370222867 0.5471028686 4280364371
-0.2939980626 -0.1364424527 0.5472152829 4280364371
-0.2940582335 -0.1358622611 0.5473273396 4280232785
-0.2936557531 -0.1350689977 0.5465781689 4280101199
-0.2932528257 -0.1342772245 0.5458281636 4280166992
-0.2933121026 -0.1336977929 0.5459385514 4280101199
-0.2929084301 -0.1329080611 0.5451872349 4280232015
-0.2920415401 -0.1319107413 0.5435736179 4280232015
-0.2911740243 -0.1309167445 0.5419589281 4280232015
-0.2916949391 -0.1305477172 0.5429285169 4280232015
-0.2903634012 -0.1293513179 0.5404501557 4280297808
-0.2890310585 -0.1281600744 0.5379703045 4280363601
-0.2895511091 -0.1277918518 0.5389382243 4280363601
-0.2882175744 -0.1266072690 0.5364561677 4280429394
-0.2864198387 -0.1252252460 0.5331100225 4280429394
-0.2874024510 -0.1250604987 0.5349389911 4280495187
-0.2860669792 -0.1238877848 0.5324532986 4280560980
-0.2856582105 -0.1231200099 0.5316924453 4280560980
-0.2852490246 -0.1223537475 0.5309308171 4280560980
-0.2848394513 -0.1215890050 0.5301684737 4280560980
-0.2844294310 -0.1208257824 0.5294053555 4280626773
-0.2844831347 -0.1202602684 0.5295052528 4280560980
-0.2845365703 -0.1196944341 0.5296047330 4280560980
-0.2845897973 -0.1191282794 0.5297037959 4280560980
-0.2846427560 -0.1185618117 0.5298023820 4280495187
-0.2846955061 -0.1179950237 0.5299006104 4280560980
-0.2852125466 -0.1176194847 0.5308629274 4280626773
-0.2857295275 -0.1172417849 0.5318251848 4280626773
-0.2857817411 -0.1166722104 0.5319223404 4280430677
-0.2862984836 -0.1162911057 0.5328841805 4280496470
-0.2863503098 -0.1157199740 0.5329806805 4280495957
-0.2868668437 -0.1153354719 0.5339420438 4280627543
-0.2869182825 -0.1147627980 0.5340378284 4280890969
-0.2869695127 -0.1141898185 0.5341331363 4281088348
-0.2874856591 -0.1138006747 0.5350938439 4281614175
-0.2880017161 -0.1134093702 0.5360543728 4282272105
-0.2885177433 -0.1130158976 0.5370148420 4283324531
-0.2890336514 -0.1126202643 0.5379751325 4285824665
-0.3708116710 -0.1924269497 0.6916173697 4286679192
-0.3708955050 -0.1917018443 0.6917737722 4285232006
-0.3714382052 -0.1912126094 0.6927859783 4284179318
-0.3715215921 -0.1904856414 0.6929414868 4283455597
-0.3716047108 -0.1897581667 0.6930965185 4282995046
-0.3712280989 -0.1887965500 0.6923940778 4282994537
-0.3713105321 -0.1880690157 0.6925478578 4282665572
-0.3709330559 -0.1871091276 0.6918438077 4282271071
-0.3700953424 -0.1859196126 0.6902813315 4282073692
-0.3683372438 -0.1842731088 0.6870022416 4281876315
-0.3638183773 -0.1812584549 0.6785739064 4281678936
-0.3169728518 -0.1572626084 0.5912002325 4281482074
-0.3087590337 -0.1525475830 0.5758802891 4281547867
-0.3051438928 -0.1501290947 0.5691374540 4281482589
-0.3024475873 -0.1481757760 0.5641084909 4281416796
-0.2992894351 -0.1460082978 0.5582180619 4281351003
-0.2979718447 -0.1447480172 0.5557605624 4281153624
-0.2971140444 -0.1437156200 0.5541606545 4280956761
-0.2962556481 -0.1426864713 0.5525596142 4280890968
-0.2958574891 -0.1418815851 0.5518169999 4280825176
-0.2954588532 -0.1410781443 0.5510734916 4280759383
-0.2945988178 -0.1400569677 0.5494693518 4280628054
-0.2946603894 -0.1394756287 0.5495842099 4280496468
-0.2947217226 -0.1388939023 0.5496986508 4280430675
-0.2947828472 -0.1383118182 0.5498126149 4280364882
-0.2939209044 -0.1372983009 0.5482049584 4280430164
-0.2935198545 -0.1365026981 0.5474569798 4280364371
-0.2935799658 -0.1359222829 0.5475690961 4280232785
-0.2931781709 -0.1351286918 0.5468196869 4280166992
-0.2927759588 -0.1343365908 0.5460695028 4280232785
-0.2928352058 -0.1337569356 0.5461800098 4280166992
-0.2928942442 -0.1331769228 0.5462900996 4280232015
-0.2920288742 -0.1321782768 0.5446760654 4280232015
-0.2916250825 -0.1313911676 0.5439229608 4280232015
-0.2912208736 -0.1306055486 0.5431690216 4280232015
-0.2903538942 -0.1296150386 0.5415520072 4280232015
-0.2894863188 -0.1286278367 0.5399338603 4280297808
-0.2886181474 -0.1276439726 0.5383145809 4280297808
-0.2882120013 -0.1268670857 0.5375570655 4280429394
-0.2859545946 -0.1252808273 0.5333466530 4280429394
-0.2873984575 -0.1253178269 0.5360397100 4280495187
-0.2856024206 -0.1239428222 0.5326898098 4280626773
-0.2851943672 -0.1231747270 0.5319287181 4280626773
-0.2843228281 -0.1222091019 0.5303031802 4280560980
-0.2843770087 -0.1216430813 0.5304042697 4280626773
-0.2839677334 -0.1208795384 0.5296408534 4280626773
-0.2840213776 -0.1203137934 0.5297409296 4280626773
-0.2840747833 -0.1197477281 0.5298405290 4280560980
-0.2841279507 -0.1191813424 0.5299397111 4280560980
-0.2841809094 -0.1186146364 0.5300384760 4280560980
-0.2842335999 -0.1180476174 0.5301367640 4280560980
-0.2842860818 -0.1174802855 0.5302346945 4280626773
-0.2848021686 -0.1171033606 0.5311972499 4280626773
-0.2853181958 -0.1167242676 0.5321597457 4280496472
-0.2858341634 -0.1163430139 0.5331220627 4280562265
-0.2858859599 -0.1157716513 0.5332186818 4280496472
-0.2864017189 -0.1153869927 0.5341805816 4280562265
-0.2864530981 -0.1148140803 0.5342764854 4280956508
-0.2869686186 -0.1144260243 0.5352379680 4281285473
-0.2870196402 -0.1138515696 0.5353330970 4281877093
-0.2875349224 -0.1134601012 0.5362942219 4282535023
-0.2880501449 -0.1130664721 0.5372551680 4283653241
-0.2890299559 -0.1128521115 0.5390826464 4286613926
-0.3688303530 -0.1917961091 0.6893500090 4286679705
-0.3689138293 -0.1910734177 0.6895059943 4285297799
-0.3694554269 -0.1905867010 0.6905182004 4284310904
-0.3695384264 -0.1898621470 0.6906733513 4283521392
-0.3696211576 -0.1891370863 0.6908280253 4283192427
-0.3697036207 -0.1884115487 0.6909821630 4283191916
-0.3693270087 -0.1874526739 0.6902782321 4282797158
-0.3684910238 -0.1862631589 0.6887157559 4282336864
-0.3676543534 -0.1850767583 0.6871520281 4282139485
-0.3658987880 -0.1834331900 0.6838708520 4282007901
-0.3613869846 -0.1804208606 0.6754382253 4281810522
-0.3178327382 -0.1580165774 0.5940346122 4281613660
-0.3091733158 -0.1530693471 0.5778499842 4281613660
-0.3051048219 -0.1504214853 0.5702459216 4281547869
-0.3019534945 -0.1482407898 0.5643560290 4281482076
-0.2997199595 -0.1465218514 0.5601814985 4281285210
-0.2979449630 -0.1450354159 0.5568640232 4281153624
-0.2970887423 -0.1440016776 0.5552636981 4280956761
-0.2962318957 -0.1429712027 0.5536622405 4280890968
-0.2958345115 -0.1421650797 0.5529195666 4280890969
-0.2954367101 -0.1413604021 0.5521760583 4280890969
-0.2945781946 -0.1403378993 0.5505715013 4280693847
-0.2941794395 -0.1395370364 0.5498262048 4280496468
-0.2942407429 -0.1389550865 0.5499407649 4280430675
-0.2943018079 -0.1383727789 0.5500549078 4280430675
-0.2934413254 -0.1373588294 0.5484466553 4280364882
-0.2930409908 -0.1365629137 0.5476984382 4280299089
-0.2931010723 -0.1359822452 0.5478107333 4280233039
-0.2926999927 -0.1351883411 0.5470610857 4280233039
-0.2922984958 -0.1343959123 0.5463106632 4280232785
-0.2923576832 -0.1338160187 0.5464212894 4280166992
-0.2914942205 -0.1328154802 0.5448074341 4280166992
-0.2915527821 -0.1322367191 0.5449169278 4280101199
-0.2906882763 -0.1312409639 0.5433011651 4280166222
-0.2898231745 -0.1302485466 0.5416842699 4280166222
-0.2889574766 -0.1292594373 0.5400662422 4280166222
-0.2880911827 -0.1282736659 0.5384471416 4280166222
-0.2876860797 -0.1274958700 0.5376899838 4280232015
-0.2864126563 -0.1257419884 0.5353099704 4280429394
-0.2855441868 -0.1247677431 0.5336867571 4280495187
-0.2851372361 -0.1239978150 0.5329261422 4280626773
-0.2847298980 -0.1232293993 0.5321648121 4280692566
-0.2838598192 -0.1222633719 0.5305386782 4280626773
-0.2839139700 -0.1216971129 0.5306398869 4280692566
-0.2839678824 -0.1211305335 0.5307406187 4280626773
-0.2835589945 -0.1203672811 0.5299764276 4280626773
-0.2836123705 -0.1198009774 0.5300761461 4280560980
-0.2836655080 -0.1192343608 0.5301755071 4280560980
-0.2837184072 -0.1186674312 0.5302743912 4280626773
-0.2837710977 -0.1181001738 0.5303727984 4280626773
-0.2842865288 -0.1177243441 0.5313361883 4280626773
-0.2843388319 -0.1171555370 0.5314339399 4280692566
-0.2848540545 -0.1167762950 0.5323969126 4280562011
-0.2853692174 -0.1163948849 0.5333597660 4280562011
-0.2858843207 -0.1160113141 0.5343225002 4280562265
-0.2859359384 -0.1154384762 0.5344189405 4280628058
-0.2859872878 -0.1148653328 0.5345149636 4281022301
-0.2865020335 -0.1144771129 0.5354769826 4281417059
-0.2865529954 -0.1139024198 0.5355722308 4282074472
-0.2870674729 -0.1135108024 0.5365338326 4282666609
-0.2880457342 -0.1132994592 0.5383622050 4284047999
-0.2885601819 -0.1129025742 0.5393236876 4287271856
-0.3663953543 -0.1909262091 0.6862234473 4286876573
-0.3669358790 -0.1904443055 0.6872357726 4285560460
-0.3670186996 -0.1897235513 0.6873909235 4284376186
-0.3671012521 -0.1890023053 0.6875454783 4283520879
-0.3671835065 -0.1882805675 0.6876995564 4283257707
-0.3672654927 -0.1875583678 0.6878530979 4282994794
-0.3668891788 -0.1866026968 0.6871482730 4282731622
-0.3665123582 -0.1856483668 0.6864425540 4282468450
-0.3652185798 -0.1842330396 0.6840194464 4282336864
-0.3634655774 -0.1825923920 0.6807362437 4282008671
-0.3585023880 -0.1793530434 0.6714406610 4281811292
-0.3177703619 -0.1583141983 0.5951534510 4281613658
-0.3100425601 -0.1538190097 0.5806800723 4281613658
-0.3055223525 -0.1509406716 0.5722141266 4281482587
-0.3019176126 -0.1485314965 0.5654627681 4281416794
-0.2996878624 -0.1468109190 0.5612866879 4281219931
-0.2979159355 -0.1453229487 0.5579680204 4281088345
-0.2970612645 -0.1442878842 0.5563673377 4280956761
-0.2962059975 -0.1432560682 0.5547654629 4280825175
-0.2958094180 -0.1424487084 0.5540227294 4280759383
-0.2954124212 -0.1416428089 0.5532791615 4280759383
-0.2945554554 -0.1406189650 0.5516741872 4280628567
-0.2941575050 -0.1398168653 0.5509288311 4280496981
-0.2942188680 -0.1392337829 0.5510437489 4280365395
-0.2938201725 -0.1384336799 0.5502970219 4280299602
-0.2934210598 -0.1376350522 0.5495495200 4280299602
-0.2930215001 -0.1368378848 0.5488012433 4280299602
-0.2926215529 -0.1360421777 0.5480521321 4280233296
-0.2926813662 -0.1354609430 0.5481641889 4280167503
-0.2922806442 -0.1346672624 0.5474137068 4280233039
-0.2918795347 -0.1338750720 0.5466624498 4280233039
-0.2914779782 -0.1330843568 0.5459103584 4280167246
-0.2910760343 -0.1322951168 0.5451575518 4280101453
-0.2911343277 -0.1317157745 0.5452666879 4280101453
-0.2902708650 -0.1307210922 0.5436495543 4280035660
-0.2894068062 -0.1297297478 0.5420312881 4280166476
-0.2885421813 -0.1287417263 0.5404118896 4280232269
-0.2876769304 -0.1277570277 0.5387913585 4280166992
-0.2872722149 -0.1269795001 0.5380333662 4280232785
-0.2850222588 -0.1253918707 0.5338194370 4280298578
-0.2864615321 -0.1254289448 0.5365149975 4280364371
-0.2846714258 -0.1240527630 0.5331623554 4280495957
-0.2842648029 -0.1232840270 0.5324007869 4280495957
-0.2838577628 -0.1225168109 0.5316383839 4280495957
-0.2834503055 -0.1217511073 0.5308753252 4280561750
-0.2835041881 -0.1211843044 0.5309762359 4280561750
-0.2830960155 -0.1204207242 0.5302117467 4280495957
-0.2831493616 -0.1198541969 0.5303116441 4280430164
-0.2832024395 -0.1192873418 0.5304110646 4280364371
-0.2832553089 -0.1187201813 0.5305100679 4280430164
-0.2833079398 -0.1181526929 0.5306086540 4280495957
-0.2838225961 -0.1177767143 0.5315725803 4280495957
-0.2838748395 -0.1172076687 0.5316703916 4280561750
-0.2843892872 -0.1168282777 0.5326339006 4280364632
-0.2844411731 -0.1162576899 0.5327310562 4280562011
-0.2854179740 -0.1160629988 0.5345605612 4280627804
-0.2854695320 -0.1154899225 0.5346571207 4280562011
-0.2859836221 -0.1151027903 0.5356199145 4280890717
-0.2860347927 -0.1145281643 0.5357157588 4281417061
-0.2860857248 -0.1139532402 0.5358111858 4282140265
-0.2865994275 -0.1135614589 0.5367732644 4282798195
-0.2875761390 -0.1133500412 0.5386025906 4284048254
-0.2880897820 -0.1129529998 0.5395645499 4287601076
-0.3643393815 -0.1910103559 0.6837952137 4289508293
-0.3644222617 -0.1902938932 0.6839507818 4286942366
-0.3649616539 -0.1898145080 0.6849631071 4285692046
-0.3650441170 -0.1890961677 0.6851178408 4284441979
-0.3651262820 -0.1883773506 0.6852720380 4283652465
-0.3652081788 -0.1876580417 0.6854257584 4283191914
-0.3648326099 -0.1867042929 0.6847208738 4283060587
-0.3639992774 -0.1855187863 0.6831568480 4282797415
-0.3627078533 -0.1841042638 0.6807331443 4282468450
-0.3605006039 -0.1822321415 0.6765905619 4282336864
-0.3605799973 -0.1815203726 0.6767395735 4282008671
-0.3556245267 -0.1782841682 0.6674391031 4281811292
-0.3181635439 -0.1588405073 0.5971320271 4281613658
-0.3104487360 -0.1543415785 0.5826528072 4281613658
-0.3059362173 -0.1514601856 0.5741836429 4281416794
-0.3027957380 -0.1492740214 0.5682895780 4281351001
-0.2996536195 -0.1471001506 0.5623924136 4281154138
-0.2983430624 -0.1458346546 0.5599327683 4281022552
-0.2974900603 -0.1447973549 0.5583317876 4280956761
-0.2961779237 -0.1435410976 0.5558692217 4280890968
-0.2953235805 -0.1425112039 0.5542657375 4280825175
-0.2944686115 -0.1414845884 0.5526611209 4280759382
-0.2945305705 -0.1409001797 0.5527774096 4280628054
-0.2941334248 -0.1400968432 0.5520320535 4280562261
-0.2937358618 -0.1392949671 0.5512859225 4280365395
-0.2933378816 -0.1384945512 0.5505389571 4280365395
-0.2924803197 -0.1374797672 0.5489295125 4280299602
-0.2925406396 -0.1368980855 0.5490427017 4280299602
-0.2921413779 -0.1361020654 0.5482934117 4280299089
-0.2917417288 -0.1353075057 0.5475432873 4280233296
-0.2913416326 -0.1345144212 0.5467923880 4280233039
-0.2914007306 -0.1339340657 0.5469033718 4280167246
-0.2909999192 -0.1331430227 0.5461510420 4280035917
-0.2901388705 -0.1321440488 0.5445350409 4280035917
-0.2901969850 -0.1315653920 0.5446441770 4280035660
-0.2897949219 -0.1307788044 0.5438895226 4280035660
-0.2889323533 -0.1297870278 0.5422706008 4280035660
-0.2880691588 -0.1287985891 0.5406506062 4280035660
-0.2872053981 -0.1278134882 0.5390294790 4280101199
-0.2868013680 -0.1270356476 0.5382712483 4280166992
-0.2850156128 -0.1256503314 0.5349196792 4280232785
-0.2859921157 -0.1254844517 0.5367524028 4280364371
-0.2846656442 -0.1243088245 0.5342628360 4280495957
-0.2837991118 -0.1233386248 0.5326365232 4280561750
-0.2833927572 -0.1225710809 0.5318739414 4280561750
-0.2834469378 -0.1220034435 0.5319755673 4280627543
-0.2830398679 -0.1212380230 0.5312116146 4280561750
-0.2830934823 -0.1206706613 0.5313122272 4280561750
-0.2826856971 -0.1199073717 0.5305469036 4280495957
-0.2827387750 -0.1193402857 0.5306465030 4280430164
-0.2827915847 -0.1187728867 0.5307456255 4280495957
-0.2828441858 -0.1182051748 0.5308443308 4280495957
-0.2833580375 -0.1178290397 0.5318087339 4280495957
-0.2834102511 -0.1172597706 0.5319067240 4280561750
-0.2839238942 -0.1168802306 0.5328707695 4280430679
-0.2839757204 -0.1163093969 0.5329680443 4280496472
-0.2844891548 -0.1159264520 0.5339316130 4280627804
-0.2850025296 -0.1155413315 0.5348951221 4280627804
-0.2855158150 -0.1151540428 0.5358584523 4280890715
-0.2855669260 -0.1145791858 0.5359544158 4281417059
-0.2860800028 -0.1141884848 0.5369173288 4282206312
-0.2865929902 -0.1137956232 0.5378801227 4282995828
-0.2871058881 -0.1134005859 0.5388427377 4284377219
-0.2876187265 -0.1130033880 0.5398052335 4287930041
-0.2885939777 -0.1127847582 0.5416355729 4292271857
-0.3623704016 -0.1903749257 0.6815204024 4289574086
-0.3629088402 -0.1898994446 0.6825330853 4286942366
-0.3629911840 -0.1891840249 0.6826879382 4285692046
-0.3630732596 -0.1884681135 0.6828423142 4284573565
-0.3626988232 -0.1875158399 0.6821380854 4283784051
-0.3627802432 -0.1867998540 0.6822912097 4283257707
-0.3628613949 -0.1860834062 0.6824438572 4283126382
-0.3615726531 -0.1846669614 0.6800200939 4282863210
-0.3516848087 -0.1781471372 0.6614237428 4282336866
-0.3577011824 -0.1804472953 0.6727389097 4282008416
-0.3527534604 -0.1772142202 0.6634335518 4281811037
-0.3171819448 -0.1586812288 0.5965332389 4281679451
-0.3103940785 -0.1546367556 0.5837670565 4281613658
-0.3058891594 -0.1517532170 0.5752944946 4281482587
-0.3027540147 -0.1495652199 0.5693981647 4281416794
-0.3000746667 -0.1476145387 0.5643590689 4281154138
-0.2983089685 -0.1461226046 0.5610382557 4281022552
-0.2974575162 -0.1450839490 0.5594369173 4280956761
-0.2961477339 -0.1438262612 0.5569735169 4280890968
-0.2952949405 -0.1427950412 0.5553696752 4280759895
-0.2944415212 -0.1417670846 0.5537646413 4280759895
-0.2940455079 -0.1409619749 0.5530198812 4280693847
-0.2936490774 -0.1401583105 0.5522742867 4280562261
-0.2937104404 -0.1395738572 0.5523896217 4280496468
-0.2933132350 -0.1387721896 0.5516426563 4280430675
-0.2924572527 -0.1377560794 0.5500327349 4280364882
-0.2920591235 -0.1369582564 0.5492839813 4280299089
-0.2916605771 -0.1361619085 0.5485344529 4280299089
-0.2912616134 -0.1353670210 0.5477840900 4280167503
-0.2908622622 -0.1345736086 0.5470330119 4280298832
-0.2909213305 -0.1339930296 0.5471441150 4280167246
-0.2905212045 -0.1332016587 0.5463915467 4280035917
-0.2896616161 -0.1322022676 0.5447748899 4280035917
-0.2897197008 -0.1316233724 0.5448842049 4280035406
-0.2893183529 -0.1308364570 0.5441293120 4280035406
-0.2884572446 -0.1298442781 0.5425097942 4280101199
-0.2875955105 -0.1288554221 0.5408891439 4280035406
-0.2867332101 -0.1278699189 0.5392674208 4280035919
-0.2867895365 -0.1272957325 0.5393732786 4280101712
-0.2859262228 -0.1263150722 0.5377496481 4280233298
-0.2850623131 -0.1253377497 0.5361248851 4280364884
-0.2841978371 -0.1243637800 0.5344990492 4280496470
-0.2837927341 -0.1235934868 0.5337371230 4280496470
-0.2833872139 -0.1228247061 0.5329744816 4280496470
-0.2829812765 -0.1220574453 0.5322110057 4280562263
-0.2825749516 -0.1212917045 0.5314468145 4280496470
-0.2826285064 -0.1207241118 0.5315475464 4280562263
-0.2822214663 -0.1199605018 0.5307819843 4280496470
-0.2822744846 -0.1193931922 0.5308817029 4280430677
-0.2827878296 -0.1190194041 0.5318471789 4280496470
-0.2828404605 -0.1184505299 0.5319461823 4280430677
-0.2828928828 -0.1178813353 0.5320447683 4280430677
-0.2834058702 -0.1175028905 0.5330095291 4280496470
-0.2834578753 -0.1169321388 0.5331073999 4280496472
-0.2839706838 -0.1165502742 0.5340718031 4280562265
-0.2840223014 -0.1159779727 0.5341688991 4280693851
-0.2845348716 -0.1155927032 0.5351328850 4280693851
-0.2850473523 -0.1152052581 0.5360967517 4280956508
-0.2855597734 -0.1148156449 0.5370604992 4281417059
-0.2856107354 -0.1142393127 0.5371562839 4282403691
-0.2861229181 -0.1138462871 0.5381196141 4283259000
-0.2866350412 -0.1134510934 0.5390827656 4284640391
-0.2871470749 -0.1130537316 0.5400457382 4288193213
-0.2881207764 -0.1128350273 0.5418769717 4292469236
-0.3608602285 -0.1899783760 0.6801007986 4289574086
-0.3609424531 -0.1892658472 0.6802558303 4286942366
-0.3610244393 -0.1885528564 0.6804103255 4285757839
-0.3611061275 -0.1878393590 0.6805642843 4284639358
-0.3611875474 -0.1871253997 0.6807177663 4283849844
-0.3608131409 -0.1861758679 0.6800121069 4283323500
-0.3608939052 -0.1854618341 0.6801643372 4283126382
-0.3605186343 -0.1845140606 0.6794570684 4282797417
-0.3596870005 -0.1833352447 0.6778897047 4282534245
-0.3574867547 -0.1814651936 0.6737430096 4282336866
-0.3539170027 -0.1789120287 0.6670151949 4282074209
-0.3097454309 -0.1559338272 0.5837665796 4281811037
-0.3148323298 -0.1578354388 0.5933536887 4281614173
-0.3057734668 -0.1526536494 0.5762807131 4281614173
-0.3031010628 -0.1506847888 0.5712441206 4281548380
-0.3027101159 -0.1498565674 0.5705073476 4281482587
-0.3000353575 -0.1479041576 0.5654662848 4281219931
-0.2978159785 -0.1461864710 0.5612834692 4281088345
-0.2969659865 -0.1451473981 0.5596815348 4280956761
-0.2961153686 -0.1441115737 0.5580784082 4280890968
-0.2952641249 -0.1430790275 0.5564741492 4280825688
-0.2944122851 -0.1420497298 0.5548686981 4280825688
-0.2935598195 -0.1410237253 0.5532621145 4280759640
-0.2931641042 -0.1402197331 0.5525162816 4280628054
-0.2932254076 -0.1396350414 0.5526317954 4280496468
-0.2932864726 -0.1390499771 0.5527468920 4280364882
-0.2924320400 -0.1380325258 0.5511365533 4280299089
-0.2920347154 -0.1372334659 0.5503877997 4280233296
-0.2916369736 -0.1364358813 0.5496381521 4280233296
-0.2912388146 -0.1356397569 0.5488877892 4280167503
-0.2908402681 -0.1348451078 0.5481365919 4280233298
-0.2904412746 -0.1340519339 0.5473846197 4280167505
-0.2900418639 -0.1332602501 0.5466318727 4280101712
-0.2896420360 -0.1324700415 0.5458783507 4280035919
-0.2892417908 -0.1316813082 0.5451240540 4280035919
-0.2888411283 -0.1308940798 0.5443689227 4280035919
-0.2879814804 -0.1299014837 0.5427488089 4280101199
-0.2871212661 -0.1289122105 0.5411275625 4280101199
-0.2867191732 -0.1281313002 0.5403697491 4280101712
-0.2863166928 -0.1273518801 0.5396112204 4280167505
-0.2859137952 -0.1265739799 0.5388518572 4280299091
-0.2850514650 -0.1255953163 0.5372266769 4280430677
-0.2841885388 -0.1246200204 0.5356003642 4280496470
-0.2828658223 -0.1234476790 0.5331074595 4280496470
-0.2838388085 -0.1232779399 0.5349411964 4280496470
-0.2829743922 -0.1223099604 0.5333120823 4280496470
-0.2825688422 -0.1215429828 0.5325477719 4280430677
-0.2821629047 -0.1207775250 0.5317827463 4280496470
-0.2822162211 -0.1202093735 0.5318831801 4280430677
-0.2818095684 -0.1194460541 0.5311167836 4280430677
-0.2818622887 -0.1188781932 0.5312161446 4280496470
-0.2823747098 -0.1185030118 0.5321818590 4280496470
-0.2828870416 -0.1181256622 0.5331475139 4280496470
-0.2829392850 -0.1175549924 0.5332459211 4280562263
-0.2834514081 -0.1171742231 0.5342110991 4280562265
-0.2835032344 -0.1166019961 0.5343087912 4280628058
-0.2840151489 -0.1162178144 0.5352736115 4280693851
-0.2840666175 -0.1156440303 0.5353705287 4280759644
-0.2845782936 -0.1152564362 0.5363349319 4281022301
-0.2850899100 -0.1148666739 0.5372991562 4281548645
-0.2851408124 -0.1142900959 0.5373951197 4282535277
-0.2856522202 -0.1138969138 0.5383589268 4283522172
-0.2861635387 -0.1135015637 0.5393225551 4284771977
-0.2871356606 -0.1132858843 0.5411546826 4288390592
-0.2876469195 -0.1128852591 0.5421182513 4292600822
-0.3588979840 -0.1893416643 0.6778215170 4289508291
-0.3589798510 -0.1886315793 0.6779761314 4287008157
-0.3590614498 -0.1879210025 0.6781302094 4285955472
-0.3591427505 -0.1872099340 0.6782838106 4284902784
-0.3592238128 -0.1864984035 0.6784368753 4283916148
-0.3588497639 -0.1855511963 0.6777304411 4283258218
-0.3589301705 -0.1848396063 0.6778823137 4283126382
-0.3581002653 -0.1836607903 0.6763149500 4282863210
-0.3572697043 -0.1824851036 0.6747462749 4282469222
-0.3550727665 -0.1806178838 0.6705971360 4282337636
-0.3533298671 -0.1789899021 0.6673054695 4282140002
-0.3256268501 -0.1642728001 0.6149850488 4281811037
-0.3129436076 -0.1572176665 0.5910311937 4281614173
-0.3089113533 -0.1545436978 0.5834158063 4281679966
-0.3053327799 -0.1521126926 0.5766572952 4281679966
-0.3026640415 -0.1501480490 0.5716170073 4281548380
-0.2999938726 -0.1481939107 0.5665740967 4281285724
-0.2977783382 -0.1464745998 0.5623897910 4281088345
-0.2969298959 -0.1454341859 0.5607874393 4280891481
-0.2956246436 -0.1441745460 0.5583223104 4280825688
-0.2947748899 -0.1431415677 0.5567173958 4280825688
-0.2939244807 -0.1421118528 0.5551113486 4280891481
-0.2935299873 -0.1413051784 0.5543662906 4280825433
-0.2926784754 -0.1402810961 0.5527580976 4280693847
-0.2927397192 -0.1396961808 0.5528737903 4280430675
-0.2928007543 -0.1391108930 0.5529890656 4280299089
-0.2924046814 -0.1383091211 0.5522409678 4280299091
-0.2920081615 -0.1375088245 0.5514920950 4280299091
-0.2911541462 -0.1364957243 0.5498792529 4280233298
-0.2907567024 -0.1356992722 0.5491285920 4280167505
-0.2908160985 -0.1351167411 0.5492408276 4280233298
-0.2899605632 -0.1341108084 0.5476250052 4280167505
-0.2895618677 -0.1333187819 0.5468720198 4280232787
-0.2891627550 -0.1325282604 0.5461182594 4280166994
-0.2887632251 -0.1317391992 0.5453637242 4280101201
-0.2883633077 -0.1309516430 0.5446083546 4280101201
-0.2875051200 -0.1299586296 0.5429876447 4280035921
-0.2871042788 -0.1291749775 0.5422305465 4280101714
-0.2862449884 -0.1281877160 0.5406076908 4280364371
-0.2858432233 -0.1274079829 0.5398489237 4280364371
-0.2854410410 -0.1266297549 0.5390893221 4280430164
-0.2845801711 -0.1256506890 0.5374634862 4280430164
-0.2837187350 -0.1246749833 0.5358365774 4280495957
-0.2823982537 -0.1235021502 0.5333427191 4280561750
-0.2833696604 -0.1233323589 0.5351772904 4280561750
-0.2825067341 -0.1223639697 0.5335475802 4280561750
-0.2821019292 -0.1215966716 0.5327830315 4280561750
-0.2816967070 -0.1208308935 0.5320177078 4280495957
-0.2817499638 -0.1202625185 0.5321183205 4280561750
-0.2813440263 -0.1194988713 0.5313516259 4280495957
-0.2813967168 -0.1189307794 0.5314511657 4280495957
-0.2819083333 -0.1185554564 0.5324174166 4280561750
-0.2819606662 -0.1179857999 0.5325162411 4280693336
-0.2824720740 -0.1176070496 0.5334820747 4280693336
-0.2829833925 -0.1172261387 0.5344477892 4280628058
-0.2834946513 -0.1168430448 0.5354133844 4280693851
-0.2835462987 -0.1162693426 0.5355108976 4280759642
-0.2835977077 -0.1156953201 0.5356079936 4280759642
-0.2845683396 -0.1154941544 0.5374411345 4281154141
-0.2850792408 -0.1151033044 0.5384060144 4281614692
-0.2851301730 -0.1145255566 0.5385022759 4282601070
-0.2856408656 -0.1141312942 0.5394667387 4283719551
-0.2861514688 -0.1137348488 0.5404310822 4285035149
-0.2880423665 -0.1138819978 0.5440022945 4288522178
-0.2871724367 -0.1129354462 0.5423592925 4292600822
-0.3564859629 -0.1884644926 0.6746813059 4289508545
-0.3570209742 -0.1879966110 0.6756939292 4287074204
-0.3571022153 -0.1872884631 0.6758476496 4286152851
-0.3571831584 -0.1865798384 0.6760008335 4285100163
-0.3572638333 -0.1858707219 0.6761535406 4284047734
-0.3568902016 -0.1849258542 0.6754463911 4283389804
-0.3569702208 -0.1842166930 0.6755978465 4283257968
-0.3561414778 -0.1830401123 0.6740293503 4282929003
-0.3553120196 -0.1818666756 0.6724596024 4282535015
-0.3503917456 -0.1786114126 0.6631475091 4282403429
-0.3441052735 -0.1746833175 0.6512498260 4282140002
-0.3182651699 -0.1608964652 0.6023451090 4281876830
-0.3106039762 -0.1563702822 0.5878456235 4281614173
-0.3079426885 -0.1543829292 0.5828089118 4281614173
-0.3048250079 -0.1521789283 0.5769084096 4281614689
-0.2998854518 -0.1490823478 0.5675598383 4281483103
-0.2976744473 -0.1473572403 0.5633753538 4281351517
-0.2963727415 -0.1460896432 0.5609117746 4281154138
-0.2955256104 -0.1450506300 0.5593084693 4280957274
-0.2937669158 -0.1435696930 0.5559799671 4280891481
-0.2942849696 -0.1432040632 0.5569604635 4280825688
-0.2938916981 -0.1423946917 0.5562161803 4280891481
-0.2930422723 -0.1413669139 0.5546085238 4280825435
-0.2926480472 -0.1405613720 0.5538624525 4280693849
-0.2927093506 -0.1399753094 0.5539784431 4280496470
-0.2927704453 -0.1393888742 0.5540940762 4280299091
-0.2919190228 -0.1383696645 0.5524826646 4280364884
-0.2915232182 -0.1375690401 0.5517336130 4280364884
-0.2911269963 -0.1367698759 0.5509837270 4280233298
-0.2907303572 -0.1359722018 0.5502330661 4280233298
-0.2903333008 -0.1351759881 0.5494815707 4280167507
-0.2894792557 -0.1341696233 0.5478652120 4280233300
-0.2890812755 -0.1333772838 0.5471119881 4280232787
-0.2886828780 -0.1325864196 0.5463579893 4280166994
-0.2882840633 -0.1317970604 0.5456032157 4280166994
-0.2874278724 -0.1308012158 0.5439828038 4280166994
-0.2870281339 -0.1300157458 0.5432262421 4280101201
-0.2866279781 -0.1292317659 0.5424689054 4280232787
-0.2862274349 -0.1284492910 0.5417108536 4280298578
-0.2853691280 -0.1274640411 0.5400864482 4280298578
-0.2845102549 -0.1264821440 0.5384609103 4280430166
-0.2841082811 -0.1257060170 0.5377001762 4280430166
-0.2832483053 -0.1247299090 0.5360726118 4280495959
-0.2828454375 -0.1239577308 0.5353101492 4280561752
-0.2819843888 -0.1229874194 0.5336804986 4280627543
-0.2820384800 -0.1224179342 0.5337828398 4280627543
-0.2816343904 -0.1216503158 0.5330181122 4280693336
-0.2812298834 -0.1208842248 0.5322525501 4280561750
-0.2812830806 -0.1203156114 0.5323532224 4280561752
-0.2808778584 -0.1195516586 0.5315863490 4280561752
-0.2809305489 -0.1189833283 0.5316860080 4280495959
-0.2814413309 -0.1186078563 0.5326527357 4280561752
-0.2814936340 -0.1180379689 0.5327516794 4280693336
-0.2820042372 -0.1176590770 0.5337180495 4280693336
-0.2825147510 -0.1172780097 0.5346843004 4280628058
-0.2830252349 -0.1168947741 0.5356503725 4280759644
-0.2830768228 -0.1163208261 0.5357480645 4280693849
-0.2831282020 -0.1157465726 0.5358452797 4280759642
