VERSION 0.7
FIELDS x y z rgba
SIZE 4 4 4 4
TYPE F F F U
COUNT 1 1 1 1
WIDTH 920
HEIGHT 1
VIEWPOINT 0.0 0.0 0.0 1.0 0.0 0.0 0.0
POINTS 920
DATA ascii
-0.3719330132 -0.1051331013 0.4745069742 4280560972
-0.3725957572 -0.1047922820 0.4753524661 4280429386
-0.3726505041 -0.1042794511 0.4754223228 4280691790
-0.3720970154 -0.1035971195 0.4747161865 4280560204
-0.3727592528 -0.1032531187 0.4755610526 4280429388
-0.3728132546 -0.1027396172 0.4756299555 4280560974
-0.3728669882 -0.1022258922 0.4756985009 4280560720
-0.3735288382 -0.1018778682 0.4765428603 4280363341
-0.3735821545 -0.1013628617 0.4766108990 4280429134
-0.3736352026 -0.1008476391 0.4766785800 4280758099
-0.3736880124 -0.1003321931 0.4767459631 4280955992
-0.3737405837 -0.0998165235 0.4768130183 4281153371
-0.3737928569 -0.0993006453 0.4768797159 4281088094
-0.3738449216 -0.0987845510 0.4769461155 4281088094
-0.3745056391 -0.0984282866 0.4777890742 4281285473
-0.3751662970 -0.0980701223 0.4786319137 4281351266
-0.3758268356 -0.0977100581 0.4794746339 4281219680
-0.3758780956 -0.0971905887 0.4795400202 4281088094
-0.3759290874 -0.0966708958 0.4796051085 4280825688
-0.3765892088 -0.0963068306 0.4804472625 4280759895
-0.3766397536 -0.0957858786 0.4805117548 4280823641
-0.3766900599 -0.0952647179 0.4805759192 4280757848
-0.3773497045 -0.0948966518 0.4814175069 4280889947
-0.3780092597 -0.0945266932 0.4822589457 4280955740
-0.3774491847 -0.0938516036 0.4815443754 4280759640
-0.3793280721 -0.0937810913 0.4839414358 4280759640
-0.3793773651 -0.0932555199 0.4840043485 4280956762
-0.3800364137 -0.0928788260 0.4848451614 4280890969
-0.3782550097 -0.0919072852 0.4825724661 4280890715
-0.3783033788 -0.0913827941 0.4826341569 4281417059
-0.3777412176 -0.0907115564 0.4819169939 4281679964
-0.3859341443 -0.1371850669 0.4930680394 4282074464
-0.3860045969 -0.1366621852 0.4931580722 4281745757
-0.3860748410 -0.1361390203 0.4932478070 4281482585
-0.3861448169 -0.1356155574 0.4933372140 4281285461
-0.3862145543 -0.1350918263 0.4934262931 4281285461
-0.3862840533 -0.1345677972 0.4935151041 4281547351
-0.3857505620 -0.1338343769 0.4928334951 4281415765
-0.3852165937 -0.1331023127 0.4921513498 4281152593
-0.3858880997 -0.1327865571 0.4930092394 4281021007
-0.3835442662 -0.1314355880 0.4900147617 4281086800
-0.3824056685 -0.1305025816 0.4885601103 4281086800
-0.3830762208 -0.1301876456 0.4894167781 4281086799
-0.3819366097 -0.1292581856 0.4879608154 4281086799
-0.3820032775 -0.1287384927 0.4880459905 4281086799
-0.3820697069 -0.1282185316 0.4881308675 4281086799
-0.3821358979 -0.1276983023 0.4882154167 4280955213
-0.3822018206 -0.1271778047 0.4882996678 4280889420
-0.3816636205 -0.1264569461 0.4876120687 4280823625
-0.3805209696 -0.1255382001 0.4861522019 4280757832
-0.3799817562 -0.1248209178 0.4854632914 4280692039
-0.3794420660 -0.1241050214 0.4847738147 4280626246
-0.3789019585 -0.1233905107 0.4840837717 4280626248
-0.3783613741 -0.1226773933 0.4833931327 4280626248
-0.3778203726 -0.1219656542 0.4827019274 4280560455
-0.3778835237 -0.1214496344 0.4827826023 4280428869
-0.3779464066 -0.1209333539 0.4828629494 4280494662
-0.3774042428 -0.1202241480 0.4821702838 4280428869
-0.3768616319 -0.1195163429 0.4814770520 4280363076
-0.3769235909 -0.1190009490 0.4815562069 4280428869
-0.3769853115 -0.1184853017 0.4816350341 4280428870
-0.3770467639 -0.1179694012 0.4817135632 4280428870
-0.3765026629 -0.1172647178 0.4810184240 4280297284
-0.3771689236 -0.1169368401 0.4818696678 4280165698
-0.3760186434 -0.1160464436 0.4804000556 4280165698
-0.3760789037 -0.1155312061 0.4804770350 4280099905
-0.3755332232 -0.1148305014 0.4797798991 4280099651
-0.3755929172 -0.1143155918 0.4798561335 4280165444
-0.3756523430 -0.1138004437 0.4799320698 4280231237
-0.3757115006 -0.1132850498 0.4800076783 4280428616
-0.3751643598 -0.1125875190 0.4793086350 4280560456
-0.3752229512 -0.1120724753 0.4793834686 4280560456
-0.3752812743 -0.1115571856 0.4794579744 4280625995
-0.3747330010 -0.1108622625 0.4787575006 4280625995
-0.3747907281 -0.1103473306 0.4788312614 4280494411
-0.3742416501 -0.1096544340 0.4781297743 4280231239
-0.3730854988 -0.1087860838 0.4766526818 4280034630
-0.3737489581 -0.1084489971 0.4775002897 4280232009
-0.3738054931 -0.1079347879 0.4775725305 4280429386
-0.3720410466 -0.1068971902 0.4753182828 4280560972
-0.3720968068 -0.1063850224 0.4753895104 4280560974
-0.3721523285 -0.1058726236 0.4754604399 4280560974
-0.3722075820 -0.1053600013 0.4755310416 4280560974
-0.3722625971 -0.1048471481 0.4756013453 4280495181
-0.3723173440 -0.1043340638 0.4756712914 4280757583
-0.3723718524 -0.1038207561 0.4757409394 4280494411
-0.3724261224 -0.1033072248 0.4758102596 4280494409
-0.3718724847 -0.1026257798 0.4751029313 4280691788
-0.3719261587 -0.1021126360 0.4751715064 4280823374
-0.3725873530 -0.1017652899 0.4760162532 4280494409
-0.3726406097 -0.1012508646 0.4760842919 4280297548
-0.3726935983 -0.1007362232 0.4761519730 4280626513
-0.3727463186 -0.1002213582 0.4762193561 4281021271
-0.3727988005 -0.0997062847 0.4762863815 4281218650
-0.3728510141 -0.0991909876 0.4763531089 4281284956
-0.3729029596 -0.0986754745 0.4764194787 4281284956
-0.3747799098 -0.0986401364 0.4788174331 4281350749
-0.3748316169 -0.0981216729 0.4788835049 4281350749
-0.3754916191 -0.0977614373 0.4797267318 4281350750
-0.3755428791 -0.0972416997 0.4797922373 4281350750
-0.3755939007 -0.0967217535 0.4798574150 4281153371
-0.3756446540 -0.0962015912 0.4799222350 4280955992
-0.3763040304 -0.0958362967 0.4807646871 4280758359
-0.3763543367 -0.0953148752 0.4808289409 4280692566
-0.3770134747 -0.0949466303 0.4816710353 4280758612
-0.3782816231 -0.0947290286 0.4832912385 4280824405
-0.3777221739 -0.0940527543 0.4825764596 4280955481
-0.3783808947 -0.0936796665 0.4834180474 4280889688
-0.3784301281 -0.0931546763 0.4834809601 4281021271
-0.3778696358 -0.0924803168 0.4827648699 4281087064
-0.3785278201 -0.0921040773 0.4836057723 4281086548
-0.3779666424 -0.0914310068 0.4828887880 4281612892
-0.3774050474 -0.0907594264 0.4821712971 4282007397
-0.3855847418 -0.1372556388 0.4933216870 4282205280
-0.3862568736 -0.1369458288 0.4941816032 4281745244
-0.3857254684 -0.1362091005 0.4935017228 4281482072
-0.3857954443 -0.1356853992 0.4935912788 4281416534
-0.3858652115 -0.1351614147 0.4936805069 4281416534
-0.3859347105 -0.1346371472 0.4937694371 4281547351
-0.3854017556 -0.1339033693 0.4930875897 4281415765
-0.3842660785 -0.1329625547 0.4916345775 4281218385
-0.3843345046 -0.1324398965 0.4917221367 4281021006
-0.3831976950 -0.1315034330 0.4902676642 4281086799
-0.3820602000 -0.1305699646 0.4888123274 4281086799
-0.3821274638 -0.1300497502 0.4888983965 4281021006
-0.3821945190 -0.1295292675 0.4889841676 4281021006
-0.3822613060 -0.1290085167 0.4890696406 4281021006
-0.3817248046 -0.1282848269 0.4883832335 4281086799
-0.3805847168 -0.1273606718 0.4869245887 4281086797
-0.3818569481 -0.1272436082 0.4885523021 4281021004
-0.3813192844 -0.1265223920 0.4878644049 4280955211
-0.3807811737 -0.1258025616 0.4871759415 4280757832
-0.3802426159 -0.1250841022 0.4864869118 4280692039
-0.3797036111 -0.1243670359 0.4857972860 4280626246
-0.3791641593 -0.1236513555 0.4851070940 4280429639
-0.3786242306 -0.1229370609 0.4844163060 4280495432
-0.3780838549 -0.1222241521 0.4837249815 4280429639
-0.3781471252 -0.1217070594 0.4838058949 4280363846
-0.3782101274 -0.1211897060 0.4838865101 4280363846
-0.3776686192 -0.1204793230 0.4831936955 4280298053
-0.3771266639 -0.1197703481 0.4825003147 4280232005
-0.3771887124 -0.1192538738 0.4825797081 4280297798
-0.3772505522 -0.1187371537 0.4826588035 4280232005
-0.3773120940 -0.1182201728 0.4827375710 4280232005
-0.3767686486 -0.1175143123 0.4820422828 4280166212
-0.3768296242 -0.1169976592 0.4821203053 4280100419
-0.3756804466 -0.1161068231 0.4806500077 4280100421
-0.3757407069 -0.1155913323 0.4807271063 4280034628
-0.3758007586 -0.1150755882 0.4808039069 4280034628
-0.3752552867 -0.1143751293 0.4801060259 4280034628
-0.3753147125 -0.1138597280 0.4801820815 4280231237
-0.3753738999 -0.1133440807 0.4802578092 4280428616
-0.3754328191 -0.1128281951 0.4803332090 4280626249
-0.3748858869 -0.1121309102 0.4796334505 4280560456
-0.3749442101 -0.1116153747 0.4797080755 4280560202
-0.3750023246 -0.1110995933 0.4797824025 4280560202
-0.3744542301 -0.1104049236 0.4790811837 4280428616
-0.3745117188 -0.1098894998 0.4791547358 4280165444
-0.3727506697 -0.1088429019 0.4769016206 4280034630
-0.3734135628 -0.1085056514 0.4777497649 4280232009
-0.3722575605 -0.1076405719 0.4762707353 4280429386
-0.3723136783 -0.1071275473 0.4763425291 4280560972
-0.3717630804 -0.1064406484 0.4756380916 4280560974
-0.3718186021 -0.1059280038 0.4757091403 4280495181
-0.3718738854 -0.1054151207 0.4757798612 4280429388
-0.3719289005 -0.1049020141 0.4758502543 4280429388
-0.3719836771 -0.1043886840 0.4759203196 4280691531
-0.3720381856 -0.1038751230 0.4759900570 4280625738
-0.3720924556 -0.1033613384 0.4760594964 4280494409
-0.3715393841 -0.1026795506 0.4753518701 4280691788
-0.3715930283 -0.1021661535 0.4754205346 4280823374
-0.3722537160 -0.1018186361 0.4762658179 4280494409
-0.3723069727 -0.1013039649 0.4763339460 4280297802
-0.3723599613 -0.1007890627 0.4764017463 4280626767
-0.3724127114 -0.1002739519 0.4764692187 4280889685
-0.3724651933 -0.0997586101 0.4765363634 4281152857
-0.3725174069 -0.0992430598 0.4766031802 4281219163
-0.3731771708 -0.0988883451 0.4774472713 4281284956
-0.3738368154 -0.0985317379 0.4782912433 4281350749
-0.3744964004 -0.0981732234 0.4791351259 4281350749
-0.3745478392 -0.0976542905 0.4792009592 4281350750
-0.3758152723 -0.0974505097 0.4808225036 4281416543
-0.3758663535 -0.0969294608 0.4808878899 4281153371
-0.3759171963 -0.0964081958 0.4809529185 4280955992
-0.3759677708 -0.0958867222 0.4810176194 4280692820
-0.3766265512 -0.0955193490 0.4818604589 4280692820
-0.3766766787 -0.0949966162 0.4819245934 4280824146
-0.3767265677 -0.0944736674 0.4819884002 4280955732
-0.3767761588 -0.0939505175 0.4820518792 4281021274
-0.3768255115 -0.0934271589 0.4821150303 4280823895
-0.3774834573 -0.0930536762 0.4829567969 4281021271
-0.3769234121 -0.0923798233 0.4822402894 4281021271
-0.3769719899 -0.0918558538 0.4823024273 4281020755
-0.3770202696 -0.0913316831 0.4823642075 4281481306
-0.3770683110 -0.0908073038 0.4824256599 4281875811
-0.3777253032 -0.0904285833 0.4832662344 4281744225
-0.3846338391 -0.1371119916 0.4928053617 4282205280
-0.3853053153 -0.1368028522 0.4936656654 4281745244
-0.3847743571 -0.1360665858 0.4929853678 4281482072
-0.3848442435 -0.1355434656 0.4930749238 4281416534
-0.3849138916 -0.1350200474 0.4931641519 4281482327
-0.3849832714 -0.1344963610 0.4932530820 4281613143
-0.3844507933 -0.1337630451 0.4925708473 4281481557
-0.3833160996 -0.1328225881 0.4911170304 4281218385
-0.3845881522 -0.1327158809 0.4927468300 4281021006
-0.3822486103 -0.1313643903 0.4897493124 4281021006
-0.3817141652 -0.1306373477 0.4890646040 4281086799
-0.3811792731 -0.1299116611 0.4883792698 4281021004
-0.3812462091 -0.1293917596 0.4884650409 4281021004
-0.3813129067 -0.1288715750 0.4885504842 4281021004
-0.3813793659 -0.1283511221 0.4886356294 4281086797
-0.3808429539 -0.1276284605 0.4879483581 4281086797
-0.3815115094 -0.1273094118 0.4888049364 4281021004
-0.3809744120 -0.1265878379 0.4881168008 4280955211
-0.3810397685 -0.1260671318 0.4882005453 4280823625
-0.3805018663 -0.1253475100 0.4875113666 4280692039
-0.3799635172 -0.1246292666 0.4868215919 4280626246
-0.3794247210 -0.1239124089 0.4861312509 4280429639
-0.3788854480 -0.1231969371 0.4854403436 4280495432
-0.3783457577 -0.1224828586 0.4847488403 4280495432
-0.3784091175 -0.1219646931 0.4848300219 4280429639
-0.3778685927 -0.1212525666 0.4841375053 4280429639
-0.3773276508 -0.1205418408 0.4834444225 4280363846
-0.3773900568 -0.1200245544 0.4835244119 4280297798
-0.3768483102 -0.1193157956 0.4828302860 4280297798
-0.3769101501 -0.1187988222 0.4829095006 4280297798
-0.3769717216 -0.1182815954 0.4829883873 4280232005
-0.3764288127 -0.1175753921 0.4822928309 4280166214
-0.3764897883 -0.1170584932 0.4823709428 4280100421
-0.3759461045 -0.1163542718 0.4816743731 4280100421
-0.3754020035 -0.1156514660 0.4809772074 4280100421
-0.3754620254 -0.1151354834 0.4810541272 4280100421
-0.3755218089 -0.1146192402 0.4811307490 4280100421
-0.3749765456 -0.1139190197 0.4804321527 4280100421
-0.3750357628 -0.1134031266 0.4805079699 4280297800
-0.3750946820 -0.1128869876 0.4805834889 4280429384
-0.3745482862 -0.1121893600 0.4798834324 4280363591
-0.3746066391 -0.1116735712 0.4799582064 4280363593
-0.3746647537 -0.1111575365 0.4800326228 4280363593
-0.3747226000 -0.1106412709 0.4801067412 4280297800
-0.3741747141 -0.1099468470 0.4794048071 4280100421
-0.3736264110 -0.1092538685 0.4787023067 4280099653
-0.3736833334 -0.1087385491 0.4787752032 4280297032
-0.3731342554 -0.1080476046 0.4780716896 4280560202
-0.3719788790 -0.1071835235 0.4765914381 4280691788
-0.3714288473 -0.1064962894 0.4758867025 4280625997
-0.3714843690 -0.1059833840 0.4759578407 4280560204
-0.3715396523 -0.1054702550 0.4760286808 4280560204
-0.3715946972 -0.1049568951 0.4760991931 4280560204
-0.3716494739 -0.1044433117 0.4761693776 4280625738
-0.3717039824 -0.1039294973 0.4762392342 4280625738
-0.3717582524 -0.1034154594 0.4763087630 4280560202
-0.3712057471 -0.1027333289 0.4756008387 4280691788
-0.3712594211 -0.1022196859 0.4756696224 4280823374
-0.3719195724 -0.1018719971 0.4765154123 4280625995
-0.3719727993 -0.1013570651 0.4765836596 4280494411
-0.3720258176 -0.1008419171 0.4766515493 4280691790
-0.3720785677 -0.1003265455 0.4767191410 4280823892
-0.3721310496 -0.0998109505 0.4767863750 4281021271
-0.3727904260 -0.0994571298 0.4776312113 4281153370
-0.3728424907 -0.0989402607 0.4776979089 4281219163
-0.3735016286 -0.0985834748 0.4785424173 4281284957
-0.3753754795 -0.0985437036 0.4809432328 4281350750
-0.3754270971 -0.0980228186 0.4810093939 4281350750
-0.3754784465 -0.0975017250 0.4810751975 4281416543
-0.3755295575 -0.0969804153 0.4811406732 4281284957
-0.3755804002 -0.0964588895 0.4812058210 4280955992
-0.3756310046 -0.0959371552 0.4812706411 4280758613
-0.3756813109 -0.0954152122 0.4813351035 4280692820
-0.3757313788 -0.0948930532 0.4813992381 4280758353
-0.3757811785 -0.0943706930 0.4814630449 4280955732
-0.3764388561 -0.0939999819 0.4823057055 4281021274
-0.3764882088 -0.0934763625 0.4823689461 4280823895
-0.3765373230 -0.0929525346 0.4824318290 4281021271
-0.3765861392 -0.0924285054 0.4824944139 4280955478
-0.3766347170 -0.0919042677 0.4825566113 4281152343
-0.3766830266 -0.0913798288 0.4826185107 4281415515
-0.3773396611 -0.0910019726 0.4834598303 4281744227
-0.3767788410 -0.0903303549 0.4827412665 4281941606
-0.3860852420 -0.1378255039 0.4953698814 4282271071
-0.3855554163 -0.1370867193 0.4946900606 4281811292
-0.3844244480 -0.1361365765 0.4932389557 4281416534
-0.3844943345 -0.1356132179 0.4933286607 4281285461
-0.3851648867 -0.1353006363 0.4941889942 4281351254
-0.3852343857 -0.1347758770 0.4942781925 4281613143
-0.3847025633 -0.1340413988 0.4935958087 4281481557
-0.3835690916 -0.1330996454 0.4921414852 4281284178
-0.3842388391 -0.1327843070 0.4930008352 4281086799
-0.3825029135 -0.1316391230 0.4907735288 4281021006
-0.3813676238 -0.1307047307 0.4893168807 4281086799
-0.3814349174 -0.1301840395 0.4894032180 4281086797
-0.3809002340 -0.1294585466 0.4887171984 4281021004
-0.3815687597 -0.1291418225 0.4895749688 4281021004
-0.3816353381 -0.1286202967 0.4896603823 4280955211
-0.3804975450 -0.1276944131 0.4882005155 4280955211
-0.3811655641 -0.1273752153 0.4890576303 4280955211
-0.3812312782 -0.1268537045 0.4891419411 4280889418
-0.3806943893 -0.1261323541 0.4884530902 4280823625
-0.3807595074 -0.1256111264 0.4885366261 4280757832
-0.3802218139 -0.1248917058 0.4878467321 4280692039
-0.3790809810 -0.1239765733 0.4863829911 4280495432
-0.3785422742 -0.1232607588 0.4856918156 4280495432
-0.3786059916 -0.1227417737 0.4857735634 4280495432
-0.3780664802 -0.1220279112 0.4850813448 4280429639
-0.3781296313 -0.1215092391 0.4851623476 4280429639
-0.3775893152 -0.1207973361 0.4844691157 4280363846
-0.3770485520 -0.1200868338 0.4837752879 4280297798
-0.3765073717 -0.1193777248 0.4830808938 4280297798
-0.3765692115 -0.1188605055 0.4831602275 4280297798
-0.3766307831 -0.1183430329 0.4832392633 4280232005
-0.3754847646 -0.1174476594 0.4817688465 4280166212
-0.3755456805 -0.1169313416 0.4818469882 4280100419
-0.3750024438 -0.1162276044 0.4811500013 4280100421
-0.3750627339 -0.1157116145 0.4812273681 4280100421
-0.3745187223 -0.1150098741 0.4805293381 4280100421
-0.3745784163 -0.1144942194 0.4806059599 4280100421
-0.3746378720 -0.1139783189 0.4806822240 4280100421
-0.3740927279 -0.1132791713 0.4799827635 4280297800
-0.3741515875 -0.1127636135 0.4800582826 4280429384
-0.3742101789 -0.1122478172 0.4801334739 4280297798
-0.3742685318 -0.1117317751 0.4802083671 4280297800
-0.3743266463 -0.1112154946 0.4802829027 4280363593
-0.3737796843 -0.1105201319 0.4795811176 4280297800
-0.3738372028 -0.1100042090 0.4796549082 4280166214
-0.3720794320 -0.1089565530 0.4773995876 4280099651
-0.3733463585 -0.1087953150 0.4790251255 4280297030
-0.3727978170 -0.1081040204 0.4783213437 4280494409
-0.3716435730 -0.1072395071 0.4768403769 4280625995
-0.3710940778 -0.1065519303 0.4761353433 4280625997
-0.3711496294 -0.1060387790 0.4762066007 4280560204
-0.3712049127 -0.1055253968 0.4762775600 4280560204
-0.3712599576 -0.1050117835 0.4763481617 4280625997
-0.3713147342 -0.1044979468 0.4764184654 4280560202
-0.3713692725 -0.1039838791 0.4764884114 4280560202
-0.3714235425 -0.1034695879 0.4765580595 4280625995
-0.3714775741 -0.1029550731 0.4766273797 4280757581
-0.3715313375 -0.1024403274 0.4766963720 4280823376
-0.3715848625 -0.1019253656 0.4767650366 4280691790
-0.3716381192 -0.1014101803 0.4768333733 4280494927
-0.3716911376 -0.1008947715 0.4769013822 4280560720
-0.3717438877 -0.1003791466 0.4769690931 4280758099
-0.3724029064 -0.1000262126 0.4778146446 4280955478
-0.3730618358 -0.0996713713 0.4786600769 4281153371
-0.3731139898 -0.0991534069 0.4787270129 4281219164
-0.3731659055 -0.0986352265 0.4787935913 4281284703
-0.3738243878 -0.0982763618 0.4796384871 4281350496
-0.3744828105 -0.0979156047 0.4804832637 4281285473
-0.3751411140 -0.0975529477 0.4813279212 4281351266
-0.3751922250 -0.0970313698 0.4813935161 4281284957
-0.3746359050 -0.0963534266 0.4806796908 4281087578
-0.3746863902 -0.0958322734 0.4807445109 4280824152
-0.3759513497 -0.0956198648 0.4823675156 4280626773
-0.3747866452 -0.0947893411 0.4808731079 4280692819
-0.3754438758 -0.0944203511 0.4817163944 4280824405
-0.3761010170 -0.0940494537 0.4825595319 4280889945
-0.3761503994 -0.0935255736 0.4826228917 4280824152
-0.3761994839 -0.0930014849 0.4826858938 4280955478
-0.3762483299 -0.0924771875 0.4827485383 4280955478
-0.3762969077 -0.0919526890 0.4828108847 4281152857
-0.3769532144 -0.0915756896 0.4836529493 4281284443
-0.3856621683 -0.1384215206 0.4955332279 4282402659
-0.3857331574 -0.1378963143 0.4956243932 4282205280
-0.3858038783 -0.1373708248 0.4957152605 4281811037
-0.3852742314 -0.1366322190 0.4950347543 4281416279
-0.3847441375 -0.1358949691 0.4943536222 4281219668
-0.3854142427 -0.1355814338 0.4952146411 4281285461
-0.3854838610 -0.1350556165 0.4953041077 4281547350
-0.3843521476 -0.1341104209 0.4938499928 4281415764
-0.3844210804 -0.1335856616 0.4939385653 4281218385
-0.3838890195 -0.1328527331 0.4932549000 4281086799
-0.3827555776 -0.1319140643 0.4917985797 4281021006
-0.3822224736 -0.1311846673 0.4911136031 4281086799
-0.3810878396 -0.1302511990 0.4896556735 4281086799
-0.3811548948 -0.1297299713 0.4897418618 4281021006
-0.3812217116 -0.1292084903 0.4898276925 4280955213
-0.3812882900 -0.1286867112 0.4899132252 4280955213
-0.3813546002 -0.1281646788 0.4899984598 4280955211
-0.3808190525 -0.1274410337 0.4893103540 4280955211
-0.3808847964 -0.1269192845 0.4893948138 4280889418
-0.3803484440 -0.1261975765 0.4887056649 4280889418
-0.3804135919 -0.1256760955 0.4887893498 4280757832
-0.3804784715 -0.1251543611 0.4888727069 4280692039
-0.3793388307 -0.1242379546 0.4874084294 4280692039
-0.3788007796 -0.1235209554 0.4867171049 4280626246
-0.3782622814 -0.1228053570 0.4860251844 4280626246
-0.3783257902 -0.1222858652 0.4861067533 4280560453
-0.3777864873 -0.1215722188 0.4854138196 4280494662
-0.3772467375 -0.1208599657 0.4847202897 4280428869
-0.3773092628 -0.1203413531 0.4848006666 4280428869
-0.3767687380 -0.1196310744 0.4841061234 4280363076
-0.3762277365 -0.1189221963 0.4834110141 4280428869
-0.3762893379 -0.1184044704 0.4834901392 4280363076
-0.3757475615 -0.1176975742 0.4827940166 4280297284
-0.3746021092 -0.1168039963 0.4813222289 4280231491
-0.3740593195 -0.1161007509 0.4806248248 4280165698
-0.3741195202 -0.1155853420 0.4807021916 4280165698
-0.3735759854 -0.1148840860 0.4800037742 4280165698
-0.3736355901 -0.1143690199 0.4800803959 4280165698
-0.3736949563 -0.1138537005 0.4801566601 4280100419
-0.3737540543 -0.1133381352 0.4802326262 4280297798
-0.3738129437 -0.1128223315 0.4803082347 4280363591
-0.3738715351 -0.1123062819 0.4803835750 4280363591
-0.3739299178 -0.1117899865 0.4804585576 4280363593
-0.3739880323 -0.1112734526 0.4805332124 4280429386
-0.3740458786 -0.1107566804 0.4806075692 4280363593
-0.3734991252 -0.1100615785 0.4799050391 4280232007
-0.3729519248 -0.1093678996 0.4792019725 4280231237
-0.3724043071 -0.1086756662 0.4784983099 4280297030
-0.3718562424 -0.1079848632 0.4777941108 4280428616
-0.3713077307 -0.1072954983 0.4770893455 4280494409
-0.3707588017 -0.1066075787 0.4763840139 4280560204
-0.3708143532 -0.1060941741 0.4764553905 4280560204
-0.3708696365 -0.1055805460 0.4765264392 4280625997
-0.3709246814 -0.1050666794 0.4765971899 4280625997
-0.3709794879 -0.1045525894 0.4766675830 4280625995
-0.3710340261 -0.1040382683 0.4767376482 4280560202
-0.3710882962 -0.1035237238 0.4768074155 4280495181
-0.3711423576 -0.1030089557 0.4768768251 4280626767
-0.3711961210 -0.1024939567 0.4769459367 4280692306
-0.3712496459 -0.1019787416 0.4770147204 4280626513
-0.3713029325 -0.1014633030 0.4770831466 4280561233
-0.3713559508 -0.1009476408 0.4771512747 4280495440
-0.3720145822 -0.1005955935 0.4779975712 4280758613
-0.3720671833 -0.1000786498 0.4780651331 4280890199
-0.3721195161 -0.0995614901 0.4781323969 4280956508
-0.3727777302 -0.0992054194 0.4789781272 4281088094
-0.3728296459 -0.0986869782 0.4790448248 4281153889
-0.3734875917 -0.0983279422 0.4798902273 4281153889
-0.3735390604 -0.0978082269 0.4799563587 4281219682
-0.3748032451 -0.0976041704 0.4815806746 4281285475
-0.3748543561 -0.0970823392 0.4816463590 4281285473
-0.3736919463 -0.0962478071 0.4801527858 4281088094
-0.3737423718 -0.0957272425 0.4802175760 4280693338
-0.3750061691 -0.0955155790 0.4818414152 4280495959
-0.3738424778 -0.0946854800 0.4803462029 4280496211
-0.3757130206 -0.0946228802 0.4827496707 4280627797
-0.3757626712 -0.0940989405 0.4828134477 4280627545
-0.3758120239 -0.0935747921 0.4828768671 4280627545
-0.3758611381 -0.0930504352 0.4829399586 4280890199
-0.3759099841 -0.0925258771 0.4830027223 4280955992
-0.3771733046 -0.0922983736 0.4846259356 4281218910
-0.3772217631 -0.0917717144 0.4846882224 4281284703
-0.3773179352 -0.0907177851 0.4848117828 4281942637
-0.3860507011 -0.1376551539 0.4967412949 4281811037
-0.3861212730 -0.1371283233 0.4968321323 4281482072
-0.3849922717 -0.1361769587 0.4953794181 4281219668
-0.3844623864 -0.1354398876 0.4946976006 4281285461
-0.3845319152 -0.1349146366 0.4947870672 4281547350
-0.3840012252 -0.1341794431 0.4941041768 4281349971
-0.3834700286 -0.1334456205 0.4934207201 4281152592
-0.3829384148 -0.1327131391 0.4927366376 4281021006
-0.3824063241 -0.1319820285 0.4920519888 4281021006
-0.3812733293 -0.1310459077 0.4905941486 4281021006
-0.3819412887 -0.1307294518 0.4914536178 4281086799
-0.3808072805 -0.1297968924 0.4899944663 4281021006
-0.3814748526 -0.1294790655 0.4908534586 4280955213
-0.3815415204 -0.1289562285 0.4909392595 4280955213
-0.3810070157 -0.1282308549 0.4902514815 4280955211
-0.3810730875 -0.1277083009 0.4903365076 4280955211
-0.3811389208 -0.1271854639 0.4904212058 4280823625
-0.3806032538 -0.1264625937 0.4897319376 4280757832
-0.3806684911 -0.1259400398 0.4898158908 4280757832
-0.3807334900 -0.1254172325 0.4898995161 4280757832
-0.3795950711 -0.1244995445 0.4884347022 4280692039
-0.3790576756 -0.1237813756 0.4877432287 4280626246
-0.3785198331 -0.1230645925 0.4870511591 4280560453
-0.3773796558 -0.1221543774 0.4855840802 4280560453
-0.3774428070 -0.1216352060 0.4856653214 4280428867
-0.3763015270 -0.1207294464 0.4841968119 4280428867
-0.3763639927 -0.1202114075 0.4842771590 4280428869
-0.3764261603 -0.1196931228 0.4843572080 4280363076
-0.3752833605 -0.1187932193 0.4828867018 4280428869
-0.3753448725 -0.1182760745 0.4829658270 4280297283
-0.3748035431 -0.1175696626 0.4822693169 4280297284
-0.3748644590 -0.1170528457 0.4823476672 4280231491
-0.3743223250 -0.1163484156 0.4816501141 4280165698
-0.3737797737 -0.1156454012 0.4809519947 4280165698
-0.3738397360 -0.1151295006 0.4810291529 4280165698
-0.3732963800 -0.1144284904 0.4803300202 4280165698
-0.3733557463 -0.1139129177 0.4804064035 4280166212
-0.3734148741 -0.1133971065 0.4804824889 4280297798
-0.3728704154 -0.1126986891 0.4797818959 4280297798
-0.3729289472 -0.1121832281 0.4798572063 4280297798
-0.3729872108 -0.1116675213 0.4799321890 4280363593
-0.3730452359 -0.1111515686 0.4800068438 4280429386
-0.3731030226 -0.1106353775 0.4800812006 4280429386
-0.3731605411 -0.1101189479 0.4801551998 4280297800
-0.3726139069 -0.1094249338 0.4794518352 4280297030
-0.3720668256 -0.1087323502 0.4787479043 4280362823
-0.3709152043 -0.1078655273 0.4772661030 4280428616
-0.3703671694 -0.1071766615 0.4765609205 4280494409
-0.3704229891 -0.1066632345 0.4766327441 4280494411
-0.3698741794 -0.1059764177 0.4759265780 4280494411
-0.3699293733 -0.1054633707 0.4759975970 4280560202
-0.3705888987 -0.1051215827 0.4768462181 4280625995
-0.3700390756 -0.1044365913 0.4761387408 4280495181
-0.3700935245 -0.1039228588 0.4762088060 4280363595
-0.3701477349 -0.1034089029 0.4762785435 4280560720
-0.3708065748 -0.1030628458 0.4771263301 4280626513
-0.3708603680 -0.1025475934 0.4771955311 4280626513
-0.3709138930 -0.1020321250 0.4772644043 4280626513
-0.3715723455 -0.1016820371 0.4781116545 4280627027
-0.3716254532 -0.1011652797 0.4781799912 4280495441
-0.3716783226 -0.1006482989 0.4782480001 4280758613
-0.3717309237 -0.1001310945 0.4783156812 4280824406
-0.3717832565 -0.0996136814 0.4783830345 4280890715
-0.3724409342 -0.0992574394 0.4792293012 4281088094
-0.3730985224 -0.0988992900 0.4800754189 4281153889
-0.3731502593 -0.0983795300 0.4801419973 4281153889
-0.3738076091 -0.0980184227 0.4809878170 4281154402
-0.3738588989 -0.0974973887 0.4810538292 4281220195
-0.3745159507 -0.0971333161 0.4818992615 4281285988
-0.3739607334 -0.0964546874 0.4811848402 4281022816
-0.3734050989 -0.0957775339 0.4804698825 4280562011
-0.3734552562 -0.0952564925 0.4805344641 4280364632
-0.3741115332 -0.0948890448 0.4813788831 4280496470
-0.3735548556 -0.0942137986 0.4806625843 4280562263
-0.3748172522 -0.0939963311 0.4822869599 4280561752
-0.3748665452 -0.0934727639 0.4823504090 4280627545
-0.3755222559 -0.0930994004 0.4831941128 4280759129
-0.3749643564 -0.0924250260 0.4824762642 4280759129
-0.3756197095 -0.0920495540 0.4833194911 4281022301
-0.3756680191 -0.0915243253 0.4833816588 4281219680
-0.3769300282 -0.0912929177 0.4850055277 4281547879
-0.3763709366 -0.0906194225 0.4842860997 4281942637
-0.3852682114 -0.1408822685 0.4964439571 4283521122
-0.3847419322 -0.1401389837 0.4957657754 4283323743
-0.3848136365 -0.1396141648 0.4958581924 4283060580
-0.3860822618 -0.1395216882 0.4974929094 4282731615
-0.3855550289 -0.1387791634 0.4968135059 4282336866
-0.3856261075 -0.1382526606 0.4969051182 4282139487
-0.3856969476 -0.1377258599 0.4969964325 4281745244
-0.3857675791 -0.1371987760 0.4970873892 4281416279
-0.3858379126 -0.1366713941 0.4971780777 4281285206
-0.3847095668 -0.1357209235 0.4957241118 4281350999
-0.3841798604 -0.1349840313 0.4950415492 4281547350
-0.3836497068 -0.1342484802 0.4943584204 4281284178
-0.3831191063 -0.1335143000 0.4936746657 4281086799
-0.3825880289 -0.1327814758 0.4929903448 4281021006
-0.3820564747 -0.1320500076 0.4923054278 4280955213
-0.3803247213 -0.1309069544 0.4900739491 4280955213
-0.3809920251 -0.1305911839 0.4909338057 4281021004
-0.3804591298 -0.1298638135 0.4902471304 4281021004
-0.3805259466 -0.1293418407 0.4903332293 4280955211
-0.3799922466 -0.1286163926 0.4896455109 4280955211
-0.3800584674 -0.1280946881 0.4897308648 4280955211
-0.3807249665 -0.1277742386 0.4905896783 4280889418
-0.3807908297 -0.1272511631 0.4906745255 4280823625
-0.3802556992 -0.1265279353 0.4899849892 4280757832
-0.3803209364 -0.1260051429 0.4900690615 4280692293
-0.3803859353 -0.1254820824 0.4901528060 4280692293
-0.3798496723 -0.1247613430 0.4894617796 4280626246
-0.3787117898 -0.1238454133 0.4879955649 4280560453
-0.3781745136 -0.1231282875 0.4873032570 4280560453
-0.3776367903 -0.1224125475 0.4866103530 4280560453
-0.3770985901 -0.1216982082 0.4859168530 4280428869
-0.3765599728 -0.1209852621 0.4852227867 4280428869
-0.3760208786 -0.1202737093 0.4845281541 4280428869
-0.3754813671 -0.1195635647 0.4838329256 4280363076
-0.3749413788 -0.1188548207 0.4831371307 4280363076
-0.3750028908 -0.1183374301 0.4832164049 4280297283
-0.3744621277 -0.1176306754 0.4825195670 4280297284
-0.3745230436 -0.1171136051 0.4825980663 4280231491
-0.3739814758 -0.1164088324 0.4819002450 4280165698
-0.3734394610 -0.1157054752 0.4812018275 4280165698
-0.3734994531 -0.1151893213 0.4812791049 4280231491
-0.3729566634 -0.1144879684 0.4805796742 4280165698
-0.3730160296 -0.1139721498 0.4806562066 4280363077
-0.3730751574 -0.1134560853 0.4807323813 4280428870
-0.3731340468 -0.1129397824 0.4808082581 4280428870
-0.3725897670 -0.1122416109 0.4801069498 4280363077
-0.3726480603 -0.1117256507 0.4801820517 4280428616
-0.3727061152 -0.1112094522 0.4802568257 4280560202
-0.3727638721 -0.1106930152 0.4803312719 4280560456
-0.3728214204 -0.1101763323 0.4804054201 4280494663
-0.3722753227 -0.1094819680 0.4797017574 4280232007
-0.3711253703 -0.1086124405 0.4782199264 4280232007
-0.3705783188 -0.1079217866 0.4775150418 4280297800
-0.3700308204 -0.1072325781 0.4768095613 4280363593
-0.3700866401 -0.1067189053 0.4768814743 4280363595
-0.3695383966 -0.1060317457 0.4761750102 4280297802
-0.3695936203 -0.1055184454 0.4762461782 4280363593
-0.3696485758 -0.1050049141 0.4763170183 4280495179
-0.3690991998 -0.1043204218 0.4756090939 4280495181
-0.3691535890 -0.1038072780 0.4756791890 4280429388
-0.3692077100 -0.1032939032 0.4757489264 4280560720
-0.3692615926 -0.1027803123 0.4758183360 4280626513
-0.3699196577 -0.1024338678 0.4766663015 4280560721
-0.3699730933 -0.1019189805 0.4767351747 4280626514
-0.3700262904 -0.1014038697 0.4768037200 4280692820
-0.3700792491 -0.1008885428 0.4768719375 4280561234
-0.3701319396 -0.1003729925 0.4769398272 4280692820
-0.3707892597 -0.1000203863 0.4777868390 4280758613
-0.3714464605 -0.0996658802 0.4786337018 4280824922
-0.3721036017 -0.0993094668 0.4794804752 4281088094
-0.3721555471 -0.0987905115 0.4795473814 4281088096
-0.3728124201 -0.0984311253 0.4803938270 4281153889
-0.3728638887 -0.0979108959 0.4804601669 4281219682
-0.3735205233 -0.0975485519 0.4813062549 4281285475
-0.3741770387 -0.0971843004 0.4821522236 4281351781
-0.3742279112 -0.0966617391 0.4822177887 4280957023
-0.3736729026 -0.0959833935 0.4815025926 4280496218
-0.3737231791 -0.0954612568 0.4815673828 4280364632
-0.3737731874 -0.0949389040 0.4816318154 4280430677
-0.3732170463 -0.0942633152 0.4809152186 4280496470
-0.3744783700 -0.0940457433 0.4825405180 4280561752
-0.3745276630 -0.0935219228 0.4826040566 4280627545
-0.3751828372 -0.0931483731 0.4834482670 4280759129
-0.3752316833 -0.0926232859 0.4835112095 4280759129
-0.3752802908 -0.0920979977 0.4835738540 4281087324
-0.3765413165 -0.0918683782 0.4851987660 4281350496
-0.3753767014 -0.0910468102 0.4836980700 4281416293
-0.3766374886 -0.0908133909 0.4853226840 4281745258
-0.3831208050 -0.1402978152 0.4943844378 4283520352
-0.3849859536 -0.1404288560 0.4967912436 4283388766
-0.3844598830 -0.1396857351 0.4961123765 4283126373
-0.3851293921 -0.1393768191 0.4969763160 4282797408
-0.3852007389 -0.1388503611 0.4970683753 4282402659
-0.3852718174 -0.1383236051 0.4971601367 4282139487
-0.3853426874 -0.1377965659 0.4972515702 4281613660
-0.3842163682 -0.1368429214 0.4957981408 4281416281
-0.3848851025 -0.1365292817 0.4966610670 4281350999
-0.3849551082 -0.1360021830 0.4967514277 4281416792
-0.3838272691 -0.1350534260 0.4952960610 4281613143
-0.3838965893 -0.1345274001 0.4953854978 4281284178
-0.3821686208 -0.1333739460 0.4931556880 4281086799
-0.3816379905 -0.1326415837 0.4924709797 4281021006
-0.3811069131 -0.1319105923 0.4917856455 4281021006
-0.3805753589 -0.1311809719 0.4910997450 4280955213
-0.3806428015 -0.1306584626 0.4911867678 4281021004
-0.3801104426 -0.1299307495 0.4904997945 4280955211
-0.3801772892 -0.1294085234 0.4905860424 4280823625
-0.3802438676 -0.1288860142 0.4906719923 4280823625
-0.3803102076 -0.1283632368 0.4907575846 4280889672
-0.3803763092 -0.1278401911 0.4908428788 4280889672
-0.3804421723 -0.1273168623 0.4909278750 4280889672
-0.3799076080 -0.1265932769 0.4902380705 4280823879
-0.3799728453 -0.1260702461 0.4903222620 4280692293
-0.3800378740 -0.1255469322 0.4904061556 4280626500
-0.3789016604 -0.1246283427 0.4889399707 4280429637
-0.3783653975 -0.1239094660 0.4882479608 4280363844
-0.3778286576 -0.1231919900 0.4875553548 4280429639
-0.3772915006 -0.1224758998 0.4868621826 4280429639
-0.3761529624 -0.1215670183 0.4853930473 4280363846
-0.3756147921 -0.1208545491 0.4846985638 4280298053
-0.3756772578 -0.1203360185 0.4847791791 4280298053
-0.3751382828 -0.1196255311 0.4840836823 4280232260
-0.3745988607 -0.1189164370 0.4833875895 4280166212
-0.3746603727 -0.1183988005 0.4834669828 4280100419
-0.3741201758 -0.1176916957 0.4827698767 4280100419
-0.3735795319 -0.1169859990 0.4820722044 4280100419
-0.3724367321 -0.1160941571 0.4805975556 4280034626
-0.3730986416 -0.1157655567 0.4814516902 4280034626
-0.3731586337 -0.1152491570 0.4815290868 4280100419
-0.3726164103 -0.1145474538 0.4808293879 4280100419
-0.3726757765 -0.1140313894 0.4809060097 4280363077
-0.3727349341 -0.1135150790 0.4809823334 4280494663
-0.3721915483 -0.1128159687 0.4802811742 4280494663
-0.3722501099 -0.1123000011 0.4803567231 4280428870
-0.3723084033 -0.1117837951 0.4804319441 4280428616
-0.3723664284 -0.1112673432 0.4805068374 4280494409
-0.3724242151 -0.1107506528 0.4805814028 4280494663
-0.3724817634 -0.1102337241 0.4806556702 4280428870
-0.3719362319 -0.1095390171 0.4799517095 4280166212
-0.3707873821 -0.1086690500 0.4784691930 4280232005
-0.3702408969 -0.1079780534 0.4777639806 4280363593
-0.3696939647 -0.1072885022 0.4770582318 4280429386
-0.3697497845 -0.1067745760 0.4771302640 4280363595
-0.3692020774 -0.1060870737 0.4764235020 4280363595
-0.3686539531 -0.1054010168 0.4757161736 4280429386
-0.3687088490 -0.1048880816 0.4757870138 4280560972
-0.3687634766 -0.1043749079 0.4758575261 4280495181
-0.3688178658 -0.1038615108 0.4759277105 4280495181
-0.3688719869 -0.1033478901 0.4759975374 4280560720
-0.3689258695 -0.1028340384 0.4760670662 4280626513
-0.3695833981 -0.1024874300 0.4769155383 4280626514
-0.3696368635 -0.1019722894 0.4769845307 4280626514
-0.3696900606 -0.1014569253 0.4770531952 4280692819
-0.3697430193 -0.1009413451 0.4771215320 4280692819
-0.3710041940 -0.1007537246 0.4787489772 4280561234
-0.3710567951 -0.1002360135 0.4788168669 4280692820
-0.3711091578 -0.0997180864 0.4788844287 4280824922
-0.3717657626 -0.0993614942 0.4797317088 4281088094
-0.3718176782 -0.0988422856 0.4797987044 4281088094
-0.3724740148 -0.0984827280 0.4806456566 4281088094
-0.3725255132 -0.0979622379 0.4807121158 4281219680
-0.3731815815 -0.0975997224 0.4815587103 4281351266
-0.3738375604 -0.0972352922 0.4824051857 4281286245
-0.3744934499 -0.0968689620 0.4832515419 4280825694
-0.3739390671 -0.0961894318 0.4825361669 4280496218
-0.3733842671 -0.0955113843 0.4818202555 4280364632
-0.3734342754 -0.0949887708 0.4818848073 4280364884
-0.3734840453 -0.0944659486 0.4819490016 4280430677
-0.3741389513 -0.0940951705 0.4827941060 4280561752
-0.3741882741 -0.0935710818 0.4828577340 4280693338
-0.3742372990 -0.0930467919 0.4829210341 4280759383
-0.3742861152 -0.0925222933 0.4829840064 4280693590
-0.3743346334 -0.0919975862 0.4830466211 4281087324
-0.3749886751 -0.0916206911 0.4838906229 4281350496
-0.3750367761 -0.0910947323 0.4839526713 4281218914
-0.3750845790 -0.0905685723 0.4840143621 4281547879
-0.3745260835 -0.0898967460 0.4832936823 4281483088
-0.3828393519 -0.1398462802 0.4947302938 4283323492
-0.3829108477 -0.1393226087 0.4948226810 4283257705
-0.3841770589 -0.1392317265 0.4964589775 4282731361
-0.3843193054 -0.1381796598 0.4966427684 4282205019
-0.3843900561 -0.1376532018 0.4967342019 4281547602
-0.3832647502 -0.1366999149 0.4952799976 4281613395
-0.3827367425 -0.1359620690 0.4945977032 4281350739
-0.3834045827 -0.1356488168 0.4954607189 4281416532
-0.3834741414 -0.1351228356 0.4955506027 4281350741
-0.3829450905 -0.1343865842 0.4948669374 4281219155
-0.3824155927 -0.1336516887 0.4941826761 4280955983
-0.3812870681 -0.1327098310 0.4927243292 4280758604
-0.3807565570 -0.1319784820 0.4920387566 4280824397
-0.3802255690 -0.1312485039 0.4913525879 4280824397
-0.3808918893 -0.1309316307 0.4922136366 4280890190
-0.3803602159 -0.1302027404 0.4915265739 4280955983
-0.3798280656 -0.1294752210 0.4908388853 4280824397
-0.3798946440 -0.1289524734 0.4909249544 4280824397
-0.3799610138 -0.1284294426 0.4910106957 4280758604
-0.3806265295 -0.1281078905 0.4918707311 4280692811
-0.3806924820 -0.1275834888 0.4919559658 4280561225
-0.3795589805 -0.1266586334 0.4904911518 4280561225
-0.3796242177 -0.1261353493 0.4905754924 4280561225
-0.3796892464 -0.1256117970 0.4906595051 4280495432
-0.3791540861 -0.1248903573 0.4899679422 4280560455
-0.3780184388 -0.1239735261 0.4885003865 4280494662
-0.3774822652 -0.1232556999 0.4878075123 4280494662
-0.3769456446 -0.1225392669 0.4871140718 4280494662
-0.3758082390 -0.1216299236 0.4856442213 4280494662
-0.3752706349 -0.1209171116 0.4849494994 4280494662
-0.3753331006 -0.1203983352 0.4850302041 4280297798
-0.3747946918 -0.1196874976 0.4843344390 4280297798
-0.3748565614 -0.1191690341 0.4844143987 4280166214
-0.3743173480 -0.1184601709 0.4837175906 4280166214
-0.3737776875 -0.1177527234 0.4830202162 4280166214
-0.3738386333 -0.1172351614 0.4830989540 4280100421
-0.3732981682 -0.1165296957 0.4824005663 4280100421
-0.3733585179 -0.1160124615 0.4824785292 4280034628
-0.3722159564 -0.1151230112 0.4810020328 4280034630
-0.3722756207 -0.1146069467 0.4810791314 4280034630
-0.3717334867 -0.1139063165 0.4803785682 4280231490
-0.3723941445 -0.1135740727 0.4812323153 4280363076
-0.3718513548 -0.1128746197 0.4805308580 4280494663
-0.3719098866 -0.1123584062 0.4806065261 4280494663
-0.3719681799 -0.1118419468 0.4806818664 4280494663
-0.3720262349 -0.1113252416 0.4807568789 4280560456
-0.3720840514 -0.1108082980 0.4808315635 4280429384
-0.3715394139 -0.1101126522 0.4801277518 4280297798
-0.3709943593 -0.1094184443 0.4794234037 4280100421
-0.3704488575 -0.1087256670 0.4787184596 4280232007
-0.3705053627 -0.1082102805 0.4787915051 4280494411
-0.3693565428 -0.1073444337 0.4773069322 4280625997
-0.3688097596 -0.1066559851 0.4766003191 4280625997
-0.3688652515 -0.1061424166 0.4766720235 4280625997
-0.3689204752 -0.1056286097 0.4767434001 4280495181
-0.3683725595 -0.1049428210 0.4760353565 4280429388
-0.3684272170 -0.1044294015 0.4761059582 4280625995
-0.3684816062 -0.1039157584 0.4761762619 4280625995
-0.3691388965 -0.1035711095 0.4770256579 4280560720
-0.3691928983 -0.1030561700 0.4770954251 4280692306
-0.3692466021 -0.1025409997 0.4771648347 4280692306
-0.3693000674 -0.1020256057 0.4772339463 4280692306
-0.3693532944 -0.1015099958 0.4773027003 4280692307
-0.3694062531 -0.1009941548 0.4773711264 4280758100
-0.3700626493 -0.1006422713 0.4782193899 4280560980
-0.3701151907 -0.1001251489 0.4782872796 4280495187
-0.3707713187 -0.0997703001 0.4791351855 4280693340
-0.3708234131 -0.0992518887 0.4792025089 4281088098
-0.3720833361 -0.0990548730 0.4808306694 4281088355
-0.3721351027 -0.0985343382 0.4808975458 4281088355
-0.3727908134 -0.0981727093 0.4817448854 4281219684
-0.3734464049 -0.0978091657 0.4825921059 4281153891
-0.3741019368 -0.0974437147 0.4834392071 4281351268
-0.3741528988 -0.0969197825 0.4835050702 4281022303
-0.3742036223 -0.0963956341 0.4835706055 4280627804
-0.3736494482 -0.0957163945 0.4828544855 4280496218
-0.3730948567 -0.0950386450 0.4821378291 4280430930
-0.3731446266 -0.0945155546 0.4822021425 4280496723
-0.3737989962 -0.0941446051 0.4830477238 4280562263
-0.3738483191 -0.0936202556 0.4831114709 4280496470
-0.3738973737 -0.0930956975 0.4831748605 4280627545
-0.3739461601 -0.0925709307 0.4832379222 4280759131
-0.3739947081 -0.0920459703 0.4833006263 4281153117
-0.3746482134 -0.0916688889 0.4841451645 4281218910
-0.3746962845 -0.0911426619 0.4842073023 4281153891
-0.3747441173 -0.0906162336 0.4842690825 4281285477
-0.3741861880 -0.0899440721 0.4835481048 4281877861
-0.3742333949 -0.0894180909 0.4836091101 4278193453
-0.3819603026 -0.1391765028 0.4943037927 4283191912
-0.3832252920 -0.1390864253 0.4959408641 4282797154
-0.3838934898 -0.1387769431 0.4968055487 4282402911
-0.3839644790 -0.1382505149 0.4968974292 4282073946
-0.3840352595 -0.1377238035 0.4969890118 4281284176
-0.3829110265 -0.1367700696 0.4955341518 4281284176
-0.3823836148 -0.1360318661 0.4948515892 4281284948
-0.3824533224 -0.1355067343 0.4949418008 4281416534
-0.3825227618 -0.1349813342 0.4950316846 4281416534
-0.3825919926 -0.1344556361 0.4951212406 4281284948
-0.3814651370 -0.1335111409 0.4936629832 4281021776
-0.3809356093 -0.1327780783 0.4929777086 4280824397
-0.3810037673 -0.1322540045 0.4930659235 4280890190
-0.3804734647 -0.1315228492 0.4923796356 4280890190
-0.3799426854 -0.1307930648 0.4916927218 4280824397
-0.3800098896 -0.1302697957 0.4917796850 4280824397
-0.3794783056 -0.1295419186 0.4910917580 4280824397
-0.3795449138 -0.1290189177 0.4911779463 4280824397
-0.3802100122 -0.1286983341 0.4920386970 4280889418
-0.3802762330 -0.1281739622 0.4921244085 4280823625
-0.3803422153 -0.1276493073 0.4922097623 4280757832
-0.3798088729 -0.1269242018 0.4915195704 4280692039
-0.3792750537 -0.1262004673 0.4908287525 4280626248
-0.3793400824 -0.1256766617 0.4909129143 4280560455
-0.3788054883 -0.1249548793 0.4902210534 4280494660
-0.3782704175 -0.1242344826 0.4895286262 4280494660
-0.3777349293 -0.1235154718 0.4888356030 4280494662
-0.3771989644 -0.1227978617 0.4881420135 4280494662
-0.3760627806 -0.1218872443 0.4866716564 4280494662
-0.3755258024 -0.1211732551 0.4859767556 4280494662
-0.3749884069 -0.1204606593 0.4852812886 4280428869
-0.3750506341 -0.1199413836 0.4853618145 4280428869
-0.3745124340 -0.1192307621 0.4846653044 4280232005
-0.3745740652 -0.1187117994 0.4847450852 4280166212
-0.3740350604 -0.1180031672 0.4840475321 4280166214
-0.3734956086 -0.1172959432 0.4833494425 4280100421
-0.3735563159 -0.1167778820 0.4834279716 4280100421
-0.3730160892 -0.1160726547 0.4827288389 4280034628
-0.3730761707 -0.1155549213 0.4828066230 4280034628
-0.3725351393 -0.1148516908 0.4821064770 4280034628
-0.3719936907 -0.1141498834 0.4814057648 4280297283
-0.3714517951 -0.1134494990 0.4807044566 4280428869
-0.3715105951 -0.1129332781 0.4807805717 4280560456
-0.3715691566 -0.1124168113 0.4808563590 4280494663
-0.3716274500 -0.1119000986 0.4809318185 4280494663
-0.3716855049 -0.1113831475 0.4810069501 4280626249
-0.3711417913 -0.1106865630 0.4803032875 4280429384
-0.3711992502 -0.1101699620 0.4803776443 4280297798
-0.3706547618 -0.1094754115 0.4796729982 4280100421
-0.3701097965 -0.1087822914 0.4789677858 4280297800
-0.3701663315 -0.1082666516 0.4790409207 4280625997
-0.3696206212 -0.1075755805 0.4783346951 4280691790
-0.3690744638 -0.1068859473 0.4776279330 4280625997
-0.3685278893 -0.1061977595 0.4769205749 4280625997
-0.3685831130 -0.1056837067 0.4769920707 4280495181
-0.3686381280 -0.1051694229 0.4770632386 4280495181
-0.3680904210 -0.1044839025 0.4763544500 4280560974
-0.3681448102 -0.1039700061 0.4764248431 4280495181
-0.3681989610 -0.1034558788 0.4764949083 4280626513
-0.3688555658 -0.1031100005 0.4773446321 4280692306
-0.3689092994 -0.1025945768 0.4774141610 4280627027
-0.3689627647 -0.1020789295 0.4774833620 4280692820
-0.3690159917 -0.1015630662 0.4775522351 4280824406
-0.3690689504 -0.1010469720 0.4776207805 4280824406
-0.3697248101 -0.1006949171 0.4784695506 4280561750
-0.3697773516 -0.1001775414 0.4785375297 4280495957
-0.3704329431 -0.0998225212 0.4793859720 4280562265
-0.3710884452 -0.0994655862 0.4802342653 4280891230
-0.3711403906 -0.0989458635 0.4803014994 4281088355
-0.3717956543 -0.0985859558 0.4811494648 4281088355
-0.3718471527 -0.0980649516 0.4812161326 4281088355
-0.3725021482 -0.0977020785 0.4820637405 4281088355
-0.3737608492 -0.0974948034 0.4836926758 4281219941
-0.3738118112 -0.0969706103 0.4837586284 4280890976
-0.3738625348 -0.0964462012 0.4838242829 4280627806
-0.3733089268 -0.0957666188 0.4831078351 4280430427
-0.3733590543 -0.0952426344 0.4831727147 4280365137
-0.3734089136 -0.0947184414 0.4832372069 4280430930
-0.3734585047 -0.0941940397 0.4833014011 4280496470
-0.3729034364 -0.0935178623 0.4825830758 4280496470
-0.3729524314 -0.0929938927 0.4826464951 4280561754
-0.3730011582 -0.0924697146 0.4827095270 4280759133
-0.3730496168 -0.0919453353 0.4827722609 4281153117
-0.3737024963 -0.0915689170 0.4836171865 4281284703
-0.3743552864 -0.0911905989 0.4844619632 4281284707
-0.3750079572 -0.0908103809 0.4853065908 4281482086
-0.3744506836 -0.0901370198 0.4845854044 4281943654
-0.3744979799 -0.0896099210 0.4846466184 4278522418
-0.3821313083 -0.1399894804 0.4952369034 4283323492
-0.3822028339 -0.1394653469 0.4953295887 4283126119
-0.3822740912 -0.1389409006 0.4954219759 4282797154
-0.3829416335 -0.1386321038 0.4962870777 4282402657
-0.3836091161 -0.1383213848 0.4971521199 4282007899
-0.3836798966 -0.1377944201 0.4972438514 4280890190
-0.3831535876 -0.1370536983 0.4965617955 4280824397
-0.3826268315 -0.1363143176 0.4958791137 4281219155
-0.3820996284 -0.1355762929 0.4951958656 4281350741
-0.3821690977 -0.1350506395 0.4952858686 4281482327
-0.3822382987 -0.1345247030 0.4953756034 4281284948
-0.3817099333 -0.1337891072 0.4946908057 4281087569
-0.3805836141 -0.1328463256 0.4932311475 4280955983
-0.3806518018 -0.1323220134 0.4933194816 4280955983
-0.3795243502 -0.1313835979 0.4918583333 4280890190
-0.3801895976 -0.1310664415 0.4927204847 4280955213
-0.3796590269 -0.1303368509 0.4920328557 4280889420
-0.3797259927 -0.1298130602 0.4921196401 4281021006
-0.3797926903 -0.1292889863 0.4922061265 4281021006
-0.3798591793 -0.1287646443 0.4922922552 4280889418
-0.3799254000 -0.1282400340 0.4923780859 4280823625
-0.3799913824 -0.1277151406 0.4924635887 4280757832
-0.3794586062 -0.1269896775 0.4917731285 4280692039
-0.3789253533 -0.1262656003 0.4910820425 4280626246
-0.3789903820 -0.1257415414 0.4911663234 4280560453
-0.3790551722 -0.1252172142 0.4912502766 4280494660
-0.3779218495 -0.1242986545 0.4897814989 4280494660
-0.3773868978 -0.1235793009 0.4890882075 4280494660
-0.3768514991 -0.1228613406 0.4883943498 4280428867
-0.3763156533 -0.1221447662 0.4876998961 4280428869
-0.3751800060 -0.1212359294 0.4862281382 4280428869
-0.3752425909 -0.1207158342 0.4863092303 4280428869
-0.3747054040 -0.1200034618 0.4856130481 4280428869
-0.3747673929 -0.1194836721 0.4856933653 4280363077
-0.3742294014 -0.1187732890 0.4849961400 4280363077
-0.3742907941 -0.1182538196 0.4850757122 4280166212
-0.3731520772 -0.1173567399 0.4835999608 4280166212
-0.3738127947 -0.1170262694 0.4844562411 4280100421
-0.3726730943 -0.1161328480 0.4829792082 4280034628
-0.3727332056 -0.1156148687 0.4830571115 4280034628
-0.3721927404 -0.1149112955 0.4823566675 4279968835
-0.3716518283 -0.1142091379 0.4816556573 4280363077
