VERSION 0.7
FIELDS x y z rgba
SIZE 4 4 4 4
TYPE F F F U
COUNT 1 1 1 1
WIDTH 920
HEIGHT 1
VIEWPOINT 0.0 0.0 0.0 1.0 0.0 0.0 0.0
POINTS 920
DATA ascii
-0.3349924684 -0.0996016413 0.5229728222 4284574078
-0.3350413442 -0.0990350246 0.5230491161 4284837250
-0.3350899518 -0.0984681696 0.5231249928 4283652465
-0.3351382911 -0.0979010612 0.5232004523 4280231229
-0.3351863623 -0.0973337069 0.5232754946 4280362556
-0.3352341652 -0.0967661068 0.5233501196 4283454827
-0.3363477886 -0.0965041518 0.5250886679 4284441983
-0.3363952339 -0.0959342644 0.5251626968 4284113018
-0.3369755745 -0.0955152661 0.5260687470 4283783789
-0.3370225430 -0.0949440002 0.5261420608 4280559932
-0.3370692432 -0.0943724886 0.5262149572 4282402390
-0.3365822434 -0.0936523303 0.5254547000 4283520871
-0.3366283476 -0.0930812508 0.5255266428 4280954690
-0.3361406028 -0.0923633352 0.5247651935 4279770416
-0.3351188004 -0.0915012956 0.5231700540 4279046175
-0.3425577581 -0.1395264119 0.5357121825 4281283656
-0.3363746107 -0.1358390301 0.5260426402 4280692039
-0.3338073492 -0.1342222840 0.5220277905 4280297798
-0.3338718712 -0.1336681098 0.5221287012 4280297798
-0.3313026130 -0.1320638210 0.5181107521 4280297802
-0.3308393359 -0.1313042939 0.5173862576 4280297802
-0.3298487067 -0.1303379983 0.5158370137 4280297802
-0.3293844461 -0.1295822263 0.5151109695 4280232009
-0.3283926249 -0.1286214292 0.5135599375 4280166216
-0.3263457417 -0.1272526830 0.5103589296 4280100423
-0.3274617195 -0.1271188557 0.5121040940 4280100423
-0.3259407580 -0.1259620935 0.5097255707 4280034630
-0.3249464929 -0.1250132322 0.5081707239 4280100423
-0.3234240115 -0.1238655373 0.5057896972 4279968837
-0.3224283755 -0.1229239926 0.5042327046 4279837251
-0.3219599426 -0.1221859753 0.5035001040 4279771458
-0.3220189810 -0.1216488481 0.5035924315 4279705665
-0.3220777512 -0.1211114302 0.5036843419 4279705665
-0.3216082156 -0.1203760505 0.5029500723 4279837251
-0.3221946061 -0.1200357005 0.5038670897 4279837251
-0.3217243850 -0.1193015054 0.5031317472 4279903044
-0.3217821121 -0.1187637970 0.5032220483 4279903044
-0.3218396008 -0.1182257980 0.5033119321 4279968837
-0.3229539990 -0.1180740148 0.5050547123 4280034630
-0.3230111897 -0.1175336689 0.5051441193 4280100423
-0.3235968947 -0.1171845272 0.5060601234 4280100423
-0.3236536980 -0.1166427284 0.5061489344 4280100423
-0.3242391944 -0.1162903532 0.5070645809 4280100423
-0.3248246610 -0.1159359217 0.5079801083 4280100423
-0.3248808980 -0.1153915003 0.5080680847 4280166216
-0.3254661262 -0.1150338426 0.5089833140 4280166216
-0.3255219758 -0.1144879758 0.5090706944 4280232009
-0.3255775869 -0.1139418185 0.5091576576 4280232009
-0.3251034617 -0.1132110059 0.5084161758 4280363595
-0.3256880641 -0.1128486767 0.5093303919 4280166214
-0.3257429302 -0.1123016924 0.5094162226 4280495179
-0.3257975578 -0.1117544323 0.5095016360 4283850873
-0.3263817728 -0.1113877147 0.5104152560 4284969354
-0.3264359832 -0.1108390167 0.5105000138 4284969608
-0.3270199597 -0.1104690805 0.5114132762 4284969608
-0.3270737529 -0.1099189445 0.5114973783 4284903813
-0.3276574910 -0.1095457971 0.5124102831 4284574848
-0.3282411397 -0.1091705859 0.5133230090 4282666853
-0.3282943368 -0.1086178571 0.5134062767 4279771961
-0.3278168738 -0.1078902781 0.5126595497 4280099904
-0.3284000158 -0.1075115874 0.5135715008 4280034111
-0.3284524679 -0.1069580540 0.5136535168 4279902526
-0.3285046816 -0.1064042524 0.5137351751 4280560456
-0.3290874064 -0.1060211957 0.5146464705 4283718519
-0.3296700418 -0.1056360826 0.5155576468 4284837000
-0.3302525878 -0.1052489132 0.5164686441 4284639873
-0.3303040266 -0.1046913788 0.5165491104 4284705666
-0.3308863044 -0.1043010056 0.5174596906 4284705664
-0.3314684927 -0.1039085761 0.5183701515 4283455597
-0.3320505917 -0.1035140976 0.5192804933 4280166717
-0.3326326013 -0.1031175554 0.5201906562 4279837752
-0.3332144916 -0.1027189717 0.5211006999 4281547602
-0.3332647681 -0.1021554023 0.5211793184 4284508287
-0.3338463902 -0.1017536074 0.5220888853 4284507772
-0.3344279230 -0.1013497561 0.5229982734 4284639358
-0.3344775438 -0.1007836312 0.5230759382 4284113268
-0.3350587785 -0.1003765762 0.5239849091 4283915889
-0.3351079822 -0.0998090506 0.5240617990 4283521131
-0.3351569176 -0.0992412716 0.5241383314 4282928994
-0.3352055848 -0.0986732394 0.5242144465 4282205017
-0.3347218335 -0.0979492441 0.5234579444 4280494399
-0.3347699046 -0.0973816216 0.5235331059 4280691519
-0.3348177075 -0.0968137607 0.5236078501 4283717997
-0.3353976011 -0.0963986740 0.5245147347 4284376190
-0.3354449570 -0.0958294198 0.5245888233 4284244604
-0.3360245526 -0.0954111367 0.5254952312 4283981168
-0.3366040289 -0.0949908048 0.5264014602 4281086276
-0.3361180425 -0.0942696333 0.5256414413 4282599769
-0.3361643851 -0.0936985239 0.5257138610 4283652457
-0.3356776237 -0.0929795951 0.5249527097 4280888897
-0.3357233703 -0.0924089253 0.5250241756 4279704623
-0.3336369693 -0.0912549198 0.5217613578 4279243554
-0.3358140290 -0.0912668854 0.5251659751 4284638580
-0.3416016400 -0.1393790841 0.5351465344 4281283656
-0.3354262114 -0.1356917322 0.5254721642 4280757832
-0.3318104148 -0.1336514652 0.5198077559 4280364359
-0.3324005902 -0.1333106160 0.5207322836 4280232773
-0.3308864832 -0.1321274489 0.5183603764 4280297802
-0.3304238617 -0.1313675791 0.5176355839 4280297802
-0.3289082944 -0.1301925331 0.5152613521 4280297802
-0.3294972777 -0.1298521608 0.5161840320 4280232009
-0.3279803991 -0.1286834925 0.5138077736 4280166216
-0.3269892633 -0.1277254671 0.5122550130 4280100423
-0.3259974718 -0.1267706454 0.5107012987 4280100423
-0.3250050545 -0.1258190274 0.5091466308 4280034630
-0.3245388567 -0.1250736564 0.5084162951 4280166216
-0.3230183125 -0.1239254177 0.5060342550 4280034630
-0.3220240176 -0.1229834408 0.5044765472 4279903044
-0.3215562105 -0.1222450882 0.5037437081 4279771458
-0.3216152191 -0.1217077225 0.5038361549 4279705665
-0.3216739893 -0.1211700663 0.5039282441 4279705665
-0.3217325211 -0.1206321120 0.5040199161 4279837251
-0.3217908144 -0.1200938597 0.5041112304 4279903044
-0.3213212490 -0.1193593293 0.5033755898 4279903044
-0.3219066560 -0.1190164909 0.5042927265 4279903044
-0.3219642341 -0.1184773669 0.5043829083 4279968837
-0.3220215738 -0.1179379597 0.5044727325 4280100423
-0.3226066530 -0.1175907180 0.5053893328 4280100423
-0.3231916726 -0.1172414199 0.5063058138 4280166216
-0.3232484758 -0.1166993827 0.5063948035 4280166216
-0.3238332868 -0.1163468584 0.5073109269 4280166216
-0.3238897026 -0.1158033609 0.5073993206 4280100423
-0.3244743049 -0.1154476032 0.5083151460 4280232009
-0.3250588477 -0.1150897965 0.5092308521 4280232009
-0.3251146972 -0.1145436764 0.5093183517 4280232009
-0.3251702785 -0.1139972806 0.5094054341 4280232007
-0.3246968091 -0.1132661253 0.5086637139 4280429386
-0.3247518241 -0.1127200574 0.5087499022 4280297800
-0.3253355622 -0.1123564094 0.5096644163 4280758351
-0.3253901899 -0.1118088961 0.5097499490 4284376701
-0.3254445195 -0.1112611070 0.5098350644 4285232010
-0.3260279000 -0.1108930707 0.5107489824 4285166215
-0.3266111910 -0.1105229780 0.5116627812 4285034629
-0.3271944225 -0.1101508215 0.5125764608 4285100420
-0.3277775645 -0.1097766161 0.5134899616 4285034627
-0.3283606470 -0.1094003543 0.5144034028 4283784562
-0.3284139335 -0.1088464782 0.5144868493 4280297533
-0.3279371560 -0.1081176624 0.5137400031 4280165695
-0.3279898465 -0.1075641438 0.5138225555 4280165695
-0.3285722435 -0.1071832329 0.5147349238 4279639354
-0.3286245167 -0.1066282839 0.5148168206 4281415765
-0.3286765218 -0.1060730666 0.5148983002 4284376449
-0.3297887146 -0.1058579758 0.5166406035 4284705414
-0.3298403621 -0.1053004414 0.5167215466 4284574080
-0.3304221630 -0.1049110517 0.5176329613 4284705666
-0.3304733932 -0.1043521017 0.5177131891 4284836991
-0.3310549259 -0.1039594933 0.5186241865 4283521131
-0.3316363394 -0.1035648361 0.5195350647 4280231738
-0.3322176635 -0.1031681225 0.5204457641 4279968566
-0.3327988982 -0.1027693525 0.5213562846 4281613391
-0.3333800137 -0.1023685336 0.5222666264 4284442490
-0.3339610398 -0.1019656509 0.5231768489 4284508026
-0.3340109289 -0.1013995185 0.5232550502 4284508026
-0.3345916569 -0.1009934321 0.5241647959 4281942099
-0.3346411288 -0.1004258841 0.5242422819 4281020997
-0.3352215588 -0.1000165939 0.5251516104 4280823618
-0.3352705538 -0.0994476527 0.5252283216 4280034102
-0.3347878754 -0.0987217575 0.5244721770 4280034102
-0.3348362744 -0.0981532112 0.5245479941 4280099895
-0.3348844051 -0.0975844264 0.5246233940 4280494140
-0.3349322677 -0.0970153958 0.5246983767 4283717997
-0.3355115652 -0.0965992138 0.5256059170 4284441468
-0.3355589807 -0.0960287899 0.5256801844 4284375675
-0.3356060982 -0.0954581276 0.5257540345 4284244340
-0.3356529772 -0.0948872268 0.5258274078 4281809999
-0.3356995881 -0.0943160877 0.5259004235 4282731355
-0.3357459009 -0.0937447101 0.5259730220 4283784043
-0.3352597952 -0.0930254385 0.5252115130 4280888897
-0.3353055418 -0.0924545005 0.5252831578 4279836209
-0.3348186612 -0.0917374790 0.5245204568 4279375140
-0.3337990344 -0.0908771008 0.5229231119 4284901752
-0.3411711156 -0.1394460499 0.5354036689 4281217863
-0.3349381983 -0.1363144815 0.5256222486 4280889672
-0.3350035846 -0.1357569695 0.5257248878 4280758086
-0.3329679966 -0.1343514919 0.5225303769 4280364359
-0.3309313357 -0.1329526901 0.5193341970 4280232773
-0.3304697871 -0.1321910620 0.5186099410 4280297802
-0.3295453787 -0.1306720823 0.5171592236 4280297802
-0.3285568058 -0.1297072172 0.5156078339 4280232009
-0.3275676072 -0.1287455410 0.5140554905 4280166216
-0.3255259991 -0.1273755282 0.5108515620 4280100423
-0.3266392648 -0.1272416115 0.5125986338 4280100423
-0.3245961666 -0.1258797497 0.5093923807 4280100423
-0.3236044347 -0.1249309108 0.5078360438 4280100423
-0.3226120472 -0.1239852831 0.5062786937 4280034630
-0.3216190636 -0.1230428740 0.5047203302 4279968837
-0.3211519122 -0.1223041862 0.5039872527 4279837251
-0.3212108910 -0.1217665821 0.5040798187 4279771458
-0.3212696314 -0.1212286800 0.5041720271 4279771458
-0.3213281631 -0.1206904873 0.5042638183 4279837251
-0.3213864267 -0.1201520041 0.5043553114 4279837251
-0.3214444518 -0.1196132228 0.5044463873 4279903044
-0.3215022683 -0.1190741509 0.5045370460 4279903044
-0.3215598166 -0.1185347885 0.5046274066 4279968837
-0.3221443594 -0.1181885749 0.5055447221 4280100423
-0.3222015202 -0.1176477522 0.5056344271 4280166216
-0.3227858841 -0.1172983050 0.5065514445 4280166216
-0.3228426576 -0.1167560220 0.5066405535 4280166216
-0.3234267831 -0.1164033413 0.5075572729 4280166216
-0.3234831691 -0.1158596054 0.5076457262 4280166216
-0.3240670860 -0.1155036986 0.5085620880 4280232009
-0.3246509731 -0.1151457280 0.5094783902 4280232007
-0.3247067928 -0.1145993695 0.5095659494 4280297800
-0.3242343068 -0.1138672680 0.5088244677 4280232007
-0.3242895305 -0.1133212298 0.5089111924 4280363593
-0.3243445456 -0.1127749160 0.5089974999 4280297800
-0.3243992925 -0.1122283265 0.5090833902 4280824144
-0.3249821961 -0.1118633449 0.5099982023 4284639871
-0.3250365555 -0.1113153100 0.5100834966 4285297801
-0.3256192505 -0.1109471098 0.5109978914 4285232261
-0.3262018561 -0.1105768532 0.5119122267 4284903296
-0.3267844021 -0.1102045402 0.5128263831 4285034880
-0.3273668587 -0.1098301709 0.5137404799 4285034880
-0.3279492557 -0.1094537377 0.5146543980 4284442490
-0.3280025125 -0.1088996083 0.5147380233 4281021254
-0.3280555308 -0.1083452031 0.5148212314 4280034363
-0.3281083107 -0.1077905372 0.5149040222 4280297535
-0.3281608224 -0.1072356030 0.5149863958 4279836732
-0.3282130659 -0.1066804007 0.5150684118 4282336866
-0.3282650709 -0.1061249301 0.5151500106 4284836998
-0.3288463652 -0.1057394743 0.5160622597 4284508033
-0.3288979232 -0.1051825806 0.5161432028 4284574078
-0.3294789493 -0.1047939137 0.5170549750 4284705664
-0.3305896819 -0.1045707688 0.5187980533 4284705151
-0.3306407332 -0.1040104032 0.5188781619 4283389291
-0.3312214613 -0.1036155671 0.5197895169 4280099641
-0.3318020999 -0.1032186747 0.5207007527 4279968055
-0.3323826492 -0.1028197259 0.5216118097 4281942099
-0.3329631090 -0.1024187207 0.5225226879 4284573819
-0.3335434496 -0.1020156592 0.5234334469 4284573819
-0.3341237009 -0.1016105488 0.5243440270 4284573819
-0.3341733813 -0.1010429934 0.5244220495 4281547087
-0.3347533345 -0.1006346643 0.5253321528 4280231227
-0.3353331983 -0.1002242863 0.5262420774 4280362813
-0.3353822529 -0.0996541753 0.5263190866 4280033848
-0.3349003196 -0.0989270359 0.5255627632 4280165434
-0.3349487484 -0.0983573273 0.5256388187 4280297020
-0.3349969387 -0.0977873728 0.5257144570 4280494653
-0.3350448608 -0.0972171649 0.5257896185 4284047475
-0.3356235921 -0.0967998877 0.5266978145 4284441468
-0.3356710374 -0.0962282941 0.5267723203 4284244089
-0.3357182443 -0.0956564620 0.5268463492 4284375926
-0.3357651830 -0.0950843915 0.5269200206 4282467929
-0.3363431692 -0.0946616158 0.5278270841 4282797148
-0.3358582258 -0.0939395204 0.5270660520 4283718250
-0.3348413706 -0.0930712670 0.5254702568 4280823104
-0.3348870575 -0.0925000608 0.5255420208 4280033588
-0.3339142501 -0.0910669193 0.5240153670 4285296510
-0.3391673267 -0.1388690919 0.5331884027 4281217862
-0.3309094310 -0.1343319863 0.5202065706 4280692293
-0.3325473964 -0.1344160736 0.5227815509 4280363846
-0.3320872486 -0.1336500347 0.5220581889 4280298053
-0.3300524950 -0.1322546452 0.5188593864 4280363595
-0.3295911252 -0.1314941049 0.5181341171 4280297802
-0.3291293383 -0.1307349801 0.5174081922 4280297802
-0.3281421065 -0.1297696829 0.5158561468 4280232009
-0.3271542192 -0.1288075745 0.5143031478 4280166216
-0.3251152337 -0.1274369210 0.5110977888 4280100423
-0.3262271583 -0.1273029596 0.5128458142 4280100423
-0.3247121274 -0.1261445880 0.5104640722 4280100423
-0.3237217963 -0.1251944304 0.5089071989 4280034630
-0.3227308095 -0.1242474839 0.5073493719 4280034630
-0.3217392266 -0.1233037636 0.5057905316 4279968837
-0.3207469881 -0.1223632619 0.5042306781 4279903044
-0.3208059669 -0.1218254268 0.5043234229 4279837251
-0.3208647072 -0.1212872863 0.5044157505 4279771458
-0.3209232092 -0.1207488552 0.5045077205 4279771458
-0.3209814429 -0.1202101260 0.5045992732 4279771458
-0.3210394681 -0.1196711063 0.5046904683 4279903044
-0.3216236532 -0.1193270907 0.5056087971 4279903044
-0.3216812611 -0.1187866032 0.5056993961 4280034630
-0.3217386603 -0.1182458326 0.5057896376 4280100423
-0.3223224878 -0.1178974062 0.5067074299 4280166216
-0.3223794699 -0.1173551679 0.5067970157 4280232009
-0.3229630888 -0.1170035154 0.5077145100 4280232009
-0.3230196834 -0.1164598167 0.5078034997 4280232009
-0.3236030936 -0.1161049232 0.5087206364 4280166214
-0.3236593008 -0.1155597717 0.5088089705 4280232007
-0.3242425025 -0.1152016521 0.5097258091 4280232007
-0.3242982924 -0.1146550402 0.5098135471 4280297800
-0.3238264620 -0.1139226034 0.5090717673 4280232007
-0.3238816857 -0.1133763194 0.5091586113 4280297800
-0.3244642615 -0.1130135208 0.5100743771 4280232007
-0.3245190680 -0.1124657914 0.5101605654 4280824144
-0.3245736361 -0.1119177863 0.5102463961 4284903041
-0.3246279657 -0.1113694981 0.5103317499 4285363592
-0.3252099752 -0.1110011414 0.5112467408 4285363845
-0.3252638876 -0.1104514152 0.5113314986 4284903294
-0.3258456588 -0.1100798324 0.5122460723 4284969087
-0.3269555569 -0.1098837033 0.5139908791 4284837501
-0.3275372684 -0.1095071062 0.5149053335 4284574331
-0.3275905252 -0.1089527234 0.5149890780 4281613646
-0.3276435435 -0.1083980724 0.5150724053 4279902777
-0.3276962936 -0.1078431457 0.5151553154 4280297535
-0.3277487755 -0.1072879583 0.5152378678 4280363074
-0.3278010190 -0.1067324951 0.5153199434 4283257966
-0.3278529942 -0.1061767787 0.5154017210 4285100424
-0.3284336030 -0.1057911441 0.5163144469 4284639873
-0.3284851611 -0.1052340046 0.5163955092 4284705664
-0.3290655017 -0.1048451588 0.5173078179 4284705664
-0.3296457529 -0.1044542566 0.5182200074 4284639871
-0.3307551444 -0.1042280570 0.5199639797 4283324011
-0.3313352764 -0.1038321480 0.5208759904 4280165688
-0.3319153190 -0.1034341753 0.5217878819 4280034102
-0.3324952722 -0.1030341461 0.5226995945 4282205271
-0.3330751359 -0.1026320606 0.5236111283 4284573819
-0.3331252635 -0.1020656526 0.5236899257 4284442233
-0.3337048292 -0.1016603559 0.5246010423 4284508026
-0.3342842758 -0.1012530029 0.5255119801 4281020743
-0.3348636329 -0.1008435860 0.5264227390 4280033848
-0.3349129558 -0.1002734601 0.5265002847 4280428606
-0.3354919851 -0.0998608395 0.5274105668 4280560192
-0.3350107670 -0.0991324559 0.5266540647 4280428606
-0.3345291317 -0.0984056219 0.5258969069 4280231227
-0.3345773220 -0.0978353992 0.5259726644 4280494653
-0.3351555467 -0.0974190757 0.5268816352 4284047475
-0.3352032602 -0.0968474597 0.5269566774 4284441468
-0.3352507055 -0.0962756053 0.5270313025 4283980917
-0.3352978826 -0.0957035050 0.5271054506 4284310133
-0.3353448212 -0.0951311588 0.5271791816 4283125859
-0.3353914618 -0.0945585743 0.5272525549 4282928734
-0.3354378343 -0.0939857587 0.5273254514 4283520871
-0.3354839385 -0.0934126973 0.5273979306 4280756795
-0.3344679773 -0.0925456136 0.5258007646 4280230451
-0.3345134258 -0.0919739008 0.5258722305 4279309601
-0.3355301321 -0.1382072419 0.5283931494 4281678413
-0.3366433680 -0.1380767673 0.5301462412 4281217862
-0.3331090212 -0.1354614347 0.5245803595 4280692293
-0.3300307691 -0.1336321831 0.5197327733 4280363846
-0.3300948143 -0.1330805421 0.5198336244 4280298053
-0.3291105032 -0.1321078539 0.5182834864 4280363595
-0.3286496997 -0.1313478351 0.5175578594 4280297802
-0.3276641965 -0.1303806603 0.5160058737 4280297802
-0.3282511532 -0.1300398558 0.5169301629 4280232009
-0.3272646666 -0.1290764362 0.5153766870 4280166216
-0.3262775540 -0.1281162053 0.5138221383 4280100423
-0.3242404759 -0.1267490089 0.5106141567 4280100423
-0.3237766325 -0.1260011643 0.5098837018 4280100423
-0.3227875233 -0.1250514537 0.5083260536 4279968837
-0.3217977583 -0.1241049543 0.5067673922 4280034630
-0.3213324249 -0.1233632565 0.5060345531 4280034630
-0.3208666742 -0.1226230189 0.5053010583 4279968837
-0.3209257126 -0.1220840588 0.5053941011 4279903044
-0.3209845126 -0.1215448007 0.5054866672 4279837251
-0.3210431039 -0.1210052446 0.5055789351 4279705665
-0.3205758929 -0.1202682331 0.5048431754 4279705665
-0.3206338882 -0.1197289750 0.5049345493 4279837251
-0.3206916451 -0.1191894189 0.5050255060 4279903044
-0.3212749958 -0.1188440844 0.5059441328 4279968837
-0.3218582869 -0.1184966937 0.5068627000 4280100423
-0.3219155073 -0.1179545000 0.5069528222 4280166216
-0.3224985898 -0.1176038682 0.5078710318 4280166216
-0.3225554228 -0.1170602143 0.5079605579 4280232007
-0.3231382966 -0.1167063415 0.5088784695 4280166214
-0.3231947422 -0.1161612272 0.5089673400 4280166214
-0.3237773776 -0.1158041283 0.5098848939 4280166214
-0.3238334358 -0.1152575538 0.5099731684 4280232007
-0.3238892257 -0.1147106960 0.5100610256 4280297800
-0.3234180212 -0.1139779240 0.5093189478 4280166214
-0.3234732449 -0.1134313941 0.5094059110 4280297800
-0.3235282004 -0.1128845885 0.5094924569 4280297800
-0.3241099119 -0.1125204563 0.5104085803 4280889937
-0.3241644800 -0.1119722053 0.5104944706 4285034627
-0.3242187798 -0.1114236712 0.5105800033 4285232006
-0.3248001039 -0.1110551506 0.5114954710 4285429638
-0.3248540163 -0.1105051786 0.5115803480 4284903294
-0.3254351020 -0.1101334244 0.5124954581 4285035134
-0.3260161281 -0.1097596213 0.5134104490 4285166720
-0.3271246850 -0.1095604599 0.5151562095 4284771708
-0.3271779418 -0.1090058237 0.5152400732 4282600539
-0.3272309303 -0.1084509194 0.5153235197 4279836982
-0.3272836506 -0.1078957394 0.5154065490 4280034361
-0.3273361325 -0.1073402986 0.5154892206 4281087051
-0.3273883462 -0.1067845821 0.5155714750 4283850357
-0.3279684484 -0.1063999459 0.5164849758 4285034629
-0.3280202448 -0.1058428064 0.5165665746 4284508285
-0.3286000788 -0.1054549441 0.5174797177 4284639869
-0.3291798532 -0.1050650328 0.5183926821 4284639869
-0.3292310238 -0.1045053080 0.5184733272 4284771455
-0.3298105001 -0.1041121706 0.5193858743 4283389802
-0.3314471543 -0.1040488780 0.5219632387 4280231738
-0.3320266008 -0.1036498249 0.5228757262 4280034359
-0.3326059580 -0.1032487154 0.5237880945 4282402649
-0.3331851959 -0.1028455496 0.5247003436 4284508025
-0.3332353830 -0.1022779793 0.5247793794 4284179318
-0.3338143528 -0.1018715948 0.5256910920 4284442490
-0.3343932033 -0.1014631540 0.5266026855 4281086790
-0.3349719644 -0.1010526568 0.5275141001 4280889411
-0.3350213468 -0.1004813612 0.5275918841 4281284169
-0.3350704610 -0.0999098122 0.5276692510 4281086790
-0.3351193070 -0.0993380174 0.5277461410 4280297273
-0.3346383870 -0.0986099392 0.5269888043 4280297273
-0.3346866369 -0.0980385467 0.5270648003 4280823617
-0.3347346187 -0.0974669084 0.5271403193 4283981681
-0.3347823322 -0.0968950242 0.5272154808 4284507261
-0.3348297477 -0.0963229015 0.5272901654 4283520366
-0.3348769248 -0.0957505256 0.5273644924 4284112754
-0.3349238336 -0.0951779187 0.5274383426 4283520617
-0.3349704742 -0.0946050659 0.5275117755 4283126113
-0.3350168467 -0.0940319747 0.5275847912 4283323492
-0.3345327675 -0.0933107734 0.5268225074 4280559416
-0.3335180581 -0.0924441814 0.5252245069 4280230451
-0.3340936899 -0.0920191705 0.5261310339 4279441187
-0.3330780864 -0.0911566466 0.5245316625 4286481038
-0.3346469700 -0.1374984235 0.5279257298 4281152582
-0.3321628273 -0.1353133321 0.5240068436 4280495684
-0.3311812282 -0.1343329549 0.5224582553 4280363846
-0.3281057775 -0.1325104088 0.5176066160 4280363846
-0.3276458681 -0.1317503750 0.5168810487 4280363595
-0.3277090192 -0.1312013716 0.5169806480 4280297802
-0.3267247081 -0.1302346140 0.5154278874 4280297802
-0.3278345764 -0.1301023960 0.5171787739 4280232009
-0.3263255954 -0.1289315671 0.5147982836 4280232009
-0.3253397048 -0.1279717833 0.5132429004 4280100423
-0.3238291442 -0.1268100142 0.5108599663 4280100423
-0.3233659863 -0.1260618418 0.5101292729 4280100423
-0.3229023516 -0.1253151298 0.5093978643 4279968837
-0.3219140172 -0.1243673190 0.5078386664 4280034630
-0.3209250271 -0.1234227344 0.5062785149 4279968837
-0.3199354410 -0.1224813685 0.5047173500 4279903044
-0.3199943602 -0.1219430491 0.5048103333 4279903044
-0.3200530708 -0.1214044392 0.5049029589 4279837251
-0.3201115429 -0.1208655238 0.5049951673 4279705665
-0.3196448982 -0.1201290637 0.5042589903 4279639872
-0.3202277422 -0.1197868213 0.5051785111 4279837251
-0.3202854693 -0.1192470342 0.5052695870 4279903044
-0.3208681345 -0.1189015508 0.5061887503 4280034630
-0.3209254742 -0.1183602959 0.5062792301 4280100423
-0.3215079308 -0.1180115715 0.5071980953 4280166214
-0.3220903277 -0.1176607907 0.5081168413 4280232007
-0.3221471608 -0.1171168908 0.5082064867 4280232007
-0.3227293491 -0.1167628765 0.5091249347 4280166214
-0.3227857649 -0.1162175164 0.5092139244 4280166214
-0.3233677447 -0.1158602610 0.5101320744 4280232007
-0.3234237731 -0.1153134406 0.5102204084 4280232007
-0.3234795332 -0.1147663370 0.5103083849 4280297800
-0.3230089843 -0.1140332296 0.5095661283 4280166214
-0.3230641782 -0.1134864539 0.5096531510 4280232007
-0.3231191337 -0.1129393950 0.5097398758 4280297800
-0.3231738210 -0.1123920605 0.5098261237 4281021523
-0.3237547278 -0.1120266095 0.5107425451 4285034627
-0.3238089979 -0.1114778295 0.5108281970 4285166213
-0.3243896663 -0.1111091450 0.5117442012 4285429892
-0.3244435489 -0.1105589196 0.5118291974 4284508790
-0.3250239491 -0.1101870090 0.5127448440 4284574581
-0.3256042898 -0.1098130345 0.5136603117 4285166718
-0.3267115057 -0.1096137986 0.5154070258 4284836988
-0.3267647326 -0.1090589091 0.5154910088 4283455335
-0.3268176913 -0.1085037515 0.5155745745 4280034102
-0.3268704116 -0.1079483181 0.5156577229 4279968309
-0.3269228935 -0.1073926240 0.5157405138 4282139478
-0.3269750774 -0.1068366542 0.5158228278 4284508026
-0.3270270526 -0.1062804237 0.5159048438 4284836990
-0.3281338513 -0.1060649753 0.5176508427 4284244853
-0.3281854391 -0.1055064201 0.5177322626 4284310644
-0.3287645280 -0.1051163301 0.5186457634 4284771195
-0.3293434978 -0.1047241762 0.5195591450 4284705662
-0.3299223781 -0.1043299660 0.5204723477 4283192423
-0.3310291171 -0.1040997207 0.5222183466 4280231480
-0.3321359158 -0.1038656235 0.5239643455 4280165687
-0.3327146769 -0.1034634337 0.5248773694 4282600028
-0.3332933187 -0.1030591801 0.5257902145 4284705404
-0.3333435655 -0.1024904475 0.5258695483 4284376440
-0.3339219391 -0.1020829752 0.5267819166 4284771198
-0.3339717686 -0.1015128270 0.5268605351 4283323751
-0.3345498145 -0.1011021435 0.5277724862 4283389544
-0.3351278007 -0.1006893963 0.5286841989 4283586664
-0.3351769745 -0.1001166850 0.5287618041 4282205011
-0.3346971273 -0.0993867069 0.5280048251 4280362807
-0.3347457051 -0.0988143906 0.5280814767 4280428600
-0.3347940147 -0.0982418284 0.5281576514 4281152069
-0.3348420262 -0.0976690203 0.5282334685 4283981168
-0.3343607485 -0.0969425738 0.5274741650 4284507515
-0.3344081938 -0.0963701829 0.5275490284 4283060069
-0.3344553411 -0.0957975462 0.5276234150 4283849582
-0.3345022202 -0.0952246636 0.5276973844 4283849582
-0.3345488608 -0.0946515426 0.5277709365 4283520871
-0.3340657949 -0.0939293280 0.5270088315 4283257699
-0.3335823119 -0.0932086930 0.5262461305 4280427830
-0.3330984116 -0.0924896300 0.5254827738 4280230451
-0.3326140940 -0.0917721540 0.5247187018 4279638566
-0.3331888020 -0.0913467184 0.5256253481 4286875796
-0.3316747844 -0.1359340400 0.5241553187 4280561477
-0.3312173486 -0.1351649910 0.5234324336 4280429891
-0.3307594657 -0.1343973726 0.5227088332 4280298566
-0.3292559087 -0.1332083046 0.5203326941 4280298566
-0.3282742202 -0.1322347373 0.5187813044 4280363595
-0.3283375502 -0.1316837221 0.5188813806 4280297802
-0.3268318176 -0.1305059791 0.5165018439 4280232009
-0.3268943727 -0.1299569756 0.5166006684 4280232009
-0.3259104192 -0.1289935410 0.5150457025 4280232009
-0.3249258101 -0.1280333251 0.5134897232 4280166216
-0.3239405751 -0.1270763129 0.5119327307 4280100423
-0.3234781325 -0.1263269186 0.5112019181 4280100423
-0.3224917352 -0.1253754497 0.5096430779 4280034630
-0.3215047121 -0.1244272068 0.5080832243 4280034630
-0.3205170631 -0.1234821901 0.5065224171 4279968837
-0.3200525939 -0.1227412820 0.5057883859 4279903044
-0.3201116025 -0.1222018450 0.5058816671 4279903044
-0.3196463585 -0.1214629859 0.5051464438 4279771458
-0.3197048008 -0.1209238395 0.5052388310 4279705665
-0.3197630048 -0.1203843951 0.5053308010 4279639872
-0.3192966878 -0.1196481884 0.5045938492 4279903044
-0.3193543255 -0.1191090420 0.5046849251 4279968837
-0.3204606771 -0.1189589947 0.5064333081 4280034628
-0.3210425973 -0.1186113060 0.5073529482 4280100421
-0.3210997880 -0.1180686280 0.5074433088 4280166214
-0.3216814995 -0.1177176982 0.5083626509 4280232007
-0.3222631514 -0.1173647046 0.5092818141 4280232007
-0.3223198056 -0.1168193892 0.5093713403 4280232007
-0.3223761916 -0.1162737831 0.5094605088 4280166214
-0.3229574859 -0.1159163713 0.5103791356 4280297800
-0.3230135143 -0.1153693125 0.5104676485 4280297800
-0.3230692744 -0.1148219630 0.5105557442 4280232007
-0.3231247663 -0.1142743304 0.5106434822 4280166214
-0.3226545453 -0.1135414988 0.5099003315 4280232007
-0.3227094710 -0.1129941940 0.5099871755 4280232007
-0.3227641582 -0.1124466136 0.5100736022 4281153109
-0.3233443499 -0.1120809987 0.5109905005 4285297541
-0.3239244819 -0.1117133200 0.5119072795 4285297541
-0.3239786029 -0.1111631244 0.5119928122 4285626758
-0.3245584965 -0.1107922196 0.5129092336 4284245105
-0.3246122003 -0.1102405787 0.5129941106 4284179310
-0.3251918554 -0.1098664403 0.5139101148 4285231998
-0.3262977004 -0.1096671224 0.5156577826 4285034621
-0.3263509274 -0.1091119796 0.5157418251 4284245105
-0.3264038861 -0.1085565686 0.5158255100 4280165687
-0.3264565766 -0.1080008820 0.5159088373 4280034101
-0.3265090287 -0.1074449345 0.5159916878 4283060579
-0.3265612125 -0.1068887115 0.5160741806 4285100162
-0.3271399438 -0.1065037325 0.5169888139 4284902781
-0.3277186155 -0.1061166897 0.5179032683 4283981679
-0.3282971680 -0.1057275832 0.5188175440 4283981933
-0.3288756311 -0.1053364202 0.5197317004 4284903035
-0.3294540048 -0.1049431935 0.5206457376 4284705662
-0.3300322890 -0.1045479029 0.5215595961 4283060837
-0.3306104541 -0.1041505560 0.5224733353 4280231481
-0.3317159116 -0.1039163545 0.5242202878 4280231481
-0.3317665458 -0.1033496782 0.5243002772 4282731615
-0.3328719437 -0.1031095535 0.5260472298 4284836991
-0.3329221904 -0.1025405526 0.5261266232 4284376440
-0.3334998786 -0.1021329015 0.5270395875 4284771198
-0.3340774477 -0.1017231867 0.5279523134 4284508025
-0.3341270685 -0.1011516154 0.5280307531 4284573818
-0.3347043395 -0.1007386893 0.5289430022 4284705145
-0.3347535133 -0.1001657024 0.5290207267 4282731355
-0.3348024189 -0.0995924696 0.5290979743 4280427830
-0.3348510563 -0.0990189835 0.5291748643 4280559416
-0.3348994255 -0.0984452516 0.5292512774 4281283655
-0.3349474967 -0.0978712663 0.5293272734 4284178547
-0.3344669640 -0.0971435755 0.5285678506 4284375929
-0.3339859843 -0.0964174494 0.5278077722 4282599518
-0.3340331316 -0.0958445445 0.5278822780 4283652203
-0.3340800107 -0.0952713937 0.5279563665 4284112754
-0.3341266215 -0.0946980119 0.5280300379 4284046445
-0.3341729641 -0.0941243842 0.5281032324 4283520101
-0.3336901963 -0.0934024975 0.5273403525 4280427830
-0.3326781392 -0.0925350711 0.5257409215 4280164658
-0.3316655159 -0.0916710496 0.5241406560 4279770152
-0.3342491686 -0.1384058595 0.5291524529 4281547341
-0.3343152404 -0.1378451735 0.5292570591 4281218376
-0.3302726150 -0.1350164413 0.5228571296 4280495432
-0.3287715614 -0.1338245124 0.5204808116 4280429897
-0.3288355470 -0.1332721561 0.5205820799 4280232518
-0.3278551698 -0.1322981417 0.5190300345 4280429388
-0.3273963034 -0.1315371096 0.5183036327 4280363595
-0.3264147341 -0.1305686086 0.5167496800 4280297802
-0.3269996345 -0.1302273870 0.5176756382 4280297802
-0.3254946172 -0.1290555000 0.5152930617 4280232009
-0.3250339031 -0.1283011138 0.5145636797 4280166216
-0.3240500689 -0.1273427755 0.5130062103 4280034630
-0.3230656385 -0.1263876557 0.5114477277 4279968837
-0.3226034045 -0.1256393939 0.5107159615 4279968837
-0.3216177821 -0.1246898249 0.5091556311 4279968837
-0.3206315339 -0.1237434894 0.5075942874 4279968837
-0.3196446598 -0.1228003874 0.5060319901 4279968837
-0.3197036684 -0.1222607121 0.5061253905 4279837251
-0.3192390800 -0.1215215176 0.5053898692 4279771458
-0.3192975223 -0.1209821329 0.5054823756 4279771458
-0.3193556964 -0.1204424500 0.5055744648 4279705665
-0.3188900054 -0.1197059080 0.5048372746 4279968583
-0.3189476132 -0.1191665232 0.5049284697 4280034376
-0.3195288181 -0.1188216358 0.5058485270 4280034376
-0.3201099634 -0.1184746847 0.5067685246 4280034376
-0.3206910491 -0.1181256697 0.5076884627 4280165962
-0.3212720752 -0.1177745908 0.5086082816 4280165962
-0.3223772347 -0.1176126823 0.5103579164 4280232009
-0.3224339485 -0.1170662344 0.5104476810 4280297802
-0.3224904239 -0.1165194958 0.5105370879 4280232009
-0.3225466609 -0.1159724742 0.5106261373 4280232009
-0.3231272101 -0.1156128496 0.5115451813 4280232009
-0.3231830299 -0.1150643602 0.5116335750 4280297802
-0.3227138817 -0.1143296883 0.5108908415 4280297802
-0.3227691352 -0.1137815341 0.5109783411 4280297802
-0.3228241503 -0.1132330894 0.5110654235 4280100421
-0.3228788972 -0.1126843691 0.5111520886 4281218902
-0.3229334056 -0.1121353731 0.5112383962 4285232259
-0.3235128522 -0.1117675379 0.5121557117 4285166466
-0.3240922093 -0.1113976315 0.5130729079 4285429127
-0.3246715069 -0.1110256687 0.5139899850 4283652716
-0.3247252703 -0.1104728878 0.5140751004 4283915888
-0.3253043294 -0.1100976914 0.5149918199 4285100162
-0.3258833289 -0.1097204313 0.5159084201 4285166466
-0.3259364963 -0.1091650352 0.5159926414 4284574329
-0.3265152276 -0.1087845489 0.5169088244 4280626236
-0.3265680075 -0.1082277149 0.5169923306 4280494650
-0.3266205192 -0.1076706126 0.5170754790 4283850093
-0.3266727924 -0.1071132347 0.5171582103 4285231746
-0.3267247975 -0.1065556034 0.5172405839 4284902524
-0.3273027539 -0.1061683819 0.5181555748 4283389285
-0.3278806508 -0.1057791114 0.5190703869 4283784300
-0.3284584284 -0.1053877696 0.5199850798 4284508023
-0.3290361166 -0.1049943641 0.5208996534 4284837242
-0.3296137154 -0.1045989022 0.5218140483 4282929245
-0.3301911950 -0.1042013764 0.5227282643 4280231732
-0.3307686150 -0.1038017869 0.5236423612 4280165939
-0.3313459158 -0.1034001410 0.5245562792 4282929245
-0.3319230974 -0.1029964238 0.5254700780 4284837242
-0.3325002193 -0.1025906503 0.5263836980 4284376437
-0.3330771923 -0.1021828130 0.5272971392 4284573816
-0.3331269920 -0.1016121358 0.5273759365 4284771197
-0.3337036967 -0.1012010798 0.5282889009 4284244853
-0.3342802823 -0.1007879600 0.5292017460 4284376439
-0.3348567784 -0.1003727764 0.5301143527 4282534235
-0.3343783319 -0.0996412113 0.5293569565 4280363066
-0.3344269395 -0.0990674570 0.5294339061 4280231480
-0.3344753087 -0.0984934568 0.5295104384 4281349962
-0.3345233798 -0.0979192108 0.5295865536 4284113268
-0.3345712125 -0.0973447114 0.5296622515 4284441719
-0.3340909481 -0.0966173410 0.5289019942 4282073171
-0.3336102962 -0.0958915278 0.5281410813 4283323238
-0.3336571753 -0.0953181162 0.5282152295 4284178547
-0.3337037563 -0.0947444588 0.5282890201 4283981168
-0.3337500989 -0.0941705629 0.5283623338 4283389031
-0.3332679868 -0.0934483334 0.5275991559 4280296244
-0.3322572410 -0.0925805047 0.5259990096 4280296244
-0.3317742348 -0.0918623433 0.5252344012 4279901738
-0.3308918476 -0.1355078518 0.5247601271 4280495430
-0.3299141824 -0.1345261484 0.5232096910 4280364104
-0.3289358616 -0.1335476339 0.5216581821 4280166725
-0.3269772828 -0.1316001564 0.5185520649 4280363595
-0.3259970546 -0.1306312233 0.5169975162 4280232009
-0.3265812397 -0.1302898675 0.5179239511 4280166216
-0.3256000280 -0.1293246746 0.5163678527 4280297802
-0.3251400590 -0.1285690665 0.5156384110 4280232009
-0.3241576552 -0.1276094168 0.5140804052 4280100423
-0.3231745958 -0.1266529858 0.5125213861 4280034630
-0.3227131367 -0.1259035021 0.5117895603 4279968837
-0.3217289448 -0.1249526218 0.5102286935 4279903044
-0.3207440972 -0.1240049750 0.5086668730 4279903044
-0.3197586536 -0.1230605468 0.5071040392 4279903044
-0.3192951381 -0.1223195568 0.5063689947 4279837251
-0.3193538785 -0.1217793450 0.5064621568 4279771458
-0.3188896179 -0.1210404038 0.5057258606 4279837251
-0.3189477921 -0.1205004826 0.5058180690 4279771458
-0.3190056980 -0.1199602708 0.5059099793 4279903044
-0.3190633953 -0.1194197536 0.5060014725 4279968837
-0.3191208541 -0.1188789532 0.5060925484 4280034630
-0.3202245533 -0.1187258512 0.5078428984 4280100423
-0.3208050430 -0.1183758005 0.5087634921 4280232009
-0.3208620250 -0.1178314611 0.5088539124 4280232009
-0.3214423358 -0.1174781695 0.5097742081 4280232007
-0.3225461543 -0.1173132509 0.5115247369 4280297800
-0.3226027191 -0.1167653799 0.5116144419 4280166214
-0.3226590157 -0.1162172183 0.5117037296 4280166214
-0.3227150738 -0.1156687737 0.5117926598 4280232009
-0.3227708936 -0.1151200458 0.5118811727 4280297802
-0.3228264749 -0.1145710275 0.5119692683 4280297802
-0.3223576248 -0.1138366312 0.5112257600 4280297802
-0.3224126101 -0.1132879406 0.5113129616 4280100421
-0.3224673569 -0.1127389744 0.5113997459 4281284695
-0.3230462670 -0.1123721451 0.5123178959 4285363845
-0.3231005967 -0.1118217334 0.5124040246 4285298052
-0.3236792982 -0.1114516705 0.5133217573 4285363334
-0.3242579103 -0.1110795438 0.5142393708 4283915888
-0.3243116438 -0.1105265096 0.5143246651 4283718509
-0.3248900175 -0.1101511493 0.5152418613 4285165955
-0.3254683316 -0.1097737253 0.5161589980 4285034880
-0.3255214989 -0.1092180759 0.5162433386 4284705915
-0.3260995448 -0.1088374183 0.5171600580 4281284166
-0.3261522949 -0.1082803309 0.5172436833 4281152580
-0.3262048066 -0.1077229753 0.5173269510 4284310644
-0.3267824054 -0.1073379144 0.5182430148 4284968574
-0.3268344998 -0.1067791283 0.5183256269 4284968574
-0.3274118602 -0.1063908413 0.5192412138 4282600026
-0.3279891312 -0.1060004905 0.5201567411 4284047726
-0.3285663128 -0.1056080759 0.5210720897 4284574070
-0.3291434050 -0.1052135974 0.5219872594 4284771195
-0.3297203779 -0.1048170552 0.5229023099 4282665819
-0.3297713399 -0.1042521819 0.5229831338 4280034353
-0.3303480446 -0.1038524136 0.5238977671 4280231732
-0.3309246600 -0.1034505814 0.5248122215 4283126370
-0.3315011859 -0.1030466855 0.5257264972 4285034367
-0.3320775926 -0.1026407331 0.5266406536 4284705404
-0.3326539099 -0.1022327095 0.5275545716 4284705404
-0.3327036798 -0.1016617715 0.5276335478 4284639611
-0.3332796991 -0.1012505218 0.5285470486 4284113267
-0.3333290219 -0.1006781682 0.5286252499 4283652716
-0.3339047432 -0.1002637073 0.5295382738 4282139477
-0.3339536190 -0.0996899381 0.5296158195 4280231481
-0.3340022266 -0.0991159230 0.5296928883 4280034102
-0.3345774412 -0.0986970812 0.5306051373 4281481548
-0.3340986371 -0.0979671329 0.5298457742 4284442233
-0.3341464400 -0.0973923728 0.5299215913 4284310133
-0.3336668611 -0.0966646522 0.5291610360 4281612620
-0.3337140381 -0.0960903093 0.5292358398 4282731101
-0.3337609768 -0.0955157131 0.5293102860 4283981168
-0.3332802951 -0.0947908983 0.5285479426 4283914861
-0.3333266079 -0.0942167342 0.5286213756 4283520103
-0.3328451514 -0.0934941620 0.5278578997 4280296244
-0.3323633075 -0.0927731767 0.5270937085 4280098865
-0.3318810165 -0.0920537710 0.5263288617 4280164910
-0.3339783549 -0.1381922364 0.5305896401 4281152583
-0.3309223652 -0.1363435984 0.5257345438 4280627016
-0.3309873939 -0.1357861608 0.5258378983 4280495430
-0.3300111294 -0.1348031312 0.5242869258 4280364359
-0.3300754726 -0.1342467815 0.5243891478 4280166980
-0.3275359571 -0.1326357722 0.5203546286 4280429388
-0.3275993466 -0.1320831776 0.5204553008 4280363595
-0.3271415234 -0.1313211322 0.5197280049 4280166216
-0.3261622488 -0.1303523183 0.5181722045 4280100423
-0.3262245953 -0.1298013926 0.5182712674 4280232009
-0.3257654905 -0.1290436834 0.5175418854 4280232009
-0.3247846067 -0.1280818433 0.5159835219 4280100423
-0.3238030672 -0.1271232069 0.5144242048 4280100423
-0.3228209317 -0.1261677891 0.5128638744 4279968837
-0.3218381405 -0.1252155900 0.5113025308 4279903044
-0.3208547235 -0.1242666245 0.5097401738 4279903044
-0.3193488717 -0.1231197119 0.5073478222 4279903044
-0.3194079399 -0.1225786731 0.5074416399 4279837251
-0.3189447522 -0.1218379363 0.5067058206 4279771458
-0.3190032244 -0.1212971807 0.5067986846 4279837251
-0.3185392916 -0.1205585003 0.5060616136 4279837251
-0.3185971975 -0.1200180426 0.5061536431 4279903042
-0.3191772401 -0.1196731627 0.5070751905 4279968835
-0.3192347586 -0.1191312298 0.5071665645 4279968837
-0.3198146224 -0.1187831014 0.5080877542 4280034630
-0.3209170997 -0.1186261028 0.5098392367 4280166216
-0.3209741712 -0.1180806309 0.5099299550 4280232009
-0.3215538561 -0.1177262962 0.5108509064 4280232007
-0.3216105402 -0.1171793565 0.5109409690 4280297800
-0.3216669858 -0.1166321337 0.5110306144 4280232007
-0.3217231929 -0.1160846204 0.5111199021 4280232007
-0.3223023713 -0.1157246828 0.5120400190 4280232007
-0.3223581612 -0.1151757091 0.5121286511 4280232007
-0.3229371011 -0.1148125231 0.5130484700 4280297800
-0.3224690259 -0.1140768975 0.5123047829 4280232007
-0.3225240707 -0.1135270745 0.5123922825 4280166214
-0.3225788772 -0.1129769608 0.5124793053 4281482074
-0.3226334453 -0.1124265790 0.5125660300 4285363847
-0.3232116103 -0.1120575294 0.5134845376 4285298054
-0.3232657611 -0.1115056872 0.5135705471 4285165955
-0.3238436878 -0.1111333966 0.5144886971 4283915888
-0.3238974214 -0.1105801165 0.5145741105 4282928993
-0.3244751096 -0.1102045923 0.5154918432 4284836990
-0.3250527084 -0.1098269969 0.5164095163 4284837501
-0.3256302476 -0.1094473451 0.5173270106 4284837501
-0.3256832361 -0.1088902727 0.5174111724 4282139475
-0.3257359564 -0.1083329320 0.5174949765 4282007889
-0.3263130784 -0.1079488695 0.5184118152 4284836988
-0.3263653815 -0.1073900908 0.5184949636 4284705402
-0.3269422352 -0.1070028022 0.5194113851 4284836988
-0.3275189996 -0.1066134423 0.5203276873 4281481545
-0.3280956745 -0.1062220186 0.5212438107 4284245105
-0.3281472027 -0.1056594774 0.5213257074 4284574070
-0.3287236094 -0.1052648276 0.5222414136 4284771197
-0.3292999268 -0.1048681065 0.5231570005 4282468442
-0.3298761249 -0.1044693217 0.5240724087 4280034099
-0.3304522336 -0.1040684730 0.5249876976 4280363064
-0.3305028081 -0.1035010144 0.5250680447 4283192163
-0.3310786486 -0.1030969396 0.5259828568 4284836988
-0.3311287761 -0.1025280505 0.5260624886 4284573818
-0.3317043185 -0.1021207497 0.5269768238 4284047474
-0.3322797418 -0.1017113850 0.5278910398 4282271063
-0.3328550756 -0.1012999564 0.5288050771 4281810512
-0.3329043984 -0.1007273346 0.5288833976 4281284168
-0.3334794343 -0.1003126800 0.5297969580 4280955203
-0.3330022097 -0.0995813310 0.5290388465 4280165688
-0.3330507278 -0.0990079567 0.5291159153 4280099895
-0.3336251974 -0.0985898301 0.5300285816 4281613134
-0.3341995478 -0.0981696472 0.5309410095 4284376440
-0.3337210417 -0.0974400192 0.5301808119 4284506998
-0.3337685764 -0.0968647376 0.5302563310 4281283141
-0.3332892954 -0.0961373448 0.5294948816 4282270036
-0.3333362043 -0.0955624804 0.5295694470 4284112240
-0.3333828449 -0.0949873850 0.5296435356 4283980654
-0.3334292173 -0.0944120437 0.5297172070 4283454310
-0.3329485059 -0.0936882198 0.5289534926 4280164660
-0.3319405019 -0.0928186476 0.5273520947 4280033074
-0.3314588964 -0.0920989066 0.5265869498 4280756793
-0.3330286741 -0.1380428672 0.5300161242 4281218376
-0.3290019631 -0.1352102309 0.5236075521 4280429637
-0.3280267417 -0.1342293918 0.5220555067 4280364359
-0.3280907571 -0.1336754411 0.5221573710 4280232773
-0.3271144331 -0.1326992214 0.5206035376 4280429388
-0.3271777928 -0.1321463734 0.5207043886 4280363595
-0.3262003660 -0.1311747879 0.5191488266 4280232009
-0.3267833889 -0.1308314055 0.5200766921 4280166216
-0.3263254464 -0.1300710291 0.5193479061 4280166216
-0.3258670866 -0.1293120980 0.5186184049 4280166216
-0.3248876035 -0.1283489317 0.5170595646 4280034630
-0.3239075243 -0.1273889840 0.5154997110 4280034630
-0.3229267895 -0.1264322549 0.5139389038 4280034630
-0.3219454288 -0.1254787445 0.5123770237 4279903044
-0.3204423785 -0.1243262962 0.5099849701 4279903044
-0.3194596469 -0.1233801320 0.5084209442 4279903044
-0.3189975619 -0.1226375848 0.5076855421 4279837251
-0.3190563619 -0.1220960096 0.5077791214 4279771458
-0.3185934722 -0.1213555187 0.5070424080 4279771458
-0.3186517060 -0.1208142340 0.5071350932 4279837251
-0.3187097013 -0.1202726513 0.5072273612 4279903042
-0.3187674284 -0.1197307780 0.5073192716 4279903042
-0.3188249469 -0.1191886067 0.5074108243 4279968835
-0.3194041252 -0.1188403219 0.5083325505 4279968835
-0.3205052316 -0.1186832711 0.5100849867 4280100421
-0.3210843801 -0.1183299646 0.5110067129 4280166214
-0.3211413026 -0.1177830771 0.5110972524 4280232007
-0.3211979568 -0.1172358915 0.5111874342 4280232007
-0.3217767477 -0.1168781593 0.5121086240 4280232007
-0.3213105500 -0.1161406636 0.5113666654 4280232007
-0.3213664889 -0.1155926213 0.5114557147 4280232009
-0.3214221895 -0.1150442883 0.5115443468 4280232009
-0.3220003545 -0.1146818399 0.5124644637 4280232009
-0.3220556378 -0.1141320542 0.5125524998 4280232009
-0.3221106827 -0.1135819778 0.5126400590 4280166214
-0.3221654892 -0.1130316257 0.5127272606 4281613660
-0.3222200274 -0.1124809831 0.5128141046 4285232261
-0.3227975070 -0.1121117771 0.5137331486 4285429640
-0.3228516281 -0.1115596890 0.5138192773 4284969089
-0.3234288692 -0.1111872420 0.5147379637 4283850608
-0.3234826028 -0.1106337011 0.5148234367 4281876305
-0.3235360682 -0.1100798920 0.5149085522 4284508025
-0.3246365190 -0.1098802611 0.5166599154 4284837503
-0.3246896565 -0.1093241051 0.5167444944 4285034882
-0.3252663314 -0.1089431122 0.5176622868 4282928991
-0.3253190517 -0.1083855182 0.5177461505 4282994784
-0.3258954585 -0.1080012918 0.5186635256 4285100160
-0.3259477615 -0.1074422523 0.5187467933 4284836988
-0.3265239298 -0.1070547923 0.5196637511 4284310644
-0.3270999789 -0.1066652611 0.5205805302 4280626236
-0.3276759684 -0.1062736660 0.5214972496 4284310898
-0.3277274966 -0.1057108641 0.5215792656 4284705656
-0.3283032179 -0.1053160354 0.5224955082 4284836990
-0.3288788199 -0.1049191356 0.5234115720 4282402649
-0.3294543624 -0.1045201793 0.5243275166 4280165685
-0.3300297856 -0.1041191518 0.5252433419 4280363064
-0.3300803304 -0.1035514250 0.5253238082 4283126372
-0.3306554854 -0.1031471714 0.5262390971 4284771197
-0.3307055831 -0.1025780216 0.5263189077 4284573818
-0.3312804401 -0.1021705344 0.5272337794 4283521130
-0.3313301206 -0.1015999764 0.5273128152 4280165687
-0.3319046795 -0.1011892632 0.5282272100 4280165687
-0.3324791491 -0.1007764861 0.5291414857 4280034101
-0.3325281739 -0.1002033502 0.5292195082 4280297273
-0.3325769305 -0.0996299535 0.5292971134 4280231481
-0.3326254189 -0.0990563110 0.5293743014 4280231481
-0.3331992030 -0.0986379981 0.5302875042 4281613134
-0.3332472444 -0.0980629474 0.5303639770 4284442233
-0.3332950175 -0.0974876508 0.5304399729 4284638584
-0.3333425522 -0.0969121009 0.5305156112 4281085762
-0.3333897889 -0.0963363126 0.5305907726 4281612106
-0.3334367573 -0.0957602784 0.5306655169 4283980654
-0.3334834576 -0.0951839983 0.5307398438 4284046447
-0.3335298896 -0.0946074799 0.5308137536 4283191138
-0.3330498934 -0.0938824043 0.5300498605 4279901488
-0.3320432901 -0.0930115134 0.5284478068 4280098867
-0.3315623999 -0.0922905132 0.5276824832 4281283137
-0.3290962875 -0.1354884952 0.5246851444 4280495684
-0.3270841241 -0.1340806782 0.5214771032 4280298566
-0.3266287446 -0.1333154142 0.5207510591 4280232773
-0.3261729181 -0.1325515807 0.5200243592 4280363595
-0.3262361288 -0.1319993734 0.5201251507 4280297802
-0.3262991309 -0.1314468533 0.5202255249 4280297802
-0.3263618648 -0.1308940053 0.5203255415 4280232009
-0.3259045780 -0.1301333010 0.5195965171 4280232009
-0.3254468441 -0.1293740273 0.5188667774 4280166216
-0.3249886930 -0.1286162138 0.5181363225 4280100423
-0.3240100145 -0.1276549399 0.5165759921 4279968837
-0.3225105107 -0.1264928728 0.5141853094 4279968837
-0.3215304911 -0.1255389303 0.5126227736 4279903044
-0.3205498159 -0.1245882064 0.5110592842 4279903044
-0.3190480471 -0.1234393492 0.5086649656 4279903044
-0.3185865879 -0.1226964667 0.5079292655 4279903044
-0.3181247115 -0.1219550595 0.5071929097 4279837251
-0.3181831539 -0.1214138344 0.5072860718 4279771458
-0.3182413578 -0.1208723038 0.5073788762 4279837251
-0.3182993233 -0.1203304902 0.5074713230 4279837251
-0.3183570504 -0.1197883710 0.5075633526 4279837251
-0.3189356625 -0.1194411293 0.5084858537 4279968835
-0.3195142448 -0.1190918088 0.5094082952 4280034628
-0.3200927675 -0.1187404245 0.5103306174 4280100421
-0.3206712306 -0.1183869690 0.5112528801 4280166214
-0.3212496340 -0.1180314496 0.5121750236 4280166216
-0.3213063776 -0.1174831316 0.5122655034 4280166216
-0.3213628531 -0.1169345230 0.5123555660 4280232009
-0.3214191198 -0.1163856313 0.5124452710 4280232009
-0.3214751184 -0.1158364490 0.5125345588 4280232009
-0.3215308785 -0.1152869761 0.5126234293 4280297802
-0.3210643530 -0.1145509630 0.5118796229 4280363595
-0.3211195171 -0.1140018180 0.5119675994 4280232009
-0.3211744726 -0.1134523898 0.5120552182 4280166216
-0.3212291598 -0.1129026785 0.5121423602 4281613662
-0.3218060136 -0.1125353798 0.5130620599 4285166213
-0.3223827779 -0.1121660098 0.5139816403 4285495178
-0.3229594827 -0.1117945686 0.5149011016 4285100675
-0.3230134547 -0.1112410575 0.5149871111 4283850608
-0.3230671585 -0.1106872708 0.5150727630 4281087302
-0.3236434758 -0.1103114188 0.5159915686 4284113780
-0.3242197037 -0.1099335030 0.5169102550 4285100675
-0.3242728114 -0.1093770936 0.5169949532 4285166468
-0.3248488009 -0.1089959368 0.5179132819 4284047472
-0.3249014914 -0.1084380895 0.5179972649 4283981679
-0.3254772425 -0.1080536917 0.5189151764 4285165953
-0.3255295157 -0.1074943990 0.5189985633 4285231746
-0.3261049986 -0.1071067676 0.5199160576 4283323749
-0.3266803622 -0.1067170650 0.5208333731 4280428857
-0.3272556663 -0.1063252911 0.5217505693 4284442230
-0.3278308511 -0.1059314534 0.5226676464 4284968574
-0.3278822005 -0.1053672284 0.5227494836 4284902781
-0.3284571171 -0.1049701571 0.5236660838 4282271061
