VERSION 0.7
FIELDS x y z rgba
SIZE 4 4 4 4
TYPE F F F U
COUNT 1 1 1 1
WIDTH 920
HEIGHT 1
VIEWPOINT 0.0 0.0 0.0 1.0 0.0 0.0 0.0
POINTS 920
DATA ascii
-0.2915962040 -0.1409031004 0.5601133704 4280497760
-0.2916571498 -0.1403100938 0.5602304935 4280497760
-0.2912670076 -0.1395007819 0.5594810843 4280563553
-0.2913274169 -0.1389079690 0.5595970750 4280629346
-0.2913875878 -0.1383147836 0.5597127080 4280629346
-0.2914475501 -0.1377212256 0.5598278046 4280695140
-0.2915072441 -0.1371272951 0.5599425435 4280695140
-0.2915667295 -0.1365330219 0.5600567460 4280695140
-0.2916259766 -0.1359383613 0.5601705313 4280760933
-0.2912334502 -0.1351338476 0.5594165921 4280760933
-0.2912921309 -0.1345393956 0.5595293045 4280760933
-0.2918022871 -0.1341522634 0.5605092049 4280695140
-0.2918605804 -0.1335561723 0.5606212020 4280695140
-0.2919186354 -0.1329597235 0.5607327223 4280630374
-0.2919764817 -0.1323629320 0.5608438253 4280564581
-0.2920340598 -0.1317657679 0.5609544516 4280629861
-0.2920913994 -0.1311682612 0.5610646009 4280695654
-0.2916962802 -0.1303682923 0.5603055954 4280761447
-0.2922053933 -0.1299722046 0.5612835288 4280827240
-0.2918096185 -0.1291733831 0.5605233312 4280893033
-0.2923184335 -0.1287747473 0.5615006685 4280893033
-0.2923745811 -0.1281754971 0.5616085529 4280958826
-0.2928831875 -0.1277733892 0.5625854731 4280958826
-0.2929389477 -0.1271725148 0.5626925826 4281089898
-0.2929944396 -0.1265713125 0.5627992153 4281155691
-0.2935026586 -0.1261644512 0.5637754202 4281155691
-0.2935577929 -0.1255616397 0.5638812780 4281089898
-0.2940657735 -0.1251513213 0.5648570657 4281089898
-0.2941204906 -0.1245468929 0.5649621487 4281155691
-0.2946282327 -0.1241331026 0.5659374595 4281024621
-0.2951358855 -0.1237171069 0.5669125915 4281024621
-0.2956434786 -0.1232989207 0.5678876042 4281024621
-0.2961509824 -0.1228785291 0.5688624382 4281024621
-0.2966583967 -0.1224559397 0.5698370934 4281024621
-0.2967120409 -0.1218448356 0.5699401498 4281090414
-0.2972192168 -0.1214187816 0.5709143877 4281090414
-0.2972724438 -0.1208060905 0.5710166097 4281090414
-0.2977793515 -0.1203765646 0.5719903111 4281024621
-0.2978321910 -0.1197622791 0.5720917583 4280958828
-0.2983388305 -0.1193292961 0.5730649829 4281024621
-0.2983912230 -0.1187134236 0.5731655955 4281024621
-0.2988975942 -0.1182769760 0.5741382837 4280958828
-0.2998582125 -0.1180171445 0.5759835243 4280958828
-0.3003644943 -0.1175753623 0.5769559741 4281024621
-0.3013251722 -0.1173083186 0.5788012743 4280958828
-0.3022858799 -0.1170371920 0.5806466341 4280695656
-0.3032466471 -0.1167619824 0.5824921727 4280761449
-0.3042074740 -0.1164826974 0.5843377709 4281155431
-0.3056231141 -0.1163724959 0.5870569944 4281550189
-0.3070389926 -0.1162563339 0.5897766948 4282404969
-0.3111847341 -0.1171619296 0.5977400541 4283391864
-0.3130564392 -0.1171985120 0.6013353467 4287798707
-0.3403973877 -0.1961414665 0.6552512050 4290692568
-0.3404805362 -0.1954611689 0.6554112434 4285429128
-0.3405634463 -0.1947803795 0.6555708647 4284047482
-0.3406460881 -0.1940990984 0.6557299495 4282994794
-0.3407284915 -0.1934173107 0.6558885574 4282403689
-0.3394723833 -0.1919782162 0.6534706354 4281943138
-0.3382153809 -0.1905439943 0.6510509253 4281548896
-0.3374038041 -0.1893651336 0.6494886875 4281417310
-0.3343594968 -0.1869414151 0.6436284781 4281614953
-0.3268482983 -0.1820428371 0.6291697621 4281549160
-0.3090610206 -0.1714749336 0.5949299335 4281483367
-0.3046667874 -0.1683852971 0.5864712596 4281351781
-0.3025043905 -0.1665431857 0.5823087096 4281220452
-0.3012346029 -0.1651998311 0.5798643827 4281220452
-0.3004109859 -0.1641056389 0.5782789588 4281220452
-0.2995867133 -0.1630146354 0.5766923428 4281220452
-0.2992090583 -0.1621692032 0.5759653449 4281220452
-0.2988309860 -0.1613251418 0.5752375722 4281220452
-0.2988999188 -0.1607230902 0.5753702521 4281154659
-0.2980735004 -0.1596412063 0.5737794638 4281023073
-0.2972464859 -0.1585625261 0.5721874237 4280826466
-0.2973143160 -0.1579628289 0.5723180175 4280760673
-0.2964862287 -0.1568887383 0.5707239509 4280694880
-0.2961054444 -0.1560539454 0.5699909925 4280694880
-0.2952761650 -0.1549853832 0.5683946609 4280759903
-0.2948944271 -0.1541543007 0.5676598549 4280825696
-0.2945122719 -0.1533246338 0.5669242144 4280759903
-0.2945780456 -0.1527288556 0.5670508742 4280759903
-0.2941951454 -0.1519011110 0.5663137436 4280759903
-0.2942603827 -0.1513054371 0.5664393306 4280759903
-0.2938767076 -0.1504796147 0.5657007694 4280694110
-0.2934926152 -0.1496552378 0.5649614334 4280759903
-0.2935569584 -0.1490601897 0.5650852919 4280563040
-0.2936210930 -0.1484647691 0.5652086735 4280497247
-0.2932358980 -0.1476428509 0.5644672513 4280497247
-0.2928503156 -0.1468223631 0.5637249947 4280497247
-0.2924642861 -0.1460033208 0.5629819632 4280497247
-0.2920778692 -0.1451857090 0.5622380376 4280563040
-0.2916910052 -0.1443695426 0.5614933372 4280628833
-0.2917532623 -0.1437763721 0.5616132021 4280628833
-0.2913656533 -0.1429621875 0.5608670712 4280497760
-0.2914273441 -0.1423691660 0.5609858632 4280497760
-0.2910389900 -0.1415569931 0.5602383018 4280497760
-0.2911001444 -0.1409641355 0.5603559613 4280497760
-0.2911610603 -0.1403709054 0.5604732633 4280497760
-0.2907716334 -0.1395612657 0.5597236156 4280563553
-0.2908319831 -0.1389682144 0.5598397851 4280629346
-0.2908920944 -0.1383747905 0.5599555373 4280695139
-0.2909519970 -0.1377810091 0.5600708127 4280629347
-0.2910116613 -0.1371868551 0.5601856709 4280695140
-0.2910710871 -0.1365923285 0.5603000522 4280695140
-0.2911302745 -0.1359974444 0.5604140162 4280695140
-0.2911892235 -0.1354022026 0.5605275035 4280760933
-0.2912479639 -0.1348066032 0.5606405139 4280760933
-0.2913064361 -0.1342106313 0.5607531071 4280760933
-0.2913646996 -0.1336143017 0.5608652234 4280760933
-0.2914227247 -0.1330176294 0.5609769225 4280695654
-0.2914804816 -0.1324205846 0.5610881448 4280629861
-0.2915380299 -0.1318231970 0.5611988902 4280695654
-0.2915953398 -0.1312254518 0.5613092184 4280761447
-0.2916524112 -0.1306273639 0.5614190698 4280761447
-0.2917092144 -0.1300289184 0.5615284443 4280827240
-0.2917658091 -0.1294301152 0.5616374016 4280893033
-0.2918221653 -0.1288309693 0.5617458820 4280893033
-0.2918782830 -0.1282314807 0.5618538857 4280958828
-0.2923860550 -0.1278292239 0.5628313422 4280958828
-0.2924417555 -0.1272281110 0.5629385710 4281155437
-0.2924972475 -0.1266266704 0.5630453229 4281155437
-0.2925524712 -0.1260248721 0.5631516576 4281155437
-0.2930597067 -0.1256165951 0.5641281009 4281155437
-0.2935668826 -0.1252061129 0.5651043653 4281155437
-0.2940739691 -0.1247934327 0.5660804510 4281221230
-0.2941284776 -0.1241874918 0.5661854148 4281090414
-0.2946353257 -0.1237713322 0.5671610832 4281090414
-0.2951420844 -0.1233529821 0.5681365728 4281090414
-0.2956487834 -0.1229324266 0.5691119432 4281024621
-0.2961553931 -0.1225096732 0.5700871348 4281024621
-0.2966619134 -0.1220847145 0.5710622072 4281024621
-0.2967153490 -0.1214720979 0.5711650848 4281024621
-0.2967685461 -0.1208591536 0.5712674260 4281090414
-0.2972746491 -0.1204294637 0.5722416639 4281024621
-0.2973274291 -0.1198149249 0.5723432302 4281024621
-0.2978332639 -0.1193817705 0.5733169913 4281155437
-0.2978855968 -0.1187656447 0.5734177232 4281155437
-0.2983911633 -0.1183290258 0.5743909478 4281155437
-0.2993502021 -0.1180690974 0.5762370229 4281155437
-0.2998556793 -0.1176271364 0.5772100687 4281024621
-0.3008147478 -0.1173599884 0.5790562034 4281024621
-0.3017738760 -0.1170887649 0.5809025168 4280761447
-0.3031869531 -0.1169885844 0.5836226344 4280827240
-0.3041462600 -0.1167082489 0.5854692459 4281221224
-0.3051056266 -0.1164238304 0.5873159766 4281550189
-0.3069732189 -0.1164799407 0.5909110308 4282404969
-0.3088411689 -0.1165281832 0.5945068002 4283589243
-0.3107094765 -0.1165685728 0.5981031656 4287667121
-0.3384793699 -0.1954541653 0.6529551148 4290297810
-0.3385621309 -0.1947762966 0.6531147361 4285100163
-0.3386446238 -0.1940979213 0.6532739401 4283915896
-0.3387268782 -0.1934190691 0.6534326077 4282929001
-0.3388088942 -0.1927397102 0.6535907984 4282337896
-0.3375546932 -0.1913027167 0.6511713266 4281811552
-0.3362995982 -0.1898706108 0.6487501264 4281614689
-0.3345980644 -0.1881927848 0.6454677582 4281483103
-0.3320041597 -0.1860222518 0.6404638886 4281680746
-0.3231682181 -0.1803788096 0.6234186292 4281614953
-0.3080858588 -0.1713001281 0.5943234563 4281483367
-0.3036991060 -0.1682101190 0.5858610868 4281417574
-0.3019864559 -0.1666142493 0.5825572014 4281286245
-0.3007188737 -0.1652703583 0.5801119208 4281220452
-0.2998967171 -0.1641757339 0.5785259604 4281220452
-0.2995203137 -0.1633276939 0.5777998567 4281220452
-0.2991434634 -0.1624810249 0.5770728588 4281220452
-0.2987661958 -0.1616357565 0.5763450861 4281154659
-0.2983884811 -0.1607918590 0.5756164193 4281088866
-0.2975635529 -0.1597095430 0.5740250945 4281023073
-0.2971848845 -0.1588693261 0.5732945800 4280957282
-0.2963587940 -0.1577925086 0.5717009902 4280891489
-0.2959791422 -0.1569559872 0.5709686279 4280694880
-0.2955990732 -0.1561208665 0.5702354312 4280629087
-0.2943239808 -0.1548165828 0.5677756667 4280759903
-0.2948376536 -0.1544548422 0.5687665939 4280759903
-0.2940088212 -0.1533904821 0.5671676993 4280759903
-0.2936269343 -0.1525619030 0.5664309859 4280759903
-0.2932446301 -0.1517347395 0.5656934977 4280629087
-0.2933097184 -0.1511397511 0.5658190250 4280629087
-0.2929266691 -0.1503145099 0.5650801063 4280629087
-0.2929911613 -0.1497196406 0.5652045608 4280629087
-0.2926073670 -0.1488963515 0.5644641519 4280563040
-0.2922231555 -0.1480744928 0.5637229681 4280431454
-0.2922867835 -0.1474802792 0.5638457537 4280497247
-0.2919017971 -0.1466603726 0.5631030798 4280497247
-0.2915163934 -0.1458419114 0.5623596311 4280431454
-0.2911305726 -0.1450248957 0.5616152883 4280497247
-0.2907443345 -0.1442093253 0.5608702302 4280563040
-0.2908064425 -0.1436168402 0.5609900355 4280563040
-0.2908683121 -0.1430239677 0.5611094236 4280563040
-0.2909299731 -0.1424307078 0.5612283349 4280563040
-0.2905423343 -0.1416181922 0.5604805350 4280497247
-0.2906034291 -0.1410251111 0.5605983734 4280563040
-0.2906642854 -0.1404316574 0.5607157946 4280563040
-0.2902755737 -0.1396216899 0.5599659681 4280563040
-0.2903358936 -0.1390284002 0.5600823164 4280563553
-0.2903959751 -0.1384347528 0.5601981878 4280629346
-0.2904558182 -0.1378407329 0.5603136420 4280695139
-0.2900657058 -0.1370338947 0.5595610738 4280629346
-0.2901249826 -0.1364400536 0.5596754551 4280629347
-0.2901840508 -0.1358458549 0.5597893596 4280629347
-0.2902428508 -0.1352512985 0.5599028468 4280695140
-0.2903014421 -0.1346563846 0.5600158572 4280695140
-0.2903597951 -0.1340611130 0.5601283908 4280760933
-0.2904179096 -0.1334654689 0.5602405071 4280826726
-0.2909261286 -0.1330754757 0.5612208843 4280629861
-0.2909838557 -0.1324782073 0.5613322854 4280695654
-0.2910413444 -0.1318805814 0.5614432096 4280761447
-0.2910985947 -0.1312825978 0.5615536571 4280827240
-0.2911556065 -0.1306842566 0.5616636276 4280827240
-0.2912124097 -0.1300855726 0.5617731810 4280893033
-0.2912689447 -0.1294865459 0.5618822575 4280893035
-0.2917762101 -0.1290866733 0.5628607869 4280893035
-0.2918323576 -0.1284860224 0.5629690886 4281024621
-0.2918882668 -0.1278850138 0.5630769730 4281024621
-0.2919439375 -0.1272836626 0.5631843209 4281024621
-0.2919993699 -0.1266819686 0.5632912517 4281024621
-0.2920545340 -0.1260799319 0.5633977056 4281024621
-0.2925609648 -0.1256715059 0.5643746853 4281090414
-0.2930673063 -0.1252608597 0.5653514266 4281090414
-0.2935735881 -0.1248480156 0.5663281083 4281024621
-0.2940797806 -0.1244329736 0.5673046112 4281024880
-0.2941341102 -0.1238255203 0.5674093366 4281024880
-0.2946400642 -0.1234069988 0.5683853626 4281090416
-0.2951459289 -0.1229862794 0.5693612695 4281024623
-0.2956517339 -0.1225633621 0.5703369975 4281024623
-0.2961574495 -0.1221382320 0.5713125467 4281090416
-0.2962108254 -0.1215253696 0.5714155436 4281090416
-0.2962639630 -0.1209121794 0.5715180635 4281090416
-0.2967692614 -0.1204823181 0.5724928379 4281024623
-0.2968219817 -0.1198675260 0.5725945234 4281090416
-0.2973270118 -0.1194342002 0.5735687613 4281155439
-0.2978319526 -0.1189986691 0.5745428205 4281155439
-0.2978840768 -0.1183810234 0.5746433735 4281221232
-0.2988415360 -0.1181210056 0.5764904022 4281221232
-0.2993461788 -0.1176788658 0.5774639249 4281155439
-0.3003036678 -0.1174116209 0.5793110132 4281221232
-0.3017142415 -0.1173164472 0.5820320845 4280827242
-0.3026719391 -0.1170400903 0.5838795304 4280958828
-0.3036296666 -0.1167596504 0.5857270956 4281221483
-0.3050406873 -0.1166484430 0.5884490609 4281484655
-0.3064519167 -0.1165312678 0.5911714435 4282470762
-0.3083167374 -0.1165795550 0.5947688818 4283655036
-0.3106353879 -0.1167904735 0.5992417336 4287535535
-0.3370092213 -0.1950230747 0.6515150070 4289968332
-0.3366475701 -0.1940906942 0.6508157849 4284902271
-0.3367296755 -0.1934147477 0.6509745717 4283784310
-0.3368115425 -0.1927383095 0.6511328220 4282994794
-0.3364486992 -0.1918080151 0.6504313946 4282403689
-0.3356408477 -0.1906265169 0.6488695741 4281811552
-0.3348323107 -0.1894481033 0.6473065019 4281614689
-0.3322440088 -0.1872700006 0.6423027515 4281548896
-0.3296542168 -0.1851021647 0.6372960806 4281614953
-0.3194981515 -0.1787132323 0.6176621318 4281549160
-0.3066664636 -0.1708770394 0.5928555727 4281483367
-0.3031775057 -0.1682817638 0.5861105919 4281483367
-0.3010225296 -0.1664390415 0.5819445848 4281417574
-0.3002024889 -0.1653408110 0.5803592801 4281351781
-0.2993818223 -0.1642457545 0.5787727237 4281286245
-0.2990061045 -0.1633973867 0.5780463815 4281352038
-0.2986299694 -0.1625504047 0.5773192644 4281220452
-0.2982534170 -0.1617047936 0.5765912533 4281154659
-0.2978764176 -0.1608605683 0.5758624077 4281088866
-0.2974989712 -0.1600177288 0.5751327276 4281023073
-0.2966749966 -0.1589372754 0.5735397935 4280957282
-0.2962965965 -0.1580981314 0.5728082657 4280825696
-0.2959177494 -0.1572603732 0.5720759034 4280629087
-0.2950920761 -0.1561877429 0.5704796910 4280629087
-0.2947123051 -0.1553536952 0.5697454810 4280629087
-0.2938854396 -0.1542865783 0.5681470037 4280563294
-0.2935047150 -0.1534562707 0.5674109459 4280629087
-0.2931235433 -0.1526273638 0.5666740537 4280629087
-0.2931888700 -0.1520316303 0.5668003559 4280563294
-0.2928069532 -0.1512046456 0.5660620332 4280629087
-0.2928717434 -0.1506090313 0.5661873221 4280629087
-0.2924890816 -0.1497839987 0.5654475093 4280629087
-0.2921060026 -0.1489603817 0.5647069216 4280497247
-0.2921698987 -0.1483654082 0.5648304820 4280431454
-0.2917860746 -0.1475437433 0.5640884042 4280431454
-0.2918494344 -0.1469489038 0.5642108917 4280431454
-0.2914648354 -0.1461292058 0.5634673834 4280431454
-0.2910798192 -0.1453109533 0.5627231002 4280431454
-0.2906943858 -0.1444941461 0.5619779229 4280497247
-0.2907565534 -0.1439005136 0.5620980859 4280497247
-0.2908184528 -0.1433064938 0.5622178316 4280563294
-0.2908801436 -0.1427120864 0.5623371005 4280497501
-0.2904933393 -0.1418983340 0.5615892410 4280497501
-0.2905544639 -0.1413041055 0.5617074370 4280497501
-0.2901668847 -0.1404923499 0.5609581470 4280563040
-0.2902274728 -0.1398982853 0.5610752702 4280563040
-0.2898391485 -0.1390885562 0.5603246093 4280628833
-0.2898991704 -0.1384946704 0.5604405999 4280628833
-0.2899589837 -0.1379004121 0.5605562329 4280629346
-0.2900185287 -0.1373057961 0.5606713295 4280629346
-0.2896288037 -0.1364991814 0.5599179864 4280695139
-0.2896878123 -0.1359047443 0.5600320101 4280695139
-0.2897465825 -0.1353099644 0.5601456165 4280695140
-0.2898051143 -0.1347148120 0.5602588058 4280695140
-0.2898634076 -0.1341192871 0.5603715181 4280695140
-0.2899214923 -0.1335234195 0.5604837537 4280695140
-0.2899793088 -0.1329271942 0.5605955124 4280629861
-0.2904865742 -0.1325357705 0.5615761876 4280695654
-0.2905440032 -0.1319379061 0.5616872311 4280695654
-0.2906012237 -0.1313396841 0.5617978573 4280761447
-0.2911081314 -0.1309435070 0.5627778172 4280827242
-0.2911649644 -0.1303436458 0.5628876686 4280893035
-0.2912215292 -0.1297434419 0.5629970431 4280893035
-0.2912778854 -0.1291428953 0.5631059408 4281024621
-0.2917842567 -0.1287406683 0.5640848875 4281024621
-0.2913898230 -0.1279407591 0.5633224249 4281090414
-0.2914454639 -0.1273391694 0.5634299517 4281090414
-0.2915008366 -0.1267372370 0.5635370016 4281024621
-0.2920066118 -0.1263299137 0.5645147562 4281024621
-0.2920615673 -0.1257263571 0.5646210313 4281090414
-0.2925671041 -0.1253155619 0.5655983686 4281090414
-0.2930725813 -0.1249025613 0.5665755272 4281024621
-0.2931270003 -0.1242961287 0.5666807294 4280893294
-0.2936322093 -0.1238796562 0.5676574111 4280959087
-0.2941373587 -0.1234609783 0.5686339736 4281024623
-0.2946424186 -0.1230400875 0.5696103573 4281090416
-0.2951473892 -0.1226170063 0.5705866218 4281156209
-0.2956523001 -0.1221917123 0.5715627074 4281156209
-0.2957056463 -0.1215785965 0.5716658235 4281156209
-0.2962102890 -0.1211498380 0.5726414323 4281156209
-0.2962632179 -0.1205351278 0.5727437139 4281024623
-0.2967675924 -0.1201028898 0.5737188458 4281090416
-0.2968201041 -0.1194865853 0.5738203526 4281221232
-0.2973242104 -0.1190508828 0.5747948885 4281155439
-0.2978282571 -0.1186129749 0.5757693052 4281287025
-0.2983321846 -0.1181728691 0.5767435431 4281221232
-0.2992880940 -0.1179086640 0.5785915256 4281155439
-0.3002440929 -0.1176403835 0.5804396868 4281287025
-0.3007478714 -0.1171917841 0.5814136267 4280761449
-0.3017039001 -0.1169162616 0.5832617879 4281024621
-0.3031123579 -0.1168110073 0.5859847069 4281287276
-0.3045210540 -0.1166997701 0.5887079835 4281616241
-0.3059298992 -0.1165825576 0.5914316773 4282602349
-0.3077915907 -0.1166308820 0.5950307250 4283720830
-0.3101063371 -0.1168419123 0.5995056629 4287338156
-0.3350981474 -0.1943344325 0.6492144465 4289376454
-0.3351802230 -0.1936605275 0.6493734121 4284441979
-0.3348185718 -0.1927308440 0.6486727595 4283652726
-0.3349000216 -0.1920568496 0.6488305926 4283060589
-0.3345375657 -0.1911288649 0.6481283903 4282272105
-0.3337308466 -0.1899495870 0.6465654373 4282008933
-0.3329234719 -0.1887734085 0.6450012326 4281812071
-0.3307833970 -0.1868479103 0.6408550739 4281746278
-0.3268655539 -0.1839312613 0.6332647204 4281746539
-0.3162823319 -0.1772951335 0.6127609015 4281614953
-0.3056937754 -0.1707015932 0.5922468305 4281417831
-0.3026552200 -0.1683533490 0.5863599181 4281352038
-0.3005039990 -0.1665098667 0.5821922421 4281155429
-0.2992408276 -0.1651657969 0.5797449350 4281089636
-0.2984215021 -0.1640712023 0.5781576037 4281286245
-0.2980464101 -0.1632234007 0.5774309039 4281286245
-0.2976708710 -0.1623769850 0.5767033696 4281089636
-0.2977399528 -0.1617737710 0.5768371820 4281023843
-0.2973636687 -0.1609292179 0.5761081576 4280892770
-0.2969869375 -0.1600860506 0.5753782988 4280826977
-0.2961644232 -0.1590051651 0.5737847686 4280761184
-0.2957867384 -0.1581656933 0.5730530620 4280695391
-0.2954086363 -0.1573276222 0.5723205209 4280629598
-0.2950300872 -0.1564909369 0.5715871453 4280695391
-0.2942053378 -0.1554201841 0.5699892640 4280563292
-0.2938258350 -0.1545872241 0.5692540407 4280563292
-0.2929999530 -0.1535219997 0.5676539540 4280563294
-0.2930655479 -0.1529255360 0.5677810907 4280563294
-0.2926847935 -0.1520968080 0.5670433640 4280629087
-0.2927498519 -0.1515004486 0.5671694279 4280629087
-0.2923683226 -0.1506736577 0.5664302707 4280629087
-0.2919863462 -0.1498482972 0.5656902194 4280694880
-0.2920505404 -0.1492525786 0.5658146143 4280563294
-0.2916678190 -0.1484291553 0.5650731325 4280497501
-0.2917314470 -0.1478335559 0.5651963949 4280431967
-0.2913480103 -0.1470120996 0.5644535422 4280366174
-0.2909641266 -0.1461920738 0.5637097955 4280300381
-0.2910268903 -0.1455971450 0.5638313890 4280366174
-0.2906422615 -0.1447791010 0.5630862117 4280431967
-0.2907044590 -0.1441843212 0.5632067323 4280366174
-0.2903190851 -0.1433682442 0.5624601245 4280431965
-0.2903807163 -0.1427736282 0.5625795126 4280431965
-0.2904421389 -0.1421786249 0.5626984835 4280563294
-0.2900556922 -0.1413650811 0.5619498491 4280563294
-0.2901165485 -0.1407702416 0.5620677471 4280563040
-0.2897293866 -0.1399587095 0.5613176227 4280628833
-0.2897896767 -0.1393640488 0.5614344478 4280563553
-0.2894017398 -0.1385545284 0.5606828332 4280497760
-0.2894614935 -0.1379600465 0.5607985854 4280563553
-0.2895210087 -0.1373651922 0.5609139204 4280629346
-0.2895802855 -0.1367699653 0.5610287189 4280695139
-0.2891909480 -0.1359635890 0.5602744818 4280695139
-0.2892496884 -0.1353685558 0.5603882670 4280629346
-0.2893081605 -0.1347731799 0.5605015159 4280629346
-0.2893663943 -0.1341774315 0.5606144071 4280695139
-0.2894244194 -0.1335813254 0.5607267618 4280695139
-0.2894822061 -0.1329848617 0.5608387589 4280695139
-0.2895397544 -0.1323880404 0.5609502196 4280760932
-0.2900460362 -0.1319951862 0.5619311333 4280695654
-0.2901031971 -0.1313967258 0.5620418191 4280761447
-0.2906092703 -0.1310003996 0.5630223155 4280827240
-0.2906660438 -0.1304003000 0.5631322861 4280893033
-0.2907225788 -0.1297998577 0.5632418394 4281024105
-0.2907788754 -0.1291990727 0.5633509159 4281089898
-0.2912844419 -0.1287966967 0.5643303990 4281155437
-0.2913403511 -0.1281942874 0.5644387007 4281155437
-0.2913960218 -0.1275915205 0.5645465255 4281090414
-0.2914514244 -0.1269884109 0.5646538734 4281024621
-0.2915065885 -0.1263849735 0.5647608042 4281024623
-0.2920114696 -0.1259752810 0.5657389164 4281024623
-0.2920662463 -0.1253702193 0.5658450127 4281155439
-0.2925708890 -0.1249570623 0.5668227077 4281089646
-0.2926252782 -0.1243503839 0.5669280887 4280893296
-0.2931296825 -0.1239337474 0.5679053068 4280959089
-0.2931836247 -0.1233254597 0.5680098534 4281090416
-0.2936877906 -0.1229053512 0.5689865947 4281090416
-0.2946423888 -0.1226705983 0.5708360076 4281090416
-0.2951464653 -0.1222451404 0.5718126297 4281090416
-0.2951997817 -0.1216317788 0.5719159245 4281024880
-0.2957036197 -0.1212028489 0.5728920102 4280959087
-0.2957564890 -0.1205878928 0.5729944706 4281024623
-0.2962600589 -0.1201554835 0.5739700794 4281024623
-0.2967635393 -0.1197208762 0.5749455094 4280958828
-0.2968158424 -0.1191030517 0.5750467777 4280958828
-0.2973190248 -0.1186649725 0.5760217309 4280958828
-0.2978221476 -0.1182246879 0.5769964457 4281024621
-0.2987765074 -0.1179603934 0.5788453817 4281090416
-0.2997308969 -0.1176920086 0.5806943774 4281090416
-0.3006853461 -0.1174195334 0.5825435519 4280958060
-0.3011882901 -0.1169676036 0.5835179687 4281089646
-0.3025943935 -0.1168623194 0.5862421393 4281484145
-0.3040007055 -0.1167510524 0.5889666677 4281549938
-0.3058589995 -0.1168063432 0.5925669074 4282667631
-0.3077176213 -0.1168537587 0.5961678028 4283786112
-0.3095766008 -0.1168933064 0.5997693539 4287140777
-0.3336334229 -0.1939022243 0.6477705240 4288981950
-0.3332726061 -0.1929735839 0.6470699906 4284310647
-0.3333540261 -0.1923016161 0.6472280622 4283456117
-0.3325495720 -0.1911201775 0.6456661820 4282929773
-0.3335161209 -0.1909562051 0.6475428343 4282337898
-0.3318247199 -0.1892719567 0.6442588568 4282074726
-0.3305753469 -0.1878461987 0.6418331265 4281746535
-0.3288818598 -0.1861744076 0.6385450959 4281614949
-0.3245272040 -0.1830092371 0.6300902367 4281746539
-0.3130750060 -0.1758756787 0.6078550816 4281549160
-0.3047219515 -0.1705258489 0.5916370749 4281417831
-0.3016886115 -0.1681775451 0.5857476592 4281352038
-0.2999848425 -0.1665806472 0.5824396610 4281286245
-0.2982800007 -0.1649904996 0.5791296363 4281220452
-0.2979060411 -0.1641409993 0.5784035921 4281286245
-0.2970875800 -0.1630491614 0.5768144727 4281286245
-0.2971568406 -0.1624461412 0.5769489408 4281023843
-0.2972258627 -0.1618426889 0.5770829320 4280958050
-0.2968502641 -0.1609978080 0.5763537288 4280892770
-0.2964742482 -0.1601543128 0.5756236911 4280892770
-0.2960978150 -0.1593122184 0.5748927593 4280826977
-0.2952762544 -0.1582331955 0.5732976198 4280695391
-0.2948988378 -0.1573947966 0.5725648999 4280629598
-0.2949658930 -0.1567942798 0.5726950765 4280629598
-0.2941427529 -0.1557221860 0.5710968971 4280629087
-0.2933189571 -0.1546533108 0.5694974661 4280629087
-0.2924945354 -0.1535876691 0.5678967834 4280563294
-0.2925601006 -0.1529909819 0.5680240989 4280497501
-0.2921800315 -0.1521619260 0.5672861338 4280497501
-0.2922450304 -0.1515653431 0.5674123764 4280563294
-0.2918642163 -0.1507382244 0.5666729808 4280563294
-0.2914829850 -0.1499125361 0.5659327507 4280563294
-0.2911013067 -0.1490882784 0.5651917458 4280497758
-0.2911651134 -0.1484928429 0.5653156042 4280431965
-0.2907826900 -0.1476705372 0.5645731688 4280431967
-0.2908459604 -0.1470752358 0.5646959543 4280366174
-0.2904627919 -0.1462548971 0.5639520288 4280300381
-0.2905254960 -0.1456597298 0.5640737414 4280366174
-0.2901415825 -0.1448413581 0.5633283854 4280431967
-0.2902037203 -0.1442463547 0.5634490252 4280366174
-0.2898190618 -0.1434299499 0.5627021790 4280366172
-0.2898806632 -0.1428350955 0.5628217459 4280431965
-0.2899419963 -0.1422398686 0.5629408956 4280497501
-0.2895562947 -0.1414259970 0.5621920228 4280497501
-0.2896170914 -0.1408309340 0.5623100400 4280497501
-0.2892306447 -0.1400190741 0.5615596771 4280563294
-0.2892908752 -0.1394241750 0.5616766810 4280563553
-0.2889036834 -0.1386143416 0.5609248877 4280563553
-0.2889633477 -0.1380196214 0.5610407591 4280629346
-0.2890228331 -0.1374245286 0.5611562133 4280563553
-0.2890820503 -0.1368290782 0.5612711906 4280629346
-0.2886934578 -0.1360223740 0.5605167150 4280629346
-0.2887521088 -0.1354271173 0.5606306195 4280629347
-0.2892583311 -0.1350405365 0.5616134405 4280695140
-0.2893165946 -0.1344436258 0.5617266297 4280564068
-0.2889267206 -0.1336391717 0.5609696507 4280498275
-0.2894324958 -0.1332487464 0.5619516373 4280629861
-0.2894900739 -0.1326507628 0.5620633960 4280629861
-0.2895474136 -0.1320524216 0.5621747375 4280695654
-0.2896045148 -0.1314537227 0.5622856617 4280761447
-0.2901097834 -0.1310572326 0.5632666349 4280827240
-0.2901664972 -0.1304569095 0.5633767843 4280893033
-0.2902230024 -0.1298562288 0.5634864569 4280958828
-0.2902792394 -0.1292552054 0.5635956526 4280958828
-0.2907840014 -0.1288526803 0.5645756721 4281155437
-0.2908398509 -0.1282500178 0.5646840930 4281155437
-0.2904465497 -0.1274500340 0.5639204979 4281024621
-0.2909508348 -0.1270436645 0.5648995638 4281024621
-0.2910059392 -0.1264399886 0.5650066137 4281024623
-0.2915100157 -0.1260301471 0.5659852624 4281024623
-0.2915647328 -0.1254248321 0.5660915375 4281155439
-0.2916192114 -0.1248191893 0.5661973357 4281155439
-0.2921229005 -0.1244045943 0.5671752095 4280893294
-0.2926264703 -0.1239877939 0.5681529641 4280959087
-0.2931299806 -0.1235687882 0.5691305399 4281090416
-0.2936334014 -0.1231475770 0.5701079965 4281090416
-0.2941367328 -0.1227241531 0.5710852146 4281156209
-0.2941901684 -0.1221118122 0.5711889863 4281156209
-0.2942433655 -0.1214991435 0.5712922215 4281156209
-0.2947462797 -0.1210709810 0.5722686648 4281090416
-0.2952491045 -0.1206406131 0.5732449889 4281024623
-0.2953017056 -0.1200250685 0.5733470917 4281024623
-0.2958042920 -0.1195912287 0.5743228793 4281089644
-0.2958564460 -0.1189740971 0.5744241476 4281089644
-0.2968091667 -0.1187169254 0.5762739182 4281089644
-0.2973114550 -0.1182764694 0.5772491693 4281155437
-0.2982642055 -0.1180120707 0.5790989399 4281090416
-0.2992170155 -0.1177435890 0.5809488893 4281090416
-0.3001698852 -0.1174710095 0.5827989578 4281023853
-0.3006719947 -0.1170189083 0.5837738514 4281155439
-0.3020757437 -0.1169135869 0.5864993334 4281484143
-0.3039306402 -0.1169758439 0.5901007056 4281615729
-0.3053348362 -0.1168576255 0.5928270817 4282733424
-0.3071903288 -0.1169050783 0.5964296460 4283720319
-0.3090461791 -0.1169446632 0.6000328660 4286943398
-0.3317292929 -0.1932122409 0.6454654932 4288521399
-0.3318106830 -0.1925422996 0.6456238627 4284179061
-0.3314498961 -0.1916163862 0.6449217796 4283390322
-0.3315306604 -0.1909463555 0.6450790167 4282798185
-0.3307269216 -0.1897684336 0.6435150504 4282141287
-0.3299224675 -0.1885936111 0.6419498324 4281943908
-0.3286750317 -0.1871699691 0.6395226121 4281812583
-0.3265417218 -0.1852491945 0.6353717446 4281615204
-0.3213091195 -0.1815860569 0.6251903176 4281680746
-0.3103188872 -0.1747041196 0.6038059592 4281549160
-0.3037509918 -0.1703498513 0.5910264254 4281483624
-0.3007228673 -0.1680014729 0.5851343870 4281352038
-0.2990220189 -0.1664048284 0.5818249583 4281286245
-0.2977631986 -0.1650605798 0.5793756247 4281220452
-0.2969467342 -0.1639660150 0.5777869821 4281286245
-0.2965729535 -0.1631184667 0.5770596862 4281220452
-0.2961987257 -0.1622722894 0.5763314962 4281023843
-0.2962675989 -0.1616695225 0.5764654875 4281023843
-0.2963362336 -0.1610663384 0.5765990615 4281023845
-0.2959609032 -0.1602225155 0.5758687854 4280958052
-0.2955851853 -0.1593800932 0.5751377344 4280826723
-0.2947650850 -0.1583006531 0.5735419989 4280760930
-0.2948324084 -0.1576994210 0.5736730099 4280695137
-0.2944554090 -0.1568611860 0.5729394555 4280629344
-0.2936337292 -0.1557886600 0.5713406205 4280694880
-0.2928114235 -0.1547193527 0.5697406530 4280629087
-0.2919884920 -0.1536532789 0.5681394339 4280563294
-0.2920539975 -0.1530563682 0.5682668686 4280497501
-0.2916746438 -0.1522269994 0.5675287247 4280431708
-0.2912948430 -0.1513990462 0.5667897463 4280497501
-0.2913594842 -0.1508027464 0.5669155121 4280563294
-0.2909789383 -0.1499767303 0.5661751032 4280563294
-0.2905980051 -0.1491521448 0.5654338598 4280497758
-0.2902166247 -0.1483289897 0.5646917820 4280431965
-0.2902800441 -0.1477338523 0.5648152232 4280431967
-0.2898979187 -0.1469126493 0.5640716553 4280366174
-0.2899608016 -0.1463176459 0.5641940236 4280366174
-0.2900234461 -0.1457222700 0.5643159151 4280366174
-0.2896402478 -0.1449035704 0.5635703206 4280431967
-0.2897023261 -0.1443083286 0.5636910796 4280431967
-0.2893184125 -0.1434916109 0.5629440546 4280431965
-0.2893799245 -0.1428965181 0.5630638003 4280431965
-0.2894412279 -0.1423010528 0.5631830692 4280431965
-0.2890562415 -0.1414868683 0.5624339581 4280431965
-0.2891169786 -0.1408915669 0.5625521541 4280431965
-0.2887312472 -0.1400793940 0.5618016124 4280497758
-0.2887914479 -0.1394842565 0.5619187355 4280563553
-0.2884049416 -0.1386740953 0.5611667037 4280629346
-0.2884645760 -0.1380791515 0.5612827539 4280629346
-0.2885240018 -0.1374838203 0.5613983274 4280563553
-0.2885831594 -0.1368881464 0.5615134835 4280629347
-0.2886421084 -0.1362920851 0.5616281629 4280695140
-0.2882539034 -0.1354856193 0.5608728528 4280629347
-0.2887592912 -0.1350989044 0.5618561506 4280695140
-0.2888175249 -0.1345017552 0.5619695187 4280629861
-0.2884283662 -0.1336969733 0.5612122416 4280564068
-0.2884860337 -0.1331000328 0.5613244772 4280629863
-0.2889908254 -0.1327081770 0.5623067021 4280629863
-0.2890481353 -0.1321095973 0.5624182224 4280630376
-0.2891052067 -0.1315106750 0.5625292063 4280696169
-0.2896096408 -0.1311140358 0.5635107756 4280761962
-0.2896663249 -0.1305134743 0.5636210442 4280827755
-0.2897227407 -0.1299125552 0.5637308359 4280958828
-0.2897789478 -0.1293112934 0.5638402104 4280958828
-0.2902828753 -0.1289086044 0.5648207068 4281024623
-0.2903386652 -0.1283057034 0.5649293065 4281024623
-0.2903942466 -0.1277024597 0.5650374293 4280958830
-0.2904495597 -0.1270988733 0.5651450753 4281024623
-0.2905046642 -0.1264949441 0.5652522445 4281024623
-0.2910078764 -0.1260849535 0.5662313700 4281024623
-0.2910625637 -0.1254794002 0.5663378239 4281155439
-0.2915655673 -0.1250659227 0.5673165321 4281221232
-0.2916198373 -0.1244587526 0.5674221516 4281024623
-0.2921226025 -0.1240417957 0.5684003830 4281090416
-0.2926253080 -0.1236226261 0.5693784952 4281156209
-0.2931278944 -0.1232012510 0.5703564286 4281156209
-0.2931814492 -0.1225899309 0.5704606175 4281222000
-0.2936838269 -0.1221650764 0.5714381337 4281222000
-0.2937369347 -0.1215521544 0.5715414882 4281222002
-0.2942390442 -0.1211238280 0.5725184679 4281156209
-0.2947410643 -0.1206932887 0.5734952688 4281090416
-0.2947936058 -0.1200774983 0.5735975504 4281024623
-0.2952953875 -0.1196434870 0.5745738149 4281155437
-0.2953475118 -0.1190260947 0.5746752620 4281155437
-0.2962986231 -0.1187688410 0.5765258670 4281155437
-0.2968000770 -0.1183282062 0.5775016546 4281221230
-0.2977512479 -0.1180637106 0.5793523788 4281090414
-0.2987024486 -0.1177951247 0.5812031627 4281156207
-0.2992037833 -0.1173459888 0.5821786523 4281089646
-0.3001550436 -0.1170701608 0.5840295553 4281221232
-0.3015564084 -0.1169648170 0.5867562890 4281484143
-0.3029579818 -0.1168534830 0.5894834399 4281747315
-0.3048099875 -0.1169088632 0.5930870175 4282865010
-0.3066623509 -0.1169563532 0.5966912508 4283786112
-0.3089654148 -0.1171667650 0.6011724472 4286876835
-0.3298290670 -0.1925215274 0.6431580186 4287929262
-0.3299100399 -0.1918540299 0.6433159113 4284113268
-0.3299908042 -0.1911860257 0.6434733868 4283324529
-0.3296300173 -0.1902628392 0.6427698731 4282732392
-0.3292687833 -0.1893409640 0.6420654655 4282075494
-0.3284656107 -0.1881674677 0.6404992938 4281812322
-0.3272201717 -0.1867450476 0.6380707026 4281878376
-0.3246487379 -0.1845741719 0.6330565214 4281615204
-0.3194249868 -0.1809122264 0.6228703260 4281614951
-0.3088955283 -0.1742794216 0.6023381352 4281549158
-0.3032229245 -0.1704219878 0.5912767649 4281483624
-0.3002001047 -0.1680726558 0.5853823423 4281417831
-0.2985022664 -0.1664753705 0.5820716023 4281286245
-0.2976880372 -0.1653763056 0.5804838538 4281220452
-0.2968731523 -0.1642804146 0.5788948536 4281220452
-0.2960576415 -0.1631877124 0.5773046613 4281220452
-0.2956841290 -0.1623412073 0.5765762925 4281089636
-0.2957529426 -0.1617382169 0.5767104626 4281089636
-0.2953786552 -0.1608935893 0.5759806633 4281023845
-0.2950039804 -0.1600503474 0.5752499700 4280958052
-0.2946288288 -0.1592084914 0.5745185018 4280826723
-0.2942532897 -0.1583680362 0.5737861991 4280760930
-0.2938773036 -0.1575289816 0.5730530024 4280695137
-0.2935009003 -0.1566913277 0.5723190308 4280695137
-0.2926805913 -0.1556192786 0.5707194805 4280629087
-0.2923032343 -0.1547853351 0.5699836016 4280563294
-0.2914817929 -0.1537188441 0.5683817863 4280563294
-0.2915472090 -0.1531216949 0.5685093999 4280497501
-0.2911685705 -0.1522919983 0.5677710772 4280497501
-0.2907895148 -0.1514637172 0.5670319200 4280497501
-0.2908540964 -0.1508671939 0.5671578050 4280497758
-0.2909184098 -0.1502702832 0.5672832727 4280563551
-0.2905382812 -0.1494444609 0.5665420294 4280497760
-0.2906020582 -0.1488476545 0.5666664243 4280431967
-0.2902211845 -0.1480237842 0.5659236908 4280431967
-0.2898398936 -0.1472013593 0.5651801229 4280431967
-0.2894581556 -0.1463803500 0.5644357800 4280366174
-0.2895207405 -0.1457847357 0.5645578504 4280431967
-0.2895830870 -0.1451887488 0.5646794438 4280431967
-0.2892003059 -0.1443702430 0.5639330149 4280497760
-0.2892621160 -0.1437744051 0.5640534759 4280497758
-0.2888785601 -0.1429578960 0.5633056164 4280431965
-0.2889398038 -0.1423621923 0.5634250641 4280431965
-0.2885555327 -0.1415476799 0.5626757145 4280497758
-0.2886162400 -0.1409521550 0.5627940893 4280497760
-0.2886767089 -0.1403562427 0.5629119873 4280497760
-0.2882913351 -0.1395442933 0.5621605515 4280497760
-0.2883512676 -0.1389485598 0.5622773767 4280563553
-0.2879651785 -0.1381386220 0.5615245104 4280432482
-0.2880245149 -0.1375430673 0.5616402626 4280432482
-0.2880836427 -0.1369471550 0.5617555380 4280629347
-0.2881425321 -0.1363508701 0.5618703961 4280695140
-0.2882011831 -0.1357542276 0.5619847775 4280564070
-0.2882596254 -0.1351572126 0.5620986819 4280629863
-0.2883177996 -0.1345598400 0.5622121692 4280695656
-0.2879293561 -0.1337547302 0.5614546537 4280695656
-0.2879869938 -0.1331575513 0.5615670681 4280630376
-0.2880443931 -0.1325600296 0.5616790056 4280564583
-0.2885482013 -0.1321667433 0.5626614094 4280630376
-0.2886052132 -0.1315675676 0.5627725720 4280696169
-0.2891088426 -0.1311707795 0.5637546182 4280761962
-0.2891654670 -0.1305699795 0.5638650656 4280827755
-0.2892218530 -0.1299688220 0.5639750361 4280958828
-0.2892780006 -0.1293673217 0.5640845299 4280958828
-0.2897811234 -0.1289644837 0.5650655627 4281024623
-0.2902841568 -0.1285594404 0.5660464764 4280958830
-0.2898923755 -0.1277578622 0.5652825236 4280958830
-0.2899476588 -0.1271540374 0.5653902888 4281024623
-0.2900027037 -0.1265498698 0.5654976368 4281024623
-0.2905051112 -0.1261397153 0.5664772987 4281024623
-0.2905597389 -0.1255339235 0.5665838718 4281155439
-0.2915097177 -0.1253127754 0.5684362650 4281221232
-0.2915640175 -0.1247044280 0.5685421824 4281090416
-0.2920660675 -0.1242863685 0.5695211291 4281156209
-0.2925679982 -0.1238661036 0.5704998970 4281156209
-0.2926217616 -0.1232548729 0.5706047416 4281222002
-0.2926752567 -0.1226433143 0.5707090497 4281222002
-0.2931768000 -0.1222182959 0.5716870427 4281222002
-0.2932298779 -0.1216051206 0.5717905760 4281156209
-0.2937311530 -0.1211766228 0.5727680326 4281156209
-0.2937838435 -0.1205618531 0.5728707314 4281090416
-0.2942848504 -0.1201298758 0.5738477707 4281090416
-0.2947857976 -0.1196956933 0.5748245716 4281090414
-0.2948378921 -0.1190780550 0.5749261379 4281090414
-0.2953385413 -0.1186404005 0.5759024024 4281090414
-0.2962880433 -0.1183798984 0.5777539015 4281090414
-0.2972376049 -0.1181153059 0.5796055198 4281156209
-0.2981872261 -0.1178466156 0.5814572573 4281222002
-0.2986877561 -0.1173973009 0.5824332833 4280958576
-0.2996374071 -0.1171213761 0.5842850208 4281155955
-0.3005870879 -0.1168413460 0.5861369371 4281549938
-0.3019862175 -0.1167309284 0.5888651609 4281944696
-0.3038350046 -0.1167872921 0.5924702883 4283062389
-0.3061336577 -0.1170075908 0.5969526172 4283917698
-0.3084328175 -0.1172181070 0.6014358997 4286680226
-0.3283729255 -0.1920875758 0.6417083144 4287468457
-0.3284536004 -0.1914216280 0.6418660283 4284047221
-0.3280936480 -0.1904994696 0.6411626339 4283389554
-0.3281737566 -0.1898334324 0.6413191557 4282797417
-0.3273724020 -0.1886590719 0.6397531033 4282272105
-0.3265703619 -0.1874877959 0.6381857991 4282008933
-0.3231227398 -0.1848068982 0.6314484477 4281878121
-0.3258461654 -0.1856570244 0.6367705464 4281549156
-0.3175447583 -0.1802376807 0.6205478907 4281614951
-0.3074745536 -0.1738542318 0.6008686423 4281614951
-0.3022529483 -0.1702455431 0.5906645656 4281549160
-0.2996767163 -0.1681437790 0.5856300592 4281483367
-0.2979818881 -0.1665458530 0.5823180079 4281352038
-0.2971691191 -0.1654463559 0.5807297230 4281286245
-0.2967973948 -0.1645949632 0.5800032616 4281220452
-0.2964252234 -0.1637449563 0.5792759657 4281220452
-0.2956107557 -0.1626531929 0.5776843429 4281155429
-0.2952376306 -0.1618068516 0.5769551992 4281089636
-0.2948640883 -0.1609618962 0.5762251616 4281089638
-0.2944900990 -0.1601183265 0.5754942894 4280958052
-0.2941156626 -0.1592761427 0.5747626424 4280892259
-0.2937408388 -0.1584353596 0.5740301013 4280826466
-0.2933655381 -0.1575959772 0.5732967257 4280629344
-0.2929898500 -0.1567579955 0.5725625753 4280629344
-0.2921710312 -0.1556855291 0.5709624290 4280629087
-0.2913516164 -0.1546162814 0.5693610907 4280629087
-0.2909744382 -0.1537843347 0.5686240196 4280497758
-0.2905968428 -0.1529538184 0.5678861141 4280497758
-0.2906619012 -0.1523569524 0.5680132508 4280497758
-0.2902835310 -0.1515283436 0.5672738552 4280497758
-0.2903480530 -0.1509315968 0.5673999190 4280497758
-0.2904123366 -0.1503344476 0.5675255060 4280563551
-0.2904763818 -0.1497369111 0.5676507354 4280563553
-0.2900966406 -0.1489112824 0.5669085979 4280497760
-0.2897164822 -0.1480870843 0.5661656857 4280497760
-0.2897796333 -0.1474901885 0.5662891269 4280431967
-0.2889548838 -0.1464430094 0.5646773577 4280431967
-0.2890174091 -0.1458471566 0.5647995472 4280497760
-0.2890796959 -0.1452509314 0.5649213195 4280497760
-0.2891417742 -0.1446543187 0.5650426149 4280497760
-0.2887593806 -0.1438360363 0.5642953515 4280563551
-0.2883765697 -0.1430192143 0.5635471940 4280497758
-0.2884377539 -0.1424232870 0.5636668205 4280497758
-0.2880541980 -0.1416084468 0.5629172325 4280563551
-0.2881148458 -0.1410126835 0.5630357862 4280432737
-0.2881752551 -0.1404165477 0.5631538033 4280432737
-0.2877906263 -0.1396042705 0.5624021888 4280497760
-0.2878504694 -0.1390082985 0.5625191331 4280497760
-0.2874650955 -0.1381980479 0.5617660880 4280498275
-0.2875244021 -0.1376022547 0.5618819594 4280564068
-0.2875834703 -0.1370061040 0.5619974136 4280564068
-0.2876423299 -0.1364095956 0.5621123910 4280564068
-0.2877009213 -0.1358127147 0.5622268915 4280629863
-0.2877593040 -0.1352154613 0.5623409748 4280629863
-0.2878174484 -0.1346178651 0.5624545813 4280629863
-0.2874297202 -0.1338124275 0.5616968870 4280695656
-0.2874872983 -0.1332150251 0.5618094206 4280630376
-0.2875446379 -0.1326172650 0.5619214773 4280630376
-0.2876017392 -0.1320191473 0.5620330572 4280761449
-0.2881045938 -0.1316244155 0.5630157590 4280827242
-0.2886073887 -0.1312274784 0.5639983416 4280893035
-0.2886639833 -0.1306264400 0.5641089082 4280958828
-0.2887203097 -0.1300250441 0.5642189980 4280958828
-0.2887763977 -0.1294233054 0.5643286109 4280958828
-0.2892786860 -0.1290203184 0.5653101802 4281024623
-0.2897809148 -0.1286151111 0.5662916303 4280958830
-0.2898364663 -0.1280104667 0.5664001703 4281155439
-0.2898917794 -0.1274054646 0.5665082335 4281221232
-0.2899468541 -0.1268001199 0.5666158795 4281221232
-0.2900016606 -0.1261944175 0.5667230487 4281221232
-0.2905032039 -0.1257818937 0.5677031279 4281221232
-0.2910046279 -0.1253671646 0.5686830282 4281221232
-0.2915059924 -0.1249502227 0.5696628094 4281090675
-0.2920072973 -0.1245310679 0.5706424117 4281090675
-0.2920612395 -0.1239199340 0.5707478523 4281156468
-0.2921149433 -0.1233084574 0.5708527565 4281156468
-0.2926158011 -0.1228845417 0.5718315840 4281222261
-0.2926690876 -0.1222714633 0.5719357133 4281156468
-0.2931697369 -0.1218440682 0.5729140639 4281222002
-0.2932226062 -0.1212293804 0.5730174184 4281222002
-0.2937229872 -0.1207985058 0.5739952326 4281156209
-0.2937754393 -0.1201822162 0.5740977526 4281156209
-0.2942755520 -0.1197478622 0.5750750899 4281090416
-0.2943275869 -0.1191299707 0.5751767755 4281090416
-0.2952755094 -0.1188725233 0.5770292282 4281090416
-0.2957753539 -0.1184315458 0.5780059695 4281156209
-0.2967233062 -0.1181668565 0.5798584819 4281222002
-0.2976713181 -0.1178980693 0.5817111135 4281222002
-0.2986193895 -0.1176251918 0.5835638642 4281024369
-0.2991190851 -0.1171725392 0.5845403075 4281155955
-0.3005157113 -0.1170671359 0.5872696042 4281484402
-0.3019125164 -0.1169557497 0.5899993181 4282076539
-0.3033095598 -0.1168383658 0.5927293897 4283062646
-0.3056042790 -0.1170587763 0.5972137451 4283917955
-0.3074506819 -0.1170984581 0.6008219719 4286614179
-0.3264797032 -0.1913955361 0.6393964291 4287205028
-0.3265599906 -0.1907320172 0.6395536661 4284112757
-0.3266400397 -0.1900680065 0.6397104263 4283257968
-0.3262801170 -0.1891485900 0.6390055418 4282731624
-0.3259197474 -0.1882304847 0.6382997632 4282337898
-0.3246790469 -0.1868074238 0.6358698606 4282074726
-0.3234374523 -0.1853892654 0.6334382892 4282009450
-0.3204343319 -0.1829706728 0.6275568008 4281614692
-0.3152281940 -0.1793119907 0.6173608303 4281614953
-0.3056156039 -0.1731790304 0.5985350013 4281614953
-0.3008433580 -0.1698201746 0.5891887546 4281614953
-0.2987120450 -0.1679670960 0.5850146413 4281549160
-0.2974608243 -0.1666162610 0.5825642347 4281417831
-0.2966495752 -0.1655163318 0.5809753537 4281352038
-0.2962785363 -0.1646646261 0.5802487135 4281220452
-0.2959070802 -0.1638142914 0.5795212388 4281220452
-0.2955352068 -0.1629653275 0.5787929296 4281155429
-0.2951628864 -0.1621177495 0.5780637860 4281089636
-0.2947901189 -0.1612715721 0.5773337483 4281023845
-0.2944169641 -0.1604267657 0.5766028762 4280892259
-0.2940433621 -0.1595833600 0.5758712292 4280826466
-0.2936693132 -0.1587413400 0.5751386881 4280760673
-0.2928531468 -0.1576629281 0.5735402703 4280695137
-0.2924781740 -0.1568246186 0.5728058815 4280629344
-0.2916608453 -0.1557517201 0.5712051988 4280629344
-0.2908428907 -0.1546820551 0.5696032643 4280629344
-0.2904664278 -0.1538497806 0.5688659549 4280563551
-0.2900895476 -0.1530189365 0.5681278706 4280497758
-0.2901545465 -0.1524218470 0.5682551861 4280563551
-0.2897769213 -0.1515929103 0.5675155520 4280497758
-0.2898413539 -0.1509959400 0.5676417947 4280497760
-0.2899055779 -0.1503985673 0.5677675605 4280497760
-0.2899695933 -0.1498008072 0.5678929090 4280563553
-0.2895905375 -0.1489748508 0.5671505928 4280563553
-0.2892110944 -0.1481503248 0.5664074421 4280497760
-0.2888312340 -0.1473272443 0.5656635165 4280497760
-0.2884509265 -0.1465055943 0.5649186969 4280497760
-0.2885134220 -0.1459095329 0.5650410652 4280497760
-0.2885756493 -0.1453130692 0.5651629567 4280563553
-0.2881942987 -0.1444939375 0.5644161105 4280563553
-0.2882559896 -0.1438976228 0.5645369291 4280563553
-0.2878738940 -0.1430804729 0.5637885928 4280563553
-0.2879350483 -0.1424843222 0.5639083385 4280498530
-0.2875522077 -0.1416691542 0.5631585717 4280498530
-0.2876127958 -0.1410731673 0.5632772446 4280498530
-0.2872292101 -0.1402600110 0.5625259876 4280432737
-0.2872892320 -0.1396641880 0.5626435876 4280432482
-0.2873490453 -0.1390679926 0.5627607107 4280432482
-0.2869643867 -0.1382574141 0.5620074272 4280564068
-0.2870236635 -0.1376613975 0.5621234179 4280564068
-0.2870826721 -0.1370650232 0.5622390509 4280498277
-0.2871414423 -0.1364682764 0.5623541474 4280498277
-0.2872000039 -0.1358711571 0.5624688268 4280629863
-0.2872583270 -0.1352736801 0.5625830293 4280629863
-0.2873164117 -0.1346758306 0.5626968145 4280564070
-0.2869294286 -0.1338700801 0.5619388819 4280629863
-0.2869869471 -0.1332724392 0.5620515347 4280696169
-0.2870442271 -0.1326744407 0.5621637702 4280761962
-0.2871012986 -0.1320760846 0.5622755289 4280827242
-0.2876033187 -0.1316812187 0.5632587075 4280827242
-0.2876600027 -0.1310812235 0.5633696914 4280958828
-0.2881618142 -0.1306828558 0.5643525124 4280958828
-0.2882181108 -0.1300812215 0.5644627213 4280958828
-0.2882741690 -0.1294792444 0.5645725131 4281024621
-0.2887756228 -0.1290760934 0.5655546188 4281024623
-0.2888312936 -0.1284724921 0.5656635761 4281024623
-0.2893325090 -0.1280658543 0.5666452646 4281155439
-0.2893877923 -0.1274606138 0.5667535067 4281221232
-0.2898887992 -0.1270504892 0.5677346587 4281287025
-0.2903897166 -0.1266381443 0.5687157512 4281221232
-0.2904444337 -0.1260299981 0.5688228607 4281090416
-0.2904988825 -0.1254215091 0.5689295530 4281090416
-0.2909994423 -0.1250044107 0.5699098110 4281024882
-0.2914998829 -0.1245850921 0.5708899498 4281090675
-0.2920002937 -0.1241635680 0.5718699694 4281156468
-0.2920540273 -0.1235509068 0.5719751716 4281156468
-0.2921074927 -0.1229379177 0.5720799565 4281222261
-0.2921607494 -0.1223245859 0.5721842051 4281222261
-0.2922137380 -0.1217109188 0.5722880363 4281222259
-0.2931602895 -0.1214672551 0.5741417408 4281156466
-0.2932129502 -0.1208510473 0.5742449164 4281090673
-0.2937124074 -0.1204177886 0.5752230883 4281090673
-0.2937646508 -0.1197999790 0.5753253698 4281090675
-0.2942638397 -0.1193632483 0.5763030648 4281024882
-0.2947629690 -0.1189243048 0.5772805214 4281090673
-0.2957093418 -0.1186626628 0.5791339874 4281090673
-0.2962083220 -0.1182183549 0.5801112652 4281222002
-0.2971547544 -0.1179494783 0.5819647312 4281222002
-0.2981012166 -0.1176764965 0.5838183761 4281024369
-0.2990477383 -0.1173994169 0.5856721401 4281221748
-0.2999943197 -0.1171182320 0.5875259638 4281615731
-0.3013887703 -0.1170068160 0.5902569294 4282207868
-0.3032313287 -0.1170623079 0.5938654542 4283062646
-0.3050742149 -0.1171099171 0.5974746943 4283917955
-0.3069174290 -0.1171496361 0.6010845900 4286416800
-0.3092091382 -0.1173515320 0.6055727601 4291351275
-0.3250290155 -0.1909604669 0.6379429698 4286810270
-0.3246702850 -0.1900416762 0.6372388601 4284046964
-0.3247499466 -0.1893801093 0.6373952031 4283192175
-0.3248293698 -0.1887180656 0.6375510693 4282665831
-0.3240303993 -0.1875472665 0.6359829307 4282337898
-0.3232307732 -0.1863795668 0.6344135404 4282008933
-0.3215519488 -0.1847103089 0.6311184168 4282009450
-0.3185538650 -0.1822934300 0.6252340078 4281614692
-0.3129171133 -0.1783853918 0.6141706109 4281614953
-0.3037606180 -0.1725031137 0.5961989164 4281680746
-0.2981171012 -0.1686480939 0.5851222277 4281614953
-0.3003871143 -0.1692772061 0.5895776749 4281614953
